# .PCD v0.7 - Point Cloud Data file format
VERSION 0.7
FIELDS x y z normal_x normal_y normal_z
SIZE 4 4 4 4 4 4
TYPE F F F F F F
COUNT 1 1 1 1 1 1
WIDTH 512
HEIGHT 1
VIEWPOINT 0 0 0 1 0 0 0
POINTS 512
DATA ascii
-0.001050676103 -0.05883848667 0.7792662978 -0.09946602583 -0.08471702039 0.9880085588
-0.01354828104 -0.05133994296 0.7631103992 -0.02499986812 -0.2797723413 0.9200729132
-0.01367997099 -0.04367217422 0.758061111 0.02742107958 -0.3646231592 0.8902114034
-0.008019890636 -0.05944127589 0.7734960914 -0.08745162934 -0.1424318701 0.9680616856
-0.1325613856 -0.1062058061 0.7167924047 -0.1785937101 -0.418002367 0.6225830913
-0.1148302332 -0.1042882204 0.6997427344 -0.1551201046 -0.8998874426 -0.04053751379
-0.1357895285 -0.1050929278 0.7248826027 -0.194195956 -0.2394691408 0.8443255424
-0.1261578798 -0.09991261363 0.7229834199 -0.1647305042 -0.380325377 0.7035896778
-0.1233439296 -0.1009231135 0.7147236466 -0.1430889666 -0.5600264668 0.4969758987
-0.1220096126 -0.09451074153 0.7378718257 -0.05787900835 -0.2269381881 0.9379658103
-0.129058212 -0.1473712325 0.7298160195 -0.315608561 -0.04594615847 0.9351187348
0.0280683022 -0.02482217178 0.7284473777 0.4462611079 -0.4510549009 0.7538858056
0.0211540442 -0.02947399206 0.7521474957 0.3968562782 -0.4471268058 0.7229375243
0.01286613289 -0.02521231398 0.753719151 0.3221849501 -0.5261851549 0.7292265892
0.01676521823 -0.03240594268 0.7596749067 0.2860216796 -0.3887747526 0.7914074063
0.01956735738 -0.04246773571 0.7684543729 0.2012708187 -0.2010789812 0.8941158056
-0.002721387893 -0.02525490522 0.7469260693 0.2440318614 -0.5753421187 0.7780054808
-0.03702320904 -0.06756264716 0.7298182845 0.2305522412 -0.3336708844 0.9136237502
0.02399424836 -0.08626935631 0.7771434188 0.09715586901 -0.1670953482 0.9769899845
0.02883232385 -0.09255447239 0.7751393318 0.158930406 -0.2027565688 0.9545770288
0.03039014898 -0.09562218934 0.7520894408 0.5916464925 -0.4491919577 0.3970346153
0.02754724585 -0.09565328807 0.7667135 0.2764632106 -0.2944785357 0.7620784044
0.001276200637 -0.0322830081 0.755774498 0.1808265448 -0.4551155865 0.8198052049
0.005178188905 -0.03822022304 0.7627732158 0.1367565244 -0.3592795134 0.8489147425
0.006952331867 -0.01924571581 0.7489961982 0.3208400011 -0.645239532 0.6923367381
0.005423697643 -0.05231060088 0.7739465237 0.004801802337 -0.1446975619 0.9582159519
-0.001374887303 -0.0445044823 0.7653251886 0.04859799519 -0.2846009433 0.9081224203
-0.01093317941 -0.0343924351 0.7544465065 0.08691888303 -0.4424022734 0.8622578979
-0.1488719434 -0.1162954047 0.7270025611 -0.2036384791 -0.1086888686 0.972931385
-0.1366817951 -0.1128087044 0.7193854451 -0.1607922465 -0.3050015569 0.6081244349
-0.1427810639 -0.1121388823 0.7252511978 -0.2018891871 -0.1553982347 0.8812046051
-0.1514149159 -0.1464782804 0.7248804569 -0.1676921844 -0.1719779372 0.9628939629
-0.13585338 -0.1512546241 0.7300853729 -0.3837061226 -0.1040894091 0.9109674692
0.03898863867 -0.0498277396 0.7145106196 0.4157603681 0.3303326964 0.8422140479
0.04359606281 -0.04271396995 0.7140113115 0.5711224079 0.334877342 0.7464727163
0.04873440042 -0.05313541368 0.7161908746 0.435806632 0.3557378948 0.82398808
0.03747899085 -0.05770365894 0.7296919823 0.3362073004 0.1958920062 0.8158575296
0.03901505098 -0.0508053489 0.7244209647 0.4143641591 0.1288412958 0.7872587442
0.03210688382 -0.04267640039 0.7299623489 0.42419523 -0.1266796887 0.7443271279
0.02764107473 -0.07709176093 0.7784408927 0.1420274526 -0.09959446639 0.9826495647
-0.1071671098 -0.1087789163 0.6970875859 0.05546119437 -0.9227623343 -0.3413316011
-0.01889779791 -0.1250741184 0.7215010524 -0.1960839331 0.1277877837 0.9669257998
-0.1219454631 -0.1026686206 0.7368350029 -0.1320081651 -0.1549138874 0.9764788747
-0.02306156419 -0.03244367242 0.7429491878 0.1398089379 -0.5233467221 0.8399939537
0.02447937988 -0.02625544369 0.7436109185 0.5278231502 -0.576597631 0.6208055019
0.02699478529 -0.0333439745 0.7378643155 0.49544397 -0.4603215754 0.6664085388
0.03838962317 -0.05727443472 0.743724823 0.4453462064 -0.07363596559 0.7234144807
0.03191646934 -0.04062470794 0.7483100295 0.5603042841 -0.50691396 0.622394979
0.03946546465 -0.05444394425 0.7574626207 0.5847127438 -0.3929769397 0.6144577861
0.03601853177 -0.04898170009 0.7510875463 0.5495679975 -0.3857337534 0.6371254325
0.03422318026 -0.04865233228 0.7412506342 0.4600431919 -0.2060829252 0.7054437995
0.03391740844 -0.05129193142 0.7325925231 0.3684797287 0.01297873724 0.7776353359
0.03030056506 -0.04035757482 0.7393804193 0.4788976014 -0.3431696892 0.6845434308
0.04188665375 -0.06583158672 0.741081953 0.3875134885 0.153529644 0.7758505344
0.04594293982 -0.05915612355 0.7516576052 0.5730090737 -0.1996825635 0.6530316472
0.05088874698 -0.05694990978 0.7253029346 0.4340516627 0.2320075333 0.7997669578
0.04926985875 -0.05765902251 0.7352522016 0.4868548512 0.06657222658 0.7443145514
0.04750271887 -0.05877104402 0.7434328198 0.5213543773 -0.05690467358 0.7031043768
0.04121602327 -0.05692816898 0.7679089904 0.5978289247 -0.4469980597 0.611391902
0.03448179737 -0.04731694609 0.762676239 0.4748213291 -0.3866668344 0.7029441595
0.02739145979 -0.04390320182 0.7648809552 0.2813032866 -0.2101810575 0.8617402911
0.03378404304 -0.05623026565 0.7758221626 0.1797456294 -0.03389665857 0.9772951603
0.02680345625 -0.03891019523 0.759283185 0.3399375379 -0.3033230603 0.8037428856
0.03155460581 -0.04992436618 0.7696188092 0.2407969385 -0.1353792697 0.9123629332
-0.02445431985 -0.04777310789 0.7363904715 0.153648138 -0.4912025332 0.8565778136
-0.01843501441 -0.03891814128 0.7509519458 0.07712254673 -0.4501477778 0.8622191548
-0.01412204187 -0.02877150849 0.7480847836 0.129819721 -0.530942142 0.8317373395
-0.129427135 -0.154758662 0.7331412435 -0.4264101386 -0.05525137112 0.9017756581
-0.1326108277 -0.1279293597 0.721848309 -0.1947569102 -0.216554895 0.7042678595
-0.1512714028 -0.1247607917 0.7269798517 -0.2039571851 -0.1076704785 0.9728504419
-0.1395460367 -0.1225312203 0.7218042612 -0.1892769337 -0.2276592702 0.7139103413
-0.1467173696 -0.1546461135 0.7203441262 -0.2267324775 -0.1995261312 0.9519784451
-0.006225726102 -0.06236213446 0.7466992736 0.1234847233 -0.3972219527 0.8459243178
-0.1075038984 -0.1011641324 0.699067533 -0.106508337 -0.9538067579 -0.03677412122
-0.09496703744 -0.1099876985 0.7069368958 -0.4115660191 -0.5801721215 0.3733565509
0.0507665053 -0.06720363349 0.720349431 0.3242119551 0.3978105485 0.8543684483
0.04042216763 -0.06519513577 0.72543329 0.2941009104 0.3896999061 0.8679638505
0.04115580395 -0.05901284516 0.7192627192 0.3461691439 0.3738744557 0.8590265512
0.04386695102 -0.07374072075 0.7276552916 0.4349111617 0.01464208495 0.2859894335
0.03701473027 -0.07094892859 0.7305335402 0.4717808366 -0.09859701991 0.1631196588
0.02990036458 -0.0452289097 0.7159571648 0.3987981677 0.1712733954 0.8974817991
0.02538565546 -0.03769033775 0.7183385491 0.4242961705 -0.3265009522 0.8139328957
0.01747104526 -0.106429182 0.7598445415 0.2988927066 -0.4787347317 0.5782149434
0.01407430321 -0.1102747992 0.7662076354 0.2628453374 -0.4163610041 0.7615073323
0.00616429979 -0.1139327735 0.7340420485 0.2246153653 -0.3904545009 0.4231626987
0.02526327968 -0.1015966088 0.741707027 0.7205607295 -0.6506302357 0.108484529
0.02167619392 -0.1035474092 0.7498996258 0.507635355 -0.5758797526 0.31645751
0.02375000715 -0.1007448658 0.7587319016 0.3538959324 -0.4149133563 0.5687113404
-0.1237171143 -0.1092758626 0.7082381248 -0.1179092899 -0.6136357784 0.1455685645
-0.1233307496 -0.1205359548 0.7328125834 -0.1791213006 -0.09400063008 0.9782149792
-0.1233661398 -0.1130392477 0.7336233258 -0.1710335016 -0.1580423117 0.9708542228
-0.02477499098 -0.03955715522 0.7393398881 0.1595830172 -0.5120782256 0.843141973
-0.02207414992 -0.05321270972 0.7587149739 -0.002213120228 -0.2874082923 0.92369169
-0.02610597573 -0.04477194697 0.750464499 0.07175801694 -0.3962768018 0.8880937099
-0.01920747571 -0.06101443246 0.7655460238 -0.06181101874 -0.1923269182 0.9548234344
-0.105937466 -0.09522584826 0.7168858647 -0.1634105146 -0.8137879968 0.4616969228
-0.1156838313 -0.09472946078 0.7244284749 0.01182829123 -0.6168686748 0.6390422583
-0.1137891859 -0.09692897648 0.717037499 -0.08135918528 -0.7034623623 0.5329884291
-0.1224892735 -0.09624147415 0.729665339 -0.05243355408 -0.4021214843 0.8001645207
-0.1146731004 -0.09915962815 0.7082234025 -0.1245880201 -0.7863559127 0.3246822655
-0.1073754504 -0.09288008511 0.7410665751 0.1641268134 -0.3021908998 0.9374544621
-0.006140124984 -0.0535228774 0.7267580628 0.300296098 -0.5977072716 0.7429220676
-0.01383144595 -0.05287174508 0.7305012345 0.2285608798 -0.5240646005 0.8198611736
0.01620050147 -0.02530835383 0.7373322845 0.4709421098 -0.6018481851 0.6385721564
0.01788803749 -0.01890256256 0.7438002825 0.4457234144 -0.604875505 0.6555033922
0.03223496303 -0.03240891173 0.7167140245 0.4026654065 -0.2824665904 0.8613494039
0.0391112566 -0.03568645939 0.7167071104 0.6039542556 0.185499832 0.704282701
0.03839875385 -0.0433090739 0.7217632532 0.5037842989 0.1236459985 0.7398337126
0.03427026421 -0.03580144793 0.7238435745 0.5392692089 -0.04420343786 0.6998106241
0.004822934512 -0.04610161111 0.7272076011 0.4094164073 -0.6128613949 0.6747591496
-0.09105032682 -0.1933811009 0.7466637492 -0.1993689984 0.2421536297 0.9435818195
-0.09850359708 -0.1977250725 0.7472215295 -0.3219712675 0.1562159956 0.9194477797
-0.04783220589 -0.07030224055 0.7314527631 0.2389774621 -0.3181519806 0.9167231917
-0.03165639192 -0.05203239992 0.7504354119 0.08080776036 -0.3582918942 0.9032722712
-0.02463978715 -0.06982877105 0.7666532993 -0.08229219168 -0.175600484 0.9629068375
-0.01722315326 -0.06698708236 0.7704359889 -0.1094143465 -0.1338552833 0.9735226035
-0.06217159703 -0.0833222568 0.731456697 0.2135752439 -0.2191313654 0.9512978196
-0.06148956716 -0.07604471594 0.7329259515 0.2273217887 -0.2743179202 0.9336044788
-0.07790399343 -0.07845257968 0.7389191389 0.2277146429 -0.3156061172 0.9209916592
-0.0705723539 -0.07182810456 0.7360621691 0.2359149009 -0.3021557927 0.9235476255
-0.06940609962 -0.07933312654 0.7350428104 0.220965758 -0.2786141634 0.9336646199
0.010682947 -0.08415935934 0.7349668145 0.586787343 -0.6564691663 0.2898295224
-0.005502972286 -0.06570093334 0.7285147905 0.3659499884 -0.5623939633 0.6523233652
0.002761001932 -0.06009783223 0.7285650969 0.4000196457 -0.6252580285 0.6054509282
0.007339963689 -0.06816211343 0.7309549451 0.4772285521 -0.6475035548 0.4783455133
0.007183281705 -0.0924603343 0.7351688743 0.5931286812 -0.5793193579 0.2903624773
-0.0002592285746 -0.08100511879 0.731867373 0.4815009832 -0.5557834506 0.4737795889
-0.01606713608 -0.06765967607 0.7256278992 0.2770601213 -0.4369058013 0.8102070689
-0.009312188253 -0.0819979012 0.7283936143 0.3825184703 -0.4315314889 0.6353653073
-0.01658759266 -0.07914208621 0.7256808281 0.2971177101 -0.3559241593 0.7758257389
-0.007340427488 -0.07468086481 0.7289577723 0.3875475228 -0.5043435097 0.6280576587
-0.01828697324 -0.08661090583 0.7253878713 0.2979007661 -0.286323607 0.7741516829
-0.003671823768 -0.08838272095 0.7315109968 0.4718688726 -0.4668600559 0.4911125302
-0.02505538426 -0.06488850713 0.7263541222 0.2285207659 -0.4131451249 0.8814288378
0.01799945906 -0.1034591794 0.7386885285 0.6712697744 -0.7375913262 0.03545791656
0.00153166044 -0.06759119034 0.7794997692 -0.1010884494 -0.1002797782 0.9893200397
-0.001588693005 -0.0750060603 0.7770367265 -0.1207273677 -0.1206600145 0.9850922823
-0.1277534068 -0.1623439491 0.7336870432 -0.4707032442 -0.06276459247 0.8783755302
-0.1288183481 -0.1321151406 0.732403934 -0.2109429389 -0.02273210324 0.9765864015
-0.1433935165 -0.1445406824 0.724086225 -0.2755284905 -0.1664688289 0.9459981918
-0.1387626678 -0.1352790445 0.7296586037 -0.2214644551 -0.07326318324 0.9711890221
-0.1460243016 -0.1329350173 0.7264458537 -0.2618111074 -0.1086506099 0.9585494399
-0.1395342052 -0.1274339706 0.7301135063 -0.2230734527 -0.05867062137 0.9728047848
-0.1518535316 -0.1380381584 0.7251182795 -0.1779543906 -0.1509267986 0.9694091082
-0.1605566293 -0.1483218372 0.7237772942 -0.0470598191 -0.200752154 0.9764436483
-0.1364476085 -0.1616670489 0.7296578884 -0.4658540487 -0.1367312819 0.8490222096
-0.144715786 -0.1597427875 0.7277385592 -0.3236473501 -0.1605906934 0.8851572275
0.04362715036 -0.07991731912 0.7321767807 0.6940895915 -0.278293103 0.1373674273
0.04380124807 -0.0717157796 0.7513759136 0.7960479856 -0.4046456814 0.2141918391
0.04649039358 -0.07153617591 0.7365174294 0.3293902278 0.2095048279 0.75896734
0.04398533702 -0.06811320782 0.7591968775 0.822042644 -0.4354233742 0.2697022557
0.03474353999 -0.06880050153 0.7772462964 0.2738917172 -0.1132930517 0.9403934479
-0.0005731288111 -0.1120592579 0.7709999681 -0.0394128263 -0.1498308182 0.9878953695
-0.1616587192 -0.1841268241 0.7138828635 0.05108349398 -0.06199266016 0.995008111
-0.1525690556 -0.1993830204 0.7136827707 -0.1003847495 0.04404771701 0.9873692393
-0.1578246802 -0.213306278 0.7144574523 -0.08339995146 0.1079353094 0.9889582992
-0.1482869387 -0.2102805078 0.7158976197 -0.1918933839 0.1441307366 0.9688745141
-0.09836731851 -0.1342717558 0.7326297164 0.09747163951 0.2012581527 0.9480122328
-0.09872364253 -0.1223793328 0.7160184383 -0.3443083465 -0.2128284127 0.6621364355
-0.1010902077 -0.1269202232 0.7222563624 -0.2207642049 -0.08249276131 0.7828146219
-0.1013294607 -0.1134935766 0.7005827427 -0.1884425133 -0.6696262956 -0.03401352093
-0.08155159652 -0.1810409129 0.749420464 -0.09470674396 0.3367637098 0.9348148704
-0.001783737214 -0.1206545979 0.7329533696 -0.09009385109 -0.09907191247 0.7500344515
0.008354747668 -0.1158024669 0.7449098229 0.2972293794 -0.4708775282 0.4255458415
0.0007084357785 -0.1206171215 0.7411651015 -0.003412016202 -0.1811713129 0.7208368182
0.002638411941 -0.121233575 0.7504705191 0.05895112827 -0.2395566404 0.7264790535
0.01494392566 -0.1102918163 0.7419219613 0.5663568377 -0.7314868569 0.1114791632
0.007306819316 -0.1172926351 0.761767745 0.166385904 -0.3358977139 0.7373543978
0.0122867357 -0.1127119884 0.7507668734 0.4125384688 -0.577760458 0.369898349
0.0103175249 -0.1145799533 0.7709134817 0.164312914 -0.311840415 0.9285185337
0.004505733494 -0.1203794777 0.7710851431 0.009087993763 -0.1866901815 0.9735506773
-0.008596709929 -0.125532046 0.7353820801 -0.2797921002 0.03530105203 0.9420597553
-0.008764029481 -0.1244506463 0.7261304855 -0.3016730845 0.1262516826 0.9436014891
-0.009919611737 -0.1277336627 0.7436463833 -0.2418358624 -0.03804964572 0.9427328706
-0.01181654818 -0.1306590289 0.7574378252 -0.2426619977 -0.2172753066 0.8887500763
0.03053157963 -0.08498828858 0.7373738289 0.7790575027 -0.5375685096 0.01629233174
0.02971977182 -0.06495170295 0.725137651 0.5307626724 -0.1156460419 0.4552001655
0.02722093277 -0.07644788921 0.7324720025 0.6732333899 -0.3706035316 0.3346357346
0.02729523554 -0.05792483687 0.72081846 0.4440280795 0.04755586758 0.74826473
0.02129632607 -0.06315170228 0.7265473604 0.5063337088 -0.2707633078 0.5806248784
0.01739264093 -0.05634246767 0.7238683105 0.4205160141 -0.2487728149 0.6991935372
0.009662823752 -0.05586382747 0.7267236114 0.4115254283 -0.4970596135 0.6440213919
-0.1291954666 -0.09937155992 0.7345018387 -0.1891973615 -0.1376952231 0.9716357589
0.03829175234 -0.07994167507 0.7505225539 0.6994680762 -0.4366973341 0.3007794023
0.04035337642 -0.07561149448 0.7632930279 0.5570591092 -0.3239898384 0.6050719023
0.04177878797 -0.08029206842 0.7418106794 0.7763935924 -0.4516736865 0.09255920351
0.03903917596 -0.08552304655 0.7361781597 0.845554471 -0.5214697123 -0.03055449575
0.03384496272 -0.08320097625 0.7746545672 0.2493811548 -0.1655612886 0.9417273998
0.03865874186 -0.07623518258 0.7723512053 0.4243108034 -0.2494391203 0.8373425603
0.03308821842 -0.08971112967 0.7570554018 0.5526189208 -0.3773066103 0.5119097829
0.03612676635 -0.08360470086 0.7612716556 0.558627367 -0.3592433631 0.586889565
0.04203700647 -0.06562725455 0.7727880478 0.3378898799 -0.1297827214 0.8537211418
0.02183682285 -0.03098957427 0.7235253453 0.5045274496 -0.5127009749 0.6939727068
-0.0005806633853 -0.0303487666 0.7414720058 0.2969413102 -0.5747212768 0.7516984344
0.005623148754 -0.03201531246 0.736112237 0.3800747395 -0.5711249113 0.7118352056
0.01219133474 -0.03400673345 0.7303116322 0.4692339301 -0.568402946 0.6684187651
0.01838538237 -0.02865287662 0.7305370569 0.5167235732 -0.5566119552 0.6478848457
0.01901521906 -0.04552293941 0.7214207649 0.4338135719 -0.3224923313 0.7730000615
0.01569451578 -0.03731639683 0.723459959 0.4820489585 -0.5476543307 0.6833043098
-0.09738270938 -0.1815972924 0.7448305488 -0.2080777436 0.1969757229 0.950722456
-0.09034685791 -0.1859528869 0.7483901381 -0.185177207 0.2617964149 0.9392066002
-0.1058441699 -0.1854671985 0.7432056665 -0.3087798953 0.1095201671 0.9443824887
-0.05332760513 -0.05823019519 0.745647788 0.1723599136 -0.3290278316 0.9145145416
-0.01122432109 -0.09852817655 0.7734265327 -0.05970893055 -0.1539997607 0.9858074188
-0.0522207208 -0.08530281484 0.727847755 0.2319497168 -0.1815181226 0.9556000829
-0.03075184114 -0.0769841522 0.7240588665 0.2038890272 -0.2329472005 0.9499428272
-0.04186588153 -0.07493914664 0.7277573347 0.2476483732 -0.2838978171 0.9261952043
-0.04922957346 -0.06315813959 0.7507886887 0.1243555024 -0.2816315889 0.9269808531
-0.05224883556 -0.06475226581 0.7411825061 0.1769168973 -0.3104616404 0.9233944416
-0.06419046223 -0.05970091373 0.7400883436 0.2435354888 -0.3450776339 0.9061174393
-0.06361415982 -0.06857090443 0.7359318137 0.2291719317 -0.29610762 0.9272354841
-0.001160824788 -0.08466800302 0.776460588 -0.107286498 -0.1494729072 0.9824444652
0.01131490432 -0.07917966694 0.7799398899 -0.04614531621 -0.1425626576 0.9882826805
0.002038564766 -0.08601154387 0.7653591037 0.1187547892 -0.2933847606 0.7188848257
-0.1725249141 -0.169399187 0.7216370106 0.1792716533 -0.1561834365 0.9685988426
-0.1572634578 -0.1668353975 0.7168339491 -0.0332323201 -0.1830278188 0.9809480309
-0.1515870839 -0.1802369654 0.7146982551 -0.1257298142 -0.09263498336 0.9778810143
-0.1471722573 -0.1735041738 0.7167401314 -0.2413894832 -0.1446126103 0.9522001147
-0.1176311672 -0.1476885676 0.733420372 -0.2529290617 0.07225952297 0.9547386169
-0.1153532565 -0.1554490477 0.7384834886 -0.2248540074 0.06672136486 0.9546951652
-0.1575896144 -0.1560990512 0.7194849253 -0.04793018475 -0.2363588959 0.969374299
0.03020665608 -0.09367965162 0.738713026 0.7976295948 -0.5970929861 0.07386506349
-0.01319849771 -0.1293431371 0.7685458064 -0.4468747675 -0.5497864485 0.6780664921
-0.1616359055 -0.2014474869 0.7141742706 0.01740032807 0.03431883827 0.9970979095
-0.1675907224 -0.1969830692 0.7162581682 0.09339601547 0.001813702052 0.9954637885
-0.1608695984 -0.192036286 0.7137036324 0.04894192144 -0.003636319889 0.9969095588
-0.1352204978 -0.2106308043 0.7238075733 -0.4782184958 0.1132713631 0.86721313
-0.05393595621 -0.1295722574 0.7197192311 0.05645971745 0.2199891359 0.9635949135
-0.06374001503 -0.129779011 0.7206447721 -0.03305382654 0.2444233745 0.9488174319
-0.07438877225 -0.1791518033 0.7477033734 -0.1026109233 0.3963735998 0.9113050699
-0.08488615602 -0.1712166518 0.7440884709 -0.01276268251 0.3069566786 0.9489393234
-0.08736152947 -0.128339678 0.7201190591 -0.2788206637 -0.00798482541 0.817953229
-0.09275625646 -0.1186180785 0.7117839456 -0.5503448248 -0.243380487 0.6994854808
-0.09233484417 -0.1322338283 0.727270782 -0.03083214909 0.1039473563 0.872410059
-0.08835653216 -0.1414450258 0.7336001396 0.1774207205 0.232457608 0.9443631768
-0.08213059604 -0.1324848831 0.7254552841 -0.08908307552 0.2251100242 0.9226064682
-0.07956391573 -0.121759817 0.7181537747 -0.3366603851 0.1798906922 0.9015651345
-0.0749155581 -0.1287218928 0.7231956124 -0.02163241617 0.2330026031 0.9333463311
-0.08148738742 -0.1491027474 0.7320399284 0.1428210884 0.2319658101 0.960254848
-0.07300449163 -0.1415395439 0.7289550304 0.1629544348 0.312330842 0.9351189733
-0.06545739621 -0.1531758606 0.7341990471 0.03365578875 0.3744858503 0.9257222414
-0.1181960478 -0.1269085109 0.7334912419 -0.1361749768 -0.03675495088 0.9889881611
-0.1079782546 -0.1293457597 0.7240927219 -0.01287261862 -0.1189966649 0.6312158704
-0.1111279055 -0.121249795 0.7112011909 -0.02978412621 -0.4900330305 0.1241420805
-0.1088720709 -0.1159216091 0.702413559 0.04291814193 -0.7165132165 -0.2123482227
-0.1299810112 -0.1392114013 0.7293908596 -0.2582959831 -0.04144670069 0.9563093781
-0.1187342182 -0.1185916662 0.7059777379 -0.07805745304 -0.642234385 -0.02216191217
-0.123693943 -0.123023048 0.7118359804 -0.12437132 -0.4848011434 0.2454731911
-0.1171799079 -0.1320479661 0.7279872894 -0.1578693837 -0.05072780699 0.7945958972
-0.1181595102 -0.1279855072 0.7212129235 -0.1356424093 -0.232788682 0.5478914976
-0.1199822351 -0.1396048367 0.7323849201 -0.2164824307 0.04683705047 0.9674082398
-0.02810309269 -0.1258248985 0.7197073698 -0.1625754237 0.1203176528 0.9773876667
-0.03259460256 -0.1318465769 0.720536232 -0.1190316081 0.2177378535 0.9594309926
-0.04307105765 -0.1239660531 0.7189731598 0.03338207677 0.0943852365 0.9883405566
0.01448280364 -0.09275633842 0.7752196789 -0.01286931895 -0.2007650137 0.979236424
0.007336473092 -0.08838795871 0.7767141461 -0.04600919783 -0.1763973832 0.9825839996
0.003218489932 -0.1001336426 0.7336867452 0.4549121857 -0.5313035846 0.3374068439
-0.01157983672 -0.096206218 0.7488543987 0.1228517368 -0.250731647 0.7728920579
-0.0002723030339 -0.09735524654 0.7436109781 0.3559719622 -0.4168281257 0.501815021
-0.00134371256 -0.0967252478 0.7570673823 0.2636401951 -0.3622844517 0.6035532951
-0.01978999376 -0.09572648257 0.7438442707 0.001379097695 -0.1565345824 0.9179713726
-0.02240017802 -0.09587670863 0.7347227335 0.003567039268 -0.1491309106 0.9199132323
-0.01519664377 -0.09673697501 0.7281924486 0.1693679094 -0.264495641 0.7285016775
-0.008946062997 -0.09590561688 0.7617641091 0.1005580723 -0.2471057624 0.7926799059
-0.004280022811 -0.09732943028 0.7359836698 0.3247614205 -0.3863623142 0.5422259569
-0.01052585617 -0.09659057111 0.7414708138 0.181952104 -0.2868591845 0.7071626186
-0.01780452393 -0.09516987205 0.7617831826 -0.05990982428 -0.1292267293 0.9810506105
-0.01059230044 -0.1111345589 0.7271483541 -0.06278534979 -0.1062301397 0.7993053794
-0.003765614005 -0.1062683687 0.730530858 0.1948594451 -0.3445232511 0.5483967662
-0.02317362465 -0.09857028723 0.7240409255 0.0007518835482 -0.1499788165 0.8896042109
0.009550360031 -0.1041733325 0.7360547185 0.5124754906 -0.6434415579 0.1868097782
-0.0299419798 -0.08493836224 0.7218362689 0.1850067973 -0.1679124236 0.9681718349
-0.06956961006 -0.09015208483 0.7277223468 0.03390421346 -0.3080337346 0.8843443394
-0.07894462347 -0.09024740756 0.7267197371 -0.05077150092 -0.416739136 0.8085536957
-0.003439911641 -0.1284989417 0.7677188516 -0.08812945336 -0.1614952385 0.9741843939
-0.004539296031 -0.1272615194 0.7573086619 -0.1461111754 -0.09207973629 0.9657939672
-0.07694017142 -0.1001167372 0.720723927 -0.2550969422 -0.4187258482 0.7843881249
-0.002105240244 -0.0991133973 0.7736515403 -0.04963826388 -0.1802130342 0.9820165038
-0.1357836127 -0.1093208268 0.7321779728 -0.2441852093 -0.1062592119 0.9638018012
-0.1316728145 -0.1165080816 0.7322930694 -0.2243705392 -0.1040849835 0.9681310654
-0.1311384737 -0.1245558336 0.7312135696 -0.2069550008 -0.05602453277 0.9765173197
0.002512794686 -0.06808499992 0.7444665432 0.2973814309 -0.451074183 0.6711822152
0.01468510646 -0.08239874989 0.7531593442 0.4493425488 -0.4018929303 0.4780339003
0.0009154342115 -0.07067267597 0.7540771365 0.1787496656 -0.3513751626 0.7541973591
-0.003581545316 -0.05807901919 0.7332786918 0.28404513 -0.543189168 0.7312210798
0.01638768241 -0.07837849855 0.7398773432 0.6036787629 -0.5381583571 0.3732532561
0.002308443654 -0.06481652707 0.7370308042 0.3617462218 -0.5238759518 0.6353232265
0.007639316842 -0.07800144702 0.7574874163 0.275464654 -0.3379466832 0.6400401592
-0.00494486047 -0.06748224795 0.7588012218 0.02380804904 -0.2870882154 0.8949753046
0.002089569112 -0.07738061994 0.7677401304 0.07568706572 -0.2200084329 0.8043552041
0.008330335841 -0.07127138972 0.7398232222 0.4507675171 -0.5144348145 0.5316798091
0.02077228576 -0.09433081746 0.74161309 0.7122929692 -0.6121255159 0.1455467641
0.01863844506 -0.08828934282 0.748205781 0.5862268806 -0.4933301806 0.3143661022
0.02146199159 -0.08401057124 0.7384347916 0.7199214101 -0.5797973871 0.242125541
0.01567121968 -0.07129649073 0.7331826687 0.5893453956 -0.6089267731 0.3727576137
-0.09371139109 -0.08467513323 0.7302452922 -0.004438118078 -0.4731968939 0.772587955
-0.09825011343 -0.09675170481 0.7136614919 -0.3961016536 -0.7540295124 0.4861567914
-0.09454926848 -0.09038901329 0.7229095101 -0.2201092243 -0.5743276477 0.663941443
-0.1012094021 -0.08663538843 0.729424119 0.05252459273 -0.6553747654 0.64540869
-0.09095199406 -0.09498402476 0.7175376415 -0.3871155381 -0.6290740967 0.6025609374
-0.08547703177 -0.09169421345 0.7219824195 -0.2676018775 -0.5423467755 0.690993011
-0.1003074944 -0.1008525193 0.7054226398 -0.2857330143 -0.8115009069 0.2620778084
-0.09040977061 -0.1028101444 0.7132654786 -0.4735806584 -0.6166025996 0.5745622516
-0.1152374819 -0.1181304082 0.7351291776 -0.09822575748 -0.08812522888 0.9885023236
-0.1084050387 -0.08753910661 0.7334915996 0.1537967622 -0.6741701961 0.6652340293
-0.1086775586 -0.09153969586 0.7264462709 0.02150295116 -0.7172131538 0.5908195376
-0.08709164709 -0.07679786533 0.7402182817 0.245269835 -0.3649323881 0.8957211375
-0.003246797947 -0.04356940091 0.7317916155 0.3253211975 -0.6112887263 0.7108582258
-0.01616033353 -0.03792043403 0.738953352 0.1533387303 -0.5627089739 0.8105777502
-0.009047991596 -0.031890288 0.7427095175 0.2051928043 -0.5655096173 0.7947554588
-0.003620152827 -0.03666708991 0.7375435829 0.2937747836 -0.5894133449 0.7390444875
-0.1245806441 -0.1998940408 0.7311552763 -0.5943943858 0.009391681291 0.8033331037
-0.05061572418 -0.05277997628 0.7388174534 0.2052655965 -0.3854423761 0.8992908597
-0.04395802319 -0.04505436867 0.7404972315 0.1880406439 -0.4213907421 0.8868972063
-0.04591813311 -0.05307376012 0.7455709577 0.1460712403 -0.3555867076 0.9089769125
-0.03924246877 -0.05947448313 0.7530139685 0.06604486704 -0.2886246741 0.9295315146
-0.03063894622 -0.06063221768 0.7574980855 0.01038513798 -0.2699639499 0.9334760904
-0.0359508954 -0.04411749542 0.7424778342 0.1598139554 -0.4466876984 0.8749024272
-0.009378219955 -0.06987030059 0.7763885856 -0.1297717094 -0.09342041612 0.9868234396
-0.007866146974 -0.07294470072 0.7684471607 -0.0773633644 -0.165709272 0.9642393589
-0.01189566217 -0.07031735778 0.7578951716 -0.001872177934 -0.2339603603 0.9364708662
-0.01339102536 -0.06436556578 0.7387769818 0.1556202024 -0.3814369142 0.8788903952
-0.04701660201 -0.08215340227 0.7435867786 0.1198497042 -0.1964626014 0.9592770338
-0.05262093991 -0.08236330748 0.7368441224 0.17118451 -0.203765586 0.9553349614
-0.03309838474 -0.0758356005 0.7609549761 -0.01570793241 -0.1904795617 0.963526845
-0.02599227987 -0.07752525806 0.7688430548 -0.09651643783 -0.1399190575 0.9776420593
-0.03952547163 -0.07827418298 0.7524719238 0.05898226425 -0.2169743776 0.9561213851
-0.04759029299 -0.0703054294 0.7441057563 0.1394192427 -0.2813139856 0.9354383945
-0.03840491548 -0.08692736179 0.7244822979 0.2111936212 -0.1616558582 0.963776052
-0.03805340081 -0.0946611166 0.7234132886 0.2234232873 -0.1381130666 0.9648230076
0.0112609053 -0.05670922995 0.7795737982 0.02141722105 -0.05781041086 0.9965959191
0.01342172921 -0.06453578919 0.780046463 0.02600670233 -0.06545845419 0.9969727397
0.02184985019 -0.0536615774 0.7780106664 0.120795995 -0.01993724145 0.9887026548
0.009057496674 -0.03141783923 0.7592054605 0.2290275991 -0.451533556 0.7912551761
0.01147109829 -0.04835983366 0.7731416821 0.09860894829 -0.1830207855 0.9304059148
0.01985916123 -0.07390627265 0.7802867889 0.04993731901 -0.09890222549 0.9918539524
-0.1653002799 -0.15508838 0.7229828835 0.03130808473 -0.2195062637 0.974994719
-0.1643243283 -0.1633445323 0.7190674543 0.05204973742 -0.2017837018 0.9756541848
-0.1232937798 -0.1761054695 0.7348294258 -0.5255446434 -0.05448295176 0.8472123146
-0.0824111551 -0.1792068034 0.7413132191 -0.07328569144 0.3257968426 0.9399864078
-0.1414625198 -0.1949320585 0.7174592018 -0.3954638839 0.01568228751 0.9132199287
-0.1407795399 -0.1864580214 0.7178071737 -0.4389610887 -0.06164408848 0.8868594766
-0.1745728105 -0.1974135637 0.7218860388 0.1102113351 -0.009857813828 0.9863280058
-0.1679004878 -0.2038181871 0.7209014297 -0.0316115655 0.01592014357 0.9753453732
-0.1680205166 -0.2131525278 0.7201387882 -0.02462295443 0.04449608922 0.9932376742
-0.1568497866 -0.1999282092 0.7204969525 -0.2127850652 0.008773699403 0.936882019
-0.1447988451 -0.2029505521 0.7209035158 -0.3788327575 0.04873367399 0.9038660526
-0.154067114 -0.2133148909 0.7213137746 -0.210512042 0.08807557821 0.947331965
-0.1534056515 -0.1604037434 0.7252790332 -0.1806109846 -0.1844898462 0.9158697724
-0.1419795901 -0.1627466232 0.7208065391 -0.3701537251 -0.2210596353 0.9016677141
-0.1397102624 -0.1719381809 0.7197708488 -0.4646363556 -0.1690382212 0.866689682
-0.1435086131 -0.2137308419 0.7210517526 -0.3093975782 0.1571605504 0.9266954064
-0.05942836031 -0.1590460092 0.7370935082 0.001210020622 0.4161809683 0.9084290862
-0.07790437341 -0.1568037271 0.7339746356 0.1012613624 0.2810190618 0.9528026581
-0.05705114827 -0.1415192783 0.7257469893 0.08565618098 0.3942905664 0.9131144285
-0.05130661279 -0.137278527 0.7227054238 0.07330019027 0.3436891139 0.9320777059
-0.08635985851 -0.1328838617 0.7338654995 0.2648912072 0.2938628495 0.9178301096
-0.09838914126 -0.1487850845 0.7353758812 0.02439123951 0.1599877328 0.9840070605
-0.07922635227 -0.1613456458 0.7404145598 0.0257841181 0.3029815257 0.9446614981
-0.02494694106 -0.1181661189 0.7665792108 -0.3218904436 -0.432169199 0.7475444078
-0.07630521804 -0.1348493099 0.7316328883 0.2200619876 0.3114055991 0.9172635078
-0.04795085639 -0.1322186738 0.7292174101 0.07985524088 0.1790364087 0.9519978166
-0.05993074924 -0.1318324208 0.7299920321 0.1383426785 0.2006522715 0.9398820996
-0.05437788367 -0.1264089197 0.7287129164 0.108424373 0.06228547543 0.9550732374
-0.03445262462 -0.1283555776 0.7478533387 -0.2089621425 -0.1721565723 0.7819295526
-0.0433226712 -0.1293740571 0.7351135612 -0.01726991683 0.02655521967 0.8985900283
-0.02618304826 -0.1241730154 0.7613797188 -0.4131051302 -0.4561087787 0.6580876708
-0.03886195645 -0.1197325215 0.7461767793 -0.1854729205 -0.352060467 0.7973427773
-0.04467343539 -0.120458968 0.7377997041 -0.05941467732 -0.2200624198 0.8740523458
-0.02884284966 -0.1022784635 0.7211301327 -0.07007084787 -0.06028683856 0.9929726124
-0.02302984148 -0.1135062873 0.7207618952 -0.1501037329 0.01911691949 0.9818867445
-0.01408540178 -0.119359374 0.7240954041 -0.2458198369 0.07586402446 0.9586955309
-0.06233530119 -0.09276147932 0.7303981185 0.1588869542 -0.1734258085 0.9713366032
-0.07800666988 -0.08925057203 0.7352078557 0.1109833196 -0.3632108271 0.9167510867
-0.0381029658 -0.103421174 0.720985949 0.1858885586 -0.1119370386 0.9743075371
-0.03774809465 -0.1115723103 0.7206593752 -0.0228279233 -0.05338319018 0.9943689704
-0.06494827569 -0.1082323194 0.721634984 -0.1372136176 -0.2022629827 0.9023265243
-0.05590512604 -0.1127649471 0.7196912169 -0.02776651084 -0.145504564 0.9354022145
-0.06916408986 -0.128169328 0.7300328612 0.1810248047 0.1402050555 0.936436832
0.008125142194 -0.0966226235 0.774230957 -0.02978518605 -0.2039166242 0.9783688784
0.005940436386 -0.1049875095 0.7727383375 -0.04748731479 -0.1766685396 0.9826077819
0.02068504877 -0.1008216292 0.7740066051 0.006759243086 -0.2211102992 0.9752091765
-0.1099452823 -0.09978802502 0.7401744723 0.07907129079 -0.2282242626 0.951345861
-0.1048789099 -0.1154885739 0.7356595397 0.244605124 -0.02593423426 0.9589986801
-0.0852554515 -0.08117332309 0.7315138578 0.04517160356 -0.4311153293 0.8100198507
-0.09035347402 -0.08852854371 0.738892138 0.2249105573 -0.4381266832 0.8644198179
-0.1234380007 -0.2088532448 0.7329284549 -0.5643087029 0.03638769314 0.8227382302
-0.1107580811 -0.2036089152 0.7424592376 -0.4613482952 0.06106066704 0.8818924427
-0.02702203207 -0.05489138141 0.7334089875 0.2004400343 -0.4392891824 0.8756421804
-0.03365141898 -0.05222203955 0.7359278202 0.2053240389 -0.435318172 0.8763780594
-0.04088425636 -0.05811586231 0.7346695065 0.225269556 -0.3985101581 0.8889261484
-0.01107975468 -0.08510644734 0.7747254968 -0.1252158284 -0.1335410476 0.9829990268
-0.00530404225 -0.09206364304 0.7746577859 -0.08786509186 -0.172665149 0.9805593491
-0.0181517601 -0.0832478106 0.7616919279 -0.05122075975 -0.1460702419 0.9776130319
-0.02234488539 -0.0806177333 0.7458524704 0.04906239361 -0.1790708005 0.9680344462
-0.02448632009 -0.07830092311 0.7379374504 0.1024740487 -0.203508541 0.9611458182
-0.02010284364 -0.08419762552 0.7733502388 -0.1169810295 -0.1294165105 0.984588325
-0.01673232019 -0.07681073248 0.7737470269 -0.1393245012 -0.1088847741 0.9840861559
-0.006295063999 -0.08763289452 0.7676053643 0.03861393034 -0.2377609164 0.806163609
0.006424224004 -0.09284928441 0.7549744844 0.349229902 -0.4425534308 0.4733428061
0.009703088552 -0.0976189971 0.7483232021 0.5090305209 -0.5351433754 0.3172032833
-0.02512778528 -0.07408409566 0.7299335003 0.1659886539 -0.2596797645 0.9397794604
-0.01978966966 -0.06905990094 0.7326815128 0.1766990125 -0.3475399911 0.8983288407
-0.01577392034 -0.07334441692 0.7514860034 0.04792141169 -0.2809577286 0.9205168486
-0.01597962901 -0.06777503341 0.7451602817 0.09297632426 -0.3201046586 0.9025530219
-0.02305351198 -0.09619941562 0.7722945213 -0.07171183825 -0.1323113441 0.9885940552
-0.02013094723 -0.09380936623 0.7545055747 -0.03641884774 -0.127768144 0.9875384569
-0.02797544934 -0.09204515815 0.7258607745 0.01741639525 -0.1211387813 0.9857679009
-0.0258686468 -0.08696896583 0.7317133546 0.1136971563 -0.1580590755 0.9745002985
-0.02300717309 -0.08817045391 0.7424360514 0.07693169266 -0.1552653611 0.9767179489
-0.04204293713 -0.08961137384 0.7501410246 0.07823120058 -0.161730811 0.9722405076
-0.02927296422 -0.08709575236 0.7655017376 -0.04565408453 -0.1427965313 0.9810849428
-0.03407997638 -0.0867671147 0.7596926093 -0.002364238491 -0.1501373649 0.9772688746
-0.0519413352 -0.0917153433 0.7376954556 0.1343558133 -0.148194775 0.9745681286
0.02201472409 -0.06576626003 0.7803022861 0.1296676695 -0.04315282777 0.9877102375
0.0306867566 -0.06327848136 0.7800090313 0.1767109632 -0.02547419071 0.9839330912
-0.1133796796 -0.1647066474 0.7387159467 -0.2280158401 0.07317891717 0.9673675299
-0.12651214 -0.1681122929 0.7283594012 -0.4280940294 -0.04607233405 0.8789306879
-0.1328254938 -0.1707309932 0.7243150473 -0.509724021 -0.1223616824 0.8410387635
-0.1357914358 -0.1796705425 0.7207820415 -0.5384978652 -0.1192426905 0.8324975967
-0.1539232731 -0.1742196381 0.7226205468 -0.1465522647 -0.1289396584 0.9247338772
-0.1618418545 -0.1727746874 0.7216317654 -0.001505112508 -0.1408715099 0.9519296288
-0.1412504911 -0.1689246893 0.7278013229 -0.3907126486 -0.1326114982 0.8537304401
-0.1366855353 -0.1996880472 0.7206632495 -0.4852198362 0.04119610786 0.8709298372
-0.1312565804 -0.1913979948 0.7234911323 -0.5791908503 -0.03380360827 0.8124412894
-0.01817421429 -0.1321319789 0.7267888784 -0.225689441 0.1426392496 0.9204497337
-0.01606697403 -0.1318757832 0.7502212524 -0.3907629848 -0.2712965906 0.7354100943
-0.02098653466 -0.1354679912 0.7412729859 -0.3275235593 -0.02481029555 0.7952977419
-0.02423546836 -0.1371777058 0.7252373099 -0.2144686729 0.297285527 0.9171963334
-0.02452170663 -0.1380239129 0.7344546318 -0.2793468833 0.1584212631 0.8414897323
-0.03288450465 -0.1386211067 0.7246416807 -0.1413857937 0.3496760726 0.9164228439
-0.04078872502 -0.1347202957 0.7223950028 0.004102702253 0.3059198558 0.9456140995
-0.01236357633 -0.1078186482 0.7722580433 -0.03614672646 -0.1391654164 0.989551127
-0.02344933152 -0.109261699 0.7715255618 -0.04519717023 -0.1318726689 0.9901666045
-0.01477157511 -0.1180177405 0.7701628804 -0.1977408528 -0.3075678349 0.8885782361
-0.09258582443 -0.1117199212 0.7354947925 0.2350620627 -0.07280021161 0.88315171
-0.08869320899 -0.1254512221 0.7337219715 0.2612310946 0.2472354621 0.9257974029
-0.100323014 -0.12520881 0.7343320847 0.1866677403 0.2773830593 0.9409688115
-0.09877441823 -0.103515707 0.7366111279 0.3035554588 -0.2485840321 0.8741663098
-0.09856102616 -0.1392348707 0.7386572957 0.1037707403 0.1924557388 0.97228688
-0.1071152091 -0.1292245239 0.7342681885 0.06628806889 0.1907328367 0.9663311839
-0.1081287414 -0.1504878998 0.7383495569 -0.1090212688 0.1245047301 0.9804125428
-0.1113344058 -0.1427676678 0.7356639504 -0.1505153626 0.113361463 0.9764332175
-0.09044006467 -0.1472213566 0.7390995622 0.09656482935 0.2000271976 0.9696534872
-0.08480312675 -0.1526127011 0.7399274111 0.05480156466 0.2433085144 0.960570097
-0.09595406055 -0.1620666683 0.7410778999 0.02866580151 0.1765360236 0.9826010466
-0.08649013191 -0.1642145514 0.736117959 0.0403120406 0.2245877534 0.9728608727
-0.04157651961 -0.1414337456 0.7267568111 -0.03931685537 0.4019218087 0.9049717784
-0.06594292074 -0.1377762705 0.7312675118 0.1638050526 0.3399118781 0.9219591618
-0.06490600854 -0.146165207 0.730268836 0.09570813924 0.3646351695 0.9257796407
-0.05335092172 -0.1544494182 0.7346736789 0.01440175716 0.4285426736 0.9031196833
-0.02965279296 -0.1095742956 0.7650632858 -0.02878513373 -0.1499903053 0.9869074225
-0.03728242591 -0.1072651148 0.7561822534 -0.01111034211 -0.1705174595 0.9826509953
-0.05473127216 -0.104049623 0.7356444001 0.03637877479 -0.2228987962 0.9723979235
-0.03868957609 -0.09694290906 0.7543179989 0.00379664381 -0.1586961597 0.9814289212
-0.04647907615 -0.09433209151 0.7444753051 0.0782751739 -0.1480118334 0.978801012
-0.04817215726 -0.1049093977 0.7434263825 0.01639472321 -0.2022703141 0.9763763547
-0.03282902762 -0.09916510433 0.7615893483 -0.03988472372 -0.1583518237 0.9840182662
-0.06062799692 -0.1115019545 0.7281016111 0.06587640196 -0.2039778978 0.9761208892
-0.05178845674 -0.1142110154 0.7315844297 0.08666428924 -0.1951552331 0.9757107496
-0.04348305985 -0.1101522818 0.7472952604 0.02152854577 -0.1882402748 0.9792304039
-0.08707141131 -0.1048482955 0.7335977554 0.08368230611 -0.354517132 0.8405963778
-0.08662290871 -0.09625273198 0.7342579961 0.02182603069 -0.5257288218 0.8218024373
-0.05737190694 -0.1042030528 0.7263344526 0.1102867573 -0.1852485836 0.9506021142
-0.07416177541 -0.1080712825 0.719355464 -0.3524648547 -0.2372740805 0.854757309
-0.04933446646 -0.1068666503 0.7232288718 0.1779581606 -0.1196128502 0.9754205942
-0.05450603366 -0.0939969942 0.7276192904 0.2036827356 -0.1591194123 0.9656563997
-0.04577214271 -0.09217145294 0.7261808515 0.2347919941 -0.1483648121 0.96051085
-0.09900464863 -0.09395188838 0.7384427786 0.266133517 -0.4497689605 0.8504063487
-0.0813895762 -0.113080442 0.7157575488 -0.539857924 -0.1389991492 0.8247485757
-0.0519866161 -0.1215757653 0.7206304669 0.1059452146 -0.001115206047 0.9758418798
-0.062146727 -0.120681107 0.7202665806 -0.1048986837 -0.02496997826 0.9256545305
-0.06682008505 -0.1148047522 0.7175247073 -0.303360343 -0.1444174051 0.8754770756
-0.1174179167 -0.2009561956 0.7345405817 -0.5634106398 -0.0205044467 0.8254299164
-0.1126990467 -0.1947446316 0.7419201732 -0.4549259245 0.02175245062 0.8890322447
-0.1046968848 -0.1974003911 0.7412380576 -0.3902933002 0.08089736849 0.9058052897
-0.1144090667 -0.1857168972 0.7402268052 -0.4369739592 0.03172124177 0.8977687359
-0.1231516227 -0.1859053075 0.7340890765 -0.5833774805 -0.04508064687 0.8096238375
-0.1093155742 -0.1800712198 0.7377963066 -0.2732992768 0.08248532563 0.9342312217
-0.1168339849 -0.1931280345 0.7349729538 -0.5207051039 -0.01372415759 0.8448147774
-0.1048771366 -0.1657077968 0.7388638854 -0.07558517903 0.1124021262 0.9879313111
-0.1034414545 -0.1566279083 0.7386911511 -0.03413197771 0.1504323184 0.9859089255
-0.1096770465 -0.1717815846 0.7372530699 -0.2024270147 0.08353155106 0.9531285167
-0.1313868314 -0.181794405 0.7285816073 -0.5555331707 -0.06501206756 0.825583756
-0.1483673453 -0.19041273 0.7196653485 -0.3043012917 -0.02410792746 0.9026471972
-0.1560972929 -0.1892852783 0.7191659212 -0.1226936579 -0.03248489276 0.9256170392
-0.1653019935 -0.1768125445 0.7162407041 0.1109291986 -0.1067974269 0.9873239398
-0.1702039987 -0.1839945465 0.7178660035 0.2000440359 -0.06863129139 0.9759418964
-0.06645547599 -0.1724055558 0.7436261177 -0.07628818601 0.4380830228 0.8951104879
-0.07416883111 -0.1710153967 0.739097178 -0.02514878102 0.3707270622 0.9276719689
-0.06520140916 -0.1647164822 0.7401433587 0.001973869745 0.4076654613 0.912754178
-0.09059406817 -0.1767735928 0.746775806 -0.0874536708 0.2608855665 0.9549745917
-0.1032075062 -0.1762537658 0.7407171726 -0.1884380728 0.152227208 0.9670647383
-0.09091345966 -0.1718239188 0.7387161255 -0.0274832733 0.2833077908 0.9570296407
-0.02204850502 -0.136687994 0.7575929761 -0.3779020011 -0.2885373235 0.682877183
-0.03803905472 -0.1469319761 0.7434360981 -0.1371653527 0.1739352942 0.8075810671
-0.01828474924 -0.134142071 0.7635175586 -0.4435487688 -0.4578275979 0.6361053586
-0.02003828622 -0.1256733835 0.7673131227 -0.502161622 -0.5786874294 0.6033011079
-0.04402881488 -0.1515648961 0.7369087338 -0.03752138466 0.3794012666 0.8633494973
-0.03418524936 -0.1387279928 0.750669539 -0.247943908 -0.05449018255 0.745580852
-0.03104026243 -0.1331746727 0.7556134462 -0.3237431645 -0.2161224782 0.7036965489
-0.03752443194 -0.136372149 0.7424809337 -0.1261360943 0.06295269728 0.8272601962
-0.02700343914 -0.1397801787 0.7445420623 -0.2789291143 0.04601748288 0.7785562873
-0.03340580687 -0.1439869106 0.7340505123 -0.1664134264 0.3448703587 0.8608736396
-0.04719428346 -0.1479032189 0.7309587002 0.02618802525 0.446018219 0.894221127
-0.07897554338 -0.09776113927 0.7325378656 -0.06672310084 -0.4579889476 0.8664371967
-0.09675882012 -0.07968126982 0.7409396172 0.2748139799 -0.4787807465 0.8322823644
-0.06954521686 -0.1132398099 0.7283577323 0.03132744506 -0.1957727373 0.9549634457
-0.08060477674 -0.1254516989 0.7314583659 0.232635051 0.1792454422 0.9401128888
-0.08113321662 -0.1178296357 0.7318641543 0.1348508447 -0.01129000355 0.9177835584
-0.06475152075 -0.103054978 0.7301546335 0.02037625015 -0.282589525 0.9498551488
-0.07293940336 -0.1024806723 0.730196774 -0.08273118734 -0.3927465975 0.9076366425
