# .PCD v0.7 - Point Cloud Data file format
VERSION 0.7
FIELDS x y z normal_x normal_y normal_z
SIZE 4 4 4 4 4 4
TYPE F F F F F F
COUNT 1 1 1 1 1 1
WIDTH 512
HEIGHT 1
VIEWPOINT 0 0 0 1 0 0 0
POINTS 512
DATA ascii
-0.1056953818 0.04805577919 0.8488968015 0.1725202203 0.5436084867 0.8188894987
0.07813533396 0.05640142411 0.8109964728 0.08894556016 -0.1183193177 0.8742326498
0.08076484501 0.05644056946 0.8032477498 0.3660641313 0.05254001543 0.9255239367
0.07881888002 0.04122306034 0.8086022139 0.4717269838 0.1866495311 0.8608196378
-0.09454385936 0.116137743 0.8073459864 -0.4473639429 0.004052289296 0.5191279054
-0.08046200871 0.1123056114 0.7943460941 -0.6381660104 -0.3801688254 0.04717549309
0.08097529411 0.09083470702 0.8426488042 -0.5268144011 -0.6692713499 0.4294662476
0.08072482049 0.08148096502 0.826862216 -0.3636351824 -0.574773252 0.6886428595
0.07209716737 0.06236121804 0.8059237599 0.1588628888 -0.08947069198 0.9624145627
0.06571482122 0.05678032711 0.8100405931 0.2584137022 0.08477735519 0.9588329196
0.07000530511 0.04863324389 0.8096364141 0.4218177497 0.1607089788 0.8877748251
0.07265602052 0.04413163662 0.8299641609 0.3604885042 0.1260994524 0.8940535784
0.07269113511 0.04459537938 0.8210126758 0.4210265577 0.1605129391 0.8737658858
0.07005435228 0.04216540232 0.8377763629 0.2984031737 0.1328426003 0.9148513675
0.07062491775 0.03478860483 0.817967236 0.4777017236 0.1929626167 0.8498034477
0.0689702481 0.04398065433 0.845333457 0.2292495817 0.1218127161 0.9396464229
0.07386761159 0.05546530709 0.8406952024 0.06342712045 -0.04414576292 0.9453866482
0.07620336115 0.06095207855 0.8347364068 -0.08748083562 -0.1781550944 0.941239059
0.07334974408 0.05148233101 0.8332225084 0.2010455281 0.03692000732 0.9186397195
0.07922968268 0.06438098103 0.8153181672 -0.1444487125 -0.2834720016 0.8990626335
0.07229220867 0.05382301286 0.8512572646 0.08771055192 0.008030177094 0.9687693119
0.07604893297 0.05603468418 0.8206526041 0.09398170561 -0.08474746346 0.8959642649
0.06988616288 0.04622023925 0.8576672077 0.1312150955 0.07309836149 0.9755945802
0.05896382034 0.0492489934 0.8184269071 0.2198939025 0.09807887673 0.9162214994
0.08013481647 0.07387366891 0.8269014359 -0.4214820862 -0.4166558385 0.5556966662
0.0778735429 0.07152350247 0.8406581283 -0.378088057 -0.3335856795 0.5271111131
0.07503299415 0.06567952037 0.8527539968 -0.239441812 -0.1989047378 0.6370862126
0.0757047087 0.06372923404 0.8439190984 -0.1752767116 -0.1958026737 0.779183805
0.07798199356 0.06451263279 0.8272260427 -0.1729088426 -0.262853086 0.8878506422
0.07988671213 0.08134127408 0.8422622085 -0.6414928436 -0.4885708988 0.1628284901
0.05002079532 0.03909314796 0.8274351954 0.1961258948 -0.4703233838 0.4948603809
0.05702495202 0.06125746667 0.8154406548 0.06182829291 -0.257098943 0.9092339873
0.06798882037 0.05380245671 0.8665854335 0.07456142455 0.03437789902 0.9966236949
0.04684540257 0.03182723373 0.8316810727 0.2092230469 -0.7038223147 0.2822815776
0.04514922947 0.03413210437 0.8548606038 0.07645460218 -0.4339198172 0.6019661427
0.04832046479 0.03802536055 0.8708215356 0.0197177548 -0.01453445759 0.969827354
0.03833089769 0.0303626582 0.8433175087 0.06012303755 -0.7558360696 0.3778603673
0.04324167967 0.07768853009 0.8199722767 -0.128058672 -0.579421401 0.7736425996
0.05040754378 0.06444814801 0.8297261 -0.06484444439 -0.7292365432 0.5292788744
0.04730325937 0.07165431976 0.8251063228 -0.1024910137 -0.6516447663 0.6555934548
0.04235702008 0.05825120583 0.8244201541 0.01119969878 -0.7428027987 0.5106689334
0.04865588993 0.0549742952 0.830751121 0.008409952745 -0.8023215532 0.4121918678
0.05062606558 0.0836077705 0.824776113 -0.1994511336 -0.5649487972 0.7939827442
0.04344735295 0.0823238492 0.8314493299 -0.1713143736 -0.3756858408 0.8452346921
0.03231794015 0.08087138832 0.8517299891 -0.1395386606 0.05477393419 0.9392775893
0.03813641518 0.08139431477 0.8391890526 -0.1528944373 -0.1986027807 0.8854129314
-0.1407027543 0.07881813496 0.8171824813 -0.4921942353 0.4028804898 0.7701460719
-0.1668510884 0.06962481141 0.814547658 -0.1715712398 0.4750561714 0.8612117767
-0.1758635938 0.05944974348 0.8205476403 -0.1124405414 0.5008446574 0.8549572825
-0.1750582606 0.07222617418 0.8094153404 -0.02829753421 0.4146901965 0.9088926911
-0.180586651 0.06716720015 0.8138703704 -0.02371821739 0.449210912 0.8928310275
-0.146717459 0.05011439323 0.8342301846 -0.3844343126 0.4569066167 0.8000856638
-0.1393844932 0.04619456455 0.8386071324 -0.4161735773 0.3697413802 0.8303019404
0.03106250986 0.02853595652 0.8360729218 0.04248252884 -0.9407175779 0.2441428453
0.03012234159 0.03069723397 0.8468606472 -0.003324384335 -0.6339097023 0.4734402895
0.0227554068 0.03362193704 0.8616130948 -0.08961489052 -0.201023832 0.7931902409
0.07148785889 0.08499658853 0.8521676064 -0.3308541477 -0.3978659213 0.6506766081
0.07622472197 0.07629151642 0.8139131665 -0.2114196718 -0.5840664506 0.7757973075
0.06659890711 0.04112889245 0.8155194521 0.4725851119 0.2109304965 0.8520535231
0.06126340479 0.03302001581 0.822933495 0.3976918459 0.2433954924 0.838596344
0.06481690705 0.06408833712 0.8664450049 0.02245104685 0.01711336896 0.9428672791
0.07060765475 0.05933079123 0.861538589 -0.02739727311 -0.03297813237 0.8759931922
0.07581487298 0.07801326364 0.8511674404 -0.5007975101 -0.3659447134 0.3065899909
0.05786576495 0.07336411625 0.8664653301 -0.07115859538 0.04255061597 0.8951219916
0.06460593641 0.07659168541 0.8601618409 -0.2632163465 -0.1290736347 0.6395280957
0.04394449294 0.06542090327 0.8626824617 -0.08388375491 -0.008476836607 0.9011092782
0.047957059 0.06738927215 0.8459839821 -0.09444122761 -0.3557121754 0.7409214973
0.04387851432 0.04211068526 0.8427413702 0.1050485894 -0.6674845219 0.372643888
0.04808331653 0.05989824235 0.8388991952 -0.033526849 -0.5823190212 0.563555181
0.04451975226 0.0528046228 0.8490868211 0.01919564046 -0.4265837669 0.5838571191
0.04659413546 0.07027152181 0.8547396064 -0.1196487471 -0.1363718212 0.8763461709
0.04642523453 0.04738491774 0.8356385231 0.06570992619 -0.7729344964 0.3628065884
0.04953968152 0.07587205619 0.8460904956 -0.1610962152 -0.2726045549 0.8535678387
0.05848835781 0.06585244834 0.8705877662 0.03886492178 0.07552404702 0.995249331
0.05862030387 0.04012960196 0.8711147904 0.05502344295 0.01320985891 0.9983719587
0.06380824745 0.04005668685 0.8566753268 0.136244148 -0.2598146796 0.6835694909
0.06464706361 0.03705954552 0.844091475 0.2378932387 -0.1236619502 0.7029184103
0.05575352162 0.03012148291 0.8332507014 0.2936606109 -0.7875701189 0.07545368373
0.05166863278 0.03582758829 0.8605615497 0.08971930295 -0.2534690499 0.7340098619
0.05227153003 0.0335076414 0.8509117961 0.1581116319 -0.4868909419 0.4673801064
0.05026453361 0.03130659461 0.841924727 0.1880618185 -0.7244883776 0.2617189884
0.04954228178 0.06257740408 0.8168717027 -0.0005514786462 -0.5114760399 0.7853038311
0.04024873674 0.06344497949 0.8184856772 -0.02938056737 -0.6140273809 0.7019893527
0.04482705519 0.07008594275 0.8143892884 -0.04014572129 -0.4966148138 0.8373930454
0.03698962554 0.03976492584 0.8302536011 0.0452285558 -0.8769690394 0.3525900543
0.04929226264 0.04784001783 0.824228406 0.09438541532 -0.7083054781 0.4948212504
0.03871839494 0.03060118109 0.8340159655 0.1046179608 -0.9733527899 0.1908681095
0.06388649344 0.06594954431 0.807218492 0.06611918658 -0.2393573523 0.9123457074
-0.1597357839 0.06440147758 0.8179767132 -0.2679108381 0.5056821704 0.8178195357
-0.09828825295 0.1309859902 0.818026185 -0.2379666716 0.3360239863 0.9107198715
-0.101188004 0.1226098537 0.8203890324 -0.2354170829 0.3355802596 0.9120048881
-0.1056842357 0.1360799372 0.812097311 -0.2559874952 0.3566844761 0.8981625438
-0.09805991501 0.1387181282 0.8115990162 -0.2438515574 0.3721591532 0.8952899575
-0.08208341897 0.1297538429 0.7959571481 -0.48605147 -0.2306749225 0.5227899551
-0.107246235 0.1323987544 0.8037621379 -0.3513009548 0.1354347765 0.770033896
-0.09218780696 0.1330730766 0.8020809293 -0.3855296075 0.02619774081 0.6858447194
-0.09810436517 0.1295143515 0.7983788252 -0.4398075938 -0.09119389951 0.6258636117
-0.1794072986 0.08993280679 0.805997014 -0.0225090459 0.2719279826 0.96129632
-0.1763162464 0.0985308364 0.8041822314 -0.0535983853 0.2020449936 0.9758300185
-0.1680546552 0.09461999685 0.8041228056 -0.1047951505 0.1909859031 0.9732370377
-0.1680564582 0.06125067547 0.8174155354 -0.1538705677 0.496360153 0.8506276011
-0.125211224 0.05771358311 0.8420783281 -0.2779811621 0.3795859218 0.8808031678
-0.1147456467 0.0411565043 0.8504526615 -0.03730862215 0.4692118764 0.8777584434
-0.1211121604 0.04753228649 0.8460547924 -0.1611981392 0.4080587626 0.8949558735
-0.1302541345 0.04677170515 0.843000114 -0.2993617654 0.3872078657 0.8662500381
-0.111265257 0.05266416818 0.8433201909 0.03711611778 0.4530285001 0.8779266477
-0.09709070623 0.05029908568 0.8437125683 0.2409251481 0.5329749584 0.8092640042
-0.1057478487 0.03969051689 0.8522770405 0.1099942327 0.5267885327 0.8412200809
0.03364606202 0.1042668521 0.8401830792 -0.1924725026 -0.1543789059 0.9376146197
0.03363947198 0.03292862326 0.8546519876 -0.02018182166 -0.4214709699 0.6348890066
0.02655935474 0.03562446684 0.8705500364 -0.1108796895 0.0433829315 0.9820885062
0.03522894531 0.03546102718 0.8627629876 -0.04633499682 -0.1964597702 0.8096261024
0.03433279693 0.09155332297 0.8512378335 -0.1712584794 0.02918624319 0.9499740601
0.0307643339 0.04490566626 0.8284789324 0.002424553037 -0.8468468785 0.4045673609
0.02579740062 0.03400454298 0.8312846422 -0.0552954264 -0.9522721171 0.2207898796
0.01730115898 0.04164361954 0.8258926272 -0.1864325851 -0.8802214265 0.2892870903
0.03408649191 0.05477154255 0.8233773112 -0.02676765993 -0.7558402419 0.5305105448
0.03237351403 0.07638754696 0.813804388 -0.09674532712 -0.5396532416 0.8245108724
0.02669223212 0.05131937936 0.8257552385 -0.0349605605 -0.7716587186 0.4902127981
0.02506840788 0.06170138717 0.8201972246 -0.1010490134 -0.667955339 0.6158866882
0.01994784176 0.05412451923 0.8215860128 -0.1685504019 -0.7483477592 0.4793314338
0.02559299581 0.06931831688 0.8163109422 -0.1342140585 -0.5958606601 0.712574482
0.06617889553 0.04344781861 0.8681002259 0.0653161034 0.02309146337 0.9974829555
0.05915718153 0.05677231029 0.8711111546 0.07165004313 0.03987575695 0.9965941906
0.05044738203 0.05321162194 0.8715475202 0.02454927005 0.03871363401 0.9975904226
0.04293081909 0.1006018668 0.8401156664 -0.2159057558 -0.2246460617 0.9040808082
0.02927142568 0.07717874646 0.8297967315 -0.1199268624 -0.2830742896 0.8874551058
0.04246986285 0.09926956892 0.8240228891 -0.2102205753 -0.4376837909 0.8715618253
0.04275966063 0.08957073092 0.8183638453 -0.1558975279 -0.5111348033 0.8402312994
0.06104620919 0.07465939969 0.8075170517 -0.0814344734 -0.5704111457 0.8124734163
0.05574547127 0.07002416998 0.8123195171 -0.04021866247 -0.4704889953 0.8714362979
-0.1408021301 0.1256786287 0.8079172373 -0.2862039804 0.2281046361 0.9298832417
-0.1086677983 0.1076672375 0.8187275529 -0.2195451409 0.3263406157 0.9029068351
-0.1071900278 0.1168643832 0.8204293847 -0.2724200785 0.3426918685 0.8984299302
-0.09233264625 0.1006914154 0.8109916449 -0.2024298608 0.0513384603 0.6394374967
-0.0985288322 0.1022450328 0.8167970181 -0.1144419536 0.2235312462 0.8577079773
-0.08602311462 0.1015721783 0.8040914536 -0.3397005498 -0.144700706 0.3733017147
-0.1005881727 0.1121701673 0.8149495721 -0.2673274577 0.2016924024 0.76264292
-0.08856969327 0.110623464 0.8031004071 -0.4663870037 -0.1446290761 0.3131433427
-0.1225074157 0.0710446611 0.8291085362 -0.2176848948 0.3838478029 0.8238379359
-0.1095564961 0.066818811 0.8332555294 0.07122461498 0.3518542647 0.8971423507
-0.1855893582 0.07538217306 0.8123469949 -0.02000875585 0.3940629661 0.9184008241
-0.1846475154 0.08241261542 0.8084039688 -0.01447184198 0.3461486399 0.9376277328
-0.04430147633 0.04083143175 0.8430675864 0.03048612736 0.31603688 0.6977775097
-0.03121230751 0.04667941481 0.8516982794 -0.4571120143 0.09297923744 0.6525447369
-0.02383734845 0.04781799391 0.8553007841 -0.5754458308 -0.1687407196 0.6525108814
-0.03883294016 0.03791757673 0.83817029 0.1445759833 0.4583465159 0.6842827797
-0.02836812288 0.03487090766 0.8266464472 0.1363397837 0.534723103 0.8235630989
-0.02818418294 0.03542555869 0.8387998939 0.08281228691 0.3766539693 0.7223165631
-0.02509522066 0.03878665715 0.8462880254 -0.07410932332 0.08679263294 0.7026292086
-0.01186202653 0.03724977002 0.8569707274 -0.27226758 -0.2010385543 0.7469583154
-0.01854841039 0.04020116478 0.8520009518 -0.2304267436 -0.139185667 0.711234808
-0.011868787 0.03251043707 0.8438695073 -0.144070074 -0.2343123257 0.5345934629
-0.004879424348 0.03237279505 0.8475835323 -0.276483506 -0.5932506323 0.4275214672
-0.008454916067 0.02969267778 0.8359986544 -0.1363759488 -0.4973697364 0.299128443
-0.01896576397 0.03236120939 0.8390807509 -0.00201436202 0.1209342405 0.6240695119
-0.1644227803 0.05214638263 0.8256849647 -0.2652304769 0.5139858127 0.8099003434
-0.1243402511 0.07209514081 0.8376376033 -0.2985014021 0.3894070685 0.8593159318
-0.1315534562 0.07055637985 0.8323643208 -0.4676263928 0.4217628539 0.7731238604
-0.1524233669 0.07313114405 0.8158679008 -0.3636667728 0.4495042562 0.8137571812
-0.1450955123 0.07181928307 0.8198139071 -0.4538109899 0.4523077607 0.7669927478
-0.03712736443 0.1256666183 0.8231124878 -0.03128261119 -0.2232643962 0.9734431505
-0.0961311236 0.04237633571 0.849141717 0.2201648206 0.5678053498 0.7924947739
0.002949458314 0.03117529117 0.8449597359 -0.2639518678 -0.7807243466 0.347150743
-0.001145211747 0.03606146574 0.8622075319 -0.3768234253 -0.5426899791 0.6788540483
0.00101191015 0.03339710832 0.8537399769 -0.3050670028 -0.6601809859 0.5076823235
0.003386923345 0.02973193675 0.8295892477 -0.1352072358 -0.2668156028 0.3835904598
0.02106110007 0.02977615967 0.8377280831 -0.0415953286 -0.8629718423 0.2897494137
0.01996194571 0.03155951202 0.8485046625 -0.07832570374 -0.5583993793 0.5153889656
-0.01031321287 0.04424134642 0.8636528254 -0.429436028 -0.4676727653 0.733795464
-0.01432472281 0.05583453923 0.8620241284 -0.6665403247 0.2357672155 0.7052153945
-0.006919893902 0.05998939648 0.8632087708 -0.2570111752 0.1941044927 0.9204760194
0.02978264913 0.05569895729 0.8697118759 -0.1268734038 0.09935174137 0.9865157008
0.02072946727 0.05001888424 0.8685798645 -0.1314084828 0.09722736478 0.9861350656
0.0234288536 0.06376393884 0.8665905595 -0.1596376151 0.1328589469 0.9576284885
0.01867264695 0.05925412476 0.8610627651 -0.1208583415 -0.01042875368 0.8545306325
0.02727301046 0.05409134924 0.8572453856 -0.09880341589 -0.2032048255 0.7379109263
0.02704501338 0.04470443726 0.848156333 -0.04477158934 -0.5195823312 0.5266114473
0.02824142016 0.07101958245 0.8501902223 -0.1407059878 -0.0483196117 0.9294968247
0.0254419297 0.07180637121 0.8632073402 -0.1540553123 0.1532417834 0.9637209773
0.03053278849 0.07252316177 0.8383210301 -0.1256674528 -0.2115612179 0.8988040686
0.03361523524 0.07523836195 0.8223224878 -0.1046041548 -0.4252673686 0.8576779366
-0.04208939523 0.1102700904 0.8228757381 -0.06903476268 -0.2440400869 0.9576752782
-0.04912285134 0.1034360602 0.8239809275 0.07675257325 -0.1893347353 0.9529191852
-0.05729238316 0.1065342426 0.8256138563 0.1574541181 -0.2310525924 0.9333351254
0.01963245682 0.07549202442 0.856321454 -0.1437115073 0.1022885442 0.9555062652
0.02274915949 0.07689177245 0.8395507932 -0.1334863305 -0.1276064813 0.9196471572
0.02432450652 0.08284137398 0.8614300489 -0.1476828158 0.2150226682 0.9653750062
0.02825315483 0.1073298454 0.8345476389 -0.1750486195 -0.2223487794 0.9351235032
0.03513901681 0.1125222519 0.8314476609 -0.2037871182 -0.2988408208 0.9272754192
0.02579355799 0.09102903306 0.8524961472 -0.1570411474 0.06938913465 0.9552317262
0.02992717177 0.098621279 0.845418036 -0.1766914278 -0.05844184011 0.9451596737
0.01725433767 0.08713435382 0.8550879955 -0.1580628455 0.1136222705 0.9617384076
0.0269637201 0.1111900583 0.8267986178 -0.1723367423 -0.3383046687 0.9249064326
0.03429304436 0.09275054932 0.8193399906 -0.1640247703 -0.4388644099 0.8799878955
0.03357501328 0.09947837144 0.8230426311 -0.1837887615 -0.3947782516 0.8973146081
-0.09023336321 0.1324103326 0.8188393712 -0.2042947114 0.3032227457 0.928184092
-0.03074628115 0.04907625169 0.8132596016 0.0789385736 0.2907021344 0.9352986813
-0.03551224247 0.03634629399 0.8291719556 0.2600497305 0.5785534978 0.7692927718
0.01796299219 0.04728043079 0.8491678238 -0.08982026577 -0.4202429056 0.5792665482
0.01922038756 0.04124623537 0.8435282111 -0.06692909449 -0.6282225847 0.4422031641
0.01263430808 0.03258161992 0.8291598558 -0.2095003426 -0.9652035236 0.1523157209
0.01130370703 0.03496237472 0.8581889868 -0.2002628148 -0.4355993569 0.6977080107
0.01137920283 0.03326478973 0.8499233723 -0.1879036129 -0.6699813604 0.5142014623
0.008128608577 0.03727708757 0.8676661849 -0.2683699131 -0.3330326378 0.8664309978
0.01407750137 0.04310532659 0.8674459457 -0.1655615419 0.0286600776 0.9650248289
0.008196721785 0.03028286807 0.8368039131 -0.2255856693 -0.9003375769 0.2430961728
-0.002016700804 0.0534199737 0.8202289939 -0.01693115942 -0.3954293728 0.6721957326
0.0006139899488 0.03775888309 0.8235721588 -0.1322589666 -0.4656331539 0.4689331949
-0.007069196086 0.0414356105 0.8199661374 -0.07525496185 -0.1400347501 0.6806387901
0.04854781553 0.06210414693 0.871119678 -0.02572126687 0.08760501444 0.9937402606
0.04519342631 0.07666299492 0.8661410213 -0.1251945645 0.1199967787 0.9705863595
0.04427018389 0.09023758024 0.8495043516 -0.2325216979 -0.08714073896 0.9078341126
0.0334280096 0.08137190342 0.8610360622 -0.148788482 0.1804604083 0.9645590782
0.05052498356 0.09383603185 0.8447158933 -0.2687169909 -0.2171917409 0.882260263
0.04848482087 0.1090125442 0.8296020031 -0.2511726022 -0.3747390211 0.8914226294
0.0671331659 0.07906994969 0.8123827577 -0.1267123669 -0.6504017711 0.7468557954
0.07015123218 0.0716496706 0.8072600961 -0.0255315993 -0.4321051836 0.8823805451
0.08142062277 0.06476387382 0.8057486415 0.05055590719 -0.1931500137 0.9554158449
0.01567173935 0.09565620869 0.8168055415 -0.0757490471 -0.3624784946 0.9274860024
0.01514446363 0.08545387536 0.8116983175 -0.03250705078 -0.3449130058 0.9362867475
-0.1327020377 0.1307817996 0.8086825013 -0.3027627468 0.2755952775 0.912263155
-0.1186405197 0.1266943961 0.8134450912 -0.2998461723 0.3342239559 0.8929243088
-0.1606695801 0.1110183224 0.8037543893 -0.2098846585 0.1363734603 0.9678009152
-0.1633624583 0.1020619199 0.8039316535 -0.1576147676 0.1451611072 0.9745567441
-0.1460170895 0.08819083124 0.8112714887 -0.4120498896 0.3062773645 0.8563919663
-0.1283460557 0.08596454561 0.8258506656 -0.4559172094 0.4219623804 0.7823103666
-0.1235087439 0.09405668825 0.8242458701 -0.3661816418 0.3854227662 0.8452266455
-0.1189151704 0.1015499085 0.823682189 -0.2921905518 0.3628821373 0.8811923862
-0.1003592461 0.104985863 0.8255739212 -0.08168559521 0.2519440651 0.9634351134
-0.09206627309 0.1107942089 0.8239299655 -0.1188059598 0.1766790897 0.9753228426
-0.08400974423 0.1120744273 0.8250598907 -0.09587199241 0.1423881352 0.9831954241
-0.1270675063 0.07909804583 0.8305002451 -0.4401559532 0.415668875 0.7924818993
-0.1206344962 0.08843901753 0.8308985829 -0.2566523552 0.4282133579 0.8605080247
-0.1260192543 0.08773237467 0.8176637888 -0.360904634 0.336658448 0.828050077
-0.1114638224 0.08830649406 0.8274066448 -0.03795325756 0.4003935456 0.911503613
-0.1182868257 0.09268016368 0.8182077408 -0.284496665 0.3165289462 0.8635128736
-0.1099607497 0.09104585648 0.8184260726 -0.1440702379 0.2925615907 0.9038040042
-0.1139116883 0.05933539942 0.8383612037 -0.01380982902 0.4403386712 0.8593934178
-0.1261810213 0.06467559189 0.8337664604 -0.2979239821 0.4014623165 0.8107659221
-0.08539848775 0.08336699009 0.8301454782 0.206757769 0.1772120595 0.9541027546
-0.0642850399 0.03792885691 0.84001261 0.3203523457 0.5501555204 0.7711662054
-0.0729868412 0.03887030855 0.8421840668 0.3110918403 0.5546607971 0.7717158198
-0.1518411338 0.05625866354 0.8266186714 -0.3763708174 0.4992623031 0.7793028355
-0.156222105 0.04961367697 0.8283482194 -0.3591232896 0.5042093992 0.7846922874
-0.1379145235 0.07297728956 0.8243669271 -0.5153816342 0.4234450758 0.7448968887
-0.1439426392 0.06523235887 0.8252481222 -0.4577332437 0.4642123282 0.757594347
-0.08678675443 0.03918107226 0.8476817608 0.2586265802 0.5767347813 0.7743328214
-0.07309203595 0.04688369483 0.8379142284 0.3140091598 0.5061562061 0.8014474511
-0.080245547 0.04380308092 0.8406721354 0.2923882306 0.5627750158 0.7729849219
-0.002454512287 0.05368154496 0.8646279573 -0.2007540017 0.09266299754 0.9581663609
0.002394796349 0.04536470026 0.866153717 -0.2645021379 -0.08536089212 0.9059984088
0.01353529096 0.06437045336 0.8654969931 -0.1508838236 0.1706235856 0.9735566378
0.004523249343 0.06341017038 0.8649699092 -0.178782627 0.1518432647 0.9720414877
0.007407865953 0.05389197171 0.8663288951 -0.1750737429 0.1244687662 0.9764788151
0.01286602113 0.03807903826 0.8351998329 -0.2027869225 -0.7720874548 0.2900403738
0.03575183451 0.03819031268 0.87138623 -0.07695277035 0.04491419345 0.9957885742
0.04503802955 0.04663426429 0.8722260594 -0.01741188578 0.03386538848 0.9990304112
0.03689833358 0.04818432406 0.8710096478 -0.07801377773 0.05529180169 0.9953314662
0.03434075415 0.06223184615 0.8618559241 -0.1144808382 -0.02609471977 0.8545055389
0.03175296634 0.07370936126 0.8575906754 -0.1168274283 0.03729588538 0.8638272882
0.03145394847 0.06304474175 0.8534879684 -0.08176526427 -0.1780111343 0.7333453894
0.03400436416 0.03662028909 0.8386204243 0.03623528406 -0.8193377852 0.3315352201
0.03221917897 0.05485583097 0.848937273 -0.04553691298 -0.3755056262 0.6097501516
0.0385094285 0.0546682775 0.857318759 -0.0398036465 -0.2122563422 0.7100253701
0.03774317354 0.04778888822 0.8502295613 -0.00221292628 -0.4413239658 0.5585305095
0.0357975699 0.06202521175 0.869952023 -0.1265156269 0.1118458807 0.9848259091
0.03289919719 0.07168632746 0.8675056696 -0.1410800964 0.1905190349 0.97100389
0.04078803211 0.07688464969 0.8526828885 -0.1789542586 -0.08027638495 0.9103344679
0.04778699204 0.08248303086 0.8400729895 -0.207277149 -0.317938894 0.8496354222
0.04152020067 0.07005505264 0.8697664738 -0.08746703714 0.1453464925 0.9833824039
-0.06012732536 0.1279537082 0.8056352735 -0.5242058635 -0.5285933018 0.5215032101
-0.05781892687 0.1216118261 0.800137341 -0.6257361174 -0.1821793318 0.6013464928
-0.05387427285 0.1224290654 0.807430923 -0.4423319995 -0.09757674485 0.7506049275
-0.06773039699 0.1108129844 0.7884278297 -0.8314721584 -0.06613640487 0.4595978856
-0.06273202598 0.1196664348 0.790673852 -0.83689785 -0.2746680975 0.4323380291
-0.06372553855 0.124126859 0.8299696445 0.01102276426 0.05297964439 0.993507266
-0.07256805897 0.1253363788 0.8269332051 -0.07869628072 0.1695192456 0.9728806615
-0.03909636661 0.1106017604 0.8127623796 -0.2004968524 -0.1868965477 0.896263957
-0.04802551493 0.110965386 0.803483367 -0.4959743619 -0.07918725908 0.7445574403
0.01277847029 0.06801119447 0.8566811085 -0.1637254357 -0.0008178749122 0.8380709291
0.0117631536 0.04735127464 0.8403975964 -0.1966723353 -0.5663378835 0.4357939363
0.01415391825 0.05628673732 0.8512317538 -0.1709089279 -0.2335936427 0.6740775704
0.01243681367 0.07430032641 0.8621643782 -0.1551946998 0.1831920594 0.9705729485
-0.02380535007 0.1227538213 0.8234276175 -0.0514572002 -0.2567402124 0.9650948644
-0.02881239355 0.1153994426 0.8196156025 -0.04880983382 -0.2400171012 0.9694497585
-0.03396975622 0.1079141572 0.822073698 -0.05903679878 -0.185376063 0.9783614278
-0.07535607368 0.1253954917 0.7892971039 -0.5978050828 -0.4959614277 0.3697645068
-0.01943852007 0.06490677595 0.848818779 -0.5836548805 0.1726524681 0.6851522326
-0.02219771035 0.07178022712 0.8415361047 -0.4448190033 0.2373415828 0.7603977919
-0.02677632496 0.06895438582 0.8351951838 -0.3994935155 0.06707570702 0.8217211366
-0.01908458769 0.05697245896 0.8525995016 -0.693171978 0.02678168379 0.64401263
-0.01455097087 0.06877519935 0.8552437425 -0.6209608912 0.3710246682 0.6234946847
-0.07895170897 0.07708908617 0.82854563 0.3319765627 0.1777300984 0.9190257788
-0.01467464771 0.05316720158 0.8150141835 0.03150235116 0.149222225 0.9597055912
-0.0178749375 0.04550366476 0.8141576648 -0.01833146438 0.2762852311 0.9503113627
-0.01562552527 0.0650684312 0.8154663444 0.02584122308 -0.01039129309 0.9952293634
-0.01733968966 0.08189939708 0.8152707815 0.02133732103 -0.05544547737 0.9970511794
-0.01584235393 0.09119942784 0.8179183006 -0.0005802524392 -0.1132145971 0.992519021
-0.02355585061 0.08786144108 0.8171541095 -0.02055487782 -0.06116557494 0.9972566962
-0.04186249897 0.04787390307 0.8371171951 -0.01350570843 0.3486828804 0.6936626434
-0.03476558998 0.04865317792 0.8430305719 -0.2475105226 0.2215697467 0.6650660038
-0.02592341043 0.06110816076 0.8402052522 -0.5099198222 -0.04323519766 0.766117394
-0.03459847346 0.07389690727 0.8207974434 -0.1892141402 -0.01530078053 0.9643836021
-0.02627569996 0.05373575166 0.8472948074 -0.5276123881 0.02618829161 0.6679709554
-0.03677777946 0.05559850857 0.8373945951 -0.1923736185 0.1778573245 0.7247196436
-0.04671330005 0.0617102161 0.8236867785 0.1417088062 0.2837075591 0.8369365931
-0.03859451786 0.0658827424 0.8257377744 -0.09560713917 0.1178909391 0.8685933352
-0.04488484561 0.05509228259 0.8316928148 0.05884634703 0.3117614686 0.7423642278
-0.01771785133 0.02997662313 0.8299705386 0.03701505437 0.2048595548 0.6147488952
-0.01049367804 0.02908874862 0.8268193603 -0.05153561011 0.4492535889 0.8892222643
-0.01617814228 0.03538631275 0.8214893341 -0.0511360094 0.4103188515 0.9084690809
0.06823708862 0.09136664867 0.8452086449 -0.3441317379 -0.4722827971 0.7034492493
0.06090958416 0.08480290323 0.8543331027 -0.2000880986 -0.2141644955 0.8384830952
0.06008636206 0.0908671394 0.8474808931 -0.2608360052 -0.3020339012 0.8159868121
0.06166986004 0.09739526361 0.8395385146 -0.3611622155 -0.4535674751 0.7499874234
0.05496952683 0.08070012927 0.8601812124 -0.1269135326 -0.04665517434 0.9189238548
0.05420156568 0.1005183756 0.8362771869 -0.3323657811 -0.3722682595 0.835740149
0.05218512192 0.08713101596 0.8528283238 -0.2411104888 -0.1505622268 0.8711336851
0.0593332164 0.1049154848 0.8326172233 -0.3729074299 -0.4902998209 0.7732057571
0.0651153177 0.08550573885 0.8171371222 -0.1646850705 -0.6241065264 0.7536695004
0.06003117189 0.09800927341 0.8263120055 -0.2611266375 -0.5218190551 0.7954640985
0.05494851246 0.08795651793 0.8173735142 -0.1583578438 -0.5705035925 0.7959750891
0.05372849479 0.09520503879 0.8222884536 -0.1964282542 -0.5065848827 0.8288756013
0.0555803813 0.08145105094 0.8128990531 -0.1234021708 -0.6263949871 0.7678639293
0.04805343971 0.07808607817 0.8119245172 -0.1120852903 -0.6092181206 0.7849587798
0.03780214489 0.08296938986 0.8140137196 -0.1264989376 -0.5227655768 0.8409616947
-0.1576168835 0.0947638303 0.8060896397 -0.2417625636 0.1841216087 0.9500053525
-0.1717312783 0.08239807934 0.8067693114 -0.05360261723 0.3346752822 0.9388442039
-0.1664765477 0.07617720962 0.8081445694 -0.1330125481 0.401676029 0.9056819081
-0.157543391 0.08370934427 0.8090547323 -0.2635421753 0.3229747117 0.9043302536
-0.1193104312 0.1085352749 0.8179630041 -0.3587372601 0.3615851998 0.8603592515
-0.1282882392 0.110537149 0.8141428232 -0.3549637198 0.287676394 0.887948215
-0.1122093573 0.09917126596 0.8176206946 -0.1997549385 0.3041276634 0.9014459848
-0.1331119835 0.1219904274 0.8083683252 -0.3075365722 0.2696352005 0.9121376872
-0.1192750707 0.1335988641 0.808170259 -0.2768634558 0.3296002448 0.9024834037
-0.09086447209 0.1266703457 0.7942008972 -0.5128936768 -0.2716828883 0.511040628
-0.113400355 0.1277683228 0.8057368398 -0.3541812599 0.1919926852 0.8108375669
-0.1252679974 0.1233977228 0.8090273142 -0.3133032024 0.2962269485 0.9015351534
-0.1091028005 0.122092627 0.8113903999 -0.3398523331 0.2393618673 0.8018974662
-0.10565079 0.1235408261 0.8031836748 -0.4472603202 0.06780716777 0.6217505932
-0.09406296909 0.1201527193 0.7985187173 -0.5566601753 -0.137175709 0.4007875025
-0.1157390326 0.1187790334 0.8167702556 -0.3222296834 0.3482547104 0.8801146746
-0.1261135042 0.1032272875 0.816560626 -0.4166456759 0.3440239727 0.8408333063
-0.1343597919 0.1013440639 0.8144502044 -0.4273229837 0.2734405696 0.8583540916
-0.1344394535 0.09186185151 0.8165276051 -0.4945358634 0.3478784263 0.7960249186
-0.03847669438 0.04582333565 0.8207659125 0.2536543608 0.4945699275 0.8304318786
-0.02601102367 0.04230692983 0.8170606494 0.07859236002 0.397198081 0.9127237201
-0.06898845732 0.1001709476 0.8272414804 0.3843838274 -0.1538010836 0.901802063
-0.03889684379 0.1000744402 0.8219124079 -0.02362596057 -0.1384987682 0.9739175439
-0.05530763417 0.0982631743 0.8245424032 0.2492894828 -0.1114119291 0.9171810746
-0.05280765519 0.08852826059 0.8201201558 0.05170062184 0.01012512017 0.9313768148
-0.0640155375 0.09346400946 0.8249803185 0.4343259633 -0.02640129067 0.8667754531
-0.07924202085 0.09564254433 0.8275604248 0.2268017232 0.03943583742 0.9606462121
-0.08839052171 0.0963313058 0.8270645142 0.0343394205 0.1752878726 0.9785616994
-0.08200754225 0.1039598137 0.8249043226 0.04929107428 0.083413288 0.984100461
-0.05608126521 0.04088869691 0.8383733034 0.2361565679 0.5118601918 0.7384645939
-0.04964353144 0.03667786345 0.8346644044 0.3416694999 0.6233628988 0.7031213641
-0.05536350235 0.04388925433 0.8310937285 0.3610986769 0.5792737007 0.7304896712
-0.04665787891 0.04206743464 0.8280590177 0.3428182602 0.5945280194 0.7264908552
-0.06466196477 0.04687453061 0.8325173855 0.3550004661 0.5473008156 0.7569218874
-0.1443526298 0.0580442436 0.8292329311 -0.4382545352 0.4738427401 0.7634902596
-0.1366646737 0.06196544692 0.832873702 -0.4740165472 0.4308877289 0.7674722672
-0.04740283638 0.1180314869 0.8245368004 -0.06411366165 -0.2838105559 0.946988821
-0.0633681193 0.1110178679 0.8281764984 0.1956248581 -0.1535453349 0.9447332025
-0.05614297464 0.1181191429 0.8276436329 0.04317722097 -0.149874866 0.9629918933
-0.0712480098 0.1167308688 0.8278024197 0.00839307718 0.0542467609 0.9862899184
-0.05408858508 0.06652648002 0.8129398227 0.2545630634 0.3320819438 0.9060676694
-0.03706275299 0.05790984631 0.8129318953 0.04019865394 0.1332379431 0.9886523485
-0.04429217055 0.06390888989 0.8139425516 0.04194506258 0.230627656 0.9705017209
-0.0516137518 0.07501088083 0.8194569945 0.1176116019 0.108810477 0.9449551702
-0.06521241367 0.06719239801 0.8243002892 0.4508322775 0.3188817501 0.8242694139
-0.05772352219 0.07054352015 0.8217925429 0.2635122836 0.2167141289 0.8892378807
-0.07762074471 0.05412593856 0.8337167501 0.3019556105 0.467245996 0.8286184072
-0.04643468931 0.1026261225 0.8044496179 -0.5147870183 0.09181796014 0.7527857423
-0.0508912392 0.09589188546 0.8073132634 -0.6047413945 0.1852132082 0.6984226108
-0.04175874591 0.09522939473 0.8111438751 -0.4123501182 0.095308505 0.803160429
-0.05754747614 0.1034606248 0.7997692823 -0.7489122152 0.2010186762 0.6253495812
-0.03314247727 0.09961178154 0.8131635189 -0.2012253106 -0.05808193237 0.9188756943
0.008918178268 0.08675341308 0.853928268 -0.1608964354 0.09153521061 0.9657751322
0.0183099173 0.1001107022 0.841080308 -0.1520938873 -0.09544612467 0.95062536
0.01995860226 0.1067600772 0.8338345289 -0.1522739232 -0.2073983848 0.943136692
0.01908268034 0.1130523533 0.8263700008 -0.1417719275 -0.3102392554 0.9395689964
0.02029714175 0.1049326062 0.8229832649 -0.1356800199 -0.3498883545 0.9264091253
0.01165277697 0.1092066318 0.8228208423 -0.1097718924 -0.2987533212 0.9466682673
-0.08839524537 0.04808714986 0.8406977057 0.2653256059 0.5615677238 0.782933414
-0.09223969281 0.05426422879 0.8365713954 0.2760558426 0.4944004118 0.823091805
-0.08682408184 0.06968207657 0.8339214325 0.2136799395 0.2975717187 0.9173323512
-0.09350568056 0.06347901374 0.8378716707 0.2299811542 0.3924885392 0.8772511482
-0.01681013219 0.09768607467 0.8285489678 -0.1827462912 -0.01606100611 0.9101981521
-0.01762551256 0.0807063058 0.8466845751 -0.4654645026 0.2693906724 0.7172173858
-0.03152626008 0.0984493047 0.8234019279 -0.1271516085 -0.09649200737 0.9615137577
-0.02266634256 0.08568440378 0.8398172855 -0.3672289252 0.1615089923 0.7890560627
-0.02639587224 0.09376624227 0.8299762607 -0.2206939608 0.006775241345 0.8928103447
-0.007634656038 0.0811509043 0.8511052132 -0.3356431127 0.242238149 0.853669405
-0.007586682215 0.07524745911 0.8573890924 -0.4440333545 0.3469440341 0.7759524584
-0.01214058977 0.08836086094 0.8400614858 -0.3490515053 0.1624993831 0.7934849858
-0.01138932537 0.09438832849 0.834251821 -0.2121515274 0.04693154991 0.9007432461
0.006916635204 0.08092498034 0.8113553524 0.04149869829 -0.2334519625 0.9686089158
0.006017698906 0.06578873843 0.8160547614 -0.0006069561932 -0.37671417 0.762965858
0.00456552254 0.0460043028 0.8239110112 -0.09432701766 -0.6598291993 0.4530332983
0.008076987229 0.0552370511 0.8201825619 -0.06943438947 -0.5647728443 0.5672346354
-0.003400550457 0.06136607751 0.818010509 0.03891138732 -0.3210633397 0.7913457155
0.00645763427 0.06666406244 0.8362134099 -0.09624259919 -0.2005727589 0.7943008542
0.006645933725 0.06645034254 0.8514841795 -0.1706473529 -0.08150796592 0.8047988415
0.005541529506 0.07136566937 0.8271158338 -0.03116409853 -0.1764247715 0.8738361001
0.008083119057 0.05797057971 0.8461024761 -0.1832370311 -0.3012939095 0.6406511664
0.007016239222 0.06307516992 0.828905344 -0.07738041133 -0.3342776597 0.7200500965
0.008711080998 0.05381928757 0.8358073831 -0.1525620967 -0.4708473682 0.5530152321
0.009063055739 0.05135062337 0.8275114894 -0.1238675565 -0.589256525 0.4988356531
0.009592214599 0.07617545128 0.8404098749 -0.05465627089 0.0357295461 0.975967288
0.009378490038 0.07532435656 0.8532693982 -0.1222727224 0.1215648502 0.9722932577
0.02028746717 0.07742149383 0.8306973577 -0.1040960774 -0.2040750682 0.9168878794
0.007544305176 0.07737461478 0.8221493959 0.01997684874 -0.1052505001 0.975350976
0.02526545711 0.07844874263 0.820251286 -0.1162627414 -0.3818103373 0.8821353316
0.01589327306 0.07771122456 0.8235703707 -0.05030638352 -0.2121796608 0.9334353209
0.009863126092 0.07682535797 0.8313259482 -0.02266914025 -0.04631558061 0.9712995887
-0.02981595509 0.06567509472 0.8163650632 0.02382335998 0.03166783229 0.9988381267
-0.02936116606 0.0789539814 0.8168793917 -0.02059499174 -0.01716221869 0.997066021
-0.0243836008 0.07780258358 0.8368384242 -0.3902685642 0.1881631464 0.8007359505
-0.02717301995 0.08473448455 0.8320937157 -0.3033277392 0.09190012515 0.8554204106
-0.03309733793 0.08542285115 0.8213536739 -0.2003643662 -0.01936163567 0.9518872499
-0.0361725986 0.09070957452 0.8150770664 -0.2475945055 0.001392102567 0.9143944383
-0.02366158366 0.05756304786 0.8132438064 -0.006281837821 0.111260727 0.9868140817
0.068179138 0.09273634851 0.8273817301 -0.3656179011 -0.6444684863 0.6616160274
-0.139321208 0.1159585416 0.8078393936 -0.3026624024 0.2229917347 0.9259726405
-0.136153847 0.1089836508 0.810962975 -0.347525984 0.2223880738 0.9094626904
-0.1009773463 0.09051621705 0.8220438361 0.0316552408 0.2958219945 0.9503214955
-0.1028530076 0.06809593737 0.8381464481 0.1400996149 0.3651010394 0.9100294113
-0.04772401974 0.05556504428 0.8156385422 0.2758521438 0.3852157891 0.8781081438
-0.05609289184 0.05208431557 0.8236277699 0.3554348648 0.488473177 0.7924951315
-0.07242951542 0.09073659778 0.8258690834 0.4617883265 0.06717777252 0.880854547
-0.07337934524 0.08226628602 0.8260861039 0.4385079741 0.1124612913 0.8879016638
-0.04565300792 0.08496308327 0.8169669509 -0.1889877915 0.0380028896 0.9721592665
-0.06386446208 0.07838326693 0.8226984739 0.4569064677 0.1621650755 0.8481925726
-0.04990092665 0.130953148 0.8242528439 -0.008396727033 -0.1702912748 0.9840761423
-0.0495172888 0.1258816123 0.8164937496 -0.1977074444 -0.1392410547 0.8879917264
-0.04156312346 0.119890511 0.8182070255 -0.08571915329 -0.2011285573 0.9465675354
-0.0449882485 0.1164358035 0.8106381297 -0.2922447324 -0.1388384253 0.8415994048
0.02295390517 0.09163319319 0.8173339367 -0.08825027943 -0.4036090374 0.9091930985
-0.05094716325 0.07844609767 0.811545372 0.06283003837 0.2279785573 0.9425280094
-0.0404949896 0.07626429945 0.8156788349 -0.0648259744 0.08825550228 0.9756079912
-0.0737503618 0.06071934104 0.8302611709 0.3501871824 0.3807013333 0.8451597691
-0.0648380518 0.05903765559 0.8262711167 0.4233323634 0.4346752167 0.7918008566
-0.05150330067 0.08864422888 0.8100229502 -0.3559967875 0.1756863296 0.8446542025
-0.05919277295 0.08277421445 0.8053099513 -0.1352845728 0.3039381504 0.8469115496
-0.07467359304 0.1059414148 0.7907727957 -0.6417363286 -0.5041615963 -0.1379722953
-0.07215440273 0.0993995145 0.7969856262 -0.5985091925 -0.03776288405 0.3795004189
-0.07882913947 0.09733168781 0.8031990528 -0.4224953651 0.0581103377 0.5566892624
-0.06834608316 0.09350565076 0.8008425236 -0.4947445989 0.2582420409 0.702583909
-0.08387604356 0.09216162562 0.81134969 -0.1488152444 0.2593515515 0.8548281789
-0.06786283851 0.08644538373 0.8057935238 -0.0559640266 0.2748116553 0.7744967341
-0.07569926232 0.09054445475 0.8075451851 -0.1837971658 0.2642026246 0.7997600436
-0.0790290162 0.1204230711 0.8252373338 -0.1144838929 0.1916757673 0.9719716311
-0.0879310593 0.1193635836 0.8232887387 -0.1842656285 0.20616588 0.9560181499
-0.05753175169 0.132668525 0.8226946592 -0.04137409106 -0.1646559238 0.9522928596
-0.1012971923 0.0607833676 0.83554703 0.221883446 0.4269610047 0.8709381819
-0.09846496582 0.07206664234 0.8305717111 0.2134415358 0.3081892729 0.9240157604
-0.09312971681 0.06508836895 0.8294096589 0.2637639642 0.3191018403 0.9090996981
-0.006533129606 0.09247484058 0.8181086779 -9.193949518e-05 -0.1858980507 0.9808849692
-0.007887425832 0.08305194974 0.8148214817 0.05248975754 -0.1029320657 0.9915154576
-0.01004909258 0.07108934969 0.8148270845 0.1096929684 -0.1102996096 0.9874820709
0.0017926289 0.08743881434 0.8153426647 0.02619985305 -0.232183978 0.9713668823
-0.001589275547 0.07574915886 0.8124007583 0.08586782217 -0.12780267 0.9869468808
-0.02255623229 0.09616534412 0.8176510334 -0.055259455 -0.09509365261 0.9934235811
-0.01450787578 0.1009531617 0.8188016415 -0.05155737698 -0.1472948641 0.9874751568
-0.01617081091 0.1116520241 0.8190001249 -0.05858908594 -0.1692666262 0.9837542176
0.07459934056 0.09190776944 0.8334479332 -0.4272039235 -0.6691188216 0.5997385979
0.07266732305 0.08411762118 0.8201723695 -0.2388416082 -0.6854603887 0.6793397665
-0.1516158879 0.1196523532 0.8072027564 -0.2657788694 0.1680308282 0.9481961727
-0.1477379799 0.1123509929 0.8090970516 -0.3103369176 0.1822548062 0.9305071235
-0.1456775963 0.1027154997 0.8102500439 -0.3425688446 0.1941543072 0.9177567363
-0.1530877948 0.1030522138 0.8073807955 -0.2845706642 0.171211198 0.9420140982
-0.1176049113 0.08151049167 0.8342788219 -0.13074781 0.4187192321 0.8956193328
-0.1106031314 0.09703277051 0.8288528919 -0.111360319 0.350833416 0.9236566424
-0.1127127185 0.0735508576 0.8375278711 -0.005787916481 0.3405081034 0.9185745716
-0.1036689356 0.0931539759 0.8294600844 0.004651421215 0.3238199055 0.940666914
-0.09901833534 0.08549820632 0.830988884 0.09730339795 0.285049051 0.9483551979
-0.0628785342 0.09891961515 0.7958658338 -0.7418712378 0.2297766805 0.6279020309
-0.05981019512 0.1094279066 0.7941370606 -0.7933959365 0.1183635592 0.5932008028
-0.06647408009 0.1356636733 0.8195279241 -0.1969991922 -0.3839548826 0.731813252
-0.07624404132 0.1330185682 0.8235253692 -0.1199738905 0.2264727354 0.9664137959
-0.08797352761 0.1386307478 0.8134990335 -0.2049669623 0.3132831454 0.9092567563
-0.08392451704 0.135055244 0.8071660995 -0.3189121783 0.1081032678 0.7894604802
-0.07345158607 0.128350541 0.7990634441 -0.4661583304 -0.2598361671 0.6204941869
-0.06596325338 0.1270111352 0.7978368998 -0.5399343371 -0.6538817286 0.4576334357
-0.06300586462 0.1329980195 0.8123831153 -0.3474030197 -0.7181607485 0.5383467078
-0.07479315251 0.1328648478 0.8111146092 -0.2576830983 -0.02536654472 0.8137361407
-0.08543661982 0.06214761734 0.8293477297 0.2870385349 0.312567085 0.9012364149
-0.06740752608 0.07208392769 0.8158566952 0.4394550622 0.2815243006 0.8466877937
-0.07468075305 0.0779998377 0.8154178262 0.3296381831 0.2809740305 0.8789945245
-0.06294409931 0.07629542798 0.8101757169 0.4562668502 0.2968920767 0.8319007158
-0.08954939991 0.08773502707 0.8178321123 0.1371366084 0.2646459341 0.9369094968
-0.08409528434 0.0736367777 0.8228197694 0.2523288429 0.2653026879 0.918091476
-0.08951762319 0.08036288619 0.8219283819 0.1686782092 0.2609568834 0.9384800792
-0.08047416806 0.08454164863 0.814825058 0.2429926097 0.2760043144 0.9009270072
0.004023718182 0.07954070717 0.859395206 -0.2155851126 0.2097412795 0.9447966218
-0.0001505372929 0.08794891089 0.8477505445 -0.152817294 0.0930179432 0.9667007327
0.009861198254 0.1018913761 0.8382427096 -0.1399035454 -0.1039734706 0.96067518
0.01036290172 0.1084383354 0.8314808607 -0.1308914572 -0.1890274137 0.9583012462
-0.07130905241 0.07340825349 0.8255710602 0.4397720098 0.2046460062 0.8695608974
-0.07624546438 0.06631842256 0.8239575028 0.364626199 0.2784163058 0.8809909821
-0.05940154195 0.06113961339 0.8212189078 0.3802841902 0.4378580153 0.8142368197
-0.01422545966 0.1200463474 0.8224244714 -0.06850402802 -0.2315315604 0.9697373509
0.002166373888 0.1075368151 0.8312956095 -0.1240749881 -0.1295877993 0.9713568091
0.005272049922 0.09658273309 0.8430044651 -0.143055439 -0.008834218606 0.9698934555
-0.00573456334 0.1052336544 0.829349041 -0.1019754037 -0.1003847271 0.9801374078
-0.00353615405 0.09755365551 0.8368231058 -0.112321645 -0.02155564725 0.9793288112
0.007785516791 0.09330325574 0.8148629069 -0.04470786825 -0.298835814 0.95221138
0.006011886057 0.100656271 0.818194747 -0.07443647832 -0.2971498966 0.9515529275
-0.002958451398 0.1011162326 0.8187381029 -0.07066591084 -0.1942449957 0.9769650102
-0.001127818017 0.1104256436 0.8222540617 -0.09781569242 -0.2253800333 0.9678903222
