# .PCD v0.7 - Point Cloud Data file format
VERSION 0.7
FIELDS x y z normal_x normal_y normal_z
SIZE 4 4 4 4 4 4
TYPE F F F F F F
COUNT 1 1 1 1 1 1
WIDTH 512
HEIGHT 1
VIEWPOINT 0 0 0 1 0 0 0
POINTS 512
DATA ascii
-0.2048728168 -0.06948253512 0.6503079534 -0.1838873476 0.3764773309 0.9074217677
-0.2016489208 -0.04087039828 0.6469109654 -0.1264671236 0.07416927814 0.9886516333
-0.1091761068 0.01214740053 0.6567605734 -0.1534628421 0.1327044368 0.9776110053
0.0008716103621 -0.03382242098 0.7076013684 -0.1497722417 0.004315740895 0.9880207777
-0.002467964543 -0.06406552345 0.7001228929 0.1362673789 -0.7475449443 0.6162609458
0.05299037322 -0.009891743772 0.679623127 -0.3545203805 -0.6461330056 0.6561802626
0.04877753183 -0.02157318778 0.6943045855 -0.179811582 -0.6272395253 0.7329798341
0.05054519698 -0.008870322257 0.6889461279 -0.2614789307 -0.6142631173 0.7248925567
0.0512096025 -0.003186060581 0.6721074581 -0.3967207372 -0.6289476156 0.6666662097
0.05721104518 -0.02478308789 0.6746643186 -0.566796124 -0.4959046245 0.5703384876
0.04580591992 -0.03785234317 0.7050151229 -0.06502832472 -0.6179556847 0.7578182817
0.05031423643 -0.04108072445 0.6732893586 0.5244117975 -0.3877966404 0.4181602597
0.04868159816 -0.03908248618 0.6936174035 -0.05740705878 -0.6940279603 0.5384130478
0.05430805311 -0.03407684341 0.6661015749 0.2163896114 -0.3303216398 0.4388171434
0.0480027236 -0.04253083095 0.6867626905 0.323651731 -0.572483778 0.4751296639
0.05781402066 -0.02853745036 0.6607307792 -0.325405091 -0.3066720366 0.5101156831
0.05754829943 -0.007372815162 0.6731801033 -0.4563741088 -0.6103540659 0.6430588961
0.05725999922 -0.01738477871 0.6775279641 -0.4142957628 -0.6029770374 0.6514661312
0.04867270961 -0.03291402012 0.6987423897 -0.1387474984 -0.6189348102 0.7393918633
0.05177661777 -0.01939889044 0.6865290999 -0.2799102366 -0.6327921152 0.685565412
0.05197663605 -0.02884838916 0.6916784048 -0.2347212136 -0.6080535054 0.710889101
0.05385818705 -0.027746059 0.6845144033 -0.3998760283 -0.5304484367 0.6552875042
0.05532366782 -0.02312898822 0.6504653692 -0.4656879902 -0.4970594943 0.7267465591
0.04638564214 -0.05219839886 0.671985209 0.5836091638 -0.5962684155 0.2211384773
0.04580948502 -0.04958683252 0.6836003661 0.403485477 -0.6750559211 0.3368615508
-0.1981564313 -0.06619329751 0.6479163766 -0.1694529504 0.3605383635 0.916459322
0.06052524224 -0.02073081024 0.6635364294 -0.6358082891 -0.4671858847 0.5834626555
0.05303219333 -0.009947092272 0.666570425 -0.4403481185 -0.6509750485 0.6182400584
0.06016372144 -0.01449709479 0.6691826582 -0.4987145364 -0.6025823355 0.6206591725
-0.1205092147 5.854997653e-05 0.6339976192 -0.4425689876 -0.2726966143 0.5564420819
-0.1339389533 0.004595297854 0.6449879408 -0.3015747666 0.08797106147 0.8240795732
-0.139360249 0.0007783044712 0.6525956392 -0.2435977012 0.253679961 0.9356336594
-0.1291145086 -0.005752781872 0.646254003 -0.3131691217 0.0313481167 0.7832766175
-0.1369971186 -0.005630087573 0.6459399462 -0.3373950124 0.07197638601 0.7920300961
-0.1125591025 -0.005943138152 0.6246331334 -0.5634051561 -0.5584000349 0.3387788832
-0.1291689575 -0.004348419607 0.6385250688 -0.4093472064 -0.1336244196 0.64580971
-0.1469799429 -0.00140612002 0.6516927481 -0.2631136179 0.2623429894 0.9283053875
0.04202764481 -0.04632239789 0.7073117495 0.04571935162 -0.7289014459 0.6720204353
0.008219708689 -0.02974483557 0.7087054253 -0.1136501133 0.008606200106 0.9927749634
0.02875535376 -0.02923712879 0.7103150487 -0.04549484327 -0.01619230583 0.9985860586
0.03754059225 0.01166114863 0.6768770814 -0.2715680599 -0.6047207713 0.7483409047
0.04595570639 -0.01335678529 0.6954135299 -0.2024941295 -0.5166223645 0.7773049474
0.03648175299 -0.02986960672 0.7088068724 -0.04809020087 -0.2494815588 0.9112451673
0.04943085834 -0.0006923830369 0.6870018244 -0.3056840003 -0.5174008012 0.753872335
0.04016796127 -0.008797099814 0.6931741834 -0.2059146762 -0.341760546 0.844397068
0.03819779307 -0.01557861827 0.6996245384 -0.1499091238 -0.2358585894 0.8953781128
0.04614927992 -0.03172775358 0.6435867548 0.05603625625 0.07271161675 0.9242617488
0.05659795552 -0.04955961928 0.650218606 0.3761319518 0.3764178455 0.8338633776
0.04666087404 -0.05823662132 0.6644362211 0.4776513278 -0.4131716788 0.2784953415
0.05072791502 -0.05413592979 0.658126235 0.4536480308 0.1159637421 0.6088374853
0.05038099363 -0.04653173685 0.6613895893 0.794259131 -0.1765925139 0.3785583079
0.04914802685 -0.04463948682 0.646902144 0.278396219 0.3619476557 0.8841101527
-0.1887992173 -0.0436292775 0.646112442 -0.2009412199 0.09597587585 0.9736075997
-0.1917766184 -0.05180203915 0.6462396979 -0.1826995164 0.1819009632 0.9644449949
-0.2037700266 -0.05759479851 0.6483564973 -0.127396822 0.2824852765 0.947814703
-0.2018289268 -0.07946744561 0.6596035361 -0.2812871039 0.4858964682 0.8243552446
6.447393389e-05 -0.01479240879 0.6512752771 -0.003071340267 -0.4675657451 0.883577764
-0.003140654648 -0.006926376838 0.6565690041 -0.04761436954 -0.4938319921 0.868011117
0.02178295515 -0.03363408148 0.7100108862 -0.05152059346 -0.01482590195 0.9982050061
0.002202469623 -0.07050314546 0.6772697568 0.183715716 -0.9541072249 0.230758369
0.003862427082 -0.06466243416 0.6965631247 0.1828047484 -0.7545614839 0.5197759867
0.004905487411 -0.04945920035 0.7072697282 -0.108769156 -0.0961175561 0.9862216711
0.01402354054 -0.05648607388 0.7096191049 -0.05599056184 -0.09333508462 0.9933658242
0.008376063779 -0.05972439796 0.7069203854 0.07593534142 -0.4250599742 0.7993912101
0.04313699901 0.005669440608 0.6755594015 -0.3252746165 -0.620788455 0.7125591636
0.002544713905 -0.00255964091 0.6601305008 -0.07881511748 -0.5388029218 0.8385848999
-0.004476296715 -0.0712229684 0.6830734015 0.08160641789 -0.9243761897 0.2953888774
-0.009102355689 -0.07117076963 0.6889603734 -0.005247269757 -0.8897470832 0.3664965332
-0.003850155976 -0.06763829291 0.6932036281 0.09433228523 -0.8113663197 0.4935939312
-0.01157197263 -0.06875117868 0.6985522509 -0.04757928476 -0.7982674241 0.5335461497
-0.1254046559 0.006364891771 0.6431460977 -0.3305078149 -0.01977795549 0.7523238659
-0.1322994232 0.01122812461 0.6515628099 -0.2254099995 0.2310167551 0.9427626729
-0.127052635 0.002177075017 0.6547294855 -0.2108314633 0.2244418263 0.9512767792
-0.1057739779 -0.0072096535 0.6196708679 -0.623676002 -0.7222036719 0.2200386822
-0.117140986 0.007351437584 0.6454672813 -0.3036972284 -0.03177238256 0.7724465132
-0.1164070442 0.005738899112 0.6574282646 -0.1692907363 0.180875957 0.9678340554
-0.1125939935 8.783637895e-05 0.6603958607 -0.1400336623 0.1490768492 0.9781128168
-0.1218690649 -0.002262324095 0.6574598551 -0.1908192784 0.1973862052 0.9604042768
-0.1557519883 -0.003800934413 0.649931252 -0.2361101061 0.2292065769 0.9423965216
-0.1517845392 -0.0129280882 0.6517354846 -0.2822822034 0.2795813084 0.9175730944
-0.04302525893 -0.05320446566 0.6498994827 -0.03150040656 0.116692245 0.9866863489
-0.03465619311 -0.05193124339 0.6531001329 -0.04008673131 0.168429926 0.9690473676
-0.01425925363 -0.0395614244 0.7039571404 -0.1725072265 0.01846317574 0.9847524762
-0.01788839512 -0.04900849983 0.7032473087 -0.1311477274 -0.2073091269 0.9078913331
0.0433370322 -0.05644469336 0.6841670275 0.291113615 -0.8699579239 0.2093996555
0.04310669377 -0.05136658624 0.6971296668 0.1603697836 -0.8247891068 0.4427623749
-0.1888223439 -0.02715180442 0.6460900307 -0.1669513285 0.04279508814 0.9849596024
-0.1969346255 -0.03443950415 0.6469300389 -0.1398761272 0.05243191868 0.9885303378
0.0599216111 -0.02965178527 0.6519969702 -0.6305759549 -0.1702475697 0.6049824953
0.05514598638 -0.04198000953 0.6553651094 0.518558085 -0.03384200111 0.5417909622
0.05459758267 -0.03084344044 0.6443344951 -0.3915011883 -0.1975670457 0.8675533533
0.0600993 -0.03528803214 0.6424911618 -0.6268729568 -0.07354640216 0.7696331143
0.04277249798 -0.03863130137 0.6473500133 0.1744138002 0.2408577055 0.9313557744
0.0423665233 -0.04603066295 0.6534986496 0.2510718107 0.3959687054 0.8682997227
-0.1869576871 -0.05907228962 0.6476370096 -0.2559641302 0.2731577158 0.9247415066
-0.1834601611 -0.05111858249 0.6475641131 -0.2717692852 0.1823559105 0.9421047568
-0.1623566002 -0.07426376641 0.6754572392 -0.4666168094 0.4623014927 0.7515259981
0.02961884439 0.009030323476 0.6726362705 -0.2269000262 -0.601570189 0.7652382255
-0.01473241486 0.01210771874 0.6761625409 -0.1214027479 -0.4960912466 0.8416578174
-0.00847846549 -0.03276146203 0.7052220702 -0.176394552 0.01094567403 0.984249115
-0.01026796922 -0.01631571725 0.6966082454 -0.1552439034 -0.1201332957 0.944984138
-0.01351201814 0.0003568609536 0.6844159365 -0.136241883 -0.3460153043 0.8831799626
-0.008231646381 -0.02336064726 0.7019536495 -0.1631058455 -0.02115901932 0.9716028571
-0.008708274923 -0.009384085424 0.6923850775 -0.1466127485 -0.1986237615 0.921489656
-0.0123898983 -0.0192441158 0.6489679813 0.05548804626 -0.3385212719 0.9384812117
0.04066793248 -0.02425423823 0.6460511684 -0.1678386182 -0.4577071369 0.8662816286
-0.004507460166 -0.02097700723 0.6490052342 0.02662182041 -0.3999584615 0.9144868851
0.006828669459 -0.04086279869 0.7085726261 -0.1114589125 -0.0179035794 0.9935678244
0.01287941914 -0.04707200825 0.7091544271 -0.07561153173 -0.05234821141 0.9949454665
0.01118710544 -0.06695072353 0.6769568324 0.2491414994 -0.9347181916 0.2465555817
0.0153270131 -0.06508693844 0.6836001277 0.2159273326 -0.7549334764 0.3714730144
0.01086056326 -0.06469742954 0.6922513843 0.1052250788 -0.565588057 0.5667306185
0.01650808007 -0.06070749462 0.697981298 0.07847870141 -0.3899495304 0.7127782106
0.007312072907 -0.06795834005 0.6858475804 0.1500722617 -0.7457561493 0.4088749588
0.01985461824 -0.06503197551 0.6765031219 0.3114151657 -0.9052218199 0.2129722983
0.02058133855 -0.06102427095 0.6902346015 0.1780057549 -0.5590668321 0.5380795002
-0.003099996364 0.006578146946 0.6647531986 -0.1066419855 -0.5406216979 0.8344313502
0.001068192651 -0.01254108548 0.6943542957 -0.145762369 -0.1727391481 0.9258946776
0.00324209989 -0.01884111203 0.6990588307 -0.1452887952 -0.08666228503 0.9531017542
0.005340287462 -0.005836388562 0.6891546249 -0.1348177791 -0.276084125 0.8972055316
0.008284172975 0.01072848868 0.6767962575 -0.1321217269 -0.5127959847 0.8255275488
0.005906559527 0.003790356452 0.6818929911 -0.1305012107 -0.4137634039 0.8557126522
-0.01042616833 0.01792067103 0.673247993 -0.1194641292 -0.5564188957 0.822170794
-0.006250780076 0.01295352075 0.6687446237 -0.1150907725 -0.5474551916 0.8288084269
-0.007173480932 0.006558677182 0.679780066 -0.1286683828 -0.4220444858 0.8596502542
-0.003808003617 -0.001635549357 0.685762465 -0.1381140351 -0.3128874302 0.8884212971
3.305468636e-05 0.01169185899 0.6755949855 -0.1239522323 -0.5124241114 0.8294988871
-0.1388310194 -0.01515247393 0.6541685462 -0.1759520322 0.2901787758 0.9114798307
-0.1287088692 -0.01357920654 0.6419059634 -0.3714559078 -0.1218798161 0.5954645276
-0.1213913262 -0.01426510792 0.6353777051 -0.4418967366 -0.3384830356 0.4141807556
-0.1150720567 -0.01436237805 0.6301611662 -0.4968594015 -0.5137588382 0.2702532113
-0.1355905831 -0.006723110564 0.6543030739 -0.2141113877 0.244466275 0.9452534318
-0.1440487057 -0.008506494574 0.6532925367 -0.2539505661 0.2798893452 0.9242257476
0.005627991166 0.02076567151 0.6748408675 -0.1400586814 -0.5733571053 0.8070204854
-0.02943962812 -0.04835320264 0.7014740109 -0.3801508844 -0.3644445539 0.7711490989
-0.04986156896 -0.06636049598 0.6870146394 -0.09901142865 -0.03304127231 0.6696743369
-0.0524171032 -0.07087117434 0.6780313849 0.04441368207 0.187045902 0.7523211241
-0.04328348115 -0.06888623536 0.6833662987 -0.1370589286 -0.09735544026 0.7366952896
-0.0554167144 -0.07253279537 0.6690786481 0.1415083408 0.4248359203 0.8188712001
-0.03772800043 -0.06596652418 0.6988226175 -0.3110283017 -0.5152065754 0.6230330467
-0.04863914102 -0.07251401246 0.6626676917 0.06084672362 0.4217336178 0.8957257271
-0.04282792658 -0.06735543907 0.6938428283 -0.1992801428 -0.3162829876 0.6488249898
-0.0472586453 -0.05375633389 0.6873914003 -0.3446856141 0.04593088478 0.7092347741
-0.05316341668 -0.04707214609 0.6725618243 -0.2500475049 0.03891419992 0.8821296692
-0.06452698261 -0.05959868059 0.6669489145 0.1054453701 0.3746891916 0.8578674197
-0.05381288007 -0.05897903815 0.682346046 -0.1533175558 0.212053299 0.7233939767
-0.05171133205 -0.05143742263 0.6786661148 -0.2547379434 0.07807834446 0.8013462424
-0.05765978992 -0.05417207628 0.6722762585 -0.09474980086 0.2012602538 0.8423926234
-0.03870209679 -0.05689642951 0.6977621913 -0.4617697597 -0.4475866556 0.5889307857
-0.04561024159 -0.05969342217 0.6913304925 -0.2951064408 -0.2040213943 0.6321629286
-0.05869131163 -0.06507123262 0.6791696548 0.02172955684 0.2538955808 0.7132875919
-0.09976356477 -0.01007516682 0.6241032481 -0.7677103877 -0.5536435246 0.3109644651
-0.1066262126 -0.00235608709 0.6290503144 -0.5459324121 -0.4795912802 0.4091031253
-0.02197107114 0.009781658649 0.6758847833 -0.1083054543 -0.4534124732 0.862359941
-0.02064990439 -0.01710668765 0.692209363 -0.1490241885 -0.1385323256 0.9436464906
-0.02255554311 0.002242762595 0.679772675 -0.1190943345 -0.3680438697 0.8840304613
-0.02101448923 -0.009288447909 0.6874768138 -0.1371973902 -0.2300292701 0.9200339913
-0.02157529257 -0.02544077858 0.696305871 -0.1607674807 -0.04501217604 0.9672750831
-0.01711666957 -0.07144257426 0.6841531396 -0.09692686796 -0.9200341105 0.2747300565
-0.02013966255 -0.07100150734 0.700409174 -0.2010871023 -0.8223413229 0.5045695305
-0.1479482949 -0.03612973541 0.6642634869 -0.3230176866 0.3926230371 0.8581419587
-0.01502727345 0.004439234734 0.6614474654 -0.09964922816 -0.5030250549 0.8583590984
-0.009667465463 -0.01120585203 0.6529924273 -0.01838899776 -0.4305353463 0.899684608
-0.006770782638 0.0009959449526 0.6602674127 -0.0985929966 -0.5255712867 0.8448992968
-0.004726212006 -0.05052556098 0.7058914304 -0.1586055607 0.002273147693 0.986630857
-0.0003046659403 -0.05701208487 0.7056684494 -0.05967372283 -0.2781079113 0.910979569
-0.1028816476 0.006080943625 0.6601586342 -0.09899959713 0.07206352055 0.9911873937
-0.01496628672 -0.0526863113 0.6635842919 0.01450639125 -0.7249776125 0.4044975638
0.05129043758 0.007552500349 0.6815835834 -0.3549932539 -0.6021827459 0.7145817876
0.02832371183 -0.01070994884 0.697547853 -0.1262843609 -0.2418976128 0.9071105123
0.02918470278 0.01113027148 0.6855871677 -0.2143124342 -0.4885254204 0.8124880195
0.02527031861 -0.01666025631 0.7012939453 -0.08846350759 -0.1585927159 0.9440865517
0.04123798758 0.01032975409 0.6839357615 -0.2704115212 -0.5485602617 0.767955184
0.03666918352 0.002202347852 0.6891213655 -0.2167978138 -0.4324995875 0.8200417757
0.03162993118 -0.02313749306 0.70427531 -0.07400017977 -0.1029565707 0.9620869756
0.03761313483 -0.03999147564 0.710098803 -0.02456952631 -0.2947009206 0.906863451
0.03446279094 -0.05152619258 0.707229197 0.05614436418 -0.5340591073 0.8326157928
-0.1405844539 -0.02556473762 0.6620187163 -0.1770436317 0.3736879528 0.9090124965
-0.1275883168 -0.007683360949 0.657381773 -0.1937358975 0.2342718691 0.9508746266
-0.1455901116 -0.04896714911 0.674048245 -0.2600725591 0.4128992856 0.8724443913
0.05975021049 -0.04423345253 0.6450031996 0.2206127644 0.289586395 0.8611435294
0.02930338308 -0.03109165281 0.6538644433 0.02585345879 -0.291261971 0.844814539
0.03616906703 -0.03342276439 0.6509644389 0.04753070697 -0.04680675268 0.9334695935
0.03705307096 -0.04061023891 0.6555536985 0.1411468238 0.1805454642 0.8994384408
-0.1810759157 -0.02314187028 0.6473537683 -0.1846055239 0.06100226939 0.9805745482
-0.1667674631 -0.06757864356 0.6630743146 -0.5418567061 0.4406944513 0.7137215734
0.01722639799 0.01066560391 0.6799551845 -0.1552713811 -0.5000513792 0.8252689838
0.02301238291 0.007192289922 0.6889095306 -0.1896518171 -0.4184982181 0.8394739032
0.02359819971 0.0151172718 0.6831550598 -0.20407857 -0.5245682001 0.803334415
0.01670395769 -0.01867526583 0.7030128241 -0.1129491106 -0.09779154509 0.9586240053
0.01595331542 -0.005692656618 0.6917653084 -0.1250622869 -0.2814789414 0.8998832107
0.01684089378 0.001664896263 0.6867886782 -0.1407712698 -0.3779597878 0.8662383556
0.02461525612 -0.00320569193 0.6939219832 -0.1519755721 -0.3057233989 0.8850948811
0.01938376017 -0.01221013721 0.6991010308 -0.1348362118 -0.1817974895 0.9280433655
0.02171215229 -0.02548348904 0.7063758373 -0.05923523754 -0.04349384457 0.9871520996
0.03040894866 0.01547459792 0.6772646308 -0.2351309359 -0.5907546282 0.771397531
0.02059614658 -0.04275608808 0.6643493176 0.1551490873 -0.6526144147 0.5670298338
0.03477972001 -0.05368878692 0.6666389704 0.2850245535 0.3725602627 0.7597010136
0.01715730503 -0.05269884691 0.6718959212 0.2466562986 -0.8068793416 0.3971329331
0.0243301969 -0.04941387847 0.6673836112 0.2262548208 -0.3544220328 0.5807833076
0.03052173741 -0.04626973346 0.663290143 0.2056304961 0.03382232413 0.7423264384
0.0249303896 -0.05734445155 0.6737706065 0.3478026986 -0.757705152 0.2605002224
0.01969196834 -0.007124115713 0.6589630842 -0.05872217938 -0.5967375636 0.7995421886
0.01842145436 -0.01231273077 0.6529482007 -0.03322440386 -0.5720769167 0.8181640506
0.01140500233 -0.03995609656 0.6637994051 0.1416588426 -0.6979666352 0.5839703679
0.01979035139 -0.03483534977 0.6594882607 0.08304736018 -0.6726783514 0.6531318426
0.02230418101 -0.02903023362 0.654936552 0.0259778779 -0.6120700836 0.7455797791
0.02358194627 -0.05663254857 0.6990166903 0.07151754946 -0.3024835289 0.78533566
0.05271156877 -0.01498639118 0.6595923305 -0.3884561062 -0.6581065655 0.6436027884
0.03723708913 -0.06081635505 0.6791353226 0.3351334631 -0.8779551387 0.1839796901
0.04159218445 -0.0630018115 0.6724770665 0.4157459438 -0.8914567232 0.03235404566
0.03597096354 -0.05409580469 0.7004971504 0.1285815239 -0.6781198382 0.644318223
0.03666720167 -0.0568780452 0.6909540296 0.2196668237 -0.7961815 0.4225009084
0.02988407947 -0.06284879148 0.6750991344 0.3585573137 -0.8985719085 0.1635714173
0.0298341047 -0.05891206115 0.6876858473 0.240277037 -0.7723290324 0.4329079688
0.008728465997 -0.02415323071 0.7037982941 -0.1284525841 -0.02062802762 0.9786367416
0.01202778425 -0.01358109061 0.6961542368 -0.1230553314 -0.1735097021 0.9335612655
0.02052476257 0.01421329565 0.6733250022 -0.1843421459 -0.5871296525 0.7876340747
-0.04681781679 -0.04508434236 0.6517176628 0.01966186054 0.06914976984 0.9913624525
-0.0376993455 -0.0377757363 0.6520467997 0.1101057231 0.04100926593 0.9895421267
-0.03914804757 -0.04453558102 0.6499672532 0.04439808801 0.08210492134 0.9895884991
-0.04363491759 -0.070225209 0.674380362 -0.08513829857 0.09455265105 0.8111806512
-0.0391141139 -0.07115229219 0.6677961349 -0.1423908472 0.2350598723 0.8622416854
-0.03693764284 -0.06769927591 0.6874123216 -0.2709295452 -0.264280498 0.7152030468
-0.03125214577 -0.06971699744 0.6764309406 -0.3054991961 -0.007040621247 0.8048267365
-0.04080677778 -0.07222053409 0.659596622 -0.07540965825 0.3891537488 0.9124091864
-0.03223464265 -0.07087210566 0.6603506207 -0.2114407271 0.3081712127 0.9230004549
-0.03866811842 -0.04601386935 0.6927342415 -0.598215878 -0.1877416819 0.7081550956
-0.09443327785 -0.01651499048 0.6293036938 -0.8184146285 -0.4021397233 0.3976588547
-0.09799756855 -0.02437821776 0.6272684932 -0.2440939695 0.2318537533 0.3640523851
-0.08854802698 -0.03007894382 0.6358395815 -0.8051113486 -0.1597377211 0.5673729777
-0.09970909357 0.003851332935 0.6423258185 -0.4354062378 -0.2434391528 0.6478084922
-0.09949594736 -3.471570744e-05 0.6361308694 -0.565933764 -0.3631081283 0.5148307085
-0.1075269133 0.005641106516 0.6443408132 -0.4008088708 -0.1039275229 0.7170199156
-0.09449265152 -0.009442914277 0.6319665909 -0.7972234488 -0.4717094302 0.3630260825
-0.08993305266 -0.01386571955 0.635588944 -0.8222224116 -0.3723445237 0.4248016477
-0.01843335293 -0.0105151562 0.6533176303 0.008238577284 -0.3716369569 0.9260268211
-0.01544104982 -0.00337401405 0.65738976 -0.06218980625 -0.4469826221 0.8917185664
-0.02624865435 -0.0401013419 0.7008948922 -0.313421905 -0.04313000664 0.8926236033
-0.01648850739 -0.03050818481 0.7028538585 -0.1700842679 0.01777861826 0.9852399826
-0.08081290126 -0.04379608482 0.6646344662 0.2902542949 0.2558782101 0.8862063289
-0.06617007405 -0.03787238523 0.658752501 -0.1361620873 0.01007729955 0.9692209363
-0.09148868918 -0.04136890545 0.6665279865 0.4077754021 0.2436679155 0.874689579
-0.02992509305 -0.06757453084 0.6942998171 -0.3524935544 -0.4655509889 0.6639249921
-0.02601567656 -0.07055103779 0.6832667589 -0.3011331558 -0.2025479376 0.7480946779
-0.01628373563 -0.07176981121 0.6741287708 -0.0600262396 -0.8722012639 0.2065429538
-0.02324653231 -0.07204856724 0.6763461232 -0.2518533766 -0.1369544417 0.7312450409
-0.0226476714 -0.07232777774 0.6676781178 -0.226586774 -0.05265692249 0.7032866478
-0.02598050982 -0.06511472911 0.7035865188 -0.2439138144 -0.7248874307 0.6400101185
-0.03282727301 -0.05774107575 0.702495873 -0.4500653148 -0.6391258836 0.5947639942
-0.02222565562 -0.05568236858 0.7025136352 -0.08366852254 -0.5699184537 0.7941528559
-0.01541125402 -0.05995777994 0.7036147714 -0.1227195114 -0.4895270765 0.8240510225
-0.15191181 -0.04580454901 0.667437315 -0.408118695 0.385809809 0.8221063018
-0.1117370352 -0.03150361404 0.6512218714 0.01155163534 0.3422124386 0.7918284535
-0.0967875272 -0.03047111444 0.6367937922 -0.5191797018 0.04549948871 0.5738695264
-0.1038608626 -0.02851688117 0.6387800574 -0.04905530438 0.3642126322 0.5642619729
-0.1312366277 -0.04571937397 0.6723383069 0.04553996399 0.4015598297 0.9014493823
-0.1443190724 -0.07678835839 0.6855068207 -0.23792997 0.4226443172 0.8733447194
-0.1364221573 -0.07692926377 0.6855205894 -0.1071702838 0.4592638612 0.8745990992
-0.02400315553 -0.04674960673 0.6570023894 0.05628634989 -0.2917197645 0.5409705043
-0.01960431226 -0.05848154798 0.6634691358 0.04849610105 -0.756603241 0.04416669905
-0.02098467574 -0.03151383251 0.6511265039 0.1036189497 -0.1739479005 0.8683953881
-0.02128174901 -0.03913636133 0.6544333696 0.08991713077 -0.3151477277 0.6452553272
-0.03069438599 -0.06009205431 0.6581495404 -0.1635222584 0.2277596742 0.94343853
-0.02594918944 -0.06438039243 0.6631671786 -0.2487325668 0.2662606835 0.9193917513
-0.02884218283 -0.03801721707 0.6506611705 0.05584049225 0.09392780066 0.9821612239
-0.12054196 -0.03315153345 0.6662879586 0.0285912808 0.2774229348 0.949208796
-0.1153459549 -0.02713222802 0.6629579663 -0.01592760533 0.1814232767 0.9782060385
-0.1193610281 -0.04305859655 0.6709463596 0.1050528362 0.3305281997 0.9342229366
-0.1285991669 -0.03441269323 0.6681337357 0.03007560223 0.3587868214 0.9228888154
-0.1301089674 -0.02605380677 0.6646734476 -0.05413261801 0.2963334024 0.9423729181
-0.1263438463 -0.01665282436 0.6613173485 -0.1230109781 0.169276163 0.9755954146
-0.148023814 -0.06979811192 0.6806249619 -0.3113037646 0.4281692207 0.8466697931
-0.1381421685 -0.06137919426 0.6768332124 -0.1090345234 0.4145028591 0.8953246474
-0.1457633227 -0.06281515211 0.6784101129 -0.2804259956 0.4329045117 0.8563102484
-0.1629575938 -0.0561609529 0.6596462131 -0.5797763467 0.3438282013 0.7367630601
-0.150708884 -0.02290052734 0.6547271013 -0.2965168059 0.310400933 0.9022753835
-0.1517295688 -0.03066924214 0.6593788862 -0.3459865749 0.3394631147 0.8710032701
0.03075731173 -0.004595370032 0.6597581506 -0.1379087865 -0.6360434294 0.7583063245
0.03184080496 -0.009968868457 0.6535841823 -0.104224354 -0.6250808239 0.7732716799
0.02890621498 0.001550430665 0.6659781933 -0.1989010274 -0.63113451 0.7473281026
0.03918106854 -0.01038767118 0.6569919586 -0.2020064443 -0.6693031788 0.7099437714
0.04566242918 -0.01833372377 0.6484922171 -0.2335860878 -0.6058671474 0.7553051114
-0.164897114 -0.01018511504 0.6479994059 -0.2044377029 0.1693944335 0.9633578062
-0.1837370843 -0.03552201763 0.6457645893 -0.1873539388 0.05238037184 0.9776991606
-0.1733213961 -0.06738931686 0.6584216356 -0.4956365526 0.4450306892 0.7414727211
-0.1511157751 -0.08188971132 0.6834954619 -0.3373121321 0.4345780611 0.8277971745
-0.1616549045 -0.08283720911 0.678545177 -0.4800016284 0.4602082968 0.7465372682
-0.1543650925 -0.07460247725 0.6785167456 -0.4155262411 0.4384242892 0.7908395529
-0.03798368946 0.01311967243 0.6635946631 -0.05635108799 -0.4550987482 0.8868358135
0.03280821443 -0.02599625289 0.6476331353 -0.01641088165 -0.3267831206 0.8931930661
0.03166878968 -0.0175213851 0.6480072141 -0.08789562434 -0.5989111066 0.7953784466
0.02533664182 -0.02258112095 0.6496466994 -0.04052735865 -0.562147975 0.8258486986
-0.004631015006 -0.02902084589 0.654424727 0.0749033913 -0.4313721359 0.8337166309
0.00336507149 -0.0259484835 0.6539645791 0.01977685839 -0.5008085966 0.82424891
-0.005422958639 -0.03526512533 0.6584591866 0.1195563003 -0.495069474 0.7421252131
0.001898802235 -0.03966802359 0.6628836989 0.1166922227 -0.6443872452 0.6210474372
-0.000770269311 -0.04601537809 0.6666110158 0.1702075601 -0.6844392419 0.5413082242
-0.01127784885 -0.02693725377 0.6516929865 0.09012869745 -0.3185527325 0.913827002
0.008903170936 -0.04732706398 0.6687886715 0.1765436977 -0.7838926911 0.47217834
0.005012550857 -0.03338720649 0.6592767239 0.06251192838 -0.6100898981 0.6969946027
0.004367911257 -0.05898813531 0.6756072044 0.1897260398 -0.9311282039 0.2836816311
-0.01162999403 -0.05830001831 0.667984128 0.02325524017 -0.840831697 0.3098755777
-0.01383227482 -0.03332123905 0.6545336246 0.08864173293 -0.3912400007 0.8092487454
0.001248952234 -0.05322902277 0.6713177562 0.1772314161 -0.8147050142 0.400854975
-0.00901022274 -0.0449709557 0.6625337005 0.09821507335 -0.619474709 0.5733872652
-0.01033952739 -0.06650630385 0.6726716161 0.02271210775 -0.9767414331 0.1756860316
-0.002058089245 -0.0640655607 0.6752436757 0.1466600001 -0.9472180605 0.2743054628
0.01607156731 -0.02058695257 0.6513238549 -0.02157023735 -0.5372527242 0.8431050181
0.01121825539 -0.009244773537 0.6558591127 -0.02648188919 -0.5530117154 0.8319242597
0.01981648616 -0.0418522507 0.7099291682 -0.05315119401 -0.04937974364 0.9972239733
0.02770163305 -0.04484164342 0.7090471983 -0.02498314157 -0.08908786625 0.9877204299
0.02232023329 -0.05034451187 0.7091555595 -0.02882097475 -0.1132957265 0.9825733304
0.0410968326 -0.002230402548 0.6673038006 -0.332306087 -0.6607066989 0.6699448228
0.008687363937 0.000932269264 0.662592411 -0.1016019583 -0.5604318976 0.821528852
0.007671689615 0.01237007417 0.668630898 -0.1214855686 -0.5724937916 0.8106636405
0.02135775797 0.001608578255 0.6645646691 -0.1413100213 -0.6061059237 0.782114923
0.01494390238 0.005568513647 0.6657445431 -0.1340557188 -0.580814898 0.8028693199
0.01383312047 0.02091699839 0.6754535437 -0.153159067 -0.5798422098 0.8001577854
0.02117832564 0.00767201744 0.6697779894 -0.180750832 -0.586167872 0.7889393568
-0.0338697806 -0.03227220848 0.6877354383 -0.2529077828 0.04857820272 0.926030457
-0.0324379392 -0.03670467064 0.6951773763 -0.5451518893 0.0822442472 0.7851872444
-0.04035810754 -0.02896014228 0.6763060689 -0.1107097641 0.03797769174 0.9826955795
-0.05014976487 -0.02023393475 0.6620393991 -0.02245735377 -0.06652485579 0.9916239977
-0.0457303226 -0.02507524937 0.6682718396 -0.05695394054 -0.001622969052 0.9927768111
-0.04742607102 -0.03761421144 0.6542676687 0.05346994847 0.0416469425 0.9936210513
-0.058081761 -0.03039585426 0.6560671329 -0.09314721823 -0.009627739899 0.9940465093
-0.04567793757 -0.03475303948 0.6728790402 -0.3025031686 0.04436377436 0.8893960714
-0.05207085609 -0.03522157669 0.6614605188 -0.1475810707 0.01119664591 0.9639219642
-0.05226739123 -0.06195621938 0.6526092291 0.03319784254 0.2417242825 0.9613128304
-0.04313953221 -0.0621996969 0.6523660421 -0.1164321005 0.1810169071 0.9726759791
-0.06701523811 -0.03562076017 0.6518387794 -0.3757678866 -0.02419140376 0.8668429255
-0.07481587678 -0.03561970219 0.6489548683 -0.572445631 -0.04119471088 0.7817276716
-0.05658007413 -0.0444249548 0.6530433297 -0.06153643504 0.07125890255 0.9905671477
-0.06233069673 -0.04823871329 0.651307404 -0.01816585101 0.1495267153 0.9818964601
-0.05252123997 -0.05382342637 0.650026381 -0.08644758165 0.09285303205 0.990899086
-0.05946869031 -0.05916282907 0.6518526077 0.03982649744 0.3333372474 0.9058600664
-0.06489361823 -0.0669984594 0.663146615 0.271676302 0.5568661094 0.7829589248
-0.05794311315 -0.06553883851 0.6562513709 0.1103525087 0.4979671538 0.8529903889
-0.02799045667 -0.02755046636 0.6925640106 -0.1462809294 -0.02149010636 0.9791569114
-0.03640338033 -0.01328749675 0.6765316129 -0.07615042478 -0.1516427845 0.967969358
-0.03067926876 -0.02268520556 0.6875184178 -0.1247391775 -0.06839450449 0.9738542438
-0.0403297469 -0.00706272712 0.6689388156 -0.04219199345 -0.2049144953 0.9651795626
-0.03339040279 -0.005613842979 0.6731359363 -0.08671667427 -0.2689113319 0.9340395927
-0.03948623314 0.001147889765 0.6664381027 -0.04967138544 -0.3283214569 0.9300509691
-0.03193921968 -0.01630512439 0.6826655865 -0.1117939427 -0.1449883878 0.9579852819
-0.04503523186 0.002971933223 0.6594538689 -0.005237192847 -0.2964899242 0.9535904527
-0.09997902066 -0.02051707543 0.6637507677 0.1440579295 0.1037403047 0.9605286717
-0.1041203067 -0.03061526082 0.662907362 0.04373057187 0.1928483695 0.9631831646
-0.02644778043 -0.01077911351 0.6528806686 0.03400781751 -0.3174940944 0.9451000094
-0.03789953515 -0.0007549157599 0.6573635936 -0.01093043853 -0.3317725062 0.9414819479
-0.02978840284 -0.001988479868 0.6563012004 -0.01902520284 -0.3855420947 0.9194051027
-0.09426171333 0.0140896216 0.6596916318 -0.0588965416 0.0218577683 0.9965580106
-0.09512332082 0.00800869707 0.652320981 -0.2632984519 -0.1090015024 0.8231140375
-0.09374012053 -0.001851860899 0.6414526701 -0.5743422508 -0.3462010026 0.548481226
-0.0905027315 0.00332299876 0.6484401226 -0.3873338401 -0.2570697367 0.6984176636
-0.09663712978 -0.04381692782 0.6553465724 -0.02234511636 0.2687536776 0.844848156
-0.08210963756 -0.04838308692 0.646512866 0.1262410283 0.4253428578 0.7791420221
-0.09386686981 -0.03625523299 0.6428448558 -0.5029219985 0.01410579681 0.6726850867
-0.08888298273 -0.04285851121 0.6462755799 -0.1479685158 0.2377662659 0.7454946041
-0.09893963486 -0.04854761809 0.6615169048 0.1545156986 0.3488048017 0.9155055881
-0.09948398173 -0.04375483096 0.667109549 0.2823681831 0.292050153 0.9057574868
-0.1071274728 -0.04458363354 0.6693115234 0.1906400621 0.2815260887 0.935068965
-0.1099678203 -0.05933446065 0.6678543091 0.1692113429 0.4006703198 0.8989574313
-0.1018415615 -0.06044336408 0.6674354672 0.1796079725 0.4268624783 0.8858773112
-0.0881703496 -0.0545720309 0.6551879644 0.2392424643 0.4844343662 0.8381066322
-0.0952873081 -0.05865250155 0.6635999084 0.2001080662 0.4475463033 0.8692684174
-0.1023395956 -0.03316428512 0.646152854 -0.3984707892 0.0782892406 0.7300818563
-0.1012940928 -0.03865748644 0.6530786753 -0.2329233736 0.1409434378 0.8034761548
-0.1087698862 -0.03659814224 0.6566241384 -0.06190828979 0.2503058016 0.8715921044
-0.1057865098 -0.04197177663 0.6616992354 0.03552583233 0.274826467 0.9169206619
-0.1192099899 -0.05636027828 0.6747274995 0.1853490174 0.3799969554 0.9036039114
-0.1293959022 -0.05334806815 0.6747379899 0.07514765114 0.4110197425 0.9027565718
-0.1251285225 -0.05247280002 0.6689832211 0.07770961523 0.410268724 0.9048504829
-0.171160087 -0.04772237688 0.6530562639 -0.4692573249 0.2497237176 0.8436934352
-0.1724705696 -0.05555925518 0.6549640894 -0.4908776283 0.3246098161 0.8055155277
-0.1124585271 -0.007966645993 0.6612374783 -0.1087555215 0.1131301597 0.9873652458
-0.1148792803 -0.01521745976 0.6611448526 -0.1039677411 0.1044579968 0.9887931943
-0.1291843355 -0.07075638324 0.6829779148 0.03995151073 0.5046765208 0.8568078279
-0.1296173334 -0.06510284543 0.6774759293 0.05325743929 0.4620090127 0.8671478033
-0.1381404698 -0.06819730997 0.6814033389 -0.1270043105 0.4293774366 0.889369905
-0.1608370095 -0.06895416975 0.6694638133 -0.5209588408 0.4288878143 0.7353208661
-0.1572928131 -0.05515041202 0.666767776 -0.5673972368 0.3533007205 0.7414290905
-0.1482362598 -0.0571398586 0.668065846 -0.3064740896 0.3851185441 0.8119983077
-0.1363493353 -0.05528991297 0.6719194651 -0.03737174347 0.4060472846 0.8987209797
-0.1567173302 -0.06178749353 0.6717999578 -0.5020315647 0.4013034403 0.7634311914
-0.1623266041 -0.06198636442 0.6657778025 -0.5724467039 0.3924145997 0.7183789015
-0.1685821116 -0.08084264398 0.6724770665 -0.4766864777 0.4938827753 0.7241938114
-0.1772752851 -0.08042043447 0.6653669477 -0.4236030877 0.5600247979 0.7102451921
-0.1731709987 -0.07264939696 0.6643247008 -0.492932409 0.4882200062 0.7189674377
-0.1678183973 -0.07318718731 0.6701430082 -0.5175055861 0.4648473263 0.7164436579
-0.04384147748 -0.02548422664 0.6535824537 0.1621207446 0.06402657181 0.9846399426
-0.03640098125 -0.02639270015 0.6520605683 0.1507496685 0.02992405184 0.9868673682
-0.04776044562 -0.04154126719 0.6738286614 -0.3041533232 0.06868083775 0.8951101899
-0.04225533083 -0.03893498704 0.680803895 -0.4146546125 0.06379937381 0.8435148597
-0.05567979068 -0.04125212505 0.6602858305 -0.1106153727 0.0432164222 0.9839037061
-0.0444367379 -0.04630154371 0.6831329465 -0.4481594265 -0.1057641059 0.7950055003
-0.1211588308 -0.06370647997 0.674471736 0.1705523431 0.47599563 0.8623133898
-0.1079073101 -0.06772797555 0.6734957695 0.1838064641 0.496263504 0.8464044333
-0.09243518114 -0.07435176522 0.6808378696 0.1700757444 0.6198621392 0.7654488087
-0.0855243206 -0.07261237502 0.6772102714 0.1946128607 0.5493685007 0.8104094863
-0.1049031764 -0.05899966508 0.6738519073 0.1595110595 0.4047080576 0.8902858496
-0.1103656217 -0.05224476755 0.6713911891 0.1475490928 0.3258419931 0.9311701059
-0.1013188884 -0.05274717137 0.670502007 0.217200771 0.3634433746 0.8921324015
-0.0868761614 -0.06139010563 0.6718559265 0.2809816897 0.5229042172 0.7905869484
-0.0950422585 -0.05650939792 0.6715506315 0.2883711755 0.4341893196 0.8417938948
-0.09473134577 -0.06703887135 0.6763478518 0.2150838226 0.5171687603 0.8216053247
-0.07213107497 -0.07187252492 0.6712419987 0.2824292481 0.6052550673 0.7436499596
-0.08156972378 -0.03842890635 0.6402903199 -0.5592746735 -0.01985383593 0.712223351
-0.07337022573 -0.04763852432 0.6455653906 -0.2013234347 0.1579536796 0.8607206345
-0.0939450413 -0.03095700406 0.6644707918 0.3567155004 0.1258949041 0.9099174738
-0.06283119321 -0.07339388877 0.6700560451 0.2612122595 0.5491905212 0.7862268686
-0.05592526495 0.01134616975 0.6613710523 -0.013182397 -0.3400837183 0.9388929605
-0.04800252244 0.01171339024 0.6615154147 -0.02429013513 -0.3678795695 0.9279925227
-0.07997497171 -0.03052769415 0.6464738846 -0.7521703243 -0.1479298025 0.6354327798
-0.02562718838 0.006309140008 0.6603643298 -0.07606000453 -0.4692270458 0.8796119094
-0.09143809229 0.004332464188 0.6613953114 0.004114108626 -0.03910977021 0.9975734353
-0.1024044305 -0.008827352896 0.6624535918 -0.005612821318 0.0422492139 0.9978523254
-0.08158063889 0.006468826439 0.662086904 0.03347799554 -0.1352530122 0.9892596602
-0.0710542202 0.005515870173 0.6614786386 0.02783532627 -0.2193729132 0.9740229845
-0.08334509283 -0.006686941255 0.6615889072 0.2641057074 -0.1571522653 0.9317792654
-0.1725597233 -0.04118719324 0.6497699022 -0.3796892762 0.1695290506 0.9081850648
-0.1629655659 -0.01801555604 0.6497635841 -0.2369326055 0.2041952014 0.9495860338
-0.1748695225 -0.02817517892 0.6482394934 -0.2515301108 0.09184582531 0.9626629949
-0.1824719906 -0.07532015443 0.6575406194 -0.3874597251 0.5231686234 0.7561277151
-0.1929083318 -0.07989828289 0.6619073749 -0.333706975 0.545250535 0.7659878135
-0.1838387251 -0.06773668528 0.6535894871 -0.3379517496 0.4508917332 0.822484076
-0.1912100464 -0.07264659554 0.6562997699 -0.3202849925 0.4676478505 0.8217366338
-0.02783156559 -0.02617111616 0.6504188776 0.1258225441 -0.07262262702 0.9844052792
-0.03343482688 -0.00976414606 0.6541119814 0.04478153214 -0.2928131223 0.9534548521
-0.02389058284 -0.01919607073 0.6499629617 0.08746688813 -0.2478556782 0.9645986557
-0.07950399071 -0.07039620727 0.6723833084 0.2564793229 0.5957376361 0.7594573498
-0.06280920655 -0.0521318689 0.6630519032 0.01050511375 0.2461026013 0.9361990094
-0.08667778969 -0.05389687791 0.6677234769 0.3455740511 0.4602024555 0.8075507879
-0.07177961618 -0.05662386119 0.6658539176 0.1747399122 0.3965239823 0.8441277146
-0.07950918376 -0.05849294737 0.6678149104 0.3239293396 0.4989537299 0.7803941965
-0.07795768976 -0.0507540144 0.6652464867 0.2603485882 0.3695746958 0.8479723334
-0.07129450887 -0.04663768411 0.6628161669 0.1202991679 0.2442568094 0.9215506911
-0.07493886352 -0.06202398986 0.6606789827 0.2281664163 0.6204251051 0.7476956844
-0.06982110441 -0.05828583986 0.6536726356 0.1516517848 0.5044014454 0.846965909
-0.0787345469 -0.05676021427 0.6552380323 0.2596698701 0.5690231323 0.7761460543
-0.05238705501 -0.002937114099 0.6575879455 0.0050846003 -0.2600735128 0.9643428922
-0.06228370219 0.004957689904 0.6606299281 0.005868093111 -0.2750577629 0.961073637
-0.07067749649 -0.01630336419 0.6513061523 -0.2798735499 -0.246215716 0.8359289169
-0.0616848655 -0.02413831465 0.6522185802 -0.1829657108 -0.04679884762 0.8904088736
-0.0745825395 -0.02484629489 0.6466454864 -0.5447254181 -0.1978223771 0.6503811479
-0.08253273368 -0.01224547345 0.6415572762 -0.6006883383 -0.315623492 0.5798271894
-0.07694043964 -0.01642541774 0.6468150616 -0.4744738936 -0.2963362634 0.6924856901
-0.0608750172 -0.01535374206 0.6551265717 -0.04699764773 -0.1666792035 0.9825669527
-0.07561667264 -0.01663359068 0.658100903 0.1246466562 -0.147481516 0.9428497553
-0.07567234337 -0.008677149191 0.6587985158 0.1354932934 -0.1821471602 0.9503643513
-0.0840960741 -0.01370383333 0.6603218317 0.3124451041 -0.1545337886 0.9152165055
-0.05829688534 -0.007290123496 0.6564068198 -0.01609727368 -0.2269527912 0.972628057
-0.08276761323 -0.02859856002 0.6625825167 0.2777297795 0.02733740583 0.9143742919
-0.08706468344 -0.03429729491 0.6652173996 0.3879400194 0.1070228741 0.8942393064
-0.07416409999 -0.0240576081 0.6588830948 0.06456234306 -0.04287493229 0.9508670568
-0.08624664694 -0.02133652568 0.6619907618 0.3540036082 -0.06259585172 0.9046789408
-0.07580320537 -0.03303067386 0.6611634493 0.09849072248 0.04903714359 0.9381144047
-0.06872735173 -0.03028448857 0.6581561565 -0.08618849516 -0.0139458701 0.9667103887
-0.01626222953 0.01171701681 0.6668416262 -0.1109892726 -0.5184510946 0.8477097154
-0.02880981565 0.01489969902 0.6679151654 -0.0831079185 -0.5067005157 0.8574213982
-0.02931970917 0.001836569398 0.6727044582 -0.09264296293 -0.359890759 0.9016003013
-0.03253636509 0.007452914957 0.6657218933 -0.06864818186 -0.4201811254 0.8957440257
-0.02906498127 -0.007798044011 0.6786829829 -0.1097708866 -0.2505918145 0.9275878072
-0.08589684963 -0.02445245348 0.6407996416 -0.8219537735 -0.309182018 0.4732959867
-0.1008533612 -0.01750763878 0.6232546568 -0.3424196243 -0.1218893304 0.2437753826
-0.09398517013 -0.01183921937 0.6617062092 0.247667715 -0.0749047175 0.9398782849
-0.09120681137 -0.003066695761 0.6616211534 0.1148100868 -0.07762611657 0.9760528803
-0.06290469319 0.01250629779 0.6630311012 -0.01186262444 -0.2929638922 0.9558790922
-0.06713400781 -0.000489896629 0.6572278738 0.01640786417 -0.2656140327 0.96286273
-0.0775334537 -0.006463730242 0.6464534998 -0.286347568 -0.3297472894 0.7335087061
-0.07026163489 -0.007059519645 0.6506857872 -0.1452554017 -0.2461043596 0.85622859
-0.0791804716 -0.0002088855399 0.6528424025 -0.1705559343 -0.3261368573 0.8307651281
-0.07531284541 0.01144554466 0.6613506079 -0.02659564279 -0.2285405546 0.9597424269
-0.08388023078 -0.001498040627 0.6475285888 -0.3579207659 -0.3666980863 0.6925756335
-0.08240374178 0.006938276347 0.6536599994 -0.2527724504 -0.2764886916 0.7902852297
-0.1447055042 -0.03327962384 0.6572953463 -0.2419968396 0.3323975503 0.8787558079
-0.1360713392 -0.03138656542 0.6577279568 -0.116750069 0.339594841 0.9039667249
-0.1275711358 -0.03380161524 0.659070611 0.01421395224 0.3536270857 0.9168893099
-0.1342244893 -0.03844186291 0.6627365351 -0.03393134847 0.3862026036 0.9024258256
-0.128776446 -0.0426283963 0.6653834581 0.05264443532 0.4065223932 0.9095467329
-0.1162194684 -0.05180967972 0.6662888527 0.1391921192 0.3886535466 0.9089161754
-0.1211515963 -0.0399575755 0.6620600224 0.1009114608 0.3721012175 0.9210159183
-0.1261660904 -0.01726394705 0.6490494013 0.01739668846 0.3863411844 0.7792436481
-0.1312427074 -0.0167843774 0.6553866267 -0.09490620345 0.2763870358 0.9158949852
-0.1097663268 -0.02014623769 0.6315059066 0.3543591499 0.693885684 0.3964413404
-0.1199100688 -0.01854199357 0.6427493095 0.1424788237 0.4972774684 0.6410701275
-0.1221093088 -0.02245346643 0.6545442343 0.01402509585 0.3023844361 0.8814755082
-0.1134753674 -0.02617492713 0.6435257792 0.2486467212 0.5380004048 0.6304174662
-0.1208223626 -0.03177464008 0.6572361588 0.1042847484 0.3676845431 0.8996710181
-0.1627607197 -0.02843226865 0.651823163 -0.3298570812 0.2059494555 0.9175672531
-0.1686060727 -0.02305565216 0.6516651511 -0.2313860953 0.1570502818 0.9592867494
-0.1781983674 -0.01729558222 0.6512117386 -0.2063593268 0.1048611328 0.9722607732
-0.1842374504 -0.08103176206 0.6613525748 -0.365632236 0.568716526 0.7354100943
-0.0394256264 -0.02051258646 0.6678670049 0.007009637076 -0.1095442101 0.9821726084
-0.03534099087 -0.0227855593 0.6758907437 -0.04363683984 -0.08270408213 0.9811947346
-0.04236638546 -0.01056458894 0.6615724564 0.004306222312 -0.2066690028 0.9707175493
-0.05184875429 -0.02410081774 0.6544091105 0.03939356655 0.03531756625 0.9938809276
-0.05141401663 -0.01425928343 0.6547910571 0.04407839477 -0.1581903547 0.9852976203
-0.03584817797 -0.01746759377 0.653591156 0.1120477468 -0.1834588647 0.9721666574
-0.04406848177 -0.01751213893 0.6539395452 0.1114601269 -0.1235157251 0.9814229012
-0.1063373238 -0.07397034019 0.680767715 0.1578749418 0.5683441162 0.8042564392
-0.1154416129 -0.06559050828 0.678856492 0.1564566642 0.4790126383 0.8550018668
-0.1249198988 -0.07776296139 0.6877521873 0.0284548346 0.5413576961 0.8295406699
-0.119173415 -0.07457612455 0.6834301949 0.1060114801 0.5625065565 0.8169139028
-0.09066931903 -0.0218595434 0.6344442368 -0.829040885 -0.2648308575 0.4852566123
-0.1086415872 -0.02060378902 0.6619887352 -0.04152422771 0.127231583 0.9895108938
-0.1418785453 -0.04252414405 0.6650335193 -0.1285862327 0.3967134953 0.8783721328
-0.1584532708 -0.04344088957 0.6603969336 -0.521443665 0.3133868277 0.7918615341
-0.1636582613 -0.04852857441 0.6563825011 -0.546731174 0.2945255339 0.7821503282
-0.1613480598 -0.03900240362 0.6550999284 -0.4629906714 0.2725965083 0.8393993974
-0.1672156453 -0.03297217935 0.6557830572 -0.3828064799 0.2094419897 0.8754678965
