# .PCD v0.7 - Point Cloud Data file format
VERSION 0.7
FIELDS x y z normal_x normal_y normal_z
SIZE 4 4 4 4 4 4
TYPE F F F F F F
COUNT 1 1 1 1 1 1
WIDTH 512
HEIGHT 1
VIEWPOINT 0 0 0 1 0 0 0
POINTS 512
DATA ascii
0.04296971858 0.06667926908 0.7620770335 0.02561835758 -0.09054929763 0.9944006801
0.05896484107 0.07238082588 0.7481992245 -0.09189102799 -0.3616891503 0.8485657573
0.05621111766 0.07888735831 0.744920671 -0.1996552348 -0.3527337611 0.8288514614
0.06671800464 0.08449073136 0.7335805893 -0.3425002396 -0.5593767166 0.7154977322
0.05309944227 0.06789793819 0.7555916309 0.01251873281 -0.2386528552 0.9202408791
0.05950355157 0.06287885457 0.7508147359 -0.005547269713 -0.3311902881 0.8847605586
0.06522403657 0.07833229005 0.7380624413 -0.2497540712 -0.5038902164 0.759285748
0.0693943575 0.07154913247 0.7285842896 -0.3267638087 -0.6117219925 0.6886072159
0.06643330306 0.06569217145 0.7368298769 -0.1883143783 -0.6138131022 0.7165522575
0.06405577064 0.09299778938 0.7291671038 -0.3810361028 -0.6147760153 0.6904809475
0.05897464231 0.03405114636 0.7312381864 0.2316987664 -0.2269148678 0.5636593103
0.06091866642 0.03144168481 0.7202040553 0.3418453932 -0.01984786429 0.6856308579
0.0590210259 0.02844560146 0.7124975324 0.3440701663 0.317453444 0.7502199411
0.03383740038 0.1093964651 0.7324303985 -0.2397391498 -0.6961652637 0.676628828
0.04353663325 0.105211094 0.7334604859 -0.2792267501 -0.6579549909 0.6872448325
0.03743227199 0.1040014848 0.7381950617 -0.2203197181 -0.6032696962 0.7193571329
0.04396260157 0.09226153791 0.7430906296 -0.1806359142 -0.4400453269 0.7970981598
0.03721099719 0.09681668878 0.7438237667 -0.1619172096 -0.4798101783 0.7819344401
0.04881048203 0.09695408493 0.7364786267 -0.2568236291 -0.546959579 0.7395005822
0.01821554266 0.08961948007 0.750066936 -0.1748113334 -0.2456274778 0.8742740154
0.0276469253 0.1029285789 0.742004931 -0.2108950168 -0.5227734447 0.7518778443
0.02107458189 0.09563234448 0.7459531426 -0.1903896183 -0.3686616123 0.8206238747
0.01797251962 0.1015854329 0.7398850322 -0.2027500421 -0.4812622964 0.7744755149
0.02293683775 0.1116684303 0.7330437899 -0.2289610803 -0.6878426075 0.6843097806
0.04797177389 0.06088801473 0.7619840503 0.1074781939 -0.1614452451 0.9788768888
0.06690873951 0.07307559252 0.7164289355 -0.4188993871 -0.5983346105 0.6828231812
0.05238203704 0.08977476507 0.7398260236 -0.2367155105 -0.4560663998 0.7823630571
0.04396385327 0.07468306273 0.7565565705 -0.04492871091 -0.1451785564 0.9459927082
0.04797837138 0.08067180216 0.7495127916 -0.1278250515 -0.274307102 0.8775708675
-0.1382406056 0.03852010891 0.7326138616 -0.07278311253 0.4370532632 0.8927775025
-0.1295023113 0.03911245242 0.7313073277 0.07182007283 0.4135362804 0.9048193097
-0.2005887926 0.07566800714 0.6982474327 0.09811837226 0.06035514548 0.9919760823
0.03992958367 0.03206852823 0.7365727425 0.1343898028 -0.7974901199 0.4856675267
0.03592438251 0.02834668383 0.7265067101 0.1477029026 -0.9066817164 0.3173243403
0.008901529014 0.02665646002 0.7308360338 -0.002050141105 -0.9265759587 0.3491733968
-0.1095208526 0.06845431775 0.7214520574 0.1543874443 0.3421384096 0.9265778661
0.04758157209 0.03718525171 0.7494356632 0.1112303585 -0.7233147621 0.6277614236
0.047189679 0.03082745336 0.7282603383 0.1931192279 -0.938824296 0.2584191263
0.05595169961 0.035351675 0.7404310703 0.204060033 -0.8972477913 0.2947310507
0.05307050049 0.02938247845 0.7222377658 0.2274028063 -0.3311096728 0.3262341022
0.03841590136 0.03938875347 0.7563655376 0.09984147549 -0.4157540798 0.8923511505
0.02807728574 0.04096464813 0.7578455806 -0.03760238364 -0.340660274 0.9352970719
-0.01287248638 0.05418203399 0.7538557053 -0.1587559879 -0.1083796397 0.9813293815
-0.1386713237 0.1071810126 0.7085807323 -0.08134959638 0.08749258518 0.9428512454
-0.123773396 0.1125840619 0.7061184049 -0.1308267564 0.1011101976 0.9442975521
-0.126707837 0.09348386526 0.7136545181 -0.130631566 0.405236721 0.8781923652
-0.1301947832 0.1075599566 0.7084512115 -0.09374145418 0.1810195595 0.9355008006
-0.09052838385 0.09841549397 0.6682215929 -0.7387616038 -0.5614961982 0.2030052245
-0.1065548137 0.108269304 0.6871023178 -0.3776964843 -0.1329992563 0.7031822205
-0.09969525039 0.1036542505 0.6784988642 -0.5384361744 -0.3247381151 0.4732755423
-0.1133884639 0.1091437936 0.6917459369 -0.2692845762 0.0009620966157 0.811427474
0.03833274171 0.02388796583 0.718303442 0.1983985752 -0.9390063286 0.1535314471
0.04549470544 0.03142268211 0.7089447975 0.2132778764 -0.4713791907 0.4496801496
0.05452587083 0.03886649385 0.699190557 0.2309842259 0.2084558606 0.8135911822
0.04653477296 0.02515095472 0.7155346274 0.2184201628 -0.2887748778 0.3173516691
0.04902908206 0.04681137949 0.6989864111 0.004812729545 -0.2825403512 0.7692126036
0.05861818045 0.03251887113 0.7029336691 0.3559830487 0.3312311172 0.8656615019
0.06196020916 0.04030300304 0.6958897114 0.3731532991 0.2425122857 0.8885331154
0.06751233339 0.0610450469 0.7031032443 -0.4823349118 -0.459222585 0.7417727113
0.0698184073 0.03841648996 0.6994935274 0.5488049984 0.1379373372 0.8132604361
0.03707507625 0.03453645483 0.7129058838 0.09572929144 -0.8187936544 0.3418785632
0.03519735113 0.05040442571 0.7046043277 -0.0398293063 -0.6140614748 0.6290391088
0.04205610231 0.03972102329 0.7080124021 -0.004101835191 -0.6760441065 0.5004763007
0.04382429644 0.05325737968 0.6996168494 -0.1531974971 -0.4557005465 0.7844597101
0.0334498696 0.04292424023 0.7095440626 0.05020884424 -0.7462688684 0.4631905258
0.02964125574 0.06539862603 0.6982343197 -0.1303798109 -0.4718803763 0.8566019535
0.0515007861 0.1014622152 0.7295792699 -0.3236142993 -0.6545321345 0.6831246614
0.04347267374 0.09907893091 0.7256231308 -0.2946654856 -0.6666491628 0.6843832731
0.04511190206 0.07723172009 0.7061339021 -0.2428454161 -0.581827879 0.7748280168
-0.01942275278 0.111007385 0.713988781 -0.1979753524 -0.463224262 0.8602705598
0.006024451926 0.09323176742 0.7428471446 -0.1942989379 -0.3286361992 0.8421685696
0.006479041185 0.0727955848 0.7560946345 -0.1553907841 0.02289393917 0.9874637723
0.009533014148 0.08549325168 0.7501429915 -0.1732670218 -0.17685543 0.9053865075
0.0140658319 0.08016885072 0.7566103339 -0.1547962874 -0.06056937575 0.95408988
0.01108426321 0.105853498 0.736166656 -0.2127948999 -0.5421512723 0.7525786757
0.006536911707 0.112856105 0.7306830287 -0.2300630808 -0.6620085239 0.7044261694
0.01251382194 0.06585563719 0.760296464 -0.1483790427 -0.0276916828 0.9880821109
-0.193221271 0.08662909269 0.7003105283 0.1362648755 -0.08127477765 0.9866262674
-0.1788117588 0.06293217838 0.7079543471 -0.1965780407 0.4133680463 0.7698453069
-0.1067051142 0.04016584158 0.720420301 0.1505525559 0.4670326412 0.8699816465
-0.1137918606 0.03822346032 0.7253121138 0.1320963651 0.470589608 0.8719777465
-0.1194767877 0.03703083843 0.7325116396 0.1339901239 0.479008317 0.8668537736
-0.1394468397 0.05610182136 0.7272524238 -0.1883571744 0.4445160329 0.8689620495
-0.02685773559 0.1069727987 0.7098014355 -0.1612929851 -0.3820319176 0.9087798595
-0.0990209803 0.07281006873 0.7219519615 0.1994414032 0.314684242 0.9228052497
0.0159805622 0.03055413626 0.7383905649 0.02374642156 -0.8573316932 0.4778010249
0.02100262791 0.03376241773 0.7473919988 -0.03449438512 -0.7659819722 0.6092113256
0.00945483055 0.03125660121 0.7469930053 -0.01034735795 -0.8176406026 0.5625907779
0.01553484052 0.03583151475 0.753675878 0.008182560094 -0.7115546465 0.6985882521
0.02308362909 0.02950220741 0.7340859175 0.05485677347 -0.8724624515 0.4320232868
0.04237718135 0.04592646286 0.7602825165 0.1447700411 -0.2623241246 0.9533173442
-0.02114072815 0.09858317673 0.7065232396 -0.1271645576 -0.3444830179 0.9277427793
-0.05325930566 0.03029953875 0.7268829346 0.3137995899 0.4725829363 0.5804000497
-0.1406216621 0.09930094332 0.7107217908 -0.0953958109 0.1610063314 0.9176205993
-0.1453690827 0.1143355146 0.7023788095 -0.03829084709 -0.1038618982 0.9842736721
-0.1065983772 0.080966115 0.7015520334 -0.04334307835 0.2073300481 0.8099226356
-0.09465373307 0.08830659091 0.6786273718 -0.5228120685 -0.2851515114 0.3580234647
-0.08843078464 0.08920071274 0.669629097 -0.7664613128 -0.4395733774 0.1667710245
-0.09911641479 0.08217008412 0.692881465 -0.2476839572 0.03495896235 0.6369868517
-0.1167558357 0.1089282334 0.7070468664 -0.1576638669 0.1459826231 0.9542453289
-0.1062132195 0.125684306 0.7123804688 -0.1359021664 -0.06931659579 0.9811788201
-0.114554815 0.1003265604 0.7080409527 -0.1642950475 0.284629494 0.9372298717
-0.1234606802 0.1220600605 0.7038896084 -0.1495349556 -0.07803947479 0.9816232324
-0.1117405072 0.1151527762 0.7003595829 -0.2469654232 0.07047269493 0.9534319043
-0.1135757416 0.1236632764 0.7030038834 -0.1767617017 -0.067810826 0.9817128181
0.06865435094 0.0471560359 0.6970172524 0.1511738598 0.1051425338 0.9428374767
0.06997440755 0.05285219476 0.7143298984 -0.4231671095 -0.4186386466 0.6689469814
0.06667755544 0.05029535294 0.730835259 -0.1039144471 -0.698482573 0.5551213026
0.06900624186 0.05582829565 0.7225264907 -0.2665944397 -0.6083999872 0.6211658716
0.06363213062 0.04150260985 0.7405251861 0.1842516959 -0.7720641494 0.4557038844
0.07081169635 0.04600054398 0.7062239051 0.6579737663 -0.1400566399 0.4853668511
0.06808843464 0.04413625598 0.7191617489 0.507206738 -0.3754361272 0.4688084722
0.06270243973 0.038317509 0.7256667614 0.3993906379 -0.2645176351 0.6000177264
0.0617493242 0.03574436903 0.7104779482 0.4903813303 0.2446665168 0.7747652531
0.06573141366 0.08416048437 0.7234253883 -0.4046100974 -0.6056886315 0.6848604083
0.05945663899 0.07844918966 0.7150403857 -0.3807213008 -0.6098427773 0.6947646141
0.06191371009 0.07196766883 0.7086425424 -0.35729599 -0.60675776 0.7094680071
-0.1614056379 0.06189816445 0.7027240396 -0.4175302684 0.5552378893 0.7129238248
-0.1804786772 0.07909782976 0.7027771473 -0.03104024194 0.08867360651 0.8723509312
-0.169392854 0.05726434663 0.7076627612 -0.3456114531 0.5800275207 0.7104448676
-0.1729302555 0.06866534799 0.7042028308 -0.2094410062 0.3443933427 0.7941820621
-0.1356886923 0.06735374033 0.7220394015 -0.2364980727 0.4397459328 0.8631551266
-0.04369299114 0.09202811122 0.7036450505 -0.09840619564 -0.1691111028 0.9792082906
-0.03485381231 0.08826111257 0.7037290931 -0.01884741709 -0.1596833616 0.9854104519
-0.02601479366 0.04868258163 0.7517870665 -0.1856000423 -0.4350048602 0.8188506961
-0.01762795262 0.04559798911 0.7532242537 -0.1581114382 -0.2244612575 0.935076654
-0.09015224874 0.07796861231 0.6958796382 -0.3452576101 0.2433314472 0.7878466845
-0.07280753553 0.07123676687 0.6854324937 -0.7715979218 0.2459892631 0.5706464648
-0.08339145035 0.07387623191 0.6953736544 -0.4506105185 0.2941794693 0.7399849296
-0.07803783566 0.07629609853 0.6812255383 -0.7685320377 0.142422393 0.560220778
-0.1801591814 0.0588686876 0.6964272857 -0.182305783 0.4261984527 0.8810414076
-0.1428226233 0.04837032408 0.7300760746 -0.168635726 0.4662949741 0.8656586409
-0.1179550365 0.0698280707 0.7212461233 0.1125070378 0.3706308305 0.9129600525
-0.1326865703 0.06072540209 0.7248369455 -0.09103147686 0.4167646766 0.8973097801
-0.117901288 0.04799545556 0.7299288511 0.1203576401 0.4012016952 0.9030960202
-0.1393853575 0.05242323503 0.7196027637 -0.1439290345 0.4868492782 0.79884547
-0.1280650347 0.05355450138 0.7224706411 0.06231512874 0.3959464729 0.8953587413
-0.1265107095 0.04562189057 0.7264588475 0.1140261069 0.4163322747 0.8954747319
-0.09468933195 0.1088050231 0.6870869994 -0.4835474789 -0.2423374504 0.6461302638
-0.104761973 0.1230440512 0.7045146227 -0.149816528 -0.0480459705 0.9772790074
-0.1005764678 0.1181510612 0.6974868774 -0.2800246775 -0.145056501 0.8401966691
-0.09481591731 0.1149856895 0.6916760206 -0.3870211244 -0.2498988211 0.716881156
-0.09641186893 0.128314361 0.7116801143 -0.1133187935 -0.07163453102 0.9900562763
0.01901400089 0.06870935112 0.6982227564 -0.0817021504 -0.417856425 0.9015290141
0.02536393888 0.0476619713 0.7114343047 -0.003636957845 -0.7017949224 0.5992667079
0.01704094373 0.03921963647 0.7169988751 0.01898075826 -0.7783018351 0.4953883886
0.0187913347 0.05472086743 0.7071956396 -0.02538073808 -0.5876311064 0.7090649009
0.01751999557 0.04708402231 0.7120108604 -0.00618046755 -0.6812253594 0.6040612459
0.02311775088 0.04455625638 0.7212670445 0.02947366424 -0.7893089056 0.5201932192
0.02380741388 0.05967549235 0.7121291757 -0.06140797958 -0.6386175156 0.6888818741
0.027993422 0.0538783446 0.7059986591 -0.03317817673 -0.6338658333 0.6604292989
0.02584894933 0.02738676034 0.724275291 0.11530637 -0.9321985245 0.317384094
0.02899304219 0.03695914149 0.7161149383 0.07306263596 -0.823131144 0.4158035517
0.03063232638 0.03475811705 0.7481170893 0.08413673937 -0.5535367131 0.7421751618
0.05441592634 0.07399436831 0.7072518468 -0.3378176391 -0.6088830829 0.7174897194
0.03765168414 0.06253050268 0.6968801618 -0.1811072826 -0.4121289551 0.888292551
0.04636796191 0.06097514182 0.6972894073 -0.2326531708 -0.4724217057 0.8467587233
0.03682605177 0.07636216283 0.7045010328 -0.1902484745 -0.5387209058 0.81973809
0.01946074702 0.0418847017 0.7578981519 -0.07015461475 -0.3735547066 0.8852377534
0.02389462665 0.04801661521 0.7609999776 -0.08459568769 -0.1215455309 0.9884050488
0.0525498502 0.04898799211 0.7602239251 0.1473517716 -0.2509109974 0.9523761868
0.05301475525 0.04132477567 0.7545669675 0.1066698357 -0.6784408092 0.642850101
0.0600072667 0.03954131156 0.7487306595 0.1914748698 -0.8580083251 0.464371264
0.06747592241 0.05906940997 0.7331780195 -0.1459593475 -0.7280268669 0.5650594234
0.06999124587 0.0645993799 0.7241180539 -0.3036476076 -0.6489548087 0.6305913329
0.07182399929 0.065559946 0.7151509523 -0.4180475473 -0.5789702535 0.6898583174
0.06120179966 0.04710128903 0.7509916425 0.1013212353 -0.6340944171 0.7517209649
0.0638076365 0.05402511731 0.7438559532 -0.03090962954 -0.6210123897 0.738537848
0.0209953934 0.06941626221 0.7610315681 -0.1314710677 -0.002362692496 0.990809381
0.03084928915 0.07656586915 0.7578374743 -0.1028298363 -0.09471420199 0.9532427788
0.03196410462 0.08967064321 0.7495722175 -0.1467403322 -0.3269578516 0.8479860425
0.03743422031 0.0533657819 0.7613307238 0.02737833187 -0.1435233802 0.984857142
0.02540188655 0.09117363393 0.7114219666 -0.2063289136 -0.5885437131 0.7795848846
0.01981328614 0.08569960296 0.7059285045 -0.147298336 -0.5021374822 0.8518427014
-0.009547078982 0.09024431556 0.7321519256 -0.1846311837 -0.3041912019 0.8975327611
-0.01210248843 0.09516957402 0.7211005092 -0.1835686266 -0.3777723908 0.8826326728
-0.01401299518 0.0955626145 0.7111694217 -0.1660681218 -0.387283355 0.8983023167
-0.004075553268 0.07335851341 0.7525981069 -0.1547050625 -0.05893934518 0.9811118245
-0.007529387251 0.07812342048 0.7408103943 -0.1548082978 -0.1412104219 0.9643323421
-0.01324167289 0.07089871913 0.7446968555 -0.1624934375 -0.1362651587 0.9685673118
-0.013324311 0.08061335236 0.7300632596 -0.159102574 -0.2289735675 0.9463400841
-0.01381052937 0.06329749525 0.7544461489 -0.1652647853 -0.07915779203 0.9830451012
-0.03517713025 0.06077276543 0.7277202606 -0.1314846575 -0.1670190245 0.9410428405
-0.03891246393 0.06374876201 0.7179396749 -0.1099540964 -0.07836907357 0.984487772
-0.02926327288 0.06132386997 0.7388228774 -0.1354202479 -0.1290864795 0.9658972621
-0.02001288719 0.02556934766 0.719815433 -0.08780036122 -0.5034070611 0.2869318426
-0.03895259276 0.02838413045 0.7213240862 0.1191799641 0.4840392172 0.595410943
-0.04563754424 0.02692565508 0.7175461054 0.2420711517 0.7335876822 0.5907863379
-0.04425728321 0.03175197542 0.7305268645 0.1563051045 0.1928291619 0.5867569447
-0.03327463567 0.03675574809 0.7437643409 -0.08039296418 -0.4990743101 0.5914825201
-0.1406192034 0.1205440015 0.7031142712 -0.03157368302 -0.1071880683 0.9933151603
-0.1200594604 0.1112956405 0.6978379488 -0.1571338773 0.1395591795 0.9774467349
-0.1290824115 0.1085280329 0.6970974803 -0.1459953338 0.0788872689 0.9837986231
-0.08794866502 0.0841607824 0.6823952794 -0.6572169662 -0.1085132658 0.4623154998
-0.08109316975 0.09245952964 0.6723517179 -0.8803120852 -0.3393060863 0.3102398813
-0.07342927903 0.08317436278 0.6872541904 -0.8375169635 -0.03099701554 0.5404649973
-0.08642565459 0.1114344746 0.6847839952 -0.5378472209 -0.3123790622 0.5998441577
-0.100901708 0.0861094445 0.7153380513 -0.06449457258 0.3147355616 0.9322264791
-0.1074434593 0.09047219157 0.7128099799 -0.05436649546 0.35668841 0.9239028692
-0.1125176772 0.08274978399 0.7155374885 0.0682945475 0.3950721323 0.9133918881
-0.09165132046 0.1196104139 0.6991950274 -0.2701369822 -0.1195829809 0.8605097532
-0.08193461597 0.1073693633 0.676925838 -0.6922762394 -0.393583566 0.4703519046
-0.08379882574 0.1210002378 0.7037380338 -0.1339606792 -0.1101299226 0.9262270331
-0.08077982068 0.1140803993 0.6906373501 -0.4053915143 -0.3085427582 0.6895312667
-0.07796157897 0.1084002033 0.6853604913 -0.5796734095 -0.4656253755 0.5396579504
-0.07733020931 0.1154281646 0.6985576749 -0.3024713099 -0.4266219139 0.7487558722
0.05250812694 0.05497918278 0.6948547959 -0.2458917052 -0.2627582252 0.9060767889
0.06087512523 0.053303238 0.6948643923 -0.3146028221 -0.1340813637 0.8995320797
-0.001387295546 0.1108995676 0.7215856314 -0.2465433031 -0.634752512 0.7322873473
0.003731805598 0.0786980167 0.7515227199 -0.1678950936 -0.09730941057 0.9424216151
0.0001917402697 0.08798126876 0.7453291416 -0.1842077523 -0.2840439975 0.8757196069
-0.001144339796 0.09508027881 0.7357102633 -0.208032608 -0.4033610523 0.828913033
0.001670348807 0.1033991277 0.7323297858 -0.2204192132 -0.5273944139 0.7708359361
0.05682870001 0.08628394455 0.7203534245 -0.3826156855 -0.6058520079 0.6974890232
0.0553133674 0.09391117096 0.7243171334 -0.3462707698 -0.620627284 0.7022113204
0.04659321532 0.0883898288 0.7168859839 -0.3080030084 -0.6109097004 0.7280705571
0.03901368752 0.08617103845 0.7112266421 -0.2520613372 -0.583953917 0.7712607384
0.02882683091 0.07986907661 0.704857111 -0.1674735546 -0.5130984783 0.8416821957
-0.1813779175 0.08644325286 0.6943266988 0.09135335684 -0.111015901 0.9874917269
-0.07722688466 0.09776609391 0.680154264 -0.8435046077 -0.2591030002 0.4456603229
-0.06038370728 0.09815780073 0.6934781671 -0.4207879603 -0.3318229318 0.7126551867
-0.05766999722 0.08868119866 0.6973448396 -0.471559763 -0.1400548369 0.7503815889
-0.03612713516 0.0736547485 0.7099325657 -0.01821901277 -0.03776039928 0.9952569604
-0.03263203055 0.07162418216 0.7168459296 -0.0212183781 -0.05059628561 0.9937592149
-0.02351625822 0.06249719486 0.7495530844 -0.1394636184 -0.1000138819 0.9845327139
-0.03525011986 0.06878639013 0.725174427 -0.1198022515 -0.05815953389 0.9899672866
-0.04385695979 0.06512407959 0.7072457671 -0.09709060192 -0.05236206204 0.9937976599
-0.04363790527 0.08132337779 0.7043420672 -0.09623657167 -0.07093277574 0.9912734032
-0.1687933505 0.05076491833 0.7131534219 -0.3663972914 0.6426972151 0.6725771427
-0.1789796799 0.07438013703 0.6925143003 0.01589503512 0.07127597928 0.9949628711
0.01550175063 0.1108295843 0.7283414602 -0.2289932966 -0.687915802 0.6886903644
-0.00426769536 0.06868489087 0.6974484324 0.0586161986 -0.2061419487 0.9745433331
0.0006862750743 0.0499590151 0.7093966007 -0.05160738528 -0.5952753425 0.6371177435
0.003633178072 0.06245789304 0.7018615007 -0.008159307763 -0.4050020278 0.845702827
0.002249401994 0.02650117315 0.7249422073 -0.07159212977 -0.9495251775 0.2774775624
0.01566962525 0.0316371806 0.721783638 0.04692331702 -0.8661343455 0.3930675089
0.0116977673 0.05983252823 0.7037547827 -0.01152491383 -0.4774885476 0.7997410893
0.01022492815 0.06675057858 0.6993186474 -0.02278906107 -0.3784191608 0.9010747671
0.01119204797 0.05185322091 0.7088159323 0.01507911179 -0.5753393173 0.6897268891
0.006647335365 0.0340802148 0.7204030156 -0.01953646727 -0.8308174014 0.4124398232
0.008959013037 0.04298007861 0.7145352364 0.01666722633 -0.6926960349 0.5583010912
0.05001698062 0.08061318845 0.7118411064 -0.3199643791 -0.6136752963 0.7211233377
0.03927024826 0.09452740103 0.7194654346 -0.2720527053 -0.6504178643 0.7085179687
0.02907299809 0.06907343864 0.7611381412 -0.09075772762 -0.009167370386 0.9953044653
-0.1928280592 0.06054408848 0.7036762238 -0.08934152126 0.317892611 0.8889408708
-0.1915312409 0.05030404404 0.7019501328 -0.1510289162 0.3717928827 0.9015574455
-0.1819202751 0.04627477005 0.7092711926 -0.270888418 0.6073606014 0.7424773574
-0.1998986006 0.06383886188 0.6979484558 0.03161383793 0.1584808081 0.9809151888
-0.1907880753 0.06047200412 0.6950113773 0.01002387982 0.220057264 0.9733527899
-0.1925047338 0.06929659098 0.6940168142 0.09761863202 0.09184156358 0.9897071719
-0.1899356395 0.07882694155 0.6950904131 0.1117795855 -0.01878826879 0.9904331565
-0.1608998626 0.05489340425 0.7088748217 -0.4050998092 0.608443737 0.6812753081
-0.149697125 0.04366384074 0.7287330031 -0.2857459486 0.498641789 0.8169635534
-0.1684371084 0.0452279523 0.718875885 -0.3741462529 0.6298995018 0.6805054545
-0.1586735547 0.04025185481 0.726922214 -0.3085480928 0.5494405627 0.7679758072
-0.1536578387 0.0532708168 0.7203705907 -0.4201659858 0.5308288932 0.7316444516
-0.1604257077 0.0476889424 0.7217335105 -0.399735719 0.5671144724 0.7173120975
-0.1068186983 0.05592065305 0.7259142995 0.1477058679 0.3732681274 0.9136230946
-0.1099459454 0.04881766066 0.7196982503 0.1824733019 0.370521009 0.9087175131
0.001658452908 0.04486533254 0.755382359 -0.136309877 -0.2001356035 0.9669241309
0.02275082842 0.05889332667 0.7609999776 -0.1182794496 -0.05451611802 0.9910881519
0.01667069644 0.0742610991 0.7078480721 -0.1095447391 -0.3936216235 0.9024846554
0.01626145467 0.06878679246 0.7371131182 -0.1538868845 -0.195247069 0.9415190816
0.0171669554 0.07053399086 0.7271576524 -0.1536833793 -0.2785218656 0.9191824794
0.0202637706 0.07232108712 0.7179077268 -0.1538593024 -0.3560281396 0.8972662091
0.01630781032 0.03910814971 0.7269569635 0.05343520641 -0.8245106339 0.4903632402
0.01688111573 0.06598184258 0.7084647417 -0.05786780268 -0.5323004723 0.7909675241
0.008940110914 0.07522259653 0.7000883222 -0.05247144774 -0.3966345787 0.9158075452
0.01044927631 0.08399000019 0.7041158676 -0.09433878213 -0.4525854588 0.8851838112
-0.02708588727 0.04452132806 0.7055773735 -0.1399558783 0.2839663923 0.9359354377
-0.0109248627 0.104262881 0.7123205066 -0.2081240863 -0.5244588256 0.819203794
-0.005269541871 0.08657146245 0.7394961715 -0.1847937703 -0.2615560591 0.9003904462
-0.04362684116 0.03897916526 0.7416510582 -0.002984227147 -0.2015121877 0.6440346837
-0.05693724006 0.03312958032 0.7335595489 0.2397000641 0.3498986065 0.6305124164
-0.03344924003 0.04056802019 0.7036840916 -0.08124897629 0.3374063075 0.9311609864
-0.05972280353 0.06787640601 0.6924404502 -0.5010640621 0.1808263958 0.7126095891
-0.05355071649 0.06403288245 0.6963621378 -0.2971645594 0.121059224 0.8148968816
-0.09829422086 0.03675527498 0.7251690626 0.1682240665 0.5285850167 0.8288974166
-0.07894781977 0.07597631961 0.7212967277 0.3498683572 0.1987513304 0.9063906074
-0.09093911201 0.06521423161 0.7213064432 0.2327910215 0.2658536434 0.9254806638
-0.0930120945 0.055752635 0.7221954465 0.2091259211 0.3516259491 0.8938284516
-0.04198969901 0.02753196098 0.7085754871 0.1769934893 0.6863698363 0.6897496581
-0.002586349845 0.03319175541 0.7513639927 -0.03495169058 -0.7209455967 0.681560576
-0.007415602449 0.02744811028 0.7354670763 -0.10643664 -0.8797796369 0.4102639854
0.0002451642649 0.02720552497 0.7340604067 -0.05819986761 -0.8997561336 0.3921836317
0.0002363208041 0.02904183976 0.7425050139 -0.04498527944 -0.8480983377 0.5009040236
-0.1502031386 0.1035741493 0.6961547136 -0.07713452727 -0.05828128383 0.9949722886
-0.1093162298 0.101293318 0.6829853058 -0.4473163784 -0.1820801497 0.5813846588
-0.1153696477 0.08267472684 0.7061827779 -0.004739298951 0.3755271733 0.9147333503
-0.1236344203 0.0869654119 0.7045942545 -0.1301016212 0.458637476 0.8673746586
-0.1672315449 0.1009184122 0.6970451474 0.02404718474 -0.1262674481 0.990637064
-0.1792991012 0.09475171566 0.6969005466 0.1276030689 -0.1920123845 0.9719918966
-0.175842762 0.1021799818 0.7004355192 0.09803891927 -0.2059828788 0.9731985927
-0.1867856979 0.09223677963 0.7002894878 0.1567863226 -0.2017593533 0.9664195776
-0.103545554 0.06688556075 0.7114137411 0.1099083424 0.3360162973 0.9306084514
-0.09642864019 0.06419745088 0.7134872675 0.06441639364 0.2364147902 0.9645799994
-0.1034863889 0.0580708459 0.7139239311 0.1403179318 0.3738679886 0.9118362665
-0.1330354959 0.1181126609 0.7010087967 -0.07702673227 -0.0465436317 0.9947874546
-0.07921822369 0.08389889449 0.6745807528 -0.8580711484 -0.02824436873 0.4810112417
-0.0791445896 0.1008088365 0.6726676226 -0.816924572 -0.3802542388 0.3915663362
-0.1044288501 0.1150493026 0.7128993273 -0.1192823723 0.06679829955 0.9632539153
-0.1066133752 0.09934244305 0.7119461894 -0.0931981504 0.2733249664 0.935566783
-0.1093227714 0.1084205434 0.7122850418 -0.07161813974 0.1793621182 0.945974052
0.05558846518 0.06412997097 0.6989156604 -0.3163901567 -0.531182766 0.7844771147
0.0256003812 0.09739071131 0.7170656919 -0.2188490182 -0.6608006358 0.7173206806
-0.07085423172 0.09361069649 0.6878942847 -0.7487582564 -0.1642406285 0.5570046306
-0.05093459412 0.09390735626 0.7002369761 -0.2690155506 -0.1828271896 0.8728578091
-0.03536582366 0.1036635712 0.70730865 -0.09595579654 -0.2411133647 0.9657213092
-0.06458915025 0.07868451625 0.7117188573 -0.005977522116 0.1182637066 0.9490952492
-0.05612224713 0.07897508144 0.705503881 -0.2153634429 0.03182510287 0.9575977325
-0.0491082333 0.0752812624 0.7053924203 -0.1377964169 0.04164482653 0.9859531522
-0.1684209406 0.07461742312 0.6943646669 -0.1698563397 0.1718961895 0.9627742171
-0.1720668226 0.07759364694 0.7025918961 -0.1671150178 0.1826077104 0.8271555901
-0.1648422927 0.07155191898 0.7035415173 -0.3154647946 0.3517420888 0.765299499
-0.02740722895 0.03186679259 0.7084834576 -0.1528218538 0.4563221931 0.856051445
0.02808931097 0.06508804858 0.7216727734 -0.1305788755 -0.3803366125 0.8645789623
0.03330814466 0.06514462829 0.7068628669 -0.1216061935 -0.5252100825 0.8158742785
0.02836282551 0.05474218354 0.7208534479 -0.05087599903 -0.573431313 0.6998714805
0.02578338049 0.05948776379 0.7281932235 -0.09185800701 -0.4162611067 0.798740387
0.02500989661 0.04088656604 0.7303106785 0.04916227609 -0.7280641198 0.5146297812
0.02584804222 0.0496763587 0.727968812 -0.01662346348 -0.593937397 0.6443918943
0.02299437486 0.05290671065 0.7360805273 -0.04649883881 -0.4562618136 0.7221246362
0.02719663084 0.07190844417 0.7074591517 -0.1491733491 -0.4553194046 0.8663880825
0.02377890795 0.0666301623 0.7328979373 -0.148025766 -0.2456240207 0.9228419662
0.01847316884 0.06619668007 0.7470759153 -0.1524276137 -0.1166926175 0.9605312347
0.03393940628 0.06091261655 0.7611118555 -0.04387862608 -0.06836067885 0.9961180091
-0.1463360339 0.04949745163 0.7226794362 -0.3067618608 0.5002045035 0.7903766632
-0.1268420815 0.07414446771 0.7094829679 -0.1437928826 0.4176975489 0.8372122645
-0.1344682425 0.07551001757 0.7066854239 -0.3115385473 0.4710321724 0.7720686793
-0.09023034573 0.06699364632 0.7082358599 -0.1113902405 0.2195396721 0.9032611847
-0.09186579287 0.07392866164 0.7036605477 -0.1808874011 0.2738383412 0.8748646379
-0.08526493609 0.0688379854 0.7017426491 -0.301810205 0.2481676191 0.8098769784
-0.06836913526 0.1175513491 0.7025031447 -0.2428346574 -0.3745500147 0.8271833658
-0.07389205694 0.109999761 0.6922002435 -0.4911867976 -0.4556390345 0.6208125949
-0.07221586257 0.1021725535 0.6858046055 -0.639333427 -0.4786592722 0.5085042119
-0.05167667195 0.1023451611 0.7007223964 -0.228731364 -0.2947498858 0.8538538814
-0.005210645497 0.06014227122 0.7550088763 -0.1571819484 -0.07203001529 0.984374702
0.002303666901 0.05888741463 0.7571540475 -0.1677377373 -0.06698679924 0.9833039045
-0.0004327204078 0.0811554715 0.7018406391 -0.05211229995 -0.3585309982 0.9313828945
0.01359514054 0.0437336266 0.7350749969 0.009865699336 -0.6514375806 0.5930311084
0.009773577563 0.06336930394 0.7360156178 -0.09796138853 -0.2761010826 0.8807364702
0.01483218092 0.04816965014 0.7255634069 0.008842133917 -0.669912219 0.6156559587
0.01529166941 0.05619780719 0.7165870667 -0.01277871709 -0.6158666015 0.6924957633
0.01346175 0.06692136824 0.7159103155 -0.06880903989 -0.423527956 0.8444318771
0.01155114733 0.05338863283 0.7363009453 -0.04498581588 -0.4587741196 0.7378246188
0.007942485623 0.06218038499 0.7455072403 -0.1143477187 -0.1974218339 0.9049239755
0.01257299632 0.0567849502 0.7286726236 -0.04493903741 -0.4765936732 0.7536388636
-0.03460446373 0.02578029968 0.7134712338 0.08305484056 0.7122956514 0.671459794
-0.03472146764 0.03138391301 0.7037754059 -0.005603262223 0.4830131233 0.8720551133
-0.02594153583 0.08736557513 0.7036687136 7.902524521e-05 -0.2103307694 0.9752773046
-0.03025610559 0.08206872642 0.7098030448 -0.007564153522 -0.1467619836 0.9871444106
-0.02663682215 0.06795642525 0.7341972589 -0.07379744947 -0.09110611677 0.9883334041
-0.02204415947 0.07407698035 0.7275438309 -0.05707611516 -0.1510202587 0.9813508391
-0.01851429604 0.07056314498 0.7372323275 -0.09813210368 -0.1219858527 0.9819149375
-0.0234263353 0.08009955287 0.7143263817 -0.01002418529 -0.1770724654 0.9803570509
-0.01765217073 0.08690292388 0.7135578394 -0.1029736847 -0.2783950269 0.9426304102
-0.01015449129 0.09008205682 0.7046206594 -0.1068424359 -0.3682311773 0.9219701886
0.004442059901 0.09058067203 0.7067412734 -0.135653615 -0.4895470738 0.8591990471
-0.01131286006 0.1118134856 0.7168186307 -0.2306387872 -0.5667270422 0.7890567183
0.01385848783 0.09675890207 0.7125303149 -0.1836069822 -0.5983923078 0.7737323046
-0.05631824955 0.02910167538 0.7195517421 0.3822469413 0.7046637535 0.597138226
-0.1043050736 0.03859920427 0.7311844826 0.1342917681 0.4816447496 0.8646062613
-0.08423526585 0.03719068691 0.7279056907 0.2265171558 0.6035244465 0.7641288042
-0.06283292174 0.03580710292 0.7171862721 0.4111901224 0.6517534852 0.6365693212
-0.05310859904 0.04080232605 0.718724668 0.3198344707 0.3894554377 0.6593712568
-0.0587256439 0.0370727703 0.7247157097 0.2928550839 0.4039441943 0.6432269216
-0.05086908489 0.03859023005 0.7330889702 0.1325809956 0.07431530207 0.646941483
-0.05699507892 0.04826039076 0.6986980438 0.2439939827 0.3259589076 0.897164166
-0.04477370903 0.05457784981 0.7031596899 0.06692116708 0.04209749401 0.9958500862
-0.05211297795 0.05566501245 0.6975006461 -0.1538391113 0.1562076807 0.8790327907
-0.06015024707 0.05544987321 0.6934486032 -0.2196315825 0.2935934663 0.7796934843
-0.0646911487 0.02948242985 0.727707386 0.3838591278 0.6865676641 0.6156361699
-0.08050435036 0.04751248658 0.723349154 0.2889124751 0.4964214265 0.8002088666
-0.07791019231 0.06102408841 0.7210761905 0.3487404883 0.327103883 0.8486509919
-0.03111782484 0.03026427887 0.7308803201 0.01775387302 0.05411473289 0.6046488285
-0.01509390119 0.02970965765 0.7480115294 -0.08003715426 -0.6862842441 0.6261721253
-0.02491210029 0.03388479725 0.7437826991 -0.09420514852 -0.504399538 0.6094692945
-0.01808717661 0.02804364264 0.7377393246 -0.05948040634 -0.5260808468 0.5279573202
-0.02351211756 0.02688495256 0.7279318571 -0.01415255014 -0.2247524709 0.4804798961
-0.02888342366 0.02615229227 0.721046865 0.03910799697 0.0974040553 0.4823276997
-0.01434914116 0.02624091692 0.7267695665 -0.1432963014 -0.8830813169 0.2541406751
-0.01667769998 0.0366326496 0.7517594099 -0.1036208272 -0.6314758658 0.737198472
-0.1513354778 0.1026925817 0.7046579719 -0.14797768 0.03706087172 0.8953794241
-0.157442227 0.1115080714 0.7013648152 -0.001228543464 -0.1629828215 0.9857019782
-0.1510498375 0.09220865369 0.7066354156 -0.2735861838 0.2401461601 0.8215913177
-0.1609662026 0.104318656 0.7030483484 -0.05811199173 -0.04517387226 0.9361503124
-0.1404652745 0.08686483651 0.7113550901 -0.331574142 0.3967395127 0.7864438891
-0.1597970426 0.09475988895 0.7046388984 -0.1532027572 0.09540824592 0.8667322993
-0.1411614716 0.1037406027 0.6964272857 -0.1123405322 0.002784478711 0.9900928736
-0.169073537 0.09298676997 0.6989805102 -0.05821933597 -0.03291454911 0.9291341305
-0.1555059999 0.06849437207 0.7039148808 -0.4773138463 0.4845757484 0.7161007524
-0.1543954611 0.06167670712 0.7080441117 -0.4986810088 0.5465044379 0.6691661477
-0.1465604454 0.05745193735 0.7149072886 -0.3343377709 0.5094212294 0.7367668152
-0.1388245523 0.05979379267 0.7155317068 -0.2346474975 0.4411855936 0.7890790701
-0.1013179496 0.0760582611 0.708319068 0.03439204767 0.2921892107 0.9525271654
-0.1229345426 0.09792715311 0.6948344111 -0.3113503158 0.2376760244 0.8231348395
-0.1007744446 0.0940470323 0.6769129634 -0.5584905744 -0.2981394529 0.3584322631
-0.1118783057 0.08914109319 0.6970766783 -0.167644605 0.1746217757 0.7634298205
-0.1092440411 0.09249411523 0.6887190342 -0.3456980884 -0.002817489672 0.6123349071
-0.1174723804 0.08894887567 0.7131378055 -0.01615246199 0.4240819216 0.9012531042
-0.1192802563 0.07929705083 0.7199726105 -0.02913994156 0.4376453757 0.8813696504
-0.1273877025 0.08291780204 0.7200934887 -0.1538185477 0.4869271219 0.8534091115
-0.1715488881 0.06345311552 0.6967565417 -0.2874506116 0.4661495984 0.8323827982
-0.1722527891 0.08537262678 0.692897439 -0.0004806855286 -0.03950692341 0.9969767928
-0.1623288244 0.0792902112 0.6948769689 -0.2146522552 0.1644655913 0.9594826102
-0.1556135863 0.09263795614 0.6939656138 -0.1359808445 0.0143008586 0.9867879748
-0.163428843 0.08921179175 0.6937909722 -0.0784432143 -0.005142593756 0.9953821898
0.02266481332 0.08388159424 0.7548401952 -0.15887025 -0.1573123932 0.9125583768
0.03266764432 0.09891461581 0.7211155891 -0.2396091819 -0.6755918264 0.6971207857
-0.116859369 0.07567616552 0.7116292715 0.05601328611 0.3703226745 0.9264036417
-0.1122216284 0.06783536822 0.713861227 0.1328987777 0.3362435102 0.9304103255
-0.1203652844 0.0605295375 0.7196726799 0.1060908064 0.3374013603 0.9323923588
-0.05164338276 0.08275543898 0.6999131441 -0.2855042219 -0.04315513 0.8901920915
-0.06498479843 0.08449962735 0.6932374239 -0.6670191884 -0.09096396714 0.6317965984
-0.06434847414 0.07465022057 0.6947038174 -0.6192273498 0.1702013761 0.7269288898
-0.04900953919 0.07204724848 0.6971197724 -0.2684452832 0.09222980589 0.8330466747
-0.04097162932 0.06895913929 0.7004657984 -0.08690282702 0.01002117526 0.923827529
-0.07344053686 0.09055139869 0.715679884 0.08946605772 -0.0266836863 0.9132422209
-0.07348769158 0.09742379934 0.7109785676 -0.001015399233 -0.2001208365 0.9088490605
-0.06538061798 0.1001088619 0.7096345425 -0.1065804437 -0.2315417379 0.9128448963
-0.05848275498 0.09542754292 0.7067427635 -0.1215844825 -0.1838522851 0.9450976849
-0.06558357179 0.0911192596 0.7122564316 0.0356907174 -0.05433950946 0.9374207854
-0.07504854351 0.08356364071 0.7190547585 0.232046023 0.1297866851 0.9289325476
0.01091343071 0.04550321773 0.7578347325 -0.1364393383 -0.1943199635 0.9700417519
0.009902320802 0.05406377092 0.7482358813 -0.07666557282 -0.3206442297 0.7980976105
0.01537070703 0.06083007529 0.7546365857 -0.1238538474 -0.1358447075 0.9123062491
0.008381469175 0.05375114083 0.7588012815 -0.1642456055 -0.09007427096 0.9820941687
0.01586996578 0.0515367575 0.7607151866 -0.1461811811 -0.09600028396 0.9842679501
0.02132994868 0.0417977497 0.7375661731 0.03206809238 -0.6449637413 0.5575639606
0.01864668541 0.04829690605 0.7437614799 -0.02410652116 -0.4698214233 0.6820354462
-0.02913076803 0.07724592835 0.7024213076 0.05635984242 -0.07935538143 0.9942750931
-0.01501373015 0.07864901423 0.7022703886 0.04163024575 -0.206273526 0.9753056169
-0.002374448115 0.1051249728 0.7151015997 -0.2287872434 -0.6052458882 0.7620773911
0.005150207318 0.1044685021 0.7176113129 -0.2257142514 -0.6378490925 0.7361470461
-0.0007654675865 0.09773794562 0.7106676698 -0.1912146658 -0.5404495597 0.8174843788
-0.04369452596 0.03567141294 0.7011153698 0.1540549397 0.4513641 0.8757468462
-0.1000873148 0.06076383963 0.7219193578 0.1842645258 0.2966434062 0.9329565167
-0.1018121764 0.0464573428 0.7288774252 0.1628603637 0.4346076548 0.8822968006
-0.09308491647 0.04765920341 0.7260643244 0.2070676535 0.4283576012 0.86674124
-0.03566324711 0.04622896761 0.7419899702 -0.1519457698 -0.5280526876 0.6957859397
-0.04370138049 0.04617219791 0.7297680974 0.0394628942 -0.1344087273 0.7129783034
-0.0554340668 0.04717985913 0.7115480304 0.3026126027 0.4196021557 0.7534562349
-0.0465169996 0.05247859657 0.7232787013 0.01232356206 -0.1158115789 0.8082427979
-0.05141976103 0.05282148346 0.7156923413 0.123450473 0.1171683073 0.8240544796
-0.03641893715 0.0520568341 0.7331581116 -0.1766971052 -0.4619551599 0.7839244604
-0.04970291257 0.06130158901 0.7138172984 -0.0315582715 -0.08890676498 0.9409841895
-0.07218711078 0.07288883626 0.7157968879 0.3160349429 0.1067233235 0.9259299636
-0.08420433849 0.091165483 0.7144634128 -0.0314797312 0.1537492424 0.9326035976
-0.09014166147 0.07824669778 0.7211857438 0.2122602165 0.2721984088 0.9250362515
-0.0910879001 0.08572926372 0.7168567181 -0.01339597814 0.2923734784 0.9362803698
-0.07357326895 0.1060147882 0.7056540251 -0.1224594563 -0.3913982511 0.9036725163
-0.0737285763 0.117322512 0.7083676457 -0.1300543249 -0.4301326573 0.8919095993
-0.09301466495 0.09382297844 0.7131205201 -0.1699217409 0.2692326903 0.9446367025
-0.09463328123 0.106596604 0.7137480974 -0.1396398693 0.1334273368 0.9616196752
-0.09673451632 0.1178645641 0.7132561207 -0.1252455413 0.02153274603 0.9758985639
-0.09004613012 0.1222575903 0.7117120028 -0.08871673793 0.007648333441 0.9874373674
-0.08613407612 0.1119282991 0.711938858 -0.1039253995 0.07457641512 0.9656085372
-0.08507763594 0.1019632071 0.7128055692 -0.1418619901 0.07683563232 0.9301637411
-0.1296818852 0.06821688265 0.7155278325 -0.09476345032 0.3867754936 0.8773371577
-0.1434457451 0.06646238267 0.7181991339 -0.4457128644 0.4754120111 0.7563232183
-0.1386916339 0.07451898605 0.7162272334 -0.3805428147 0.4905580282 0.7743939161
-0.1451734006 0.09340734035 0.6963790059 -0.2391816378 0.1864615977 0.950114131
-0.04800229892 0.1154565215 0.7097440362 -0.1198069155 -0.2956075072 0.9475886822
-0.03867970034 0.1133625731 0.7107884884 -0.1323363036 -0.3067406118 0.9424180388
-0.04582307115 0.1001767889 0.7061129212 -0.1352323294 -0.2337005287 0.9611749649
-0.1877000183 0.06653057039 0.7048993707 -0.0826015994 0.3112084568 0.8525902629
-0.1761103272 0.05488661304 0.7023940682 -0.3103424311 0.5928995609 0.737575829
-0.01289855968 0.06955399364 0.6994874477 0.09356595576 -0.1306565404 0.9863900542
-0.01773971505 0.04602279887 0.7080723643 -0.02075255103 0.4382164478 0.7190210819
-0.009488545358 0.02871991321 0.7206372023 -0.1237897128 -0.3717917204 0.3274735808
-0.0158315897 0.03302200511 0.7158610225 -0.107410118 0.4382202923 0.4600003958
-0.005646415986 0.06014115363 0.7020353675 0.04369113222 -0.2981700301 0.8588985205
-0.003982227296 0.03538028896 0.7180140018 -0.09362177551 -0.7969430685 0.4012810588
-0.006570622325 0.04451464862 0.7118529677 -0.02674975991 -0.577948451 0.5836158395
-0.007122918032 0.05258793756 0.7066418529 0.01810072362 -0.4151515961 0.7328885198
-0.08033421636 0.04061404616 0.7187314034 0.2798743844 0.5657955408 0.7671484947
-0.08988230675 0.03925912827 0.7195270658 0.2151481956 0.5412489176 0.803409338
-0.09882821143 0.04904574528 0.7165688872 0.167272836 0.3944544196 0.8980941176
-0.09177871794 0.05440447852 0.7124921083 0.04564457014 0.3509397805 0.8742348552
-0.08676062524 0.05615876988 0.7067319751 -0.1354728788 0.3588152528 0.7934027314
-0.07860323787 0.0587935932 0.7016152143 -0.1136330664 0.3466752768 0.7416290045
-0.07118798792 0.06570406258 0.6925899386 -0.399980396 0.3041339815 0.6485155225
-0.08190894127 0.0500712432 0.7125390768 0.3372802138 0.4191102087 0.8358569145
-0.06407976896 0.05432727188 0.7111896873 0.2707129419 0.2883012593 0.8520179987
-0.05528396741 0.05764302239 0.7082405686 0.1414127946 0.2119373232 0.9008095264
-0.07250992954 0.0632128194 0.7130575776 0.3682039678 0.1929022819 0.8852686882
-0.06577675045 0.06783217937 0.711512804 0.2232190073 0.09056937695 0.9443586469
-0.07514519244 0.05543145165 0.7124347687 0.4467817843 0.3033934534 0.8378721476
-0.1475043744 0.0743130818 0.7058114409 -0.5397071242 0.5049381852 0.6732858419
-0.1541184187 0.07736182958 0.7017947435 -0.4260622263 0.3731845319 0.7805930376
-0.1343793124 0.08191647381 0.7162590623 -0.3075200915 0.5038678646 0.7913278341
-0.1321232021 0.08799276501 0.7021616697 -0.2717429996 0.4757333696 0.8250750899
-0.1465300471 0.08073657751 0.7006252408 -0.4563321471 0.4310944378 0.7744549513
-0.1405279487 0.0873125419 0.699264884 -0.4327542484 0.4298703372 0.7887991071
-0.1352397352 0.09519869089 0.6971928477 -0.2860359848 0.3199339509 0.8980864286
-0.06041001529 0.1076092497 0.7013641 -0.2865440547 -0.3485684991 0.8221575022
-0.05527948961 0.1089274511 0.7077095509 -0.1519836038 -0.308185637 0.9385160208
-0.06313285977 0.1137824431 0.7079485059 -0.1930356026 -0.4110388756 0.8887813091
-0.06649048626 0.1218439266 0.7100272179 -0.1402093321 -0.3621774614 0.9214177728
-0.0561135076 0.1189761385 0.7099143267 -0.1407106668 -0.3407531977 0.9290245771
-0.01583537087 0.06223158911 0.699845314 0.09207545221 -0.02952191047 0.992647171
-0.02326335013 0.07175351679 0.7013543844 0.08679930866 -0.07821778953 0.9929862022
-0.02534639649 0.05691868439 0.7004545927 0.0788237229 0.06265436113 0.9913715124
-0.03670826554 0.05039514229 0.6991426349 0.07443146408 0.1396734715 0.9822388291
-0.03434636816 0.05799552426 0.7008824944 0.08023992926 0.03445186466 0.9874186516
-0.03362772614 0.06737024337 0.7030115128 0.06043750048 -0.05772546306 0.9964260459
-0.06874427199 0.05378844962 0.7025005221 0.21103625 0.408005923 0.7567592263
-0.07179485261 0.0486940369 0.708444953 0.4326689243 0.4689917862 0.7663508058
-0.05922583118 0.04096444324 0.706376195 0.3598783314 0.5338060856 0.748000443
-0.07145354152 0.04487788677 0.7162892222 0.4066466391 0.4954542816 0.7456306815
-0.0519871451 0.03952914476 0.7013805509 0.2738071084 0.4581383765 0.8411114216
-0.05501664802 0.03488780186 0.7102394104 0.347043395 0.6100957394 0.6916698217
