# .PCD v0.7 - Point Cloud Data file format
VERSION 0.7
FIELDS x y z normal_x normal_y normal_z
SIZE 4 4 4 4 4 4
TYPE F F F F F F
COUNT 1 1 1 1 1 1
WIDTH 512
HEIGHT 1
VIEWPOINT 0 0 0 1 0 0 0
POINTS 512
DATA ascii
-0.01096560434 -0.03990069777 0.9195977449 -0.1026500612 -0.06325214356 0.9735128284
-0.001067954232 -0.0366609171 0.9130606651 -0.135126248 -0.1307205558 0.839387536
0.005428499542 -0.03070612252 0.9052501917 -0.3927405775 -0.2939112484 0.5478433371
0.01028037537 -0.02525910921 0.8990250826 -0.5699709058 -0.4503415823 0.3584209979
0.01304393914 -0.05451360717 0.858469069 0.2997066379 -0.1465915143 0.93988204
-0.004206641577 -0.04861459509 0.9187262058 0.2172208875 0.06180322543 0.9212513566
0.007841310464 -0.04152639955 0.9040520191 -0.01908859424 -0.2679308355 0.444034189
0.01472477335 -0.03030028939 0.8912904859 -0.5695328712 -0.5071685314 0.3110937774
0.01174163818 -0.03735464439 0.895069778 -0.2208931297 -0.4380068481 0.5148938894
0.001724392525 -0.04910041019 0.9119759202 0.3109295964 -0.01837692782 0.7053094506
0.001173105789 -0.05832319707 0.913280189 0.5543926358 -0.4426394701 0.6127271056
0.002751063323 -0.02146278322 0.9023730159 -0.3888767362 -0.5279977322 0.6500152349
0.0008642256144 -0.01233761385 0.8994687796 -0.4387249947 -0.6066148877 0.5973132253
-0.009580331855 -0.03365182132 0.9154087305 -0.1988340169 -0.2141293138 0.8989232183
-0.001381078502 -0.02760517783 0.9076585174 -0.3104157746 -0.3991089761 0.7504223585
0.008219039999 -0.01436978672 0.8958402276 -0.4852688313 -0.6866257787 0.5256993175
-0.03463995829 -0.01059076842 0.9036866426 -0.2720637321 -0.3325499892 0.816814065
-0.0350683704 -0.01944334432 0.9082719684 -0.2458402961 -0.1664417386 0.8928489089
-0.02776763588 -0.01566684991 0.9053244591 -0.2840925753 -0.2822858095 0.8211020827
-0.02040675841 0.002011005301 0.8952618241 -0.3611946702 -0.6551012993 0.6333394647
-0.02810630202 -0.003605405102 0.8992055058 -0.3163142502 -0.5027757883 0.722600162
-0.01125326194 -0.04902022704 0.92048949 -0.0815127641 -0.04026576504 0.9846817851
-0.07839997113 -0.03009818867 0.8583272696 0.03366629779 -0.1585271358 0.9841928482
-0.2446825653 -0.03955927864 0.8424131274 -0.1025943458 0.4089815021 0.9049569964
-0.2369879335 0.006889751647 0.8414990306 -0.1198174059 -0.1472951025 0.9788347483
0.0133993132 -0.04633986205 0.8566129208 -0.3154857159 -0.2266145498 0.8977000117
-0.155399248 0.0231907405 0.8644583225 -0.2468186617 -0.07190103084 0.9663319588
0.007760034408 -0.03062339686 0.8688021898 -0.44283849 -0.6203824282 0.6371583343
0.01459362824 -0.04682573304 0.8661747575 0.03748607263 -0.3549610674 0.7597401142
-0.02987494133 0.00717284251 0.8919972181 -0.3316022456 -0.682978034 0.6500601172
-0.07659413666 -0.04781808704 0.9095804095 -0.1145663634 -0.0878309682 0.989521265
-0.001262911363 -0.07070481777 0.864957571 0.3066341877 0.01172856707 0.8285261393
-0.00768689625 -0.07239738107 0.8709692359 0.1956875771 0.01434672903 0.5945525765
-0.01389216725 -0.06605678052 0.9071196914 -0.01930540055 -0.6356065273 0.5890666842
-0.008236366324 -0.06417711079 0.915638864 -0.04957986996 -0.712675631 0.6750121117
-0.01520001423 -0.07282632589 0.8760305643 0.2500798404 -0.9206169248 -0.2448444963
-0.01298250537 -0.06934002787 0.8920083642 0.1243358105 -0.8194058537 0.1421424001
-0.0104003828 -0.07052575052 0.8850998282 0.1505774111 -0.5566738844 0.2521698773
-0.004418170545 -0.06789268553 0.8905508518 0.2053881884 -0.09108056873 0.7343578935
-0.004533903673 -0.06594981253 0.9030047059 0.1044017002 -0.4454945028 0.6592479348
-0.001852055546 -0.06921958923 0.8813965321 0.311701417 -0.02442308329 0.8195719719
0.008018178865 -0.06616192311 0.8619789481 0.3553037047 -0.01963672973 0.9303889871
-0.1161384061 0.02436489239 0.8782061338 -0.1835995317 -0.4199734032 0.8884115219
-0.05048139393 -0.01817746088 0.9047871828 -0.2028069198 -0.1873808354 0.9100279212
-0.05003940687 -0.01098985132 0.9000677466 -0.220395565 -0.2973257005 0.8644239306
-0.05315761641 -0.005582334474 0.8947033286 -0.2197318971 -0.3584849238 0.850225091
-0.04372686893 0.008201688528 0.8901639581 -0.2880272269 -0.6229500175 0.7127457261
-0.05229380354 0.002170136198 0.8898164034 -0.2402616292 -0.479488343 0.7987812161
-0.04170088843 -0.002118405653 0.8983386755 -0.2734874785 -0.4817098379 0.7627188563
-0.03826921806 0.006291658152 0.8943484426 -0.305804491 -0.6285607815 0.6923728585
-0.1257252097 0.02072568797 0.8589106798 -0.5010844469 -0.4298823476 0.5126026273
-0.1262132078 0.0151135372 0.8437694311 -0.8176531196 -0.4198131561 0.1247947067
-0.1261930317 0.01890645549 0.8512454033 -0.6402609348 -0.4337314367 0.3356157243
-0.2457902282 -0.02139163949 0.8381693959 0.03766154498 0.1052015871 0.9919270873
-0.2373668104 -0.02637655474 0.837526381 -0.06396238506 0.2161863446 0.9720845819
-0.1406735033 0.008394762874 0.8677517772 0.01684806496 -0.276959002 0.9549122453
0.005506354384 -0.03802743554 0.8595519662 -0.3643699288 -0.4287959933 0.817111969
0.01208910253 -0.03752645105 0.8636832237 -0.5118202567 -0.4725466371 0.7139056921
-0.02943221666 -0.06555449218 0.8762436509 0.08159341663 -0.9370539188 0.117205672
-0.02361790836 -0.03800399974 0.8665848374 -0.1899344027 -0.6628786325 0.6685056686
-0.02339726873 -0.04561856389 0.868966341 -0.08541699499 -0.7387536168 0.4375214875
-0.01926274039 -0.0193209406 0.8667509556 -0.2825027704 -0.6532281637 0.7010509968
-0.05298224464 -0.02272744104 0.8579449654 -0.07481393218 -0.4453409016 0.8886092901
-0.05355797708 -0.04568488896 0.8661633134 -0.118629232 -0.7114937305 0.495873183
-0.05316314101 -0.05564020574 0.8698170185 -0.1471496075 -0.8430640101 0.3134407103
-0.0452920869 -0.06749736518 0.8767364621 -0.05805044994 -0.9664669633 0.210104689
-0.04868159071 -0.03927950934 0.8644918799 -0.1369343251 -0.699624002 0.5746411085
-0.04797706008 -0.03081974201 0.8613289595 -0.1418319792 -0.6196327209 0.7009142637
-0.04503272474 -0.05621220917 0.8723163009 -0.07199940085 -0.8597567081 0.3718339205
-0.1109943092 0.002254826948 0.8543685675 -0.5296275616 -0.316041708 0.5113862157
-0.1183338836 0.002912142314 0.850186944 -0.7021155357 -0.2439119071 0.4147075117
-0.1093875021 -0.00442990521 0.8588322997 -0.4557781518 -0.1497358084 0.7777549624
-0.09733392298 -0.004384790547 0.8650895357 -0.1787106097 -0.2995016575 0.8943684101
-0.06837965548 -0.01380366832 0.8929883242 -0.1467385739 -0.2513217032 0.9319826365
-0.06547632068 0.004718951881 0.884827435 -0.1847865134 -0.4544985592 0.8496709466
-0.0640476346 -0.02084842324 0.9022400975 -0.1473592669 -0.1651654541 0.9533782005
-0.05989538506 -0.00254527363 0.8908535242 -0.1997585893 -0.4052378237 0.8491486311
-0.02229108848 0.00592264533 0.8869822621 -0.3404508531 -0.6935369968 0.6335514784
-0.04251872748 -0.01560152695 0.9071397185 -0.2434479147 -0.2250512987 0.8748958111
-0.04792129248 -0.02507888898 0.9108429551 -0.2001669258 -0.0617663227 0.9568811655
-0.04041044414 -0.02730572782 0.9132291675 -0.2154840976 -0.007256824989 0.970695436
-0.1531900615 -0.05768227577 0.87266922 0.2141943276 0.3490607738 0.911757946
-0.1464270353 -0.06227122247 0.8734999895 0.2211504281 0.3904412389 0.8929851055
-0.06677321345 -0.05337582901 0.9107267261 -0.1592407674 -0.09160877764 0.9819874167
-0.02933238633 -0.07263709605 0.8790982366 0.1080112532 -0.9656153321 0.1270854175
-0.03906198964 -0.06947177649 0.8962276578 -0.01265694667 -0.845315516 0.4320412278
-0.03499545157 -0.07143893093 0.8857802749 0.03191097453 -0.9181682467 0.268248111
-0.01910352148 -0.07073468715 0.8862683773 0.126149863 -0.8460943103 0.1502720863
-0.01603640988 -0.06778828055 0.8993732333 0.03299612552 -0.6985487342 0.4314107895
-0.05333925039 -0.07160441577 0.8933163285 -0.1438082308 -0.9019787908 0.3653963208
-0.0470071882 -0.06921286881 0.8995318413 -0.09688616544 -0.8299885392 0.5047988892
-0.04433210194 -0.07072236389 0.8893709183 -0.06103492901 -0.8917794228 0.3706258237
-0.03726678342 -0.07324741781 0.8763369918 -0.0001298349816 -0.9827417731 0.16967614
-0.05234386027 -0.07330686599 0.8759143353 -0.08738726377 -0.9819671512 0.1578311324
0.009927369654 -0.05793653429 0.8791727424 0.4878414273 -0.3560318053 0.7417735457
0.003186860355 -0.06167750061 0.9010279179 0.4962029159 -0.5208981037 0.6035946608
0.01028037816 -0.06278021634 0.8697972298 0.4012727141 -0.1758226007 0.8552110791
0.005082488526 -0.06335609406 0.8862920403 0.4350209832 -0.3217229545 0.733674407
0.005171331577 -0.06495010108 0.8786045909 0.3929390311 -0.1952710301 0.8085780144
-1.147085004e-05 -0.0704240799 0.8724275827 0.299790889 0.03794504702 0.90987885
0.01304374263 -0.05434774607 0.8703226447 0.3671716154 -0.2992430925 0.7890028358
0.006445423234 -0.05522172153 0.8977754712 0.3627206385 -0.5692181587 0.5863201022
0.005179121159 -0.05374898762 0.905168891 0.2974711359 -0.6574198008 0.5224359632
0.009937446564 -0.04763677716 0.8924721479 0.08549091965 -0.584333837 0.5851008296
0.008975063451 -0.054168161 0.8881813884 0.3362227976 -0.4816543758 0.6530800462
0.01182368211 -0.05044034868 0.8806692958 0.2066229582 -0.4394241273 0.6895489693
0.01272604149 -0.04278780147 0.886672318 -0.08847215027 -0.5696063638 0.6025278568
0.01640547812 -0.03305786476 0.8813225627 -0.4588708878 -0.6118451357 0.5841934085
0.0156207066 -0.03847963735 0.8751329184 -0.2634930313 -0.5103834271 0.6530990601
-0.1297729015 0.02433376014 0.8733435273 -0.2143682539 -0.4430164993 0.8702374101
-0.1467427015 0.03045060113 0.8689531684 -0.2235487103 -0.1613894403 0.9560277462
-0.02143373713 -0.01128402445 0.9003329277 -0.3300096393 -0.4425614774 0.7343544364
-0.01928231306 -0.03764624521 0.9184144139 -0.1570924222 -0.08205842972 0.9834951162
-0.0599456802 -0.01440293994 0.8987026215 -0.1789530963 -0.2664397955 0.9014119506
-0.05533095077 -0.0243885871 0.9070432782 -0.1717189997 -0.09336617589 0.9609410167
-0.05907648057 -0.04992550611 0.9105352163 -0.1626717597 -0.09047298878 0.9817997217
-0.05101842806 -0.05380462855 0.9120702744 -0.2117577195 -0.08909982443 0.9729100466
-0.04879343882 -0.01595933922 0.8623222709 -0.1276756078 -0.5625106096 0.8142523766
-0.06538174301 0.01168080699 0.8789191246 -0.1966038048 -0.5398839712 0.8184322715
-0.1357041299 0.02962900512 0.8644995093 -0.3254725337 -0.3431339562 0.7709288001
-0.1346035898 0.02730466798 0.8547807932 -0.472184211 -0.4055743814 0.5558494925
-0.1265569925 0.02487793937 0.8655947447 -0.3357135057 -0.4321914613 0.7131858468
-0.2522993982 -0.01729635336 0.8408868909 0.07911998034 0.06368015707 0.9943342209
-0.2523287833 -0.03526120633 0.8441381454 -0.0622792393 0.3395494819 0.9348648787
-0.08749322593 -0.03430752829 0.8556849957 0.0114800185 -0.1261714995 0.9868433475
-0.14873299 -0.04525069147 0.8699918389 0.2001355141 0.224538818 0.9474768639
-0.2439682335 -9.175838204e-05 0.8395690918 -0.04154253006 -0.0790836066 0.9941820502
-0.2457988858 -0.00830214005 0.8389219046 0.02696889266 -0.03152230009 0.9966959953
-0.2281028032 -0.01864659227 0.837677896 -0.2261717618 0.1070161387 0.9616012573
-0.2226783037 -0.008489298634 0.840010643 -0.2689830065 -0.002521547489 0.9579464197
-0.1661471277 0.005876343232 0.8642836213 -0.1405244172 0.1428777128 0.9785431027
-0.1705080271 0.01901474968 0.8633058071 -0.2312774807 0.05704986304 0.9656744003
-0.1729556769 0.01128461491 0.8640553355 -0.2037252784 0.1407066435 0.9634042382
-0.1740524173 0.03129818663 0.8624216318 -0.257702142 -0.02272221819 0.9659436941
-0.1651834548 0.03124562651 0.8647701144 -0.2546198666 -0.007377413567 0.966991663
-0.1911612153 0.02903924324 0.8557326794 -0.2881351113 -0.05020968989 0.9559059739
-0.1465188563 -0.007823324762 0.8669039607 0.2516225874 0.08476641774 0.9632068276
0.01085760444 -0.02478964627 0.8826240897 -0.4515681863 -0.7018662691 0.5490841866
-0.001548600267 -0.04777899757 0.8614618182 0.04359038919 -0.1154429689 0.9774227142
-0.0004938834463 -0.05743667483 0.8627405763 0.1625774056 -0.02420252003 0.9632540941
-0.004564119037 -0.06341012567 0.8680847883 0.2187510133 0.1301213056 0.9460452795
-0.03188031912 -0.03038685024 0.8627986908 -0.1968207955 -0.5991418362 0.7521319985
-0.03089056537 -0.03945365176 0.8666316271 -0.1778856963 -0.6844996214 0.6313819885
-0.03807490319 -0.03650014848 0.8647881746 -0.1531151682 -0.66424191 0.655333519
-0.03621281683 -0.04502144828 0.8684712648 -0.1395208985 -0.7434391975 0.5439373851
-0.03813815862 -0.05239273608 0.8713507056 -0.1118178442 -0.8158375621 0.4396479726
-0.0431067422 -0.02439281344 0.8593482971 -0.1616718918 -0.5543404222 0.8082595468
-0.03610031679 -0.02092121169 0.8626109362 -0.2031904906 -0.5829156637 0.7862046361
-0.02978370152 -0.05310730264 0.8722085357 -0.08412467688 -0.8137542605 0.4622859359
-0.03484566137 -0.05984921381 0.8745883703 -0.05662531033 -0.8835433125 0.3567768931
-0.03525352478 -0.03512624651 0.9141654968 -0.2227289975 -0.02509075962 0.9745258689
-0.02963036485 -0.0426560007 0.9161791205 -0.1895736754 -0.06829787791 0.9787638783
-0.1085652784 -0.01042691525 0.8635388017 -0.2607523799 -0.201373294 0.9414299726
-0.1050770208 0.02268639952 0.8789574504 -0.1617757976 -0.4279222488 0.8888664842
-0.1027753204 0.01674062386 0.8723235726 -0.1518066227 -0.4711511433 0.8674738407
-0.09378010035 0.002162962453 0.868524909 -0.1030395254 -0.3817303181 0.9182962775
-0.09382891655 0.009796859697 0.8718692064 -0.1106273085 -0.410656333 0.904771626
-0.09448001534 0.01823263429 0.874969244 -0.1264190078 -0.4528323114 0.8825020194
-0.08560311049 0.01201818231 0.8736717701 -0.1337041706 -0.4469136298 0.8842842579
-0.02793725394 -0.00174271618 0.8811947703 -0.315294683 -0.6810688972 0.6602475643
-0.02099611424 -0.004561806563 0.8796168566 -0.3300309777 -0.6891061664 0.6445486546
-0.03224106133 -0.006340153981 0.8759415746 -0.2809919417 -0.6697289348 0.6869609356
-0.009249415249 -0.02073475532 0.8694905043 -0.3378718197 -0.6786723733 0.6504881382
-0.0162340086 0.0005116670509 0.8860218525 -0.3709807396 -0.6959348917 0.6138219833
-0.03606836498 -0.01172636263 0.8682183623 -0.2274095863 -0.6260133386 0.7456808686
-0.02874190919 -0.01827103458 0.8659216762 -0.2528244853 -0.6231628656 0.7382563949
-0.09286983311 -0.06792792678 0.883099556 -0.05487793311 0.04599946365 0.8312752843
-0.08586680889 -0.06484018266 0.8976050019 -0.274708122 -0.3412694931 0.7637729645
-0.1020888016 -0.03985152394 0.8707105517 -0.04470229894 -0.06435278803 0.9643522501
-0.09523119777 -0.04925201461 0.8906444311 -0.03434895352 0.001593266847 0.9577317834
-0.1049674302 -0.05770874396 0.8809694648 0.1240900159 0.2790029347 0.883112669
-0.1088317856 -0.05288628861 0.8701421022 0.1220265701 0.2499222904 0.8850135207
-0.1048203409 -0.0362797454 0.8629179597 -0.04745524004 -0.08768245578 0.9663240314
-0.08763813227 -0.0514610149 0.905711174 -0.08799830824 -0.06492635608 0.981998682
-0.1065505818 -0.04608448222 0.8682909012 0.04662585258 0.1028939188 0.9210721254
-0.09806615114 -0.04505712539 0.8821399808 -0.0410804078 -0.03092229925 0.961658299
-0.09984324872 -0.05555974692 0.8880277872 0.05898185819 0.1721728146 0.9135148525
-0.06807748973 -0.04248889536 0.9102057219 -0.1243667603 -0.09367025644 0.9875199199
-0.05966614187 -0.04224680364 0.9114355445 -0.1574185491 -0.08306150138 0.9834550619
-0.09035889059 -0.04160378873 0.8898085952 -0.1019774228 -0.115556471 0.9873057008
-0.09001324326 -0.04632895067 0.8968008161 -0.1008118987 -0.1080259383 0.9884610772
-0.08412790298 -0.04425918683 0.9008747339 -0.1109455675 -0.09743682295 0.9886642098
-0.09660841525 -0.0358710438 0.8764909506 -0.1004143208 -0.1423441023 0.9836539626
-0.1028968692 -0.02884538472 0.8663396239 -0.1146470457 -0.1813904494 0.9758800268
-0.09422592074 -0.03448605537 0.8831234574 -0.1223495975 -0.1506706923 0.9792380333
-0.1582624018 -0.06237448007 0.8769912124 0.1710067689 0.3588698506 0.9163714647
-0.07173992693 -0.05930272862 0.9059041142 -0.1312404573 -0.3591836095 0.8732388616
-0.07903465629 -0.05535335466 0.908084631 -0.1179886982 -0.2166337371 0.9350976944
-0.1323003471 0.01298913639 0.870364368 -0.1091776118 -0.3887593448 0.8980943561
-0.1250642687 0.01424961723 0.8707520366 -0.1972820759 -0.4848896265 0.8459126949
-0.002143355086 -0.003842980368 0.8948608637 -0.4681879282 -0.6874037981 0.5544309616
-0.01181052346 -0.02371386252 0.9080761671 -0.2680876851 -0.3515440822 0.8096056581
-0.0116272578 0.002040377818 0.8940523863 -0.4097643793 -0.6978794932 0.5865465403
-0.01771560311 -0.01714194566 0.9033948183 -0.3105745614 -0.420001626 0.7617784739
-0.01338482462 -0.005230900832 0.8949226737 -0.3823623061 -0.6443659663 0.6283736229
-0.009636223316 -0.01572920568 0.9024757147 -0.3466620743 -0.4817414284 0.7143536806
-0.01750529371 -0.03044835478 0.91274786 -0.2163806409 -0.2101088464 0.8979191184
-0.02170681767 -0.02260786481 0.9074085355 -0.2705155909 -0.2949809432 0.8343614936
-0.02999748848 -0.02647024021 0.9109466672 -0.2372276038 -0.1144430265 0.9188475013
-0.0479063727 -0.0610107556 0.9108562469 -0.2135260701 -0.1144102216 0.9699149132
-0.05784225091 0.01077589951 0.879131496 -0.2471667379 -0.5892311335 0.7689595819
-0.09712076932 -0.03641406819 0.8542385697 -0.01724377461 -0.1250527501 0.9907733202
-0.1088920683 -0.03549391776 0.8489326239 -0.2034690976 -0.0153427124 0.9357684851
-0.1152765751 -0.02451884188 0.8501263857 -0.3429567516 0.05232499912 0.8796871305
-0.2253108025 -0.05080457777 0.8570427895 -0.367944926 0.4966183007 0.782638371
-0.2212275267 -0.05346522853 0.8639180064 -0.4115690291 0.45597893 0.7861385345
-0.2045210898 -0.0610634312 0.8782727122 -0.3222193122 0.3340943158 0.8851833344
-0.2146091014 -0.05696268007 0.8687838912 -0.3819410503 0.4081603587 0.8235980868
-0.2079436779 -0.0600326471 0.8709247112 -0.3590351939 0.3691749275 0.855872035
-0.1616145074 0.01413256489 0.8637264967 -0.2069497854 -0.02577183396 0.9752274752
-0.1479932815 0.006711689755 0.8659997582 0.005647760816 -0.1508340538 0.9774492979
-0.140918836 0.02215275913 0.8719322085 -0.173806563 -0.2899721563 0.935112536
-0.1450546235 0.01660279743 0.8694449067 -0.122137323 -0.2018028796 0.9544735551
-0.1515570283 0.01404340658 0.8662490845 -0.1547174752 -0.09976814687 0.96962291
-0.1301612109 -0.04382830858 0.8629366159 0.2645420432 0.2190291882 0.9292814136
-0.1216660887 -0.0391981937 0.8561366796 0.2115834504 0.1078071445 0.9690982699
-0.1165470779 -0.03398485854 0.8538490534 0.07391378284 -0.004249266349 0.9820209742
-0.1585862786 -0.05095752329 0.8701702356 0.1816124618 0.2902992666 0.9386110306
-0.1596564502 -0.03971161693 0.8734474182 0.1454769671 0.1465945244 0.9730083346
-0.1639151573 -0.05699298158 0.8751514554 0.1477590799 0.3327079713 0.9310418963
-0.236874193 -0.01237472054 0.8365159631 -0.0447392948 0.01302720886 0.9972811937
-0.2336326092 -0.001113205333 0.8379982114 -0.1221949011 -0.1132936552 0.9837357998
-0.1488686055 -0.03882293031 0.8649015427 0.2432979494 0.1395823807 0.9571937919
-0.1419463009 -0.04945737496 0.8677952886 0.2396892011 0.2782864273 0.9285405278
-0.1418891102 -0.04276615754 0.8643932343 0.2481137067 0.184619382 0.9500223994
-0.2020034045 0.01369386539 0.8486875296 -0.2988265455 -0.06417226046 0.9513770342
-0.2152506262 -0.01662682556 0.8450737596 -0.4564181566 0.1869857609 0.8566419482
-0.2082319707 -0.01559270639 0.8506731391 -0.5447326899 0.2671221793 0.7880967259
-0.2138035297 -0.009370700456 0.8453784585 -0.4343317747 0.1023354083 0.8847463727
-0.1774953753 0.01666503958 0.8613758683 -0.2424321026 0.07682590187 0.9594889283
-0.1827398539 0.02996287309 0.8589545488 -0.3155916333 -0.02021227777 0.9486617446
-0.1951887161 0.02232847735 0.8518285751 -0.2955012918 -0.04888477921 0.953119874
-0.1318099052 0.01986136101 0.8290447593 -0.7699685097 -0.5962392092 -0.1262381524
-0.1281969398 0.01399271283 0.8356463909 -0.8341172934 -0.5118041635 -0.1021183878
-0.1629444361 -0.001465508714 0.8660772443 -0.03575826436 0.1209809482 0.9851645231
-0.1606765836 -0.01681276411 0.8693506122 0.1496431679 0.1433464885 0.9753670096
-0.1538743228 0.0007860776968 0.865149796 0.04999406263 0.05420615524 0.9875311852
-0.1564653665 -0.005903928075 0.8670256734 0.09992612153 0.09732496738 0.9800136089
-0.1423445791 -0.02589493431 0.8664343357 0.2408873737 0.06587937474 0.9663107991
-0.1142773703 -0.02787527815 0.8618481159 0.01561915502 -0.1178708076 0.9781236053
-0.01975054666 -0.02714824118 0.8627827764 -0.258618176 -0.6117196679 0.7471315265
-0.02167508751 -0.05680633709 0.8721083403 0.05477019027 -0.8518407345 0.1074850708
-0.01651336811 -0.03503935039 0.8640853763 -0.2300483882 -0.6386423111 0.6722894311
-0.008555225097 -0.04972605407 0.8651230335 0.03937048092 -0.4029222131 0.6440969706
-0.01606509089 -0.0495612137 0.8680294156 -0.02171782777 -0.6716998219 0.3984434903
-0.01240822487 -0.0577519685 0.8693727255 0.110608995 -0.2141053528 0.6359792948
-0.01958092675 -0.06409619749 0.8735688329 0.1659106612 -0.6690447927 0.1357236654
0.004964591004 -0.04526708648 0.8569679856 -0.006668350659 -0.1086743101 0.9916635156
-0.04961430654 -0.03582114354 0.9123137593 -0.1900019199 -0.02907851338 0.9809471369
-0.04486182332 -0.04227536544 0.9137303233 -0.2245280296 -0.04666111991 0.9730904102
-0.05201378837 -0.04425045103 0.9126667976 -0.192183882 -0.07702384144 0.9778706431
-0.1212504506 0.01110270061 0.8479653597 -0.7476633787 -0.4145696461 0.2143997997
-0.1030426472 0.001846994041 0.8654660583 -0.2118507177 -0.3890729845 0.841419518
-0.08361295611 -0.01075517572 0.8635197282 -0.02148046345 -0.3341103196 0.940279603
-0.08273135126 -0.02303432859 0.8592587113 0.04454332963 -0.2186881453 0.9729898572
-0.05751819164 -0.01625711098 0.8606323004 -0.05778625607 -0.5023494959 0.8606670499
0.007125712 -0.01839563623 0.8889904618 -0.4889998138 -0.7025959492 0.5167735815
-0.004388272762 -0.01896692999 0.8760442138 -0.391377598 -0.6929498315 0.6035434604
0.004294384737 -0.02400946058 0.8748401999 -0.4417123199 -0.6929935217 0.5688348413
-0.03661711514 0.004342087545 0.8853722215 -0.3023982644 -0.6610810757 0.6861428618
-0.07587517798 -0.03715387359 0.8585503101 -0.02328362688 -0.080061391 0.9806104302
-0.07620361447 -0.04619923979 0.8582652807 -0.07264246047 0.02954903431 0.9671750665
-0.06841318309 -0.04214094952 0.8579224944 -0.08073428273 -0.07897413522 0.9393888116
-0.0748917982 -0.05365499109 0.8579534292 -0.1216584742 0.1075789481 0.9492649436
-0.0676125586 -0.03027332015 0.8577938676 0.03080686182 -0.2249546349 0.9515248537
-0.07239599526 -0.0606595166 0.8610842228 -0.1670106202 -0.1791725606 0.5969735384
-0.05857853219 -0.02947730012 0.857960701 -0.06718745083 -0.3087126911 0.915168643
-0.06025952846 -0.03652254865 0.8595463037 -0.09093526751 -0.3903483748 0.7427161336
-0.06659716368 -0.06398588419 0.8658585548 -0.1836857498 -0.7251327634 0.05545967445
-0.05987065285 -0.04849194735 0.8641865253 -0.1294386089 -0.7109717727 0.313387543
-0.06116634607 -0.05614738539 0.8662147522 -0.1532350928 -0.8039022684 0.1376298368
-0.0559299849 -0.06510549784 0.8724514842 -0.1529861838 -0.9281686544 0.1306667477
-0.08823541552 -0.04180818424 0.8559071422 -0.0755045563 -0.03385174647 0.9940038323
-0.07564793527 -0.03845862299 0.9087335467 -0.1140186265 -0.09485270828 0.9889354706
-0.07191508263 -0.008800854906 0.8868820071 -0.1474888623 -0.3237651587 0.9118746519
-0.07320960611 -0.001975474646 0.880599618 -0.1535352319 -0.3964576125 0.8891671896
-0.06887435913 -0.02836099081 0.904559195 -0.1293578148 -0.1210368797 0.9757047296
-0.07042022049 -0.02093779109 0.8976591229 -0.1357681304 -0.201249525 0.9507517219
-0.08063924313 -0.01387672871 0.8803355694 -0.09376115352 -0.2974710763 0.9383782148
-0.07787711173 -0.02126276307 0.8907473087 -0.1059446484 -0.2316162735 0.9529197812
-0.06893076003 -0.07107040286 0.866410017 -0.1655578613 -0.6846987009 0.08539113402
-0.08457606286 -0.07212053239 0.8674759269 -0.0226016175 0.3901701272 0.9096589684
-0.0780383274 -0.06430161744 0.9036663771 -0.2759130895 -0.5680270195 0.7431319356
-0.07560051233 -0.06647342443 0.8963881135 -0.1934229732 -0.4079807997 0.780618608
-0.07679469883 -0.07291027158 0.8683170676 -0.1253860146 0.3557664752 0.9116523862
-0.08071325719 -0.06699253619 0.8904687166 -0.2740107775 -0.1855786443 0.802592814
-0.07841148227 -0.07064826041 0.8767428398 -0.1802755296 0.150238201 0.8701383471
-0.08705917001 -0.06968022883 0.8775679469 -0.07526291907 0.1557182372 0.8639560938
-0.1686402708 -0.06274666637 0.8791088462 0.09778477997 0.3725619614 0.920059979
-0.1784135103 -0.06348733604 0.8813993335 0.01591917686 0.397025615 0.9171938896
-0.04010999575 -0.04815556854 0.9142887592 -0.2249707729 -0.06914612651 0.9717808962
-0.04983239248 0.007258694153 0.879684031 -0.2581366897 -0.6243852973 0.736594677
-0.04058094323 -0.0008344977978 0.8776746392 -0.2737320065 -0.6551577449 0.7033747435
-0.04908267036 -0.0003897763963 0.874542594 -0.2312628478 -0.6176431179 0.7498143911
-0.1079039127 -0.04492196441 0.851182878 0.03422475234 -0.02563188039 0.9911029339
-0.09455930442 -0.06011227891 0.8960304856 -0.06045333669 -0.002544151386 0.869728744
-0.09024444222 -0.05732098222 0.9018275142 -0.1020469889 -0.0752376765 0.9033821225
-0.1011157706 -0.06326923519 0.8879794478 0.02291407809 0.1399073601 0.8415502906
-0.1102193743 -0.06797367334 0.8760011196 0.1505737156 0.362668097 0.8089311719
-0.1031392217 -0.06795442104 0.8807042241 0.04794196039 0.2059963495 0.8051275611
-0.1218004748 -0.04937700182 0.8640103936 0.212794885 0.3033259511 0.8893943429
-0.1174579859 -0.04736519232 0.8573873639 0.2258553356 0.202400431 0.9429761767
-0.1097289473 -0.0423720181 0.8614022136 0.08285424858 0.1184173524 0.9189193249
-0.1024675071 -0.05038950965 0.8523209691 0.01485480741 0.09911496937 0.9636229873
-0.09959216416 -0.05761040747 0.8559786081 0.06693151593 0.2973659933 0.9318742156
-0.11708875 -0.05599737167 0.8635449409 0.279910773 0.4684110284 0.8376284242
-0.1167923212 -0.06798513234 0.8709815741 0.2464871258 0.5140402317 0.8214356303
-0.1725762486 -0.04237622768 0.8684641719 0.06338149309 0.199273631 0.9770912528
-0.1657308638 -0.04560918733 0.870106101 0.1350346357 0.2398185581 0.9605837464
-0.1997113079 -0.06031069905 0.8711367846 -0.268327564 0.3797106147 0.8746351004
-0.1509900093 -0.02777243778 0.8643963337 0.2111345977 0.1167252511 0.9687591195
-0.1551928967 -0.0351510644 0.8668141365 0.1793058515 0.1059618369 0.9773840308
-0.1586210281 -0.02662970871 0.8653441668 0.1502226591 0.1118756607 0.9802715778
-0.2192575037 -0.02378202975 0.8446820378 -0.4519333541 0.2759512961 0.8372134566
-0.2314212918 -0.01208343636 0.8420716524 -0.2447383255 0.08990927041 0.9257366657
-0.2352610677 -0.04071671516 0.8518407345 -0.2881582975 0.445759356 0.8238354325
-0.2269821167 -0.04261527956 0.854592979 -0.390065074 0.4767417908 0.7758264542
-0.2423810661 -0.03427277133 0.8483561277 -0.1640626937 0.3165708184 0.890007019
-0.1813240796 -0.02537884563 0.8658927083 -0.1506288052 0.1575147063 0.9332512617
-0.1864255667 0.02278500237 0.8573938608 -0.2986956835 -0.002990494715 0.9514398575
-0.1646662056 0.02256527729 0.8487332463 -0.4772768319 -0.1925171316 0.5511623025
-0.144166857 0.02157794125 0.835260272 -0.7185267806 -0.4779827893 -0.03191795945
-0.1581308544 0.02130210586 0.8444217443 -0.5544266105 -0.276063323 0.3662310839
-0.171808362 0.02185089886 0.8534092307 -0.3934881687 -0.0847305581 0.7553831339
-0.1396013796 0.01067341398 0.8375290632 -0.5157762766 -0.4659246504 -0.06668301672
-0.1613306403 0.02906536683 0.8538699746 -0.420640111 -0.1632325798 0.6376350522
-0.1531700492 0.02925293334 0.8551882505 -0.421071142 -0.1915177256 0.6032880545
-0.1480677426 0.02580587566 0.8447611332 -0.5790815353 -0.343978405 0.2579351068
-0.1422032118 0.0274808947 0.8526883125 -0.4521334469 -0.32224226 0.4770222008
-0.1460874379 0.0296010375 0.85874331 -0.3622862399 -0.2230773121 0.681424439
-0.1413569003 0.02461699769 0.8423224092 -0.6188228726 -0.4238764346 0.1512209326
-0.132603839 0.02415028028 0.8423665762 -0.6674727798 -0.4690309167 0.2572855651
-0.2100929171 0.0001300837903 0.8453501463 -0.3739160895 -0.002740800148 0.9266116023
-0.1846776009 -0.01900898665 0.8621630669 -0.2136238813 0.1653573215 0.9264801145
-0.189236939 -0.01069078408 0.858076632 -0.3641963303 0.2243888378 0.8754869103
-0.1659027636 -0.0246560853 0.8722906113 0.1262160093 0.09782882035 0.98659724
-0.1561477184 -0.008788716048 0.8588167429 0.0969440788 0.1500140876 0.9833564758
-0.1248288676 -0.02151960693 0.8519224524 -0.2420966029 0.1361699253 0.8696916699
-0.1299922615 -0.02607465908 0.8563218713 0.01790547185 0.1125778183 0.9208338261
-0.1477060765 -0.008815930225 0.8553668857 -0.09403261542 0.1566161215 0.9332658052
-0.1339186877 -0.0131515814 0.8525853753 -0.3105608225 0.1564802974 0.8573747277
-0.140082553 -0.0166825112 0.8570891023 -0.06355664879 0.1354767978 0.9047644138
-0.1508391947 -0.01544246171 0.8605363369 0.1642145514 0.1273310333 0.9692463875
-0.137611419 -0.03622371331 0.8631215692 0.2803312838 0.1169534922 0.9510462284
-0.1331755966 -0.02568867989 0.8634981513 0.2622027397 0.03892285004 0.9605216384
-0.12434154 -0.03304547071 0.8613575697 0.1543130428 -0.006922680419 0.9712536931
-0.1472501755 -0.02058142796 0.8676666617 0.2180810273 0.07729823142 0.971061945
-0.1193370074 -0.01672985591 0.8623779416 -0.05485412106 -0.05846364051 0.968950212
-0.1207564697 -0.02497104928 0.8636359572 0.08705482632 -0.06981417537 0.9642965198
-0.1365329176 -0.00147547794 0.8440814018 -0.3687173724 -0.2425294369 0.2399889827
-0.1463833302 -0.002755748807 0.8494487405 -0.1536058635 -0.1266969889 0.4869759977
-0.1403703988 -0.007823138498 0.8513563275 -0.2560826838 0.07222230732 0.7515909672
-0.129432112 0.002585569397 0.8382092714 -0.5968793035 -0.4361079633 -0.1032371446
-0.1260601282 0.0002892324119 0.8442026377 -0.2130813748 0.1975380033 0.452701062
-0.123884663 -0.007411304861 0.8483677506 -0.1472214311 0.3945155144 0.7804496884
-0.006334842183 -0.02647362836 0.8653823137 -0.3479097486 -0.6642503142 0.6604086161
-0.003022977151 -0.03489958495 0.8615843058 -0.3519327044 -0.5826604366 0.7305183411
-0.06141483784 -0.03168844804 0.909052968 -0.1431107074 -0.06034960225 0.987683177
-0.1108596548 -0.0006272022147 0.8651024699 -0.2662758529 -0.3031558692 0.9034124613
-0.1184327975 0.007377899252 0.8675281405 -0.1866852045 -0.513431251 0.8360719681
-0.1017516553 0.008033888415 0.8704124689 -0.1256594211 -0.3992930949 0.9070428014
-0.07670561224 -0.004888084717 0.8673464656 -0.08640395105 -0.4323583245 0.8972246051
-0.08164228499 0.003642106662 0.8705798388 -0.1246410981 -0.4349724054 0.8904318213
-0.08498684317 -0.002025791211 0.8673504591 -0.08524647355 -0.3901312649 0.9160946608
-0.07619490474 0.01193165407 0.8754236102 -0.157471627 -0.4776524901 0.8637280464
-0.07155052572 0.003699802095 0.872241199 -0.1543920785 -0.4918920398 0.8549965024
-0.06475051492 -0.02181284688 0.8592808843 0.02921471931 -0.3668570817 0.9277052879
-0.06244864687 -0.0006861997535 0.8714726567 -0.1741018295 -0.551761806 0.815007627
-0.0488974005 -0.009817196988 0.8675935268 -0.163888216 -0.5825670958 0.7947238088
-0.05513315648 -0.004667726345 0.8697658777 -0.1592023373 -0.5776951909 0.7999233603
-0.06298834831 -0.007310643326 0.8669164777 -0.1145070195 -0.5219629407 0.8451058865
-0.06558331102 -0.01387666352 0.8626808524 -0.01103113964 -0.4441497624 0.8948808312
-0.07329338789 -0.01288259588 0.8629565239 -0.002877963241 -0.3833024204 0.9211782217
-0.02107915096 -0.01393602416 0.8718621731 -0.2997347713 -0.6639463305 0.6842795014
-0.01266582962 -0.01569825597 0.8747490644 -0.342589438 -0.6791431904 0.6485366821
-0.009148526937 -0.01140872948 0.8829818368 -0.4252380133 -0.6905398369 0.5834845304
-0.001536191325 -0.01363383979 0.8874031901 -0.4775794148 -0.6879998446 0.5459215045
-0.09630650282 -0.0297385864 0.8587502241 -0.02447877824 -0.1698217541 0.982886374
-0.1082823351 -0.02966756187 0.855892241 -0.0800191164 -0.07647060603 0.9861716628
-0.101395905 -0.02232060395 0.8598707914 -0.1166176945 -0.1615314931 0.9702585936
-0.1091857031 -0.02203535289 0.8570398092 -0.1404062361 -0.06600365788 0.9768913388
-0.0573166348 -0.06484123319 0.9085034728 -0.1966542751 -0.3917831779 0.8095488548
-0.07231745124 -0.06979764253 0.8888937235 -0.1615074128 -0.2450107634 0.7796645761
-0.06635487825 -0.07296351343 0.8773591518 -0.1695542037 -0.8286396265 0.07745181769
-0.06733607501 -0.07149257511 0.8947345018 -0.1844874769 -0.5330212116 0.6064725518
-0.05980036035 -0.07282104343 0.8812881112 -0.135158807 -0.9365038276 0.1697619408
-0.06514215469 -0.07223765552 0.8868986964 -0.1770234704 -0.8893395662 0.1894623339
-0.05053840578 -0.06866019964 0.9063975811 -0.1396459639 -0.7945748568 0.5778220892
-0.04315115884 -0.06724889576 0.9069023132 -0.09816090018 -0.6858893633 0.657348454
-0.03461445868 -0.06698662043 0.9037892818 -0.1075579897 -0.4264917374 0.7170943618
-0.03889488429 -0.06286396086 0.9120790958 -0.2153454423 -0.1353077143 0.9667012095
-0.1367445737 -0.05665926263 0.8689706326 0.2256273478 0.3836248815 0.8953148127
-0.1386924684 -0.06303667277 0.8717105985 0.2162052095 0.4190152287 0.8817219734
-0.1272484362 -0.06587643921 0.8711724877 0.2273764014 0.4616113305 0.8568128943
-0.127490446 -0.05862512067 0.8672654629 0.2453641295 0.4342639744 0.8661810756
-0.1102985367 -0.06035609171 0.8640406132 0.2084439695 0.4847846925 0.8476012349
-0.112473309 -0.0501008071 0.8627291322 0.1815799475 0.3052706718 0.8732468486
-0.2257225364 -0.03021289036 0.8418421745 -0.3508172035 0.3594129682 0.8553566933
-0.2170319259 -0.03096625023 0.8499647975 -0.5206689835 0.4055686593 0.7509582043
-0.2221947908 -0.03654793277 0.8495500088 -0.4372571111 0.4582020342 0.7665430307
-0.1767645627 -0.04790973663 0.8713025451 0.02179494314 0.2612280548 0.9598585367
-0.2341412455 -0.04855691642 0.8538033962 -0.283526659 0.4887816012 0.8181287646
-0.2440540642 -0.04374295101 0.8488246799 -0.1954474747 0.4218303859 0.8715596795
-0.2172329724 -0.03797941655 0.8554862738 -0.4804620743 0.44257465 0.7563819885
-0.2144719511 0.02005368657 0.849116087 -0.2556399405 -0.1516035795 0.953774631
-0.1676903218 0.01345559768 0.8505101204 -0.4467017651 -0.09915108234 0.6266764402
-0.1517153382 0.01810126193 0.8401401043 -0.631459415 -0.3491005599 0.1807331145
-0.1545328498 0.0004881969653 0.8520079255 -0.1505821794 -0.01497723628 0.7146077752
-0.1608907431 0.01253249589 0.8473262787 -0.4700888395 -0.168131724 0.4898760021
-0.1513956338 0.006909797434 0.8464562893 -0.3436925113 -0.1647977531 0.4664164186
-0.1729017347 0.009341750294 0.8549777865 -0.3376887143 0.01546622906 0.8187680244
-0.1460021883 0.01011939347 0.8418907523 -0.453551203 -0.2796300948 0.2671295404
-0.1616417617 -0.001615697052 0.8566735387 -0.06610839069 0.09761495143 0.9155238271
-0.1866989136 0.01184584666 0.8590631485 -0.3090397716 0.1244410127 0.9340642095
-0.1908548176 0.01479219459 0.8530573845 -0.3364957869 0.01099423412 0.9407256246
-0.1952322125 -0.001826298423 0.8527477384 -0.4442942739 0.1880101413 0.8649088144
-0.2032680809 -0.003938432317 0.8484144211 -0.4475448132 0.1147046611 0.8830498457
-0.2096930593 0.01457456779 0.8547227979 -0.3430503309 -0.03920688853 0.9128024578
-0.185599789 -0.01561944 0.8696362376 -0.2891032398 0.3054106832 0.9031611681
-0.1910514235 -0.02456766739 0.8709512949 -0.320096761 0.2538171411 0.9086626172
-0.2003805637 -0.00149693829 0.8577956557 -0.4630067647 0.1929480135 0.8285421133
-0.1973351389 -0.01161342207 0.8583125472 -0.5471582413 0.3158301115 0.7693821788
-0.2028814852 0.008092419244 0.8568952084 -0.3806072474 0.07060924172 0.8889691234
-0.1390292495 -0.01235569455 0.8649853468 0.2561671138 0.05974010006 0.9644511938
-0.1387413144 -0.002903468907 0.8659723401 0.1685185283 -0.124311544 0.9658046961
-0.1332695335 0.004313484766 0.8667063713 -0.002221081872 -0.3485870063 0.9145041108
-0.1267697364 -0.004819508176 0.8645896912 -0.03836016729 -0.1882362664 0.9402194619
-0.1175768971 0.01471943688 0.8588372469 -0.5165755153 -0.4447188377 0.481808722
-0.1121637747 0.01361926738 0.8649973869 -0.3310995996 -0.4757246077 0.6889193654
-0.1140071899 0.01996082254 0.8727642298 -0.2396062315 -0.4703452289 0.808667779
-0.1198183298 0.0206464082 0.8668782115 -0.3937348127 -0.4401165843 0.6396718025
-0.08490936458 -0.05485643074 0.856729269 -0.1063561365 0.1954194903 0.9707027674
-0.07936611027 -0.06127551571 0.8579466343 -0.1587595493 0.2320519686 0.9558401108
-0.09120699763 -0.05037799105 0.8548344374 -0.09929492325 0.1045002639 0.9835537076
-0.09192240983 -0.06057790294 0.8570674658 0.001467799651 0.3311229348 0.9385731816
-0.0876948759 -0.01763823256 0.861400485 -0.009347427636 -0.2736107707 0.9606928229
-0.09005120397 -0.01638767868 0.8755378127 -0.09358117729 -0.2409599721 0.961641252
-0.08742639422 -0.02216131799 0.8804066777 -0.08191724867 -0.2048235387 0.9710630178
-0.07756533474 -0.03234371543 0.9019110203 -0.1099544466 -0.1247977689 0.9834284782
-0.09402961284 -0.01314529125 0.8666203022 -0.07686457038 -0.2690537572 0.9583848119
-0.08632428199 -0.008791653439 0.8711678982 -0.08711057156 -0.3260165453 0.9368098974
-0.09745775163 -0.02046086639 0.8667447567 -0.08715976775 -0.2276482582 0.9679788947
-0.08331105858 -0.02920618653 0.8912912607 -0.09839051217 -0.1536732465 0.9798357487
-0.08863852173 -0.02858452685 0.8849698901 -0.1077842936 -0.1628455073 0.978014946
-0.09813737869 -0.02725413814 0.8734560013 -0.1234015748 -0.1807520986 0.9745487571
-0.1012528837 -0.01200699713 0.8613064289 -0.2155443579 -0.1956997216 0.9067146778
-0.1169087961 -0.01187225338 0.8522490859 -0.4826895595 0.05614622682 0.8223186731
-0.06095238775 -0.05870205536 0.9074487686 -0.1363940835 -0.1824368089 0.9466512799
-0.06693670899 -0.0663209483 0.9058064818 -0.1717721373 -0.6266673207 0.6880946159
-0.05741142109 -0.07105793804 0.8998499513 -0.1808883399 -0.8669043779 0.44154796
-0.06052967161 -0.07204643637 0.8711230159 -0.1913203001 -0.9764069915 -0.03373597562
-0.02508272789 -0.06786096096 0.8997093439 -0.01533970516 -0.5087099075 0.6106126308
-0.02542519569 -0.0695829168 0.8920225501 0.04214177653 -0.6616404057 0.4280777872
-0.1038075164 -0.06698259711 0.8662649989 0.1730334908 0.5096482635 0.8411972523
-0.09599968046 -0.07070674002 0.8679132462 0.1193820909 0.4080215096 0.9026090503
-0.08649151027 -0.06614687294 0.8605201244 -0.01204515435 0.3911212683 0.9194973707
-0.2099179924 -0.02555910312 0.8524923325 -0.5639733076 0.3466512263 0.7489650249
-0.2344980389 -0.03383886069 0.8407223225 -0.1815093011 0.3966601193 0.8951753378
-0.2292185724 -0.03370834142 0.847494185 -0.3510136902 0.4142431319 0.8129181266
-0.2371739 -0.02804833278 0.844833374 -0.2102244049 0.299782902 0.8788211346
-0.2521134615 -0.02475505695 0.8431119919 0.007798653562 0.1460149586 0.9799479246
-0.2357620299 -0.01921210624 0.8423838615 -0.1991940141 0.1789448261 0.9117660522
-0.1824797839 -0.04312161729 0.8745990992 -0.05451620743 0.196850419 0.971501708
-0.1716836393 -0.05596571788 0.8797078729 0.07818025351 0.2976469994 0.9481216669
-0.169877708 -0.04888040945 0.877248466 0.09340113401 0.2326169461 0.960309267
-0.1696532369 -0.03457510844 0.8721699715 0.08701630682 0.07669463009 0.98906672
-0.2050698698 -0.04004219547 0.8590839505 -0.4126065373 0.3808550537 0.8020013571
-0.1967885047 -0.03852134943 0.8611076474 -0.3188602924 0.321564585 0.8380935192
-0.1863345057 -0.03600574657 0.8721272945 -0.1209012941 0.1415001154 0.9809122086
-0.1872420609 -0.03631379455 0.8636893034 -0.1728463918 0.2046300471 0.9001159668
-0.1779031605 -0.0361334011 0.8665775657 -0.003288855543 0.1017379016 0.9707978964
-0.1894889176 -0.04492245615 0.8725397587 -0.11613857 0.252857089 0.9560081363
-0.1964361817 -0.06236062571 0.8796949983 -0.2357948273 0.3214097023 0.9138351083
-0.1863618344 -0.06240190566 0.881283462 -0.1043981165 0.3558040559 0.9159764647
-0.1832361966 -0.05357320607 0.8771607876 -0.04339451715 0.3145633042 0.9391077161
-0.1884795129 -0.06093664467 0.874296844 -0.1325895637 0.3834032714 0.9082900882
-0.218470037 0.003934175707 0.8439849019 -0.2919518054 -0.1154573187 0.9462535381
-0.2282837927 -0.004343205597 0.842888236 -0.2416130006 -0.01377518103 0.9443643689
-0.2266841829 0.004863088019 0.8431507945 -0.2144196033 -0.1513651907 0.9630589485
-0.2312164605 0.01111925393 0.8432579041 -0.1694736332 -0.1994449198 0.964934051
-0.2009783387 -0.03243402764 0.865627408 -0.4727388918 0.3129738867 0.8144689798
-0.1988784075 -0.01988178119 0.8606191874 -0.5420442224 0.3270344734 0.7734050751
-0.2036459893 -0.02513262071 0.8583046794 -0.5595682859 0.3273190558 0.7611322403
-0.2071049213 -0.03325030953 0.8602855206 -0.5211734772 0.3644085526 0.7700884938
-0.2057412267 0.02288105339 0.8488737345 -0.2759615183 -0.1173597649 0.9538363814
-0.2048882246 0.006406415254 0.8473780155 -0.3605370224 -0.03099507838 0.9312233925
-0.2154425681 0.01135133859 0.8465902209 -0.3053756654 -0.1179907471 0.9446908832
-0.1960030645 0.007446292788 0.8501608372 -0.3618708551 0.02822093293 0.9316539764
-0.1875641793 0.003753569443 0.8561056852 -0.4074787498 0.1969237626 0.8885555863
-0.1798239201 8.120659186e-05 0.8573035598 -0.3055509329 0.2127485871 0.9015112519
-0.1742824167 -0.02627367154 0.8713108301 0.04462336376 0.1103986874 0.9879299402
-0.1255414337 -0.01276474725 0.863299489 0.005943755619 -0.04115577042 0.957257688
-0.1171405986 -0.007796562277 0.8629443049 -0.2432907224 -0.1486026794 0.9351941943
-0.02660206147 -0.06081711128 0.9153137803 -0.1421074867 -0.1788682938 0.9730677009
-0.03325233981 -0.05401987582 0.9149979353 -0.2004166991 -0.1032910272 0.973087728
-0.02585599385 -0.05090552941 0.9177103043 -0.1595030874 -0.1278354228 0.9771409631
-0.1943782568 -0.05167259648 0.8706723452 -0.2552841902 0.3620932698 0.8759410381
-0.1899510175 -0.0280623883 0.8618547916 -0.3150641024 0.2174617499 0.8467624784
-0.2001348734 -0.05276029557 0.8772563934 -0.3066833317 0.2942404449 0.9030019641
-0.1987999678 -0.04544943199 0.8723860383 -0.3686218262 0.2869914472 0.8793818951
-0.2088411748 -0.05145924911 0.8691068888 -0.3972553015 0.3734301031 0.8327841163
-0.2159526646 -0.04351838678 0.8622349501 -0.4672364593 0.4179118872 0.7750605345
-0.2028432488 -0.0410422422 0.8673043251 -0.4770538211 0.3285835683 0.8128021955
-0.1732944399 0.0008178942371 0.8657016158 -0.1185520813 0.2286302596 0.9629874825
-0.1795658618 -0.008021079004 0.8673372269 -0.1653365642 0.2975917459 0.9323231578
-0.1679975986 -0.008308257908 0.8680462241 -0.003275979077 0.1875827312 0.9751336575
-0.01736650802 -0.06283921748 0.9157942533 -0.1156538874 -0.370960325 0.9010156393
-0.01441576332 -0.05611457676 0.9181748033 -0.1341148466 -0.1724505872 0.9589820504
-0.1686393917 -0.01540532149 0.8658488393 0.03487789631 0.1853295714 0.9692873955
-0.1775044352 -0.01859676838 0.8656432629 -0.1113123968 0.159954682 0.9586924911
-0.1733325869 -0.004812198691 0.8581389189 -0.192260474 0.2194018066 0.9159935117
-0.1674010605 -0.02475913242 0.8641760349 0.0741699487 0.08564034849 0.9916318655
