# .PCD v0.7 - Point Cloud Data file format
VERSION 0.7
FIELDS x y z normal_x normal_y normal_z
SIZE 4 4 4 4 4 4
TYPE F F F F F F
COUNT 1 1 1 1 1 1
WIDTH 512
HEIGHT 1
VIEWPOINT 0 0 0 1 0 0 0
POINTS 512
DATA ascii
0.07011243701 0.02771114931 0.8799218535 0.2741061151 -0.3459916711 0.8959614038
0.06232000142 0.0227026362 0.8774220347 0.2731969059 -0.2789882421 0.8681436777
0.06087136269 0.02134268545 0.8702721 0.4038072526 -0.1812513173 0.7587610483
0.05214038119 0.01547256205 0.8634435534 0.4815781713 -0.05479935929 0.6648095846
0.05352583155 0.01722487062 0.8773226738 0.2189248502 -0.238092944 0.8791789412
0.06742292643 0.03603519127 0.8814498782 0.2400792986 0.220327124 0.9114295244
0.04411908239 0.01837570406 0.8861691952 -0.01069813967 0.05939819664 0.9977823496
-0.191460371 0.06143073365 0.8296482563 0.1276424527 0.3123865724 0.9410520792
-0.1696378738 0.04686558619 0.8279937506 -0.0900003612 0.4950357378 0.8632140756
-0.1015182585 0.116845116 0.8191874623 -0.3928215504 0.1968339533 0.6782503128
-0.08167483658 0.1015548036 0.8004413843 -0.7014714479 -0.4354912043 -0.1069813967
-0.08731117845 0.1098499224 0.8078938127 -0.5861427188 -0.2169154286 0.359733969
0.03761614487 0.03196861222 0.8846922517 -0.07258293033 0.07535967231 0.9915100932
0.0512393713 0.03396397084 0.8863597512 0.05484309047 0.09631998092 0.9937190413
0.05936846137 0.02590313368 0.8847314119 0.04374914244 0.08262097836 0.9955064654
0.05188306421 0.02134667523 0.885355711 0.04031909257 0.003092387924 0.9884822369
-0.02913153172 0.03320775926 0.8578503132 0.162649408 0.2913879454 0.8869283795
-0.02148699202 0.03684070334 0.8575567603 0.04365926608 0.1928523183 0.946821928
-0.02362327278 0.03707509115 0.8664838076 0.1046797037 0.2092410922 0.9257837534
-0.02029620856 0.03616428375 0.8487176895 -0.002481949981 0.1885856092 0.9604271054
-0.03261481598 0.0305459816 0.8508605957 0.1945042908 0.3452639282 0.8631011844
-0.03998669982 0.02639833651 0.8465833664 0.2949337363 0.4460323751 0.8075612187
-0.01445430983 0.04218384251 0.8789896965 0.0001375694701 0.07179939747 0.9919187427
0.04866887629 0.06867204607 0.8278218508 -0.1778500229 -0.7042530179 0.6786124706
0.04505190998 0.07593416423 0.8339467049 -0.1795154512 -0.5990566611 0.7523318529
0.05622708052 0.07319862396 0.8271254897 -0.2442092597 -0.6295590997 0.7096739411
0.05318507925 0.08542610705 0.8378623128 -0.2734377086 -0.4831780493 0.8126931787
0.08030562848 0.04059411585 0.8169478178 -0.1793004125 -0.01492557116 0.8438543677
-0.1706714332 0.09572399408 0.8207085133 -0.05924334377 0.06964060664 0.9953812361
-0.1534561515 0.08238710463 0.8201168776 -0.2290281653 0.1678600758 0.956145227
-0.1143579781 0.09576363117 0.8382025957 -0.3059774041 0.279726088 0.9080386162
0.05901421607 0.04136646166 0.883382082 0.125113681 0.1786405295 0.9697694778
0.0502650924 0.02378138341 0.8539150357 0.617085278 0.199866578 0.5514273047
0.05778953806 0.02127287164 0.8351276517 0.4154292941 0.1459269673 0.89706707
0.05357591435 0.01840451546 0.8417623639 0.6927703023 0.1971109509 0.5539033413
0.04383967817 0.03803111985 0.8777843714 0.1198347583 0.1439058483 0.8866457939
0.04342483729 0.03020671569 0.8690120578 0.2732624412 0.1516562551 0.7551895976
0.04959145933 0.06662602723 0.8739941716 0.1199522242 0.3749144077 0.8141686916
0.05029429868 0.07291243225 0.8660057187 0.0001401241461 0.1635134518 0.8255157471
0.02126336098 0.02190224454 0.8732482195 0.06316106021 0.08235618472 0.8721561432
0.03814343363 0.0177404508 0.8555874228 0.5325451493 0.1639400423 0.5672051311
-0.1237484291 0.06627236307 0.8469392657 -0.3181519806 0.3684134185 0.8704798818
-0.1020624414 0.02731719799 0.8610778451 0.1609527767 0.4224732518 0.8890925646
-0.09263715893 0.1140207574 0.8141517639 -0.4827827215 -0.01671143807 0.5628745556
-0.09742481261 0.1203772351 0.8264612556 -0.2826926708 0.3212644756 0.8541632891
-0.185630694 0.05123912543 0.8314473033 0.03485512361 0.3952993751 0.9151109457
-0.1601254046 0.03831791505 0.8400312066 -0.29411304 0.5094026923 0.8032343984
-0.1533648074 0.0375103727 0.8444627523 -0.3933683932 0.4729841352 0.7881531715
-0.1144773141 0.02906489186 0.8608058095 -0.00505468389 0.4070459604 0.9124633074
-0.1075325385 0.03288904205 0.8602947593 0.1088438109 0.392626375 0.9108330011
-0.1773707718 0.04924003035 0.8268274069 0.0008416661876 0.4524361491 0.8905138969
-0.1762502939 0.06039052084 0.822037816 0.08334332705 0.3164317608 0.9413595796
-0.1840385199 0.06495566666 0.8239723444 0.1450943351 0.2697355151 0.9518461823
-0.1817827672 0.08029817045 0.8217142224 0.1568110585 0.1648269147 0.973639369
0.04208969325 0.07022328675 0.8698863983 -0.009731056169 0.2881321013 0.8803405762
0.05279590189 0.09076742083 0.8432624936 -0.2930043638 -0.4179550111 0.8526159525
0.04699580744 0.08496067673 0.8509242535 -0.188145414 -0.183766067 0.8799937367
0.04467476159 0.07800087333 0.8598794341 -0.1038516536 0.03914140537 0.8801864386
-0.1687287241 0.06821340322 0.8225467801 -0.06961337477 0.2558687031 0.953268528
-0.1759189963 0.08760149777 0.8217747808 0.03993432596 0.1250309497 0.9872163534
-0.1366521716 0.05337238312 0.8436140418 -0.4645431936 0.4169225395 0.7809993029
0.06499586999 0.05104362965 0.8764267564 0.2573581338 0.2579709291 0.7650672793
0.07192143053 0.06448746473 0.8518589735 -0.4607785046 -0.7243836522 0.3425798118
0.07244348526 0.05751479045 0.8589417934 -0.194087863 -0.4071302414 0.4881130159
0.07172542065 0.0505471006 0.8675025105 0.09183526784 -0.08015943319 0.6145451069
0.07192641497 0.04406196252 0.8741500974 0.333411634 0.2078414112 0.7407514453
0.06063648313 0.06207518652 0.8684239984 -0.05901794136 -0.02401271835 0.5891971588
0.06697095931 0.06047789007 0.8631138802 -0.1711962074 -0.2919167578 0.522369504
0.05593043193 0.0601612255 0.8763398528 0.1497821808 0.3308826983 0.7252250314
0.07530634105 0.03489966318 0.8209531903 0.3835834563 0.1370795816 0.9119703174
0.08134916425 0.03730375692 0.8246293068 0.340257436 -0.09347672015 0.7916406989
0.08136353642 0.04896528274 0.827500701 -0.4437199831 -0.3513932228 0.6372475624
0.08139599115 0.05267843604 0.8339859843 -0.5033665895 -0.4813217223 0.5920384526
-0.156455934 0.09076021612 0.8213998675 -0.1992685497 0.1190109849 0.969106555
-0.1471007764 0.09145719558 0.8219737411 -0.2734709978 0.157074973 0.9475293756
-0.13926211 0.08900095522 0.8261989355 -0.3705385029 0.2226584852 0.8906971216
-0.1090797707 0.1193557605 0.8245689869 -0.3072814047 0.3808102906 0.846514225
-0.1112298071 0.1111034751 0.8213886023 -0.3899540007 0.2235551029 0.7082554102
-0.09722582251 0.1066408381 0.8114911914 -0.5351171494 -0.08260567486 0.3091198504
-0.1058563814 0.1050530002 0.8153096437 -0.4966002405 0.006933601573 0.4582507908
-0.1568624973 0.0635080412 0.8271526098 -0.2808921039 0.3377099037 0.8848118782
-0.1448398978 0.07630237192 0.8247213364 -0.3739651144 0.2844326198 0.8802759051
-0.1149253026 0.1025326997 0.8195217848 -0.4622187018 0.1000055373 0.6153421998
-0.1080850288 0.09673704207 0.8157781959 -0.5575146675 -0.04692598805 0.4293010533
-0.1219335198 0.1036543846 0.8238583207 -0.4028205872 0.2269042283 0.7893099189
0.04505244642 0.06184140965 0.879902482 0.1352605522 0.4548404813 0.875815928
0.03081948683 0.01569948904 0.8634610772 0.3250411749 0.1322674453 0.6990005374
0.02513261698 0.0189887099 0.8833427429 -0.1325508803 0.03673360497 0.9904441833
0.03401671723 0.01994125172 0.8859903812 -0.09928209335 0.03310478106 0.9943249226
0.04621713609 0.01494275127 0.8552573919 0.5934008956 0.1231224462 0.5406326652
0.04503567889 0.01567892544 0.868909359 0.3170914054 -0.03813412413 0.7543177605
0.0481970422 0.01446107682 0.8471707702 0.7676448226 0.2021654248 0.4133807123
0.04057506844 0.01635313407 0.8790444732 0.08235775679 -0.1117272004 0.9148534536
0.03353365138 0.01637401991 0.8745207191 0.1125149429 0.03737591952 0.8479802012
-0.1629271358 0.05949439481 0.8236542344 -0.2032871395 0.378724426 0.8954139948
-0.14795582 0.04326320067 0.8421163559 -0.4146840572 0.4635147154 0.7822681665
-0.02258634381 0.08898155391 0.8335057497 -0.05096967146 -0.1626602113 0.9847897887
-0.115877457 0.06376710534 0.8499201536 -0.06905245036 0.3367917538 0.9368886352
-0.02645727433 0.01778174937 0.8357191086 0.1485484242 0.3559396565 0.8937279582
-0.01335053053 0.01492888201 0.8388183713 -0.02573291399 0.7537164688 0.4837228656
-0.1278705597 0.02869596146 0.8583173156 -0.2004723996 0.3894783556 0.8944565654
-0.0129312817 0.0887285471 0.8419115543 -0.07700735331 -0.1102385223 0.9873033166
-0.007726342883 0.07437256724 0.8557602167 -0.05405370891 -0.02801404893 0.9915173054
0.07981852442 0.03053382784 0.8342195153 0.2922672033 -0.1469101459 0.7386446595
0.07917094231 0.04126027599 0.8441790342 0.0116297761 -0.2604674995 0.6730477214
0.08061782271 0.05041065812 0.8427916765 -0.3097575605 -0.4933557808 0.5937116146
0.07728358358 0.03627749905 0.8503696918 0.2317240685 -0.05885175988 0.7291054726
0.0789963156 0.05151543394 0.8515036106 -0.2749046683 -0.3992755413 0.6051355004
0.07396105677 0.03847086057 0.8681764007 0.3051537573 0.1349553764 0.7529933453
0.07588200271 0.02865676023 0.8524968624 0.5074465275 0.1484780014 0.797477603
0.07679587603 0.04164910316 0.8561650515 0.09788691998 -0.1046021208 0.6981664896
0.08038173616 0.02292485349 0.826641202 0.4870834053 -0.0734212026 0.7839626074
0.07794544846 0.0276559256 0.8416657448 0.4514948428 0.0228052754 0.7801772952
0.08085947484 0.04274403304 0.8367666602 -0.1001039594 -0.3971430063 0.6431828141
0.01882270537 0.07736819237 0.8498402834 -0.1463729888 -0.2795603871 0.910643816
0.02284928039 0.08851704001 0.8471852541 -0.1491122097 -0.2344420999 0.9412075281
0.02516687848 0.08053816855 0.8598718047 -0.1362366676 -0.05093047395 0.9628589749
-0.03813073412 0.01973592304 0.8501324058 0.2893333733 0.4444766641 0.8044285178
-0.01600321196 0.02341900766 0.8742297292 0.01250856929 0.09235072136 0.969945848
-0.02762166597 0.02205716632 0.8616483212 0.1575985104 0.2739023268 0.8846780062
-0.01517325919 0.01620041765 0.8538351655 0.0010722765 0.5211597085 0.6509651542
-0.01915765554 0.01770207658 0.8613314629 0.05573882908 0.2755963206 0.8613411784
-0.02949262969 0.01777400263 0.8485592604 0.1885689646 0.3635351658 0.8512240052
-0.02136314474 0.01640024036 0.8475064039 0.08099536598 0.5441088676 0.6676928401
-0.01254285779 0.03104441054 0.8800000548 -0.0194510743 0.04014192894 0.9989672899
-0.005460472777 0.01567066275 0.8629457951 -0.08476687223 0.4325679839 0.6817091107
0.01252857596 0.01694593951 0.8800101876 -0.122032702 0.06244721636 0.9838588238
0.005297868047 0.01605283096 0.869773984 -0.1123618856 0.2910543978 0.8005791306
-0.004261733498 0.01662691124 0.8477592468 -0.0993982628 0.7915006876 0.4057099223
0.003375011496 0.02422938123 0.8634573817 -0.09104642272 0.4076132774 0.7092506886
0.007070765831 0.02727785893 0.8706703782 -0.08938299865 0.2340659797 0.8464204073
0.0005826005945 0.01480601169 0.8555346131 -0.1111688763 0.6249570847 0.5387718678
-0.1223960295 0.03525210917 0.858987987 -0.1192237958 0.388617605 0.9126530886
-0.1221094877 0.04814593494 0.8547405005 -0.1894443482 0.3778796196 0.9044926763
-0.1345613301 0.04224318638 0.8501805663 -0.3780913055 0.3887306452 0.8395967484
-0.1101521999 0.05737970024 0.8485032916 0.04192819074 0.3005051315 0.9507029653
0.0602315329 0.08031481504 0.8381394744 -0.3421944678 -0.636074841 0.6726890206
0.05866895616 0.07960019261 0.8500849605 -0.2659099996 -0.4009260535 0.7097714543
0.05479655415 0.07657375187 0.8560276031 -0.1371916234 -0.1497335881 0.7850410938
0.08076323569 0.06013331935 0.8416717649 -0.53568995 -0.6513242722 0.5268951058
0.07723843306 0.05844296888 0.829116106 -0.554959178 -0.5915740132 0.5508888364
0.07638498396 0.04884240404 0.859993577 -0.05609130114 -0.1749853194 0.6543351412
0.04430226982 0.08299539983 0.8380246758 -0.1982838809 -0.4867946208 0.8233263493
-0.1476277262 0.06834320724 0.8271132708 -0.3954589069 0.3451195955 0.8494461179
-0.1537445188 0.07339627296 0.8237838745 -0.3055133224 0.2627772987 0.9123098254
-0.163384527 0.07497511804 0.8216719627 -0.1294281781 0.2059424818 0.9682883024
-0.1649486572 0.08928455412 0.8221314549 -0.1356274337 0.1169865429 0.974940598
-0.16969347 0.0823187232 0.8173843622 -0.02375753969 0.1396200061 0.9860765934
-0.171370849 0.07469539344 0.8182763457 0.03368006647 0.1791441143 0.9799470305
-0.1303146929 0.0589316003 0.8459588289 -0.3967652619 0.385240972 0.8268783689
-0.09180229157 0.1155103743 0.8353847265 -0.209615171 0.3205717206 0.9223284721
-0.1041803658 0.1160436496 0.8301169276 -0.2637742758 0.3767579496 0.8875897527
-0.151015982 0.1044361889 0.8193819523 -0.2186657786 0.1418082863 0.9627283812
-0.1634446979 0.09821563214 0.821546495 -0.122245945 0.09239427 0.9843091965
-0.1568584293 0.09849378467 0.8172264695 -0.1685878336 0.1103287041 0.978346765
-0.1414421946 0.1084850132 0.8195066452 -0.2877744436 0.1993589848 0.9349861145
-0.1318972111 0.1140617803 0.8192408681 -0.3004829288 0.2609491348 0.9156237245
-0.1233215854 0.1100000665 0.8292800188 -0.3398550749 0.3177348673 0.8841532469
-0.1327870637 0.1057186127 0.82292521 -0.3385417461 0.2353008538 0.9098678231
-0.1333164871 0.09751948714 0.8257892728 -0.3671183586 0.2122056484 0.9043842554
-0.1258837134 0.1159189418 0.8239290118 -0.3143722713 0.3179424107 0.8909028172
-0.1170539558 0.1202525496 0.8243718743 -0.3032686114 0.3858680129 0.8698247671
-0.1090311781 0.06904733926 0.8461997509 0.04008920863 0.3128405809 0.9465203881
-0.1389938146 0.06964976341 0.8305042982 -0.4638651013 0.3664857447 0.8047011495
-0.1444163322 0.06221600994 0.8315959573 -0.4473116696 0.3959362209 0.8004776239
-0.1368295848 0.07796844095 0.8270581365 -0.4409285784 0.3118521869 0.8406520486
0.04841798544 0.04705063254 0.8818255067 0.04143825173 0.1528528333 0.9842548966
0.04992531985 0.04003527015 0.8707838058 0.1277777255 0.1484143585 0.9638876319
0.05125750601 0.03546122462 0.8630253077 0.1891655922 0.1463596821 0.9495695829
0.04796151444 0.0534729287 0.8738007545 -0.09830988944 -0.06460382789 0.8978851438
0.05561080575 0.0511190556 0.8816806078 0.1016737446 0.1981692463 0.9645259976
0.05569595844 0.04956970364 0.8594086766 0.03331957012 -0.06963466853 0.8679586053
0.05695843697 0.03992523625 0.842882514 0.1228456423 -0.1239624545 0.8232385516
0.05523812398 0.04594604671 0.8674816489 0.137412563 0.1317254007 0.9465048909
0.05506904423 0.05572141707 0.8672171831 -0.03726509586 -0.07741416246 0.8782398701
0.05703078955 0.02982212231 0.8447247148 0.3111192584 0.1165502146 0.904266119
0.05660681799 0.05104571208 0.8450219035 -0.06383000314 -0.323988378 0.7618712187
0.05590446666 0.05840841681 0.8536325693 -0.1519354731 -0.344712466 0.7692694068
0.0562398769 0.04094937071 0.8535927534 0.157516554 0.02086324431 0.8877732754
0.02833645418 0.02685905993 0.8832471967 -0.1345946789 0.04767318815 0.9894359112
0.03153247014 0.03133969009 0.8753215075 0.02443965711 0.1034617424 0.8732005954
0.03830200806 0.02484497987 0.8623275161 0.3558596373 0.1502090842 0.663728416
0.03418129683 0.02771677636 0.8679139018 0.2041233182 0.1279747784 0.7559936047
0.04094254971 0.05214624852 0.8826634884 -0.03753262386 0.1723941863 0.9834645987
0.05241369084 0.06524732709 0.8536926508 -0.2965041697 -0.4834778309 0.7230326533
0.04822705686 0.06272450089 0.8604750633 -0.2429553568 -0.3210658431 0.7854402661
-0.1454929411 0.05388832465 0.8346802592 -0.4461606145 0.4692602754 0.761636734
-0.1542207748 0.05496183038 0.8312855363 -0.3636827767 0.4355802834 0.8182144761
-0.1513660997 0.04823996872 0.8369345665 -0.4033098221 0.4656871259 0.7866709828
-0.1698796004 0.04521675408 0.8365696073 -0.1695203483 0.4734613597 0.8423482776
-0.1631385535 0.05062531307 0.8333470821 -0.25799492 0.4512944221 0.8316335678
-0.1707024574 0.05814187229 0.8276081085 -0.1180375516 0.3544081151 0.9107138515
-0.05341454595 0.06577476859 0.8238905072 -0.2183135599 0.168067649 0.9062916636
-0.09418060631 0.04694548622 0.8466721773 0.260255456 0.3294468224 0.9065464735
-0.08188839257 0.03415651247 0.8502084613 0.3067723513 0.3546737432 0.8800503612
-0.09054118395 0.05490161106 0.8459906578 0.2469388247 0.2260231674 0.941578269
-0.04371433705 0.06896359473 0.8334933519 -0.134755522 -0.04536167532 0.9878802299
0.0003568729444 0.07526361942 0.8589296341 -0.07465645671 -0.003160005901 0.9882563353
0.00295127905 0.06935498118 0.8658003211 -0.06776157022 0.0500109382 0.9896799922
-0.002900321735 0.08233900368 0.8506826758 -0.08256121725 -0.06780167669 0.9866353273
-0.009871126153 0.08836092055 0.8340935111 -0.07053717226 -0.176158458 0.9809976816
0.03536232561 0.07645374537 0.8322781324 -0.1422320008 -0.5369967818 0.819832623
0.03798349947 0.06928216666 0.8274590373 -0.1417136937 -0.5870898962 0.7874369621
-0.02650609426 0.09607134014 0.8371264338 -0.06180690601 -0.2050317824 0.9728882313
-0.05409445986 0.0186722558 0.8456022143 0.360917747 0.507763803 0.7821977139
-0.04521783069 0.02037676983 0.843372345 0.3656599522 0.5336809158 0.7625161409
-0.0602286756 0.02599989995 0.8452746868 0.3545317948 0.4717036784 0.8053659797
-0.01897874102 0.03472861275 0.8739610314 0.04514984414 0.1242006645 0.9611228108
-0.03326277807 0.02541017346 0.8566432595 0.2272479236 0.3605695665 0.8464486003
-0.02230264992 0.02812223323 0.868683815 0.08971525729 0.1807581335 0.9310595989
-0.0779742673 0.02624766901 0.8521264195 0.3153463602 0.4143928885 0.8536788821
-0.06905218214 0.08749880642 0.8045704365 -0.6208419204 0.2547397017 0.482108295
-0.0797091499 0.08898580819 0.8118958473 0.03983967006 0.1851472259 0.3995585144
-0.07728210837 0.09161838144 0.8050102592 -0.1482343823 0.019463934 0.1555492431
-0.08433996886 0.08748152107 0.8198542595 0.05893655121 0.1808439195 0.6025807858
-0.074266918 0.09805223346 0.7992505431 -0.6326643825 -0.7059479356 -0.2077605277
-0.07390420884 0.111153312 0.8042482138 -0.5555881858 -0.4445562959 0.4965645671
-0.08888988197 0.1188063994 0.8230881691 -0.3191649914 0.1521933228 0.8008887172
-0.08370108902 0.1156037971 0.8153541684 -0.4202750325 -0.08249860257 0.6696199179
-0.09353808314 0.02832601964 0.8584038615 0.2443103045 0.4190278351 0.8732481599
-0.08656221628 0.02801726945 0.8548364043 0.296577543 0.4108275771 0.861574173
-0.0788552165 0.08583727479 0.8409999609 0.08010091633 0.01402550377 0.9873062968
0.02996910922 0.09379784018 0.8427560925 -0.1640026122 -0.3240474463 0.9243059158
-0.1286634803 0.03901417181 0.8539319634 -0.2592066526 0.3970890343 0.8745694757
0.06318533421 0.07069248706 0.856100142 -0.2849641442 -0.415330112 0.5297353268
0.05757677183 0.07045283914 0.8632548451 -0.07986526936 -0.0585219413 0.6801527739
0.07136809081 0.07156354189 0.8469009995 -0.4609811008 -0.752866745 0.4485298097
0.06846710294 0.03194733709 0.8253362775 0.4181509018 0.1633225232 0.8909423947
0.05507491529 0.04752350226 0.8375965357 -0.02316334657 -0.3592987657 0.7471072078
0.05277189612 0.04204105958 0.8314931989 0.06393051147 -0.3308469951 0.7582638264
0.05285024643 0.06180927157 0.8375994563 -0.2626252174 -0.6531625986 0.6601064801
0.05703682452 0.03353657573 0.8371756673 0.2109601647 -0.07735794783 0.8307651877
0.0498987399 0.05195559561 0.8283122182 -0.1008254811 -0.5697911382 0.6886435747
0.06035660952 0.02801166475 0.8312544823 0.367459774 0.1108207777 0.8838286996
0.05845466256 0.04547609016 0.8260712624 0.1140939295 -0.220986113 0.7845577002
0.06103663519 0.03651729971 0.827878058 0.2688061297 -0.004594990984 0.8475707769
-0.1214293614 0.05613937601 0.8523442149 -0.2146305144 0.3663055897 0.9038999677
-0.1082558557 0.04850334302 0.8533337116 0.1034233272 0.3473840356 0.9250804186
-0.1075546071 0.1029550508 0.8362493515 -0.2355167717 0.302864641 0.9212735295
-0.1156796366 0.0828711912 0.8412362337 -0.2380391806 0.3170350194 0.914998889
-0.1424510181 0.09785593301 0.8223978281 -0.3086184561 0.1687735617 0.9349220395
-0.1150833517 0.114770785 0.829210043 -0.3173055649 0.374263376 0.870716989
-0.08685056865 0.0795590207 0.8412671685 0.08217930794 0.1163507551 0.9804416299
-0.0972533524 0.06169954687 0.8454152346 0.1916070431 0.2543771267 0.9469248056
-0.1265578121 0.07783834636 0.8355913758 -0.4694331288 0.3845593929 0.7935432792
-0.1310211867 0.06562715024 0.8410451412 -0.4813681841 0.396674931 0.7816179991
-0.1321987361 0.07285333425 0.8338665962 -0.4910103083 0.400652945 0.7733629346
-0.1181555092 0.07389209419 0.8410541415 -0.2306720465 0.380364269 0.8629206419
-0.1185382679 0.04975041002 0.8477966785 -0.1150872707 0.3316735923 0.906475842
-0.1275995225 0.04850973189 0.8473502994 -0.3391181827 0.3612550497 0.860478282
-0.1235159859 0.05716181174 0.8422086835 -0.22152628 0.3606318235 0.8515962958
0.002112851944 0.03708213195 0.8800000548 -0.05026718602 0.03367009759 0.9980105758
-0.002812596736 0.03082206845 0.8800000548 -0.05052534491 0.02847745456 0.9980635047
0.0326215215 0.05645884201 0.8732439876 -0.09866507351 0.04492332414 0.9326474071
0.03509138152 0.05906571075 0.8614152074 -0.1049781963 -0.1589091867 0.8636520505
0.03342550248 0.06259012967 0.84391886 -0.1362139285 -0.4554441273 0.7637221217
0.03765461221 0.0660200119 0.8362666368 -0.1502869576 -0.5704525113 0.7452785373
0.03907035664 0.06396220624 0.8563680649 -0.1431120336 -0.2045784593 0.8951665759
0.03051244281 0.06118258834 0.8523786068 -0.1346372366 -0.3061596751 0.8155707121
-0.06228569523 0.08260077983 0.8127111197 -0.639283061 0.3590009809 0.6736787558
-0.06953644753 0.06984657049 0.8371012211 0.4251457155 0.1877711862 0.8798112869
-0.05655270442 0.06682408601 0.8348228335 0.1912405342 0.1132697389 0.9154033065
-0.03350105137 0.06099266931 0.8357859254 -0.07933542132 -0.1119296551 0.9891744256
-0.02566557191 0.05986246839 0.850379467 -0.05587720126 -0.04551886767 0.9922605753
-0.02180981264 0.05345120654 0.8571600318 -0.03441376239 -0.02497985587 0.9931403995
-0.01766028255 0.05063591152 0.8668329716 -0.02172176354 0.01449884567 0.9952076674
-0.0247795172 0.04840119556 0.8507774472 -0.04940361902 -0.021682363 0.9910416603
-0.02859382704 0.0510064587 0.8440936804 -0.058290001 -0.06533017755 0.9899248481
-0.01597073115 0.04184393957 0.8645591736 -0.03140421212 0.08698638529 0.9929738641
-0.07117252797 0.03609283268 0.844340086 0.3414611518 0.3609111011 0.8655503988
-0.0865964517 0.04201446101 0.8449783325 0.2757888138 0.3297097683 0.9004665613
-0.09317793697 0.03479870781 0.851857245 0.2722301185 0.4252183139 0.8631173372
-0.06222328544 0.07460137457 0.8187640905 -0.4746622145 0.3514594734 0.7281936407
-0.06068554521 0.06019344181 0.8261476755 0.1719328612 0.2067738622 0.8504152298
-0.06158526242 0.06040497497 0.8374422789 0.3071177006 0.1497152895 0.9002829194
-0.03740341216 0.07563727349 0.8315971494 -0.1695711315 -0.007117372472 0.9638953805
-0.04229833558 0.08131311089 0.8286345005 -0.3096880019 -0.058880575 0.9026998878
0.06133773178 0.02090426162 0.8602001071 0.5881397724 -0.06021041051 0.617358923
0.06857975572 0.02550513111 0.870826602 0.3150397837 -0.266387701 0.8883468509
0.05861152709 0.01816697419 0.8506768942 0.6752092838 0.04569378123 0.557682693
0.07396762818 0.0287964493 0.8620459437 0.4724624753 0.07764282823 0.8249439001
0.07814633846 0.02137027495 0.8367100358 0.5236304402 -0.07962479442 0.826197207
0.07249115407 0.02147547342 0.8469449878 0.4660612643 -0.1425041407 0.8433027267
0.07168965787 0.02339718491 0.8571431637 0.4057486355 -0.2047616094 0.8604807854
0.06831013411 0.01927661151 0.8407486081 0.4637679458 -0.0580059588 0.8619387746
0.07297048718 0.01825558208 0.8307846785 0.5550382733 -0.03594316542 0.8210067749
0.06470268965 0.01919759624 0.8304100633 0.5049422979 0.05346512422 0.8534685373
0.01008064952 0.07527700067 0.8291552663 -0.02330404893 -0.3877306283 0.9189198613
0.01318648364 0.08496058732 0.8334079981 -0.0899656415 -0.3596539497 0.9253638387
-0.002279276028 0.08711306751 0.8339877725 -0.0725678429 -0.2360195667 0.9667055011
0.002306100912 0.08018213511 0.8310823441 -0.03888450935 -0.3053231835 0.945314765
-0.002750258194 0.1003512442 0.8356294036 -0.09534843266 -0.1980403066 0.9752961993
-0.02126376517 0.1020453498 0.8370612264 -0.05250942335 -0.2345403433 0.9691716433
-0.01571703143 0.09528875351 0.8359813094 -0.08424536139 -0.1520972997 0.984320879
-0.03181453794 0.1041502804 0.8391475677 -0.03322514147 -0.2900266647 0.955832541
0.01220861636 0.06463818252 0.8459593654 -0.02943559177 -0.1033226401 0.9582099319
0.0128521882 0.06412100047 0.8546977043 -0.04400767758 -0.01837701723 0.9676762819
0.01181615237 0.06570889801 0.8337981105 -0.01366081182 -0.2313769758 0.9423456192
0.02086779475 0.07043118775 0.8481850624 -0.1092093512 -0.2477044314 0.915210247
0.0193235632 0.07081023604 0.8350143433 -0.08210451156 -0.3645163476 0.9040116072
0.02854206227 0.06796526164 0.8408403993 -0.134645611 -0.4455079436 0.8158817291
0.02371683903 0.06119249016 0.8670594096 -0.1284389347 -0.02598535269 0.9269006252
0.03285953403 0.06498651952 0.8779755831 -0.08586725593 0.187997207 0.9782968163
0.03844786063 0.08546092361 0.8511877656 -0.1715383977 -0.2226410508 0.9254903197
0.03975424543 0.09159592539 0.8431028128 -0.1989965886 -0.3475232124 0.9096599817
0.02806279249 0.06929305941 0.8721955419 -0.1144389361 0.09478802234 0.9688233733
0.03034523316 0.07572256029 0.8640054464 -0.127006948 -0.03352544084 0.9511990547
0.03335432336 0.08112525195 0.8571900725 -0.1340168715 -0.1394278556 0.9360688925
0.04126894474 0.06688498706 0.849032402 -0.1730528921 -0.3290667832 0.8650742173
0.04863436893 0.0677177012 0.8468818665 -0.2660284936 -0.502887249 0.7598665357
0.04070266336 0.05952416733 0.8690123558 -0.1575288326 -0.08247262985 0.8873186111
0.01578803733 0.06658156216 0.8240432143 -0.02188922465 -0.4635706544 0.8824796677
0.008816755377 0.06185740232 0.8267921805 0.0320844911 -0.2259349674 0.9477361441
0.02533453517 0.0697517693 0.8276696205 -0.1076278985 -0.5042891502 0.8561484814
-0.09386137128 0.06964375824 0.8425400257 0.1551272422 0.230948776 0.9593286514
-0.06971238554 0.1146011725 0.8417010903 -0.08483926952 0.1266555786 0.9831955433
-0.0800152421 0.1205932647 0.8349500895 -0.1659272909 0.2936941683 0.9399808049
-0.06387231499 0.1080777273 0.8120053411 -0.5850917697 -0.5155642033 0.5362665653
-0.0677510798 0.1086638197 0.799115777 -0.6217651963 -0.6593523026 0.4030289054
-0.05796474218 0.1160456985 0.8364084363 -0.1728984565 -0.5667262673 0.7957291603
-0.06674671173 0.1144593582 0.818231225 -0.3566765785 -0.3727480769 0.6876161695
-0.07001175731 0.1176774576 0.825836122 -0.2470996529 -0.08517298847 0.8284254074
-0.07107818872 0.1205044687 0.8344365954 -0.1309245676 0.1082367748 0.9597253203
-0.07473546267 0.1153287068 0.8173357844 -0.3854802847 -0.1370332092 0.6851793528
-0.06870493293 0.1053832546 0.8409999609 -0.009624280035 -0.01448687073 0.9944668412
-0.07763009518 0.107076019 0.8410000205 -0.09607096016 0.1233813763 0.9815531373
-0.05877185985 0.1100755483 0.8411592245 0.02848336473 -0.1202369481 0.9890651703
-0.008697296493 0.01727069169 0.8715171814 -0.07023846358 0.2318522483 0.8406419754
-0.006796476897 0.01775955036 0.8789156079 -0.06631529331 0.05410281941 0.9773824811
0.07095745206 0.06449706107 0.8273046613 -0.4105298817 -0.697498858 0.5867395401
0.07199265808 0.06924591213 0.8364399672 -0.4205214977 -0.7145889401 0.5577742457
0.06321302801 0.06500692666 0.8228464127 -0.3165537119 -0.7390104532 0.5899124146
0.062037725 0.07319667935 0.8320348859 -0.3344086409 -0.7087000608 0.6143820882
0.07450921834 0.04553081095 0.8184403777 0.01185273193 -0.0068869479 0.9882204533
0.06770905852 0.03982028365 0.8236469626 0.2838106453 0.1201357394 0.932479918
0.04889989644 0.06000575051 0.8295012712 -0.2374730855 -0.7259218097 0.6429291964
0.04767694324 0.06902723759 0.8379915357 -0.2523747683 -0.5900458097 0.7530024052
0.051180657 0.0638390407 0.8225867152 -0.2021735013 -0.7379689813 0.6425645947
-0.1056778803 0.08354252577 0.8413404226 -0.02038365602 0.2245846987 0.9715583324
-0.08248484135 0.09385964274 0.8410303593 -0.02453841828 0.008974324912 0.9963802099
-0.09387854487 0.09468781948 0.8410878778 -0.07880669832 0.1331834346 0.9814543724
-0.09581420571 0.08185373992 0.8415902257 0.04561552033 0.2060251832 0.9660765529
-0.08817724884 0.09710728377 0.8037930727 -0.6786350012 -0.3790483773 -0.02914094739
-0.08692139387 0.09261382371 0.8139045835 -0.4357793629 -0.2611475885 0.2729434371
-0.09847661853 0.09506396204 0.8141689301 -0.5209900141 -0.1546355039 0.3344018161
-0.1099396572 0.09310536832 0.824960053 -0.3629734218 0.08546602726 0.7159674168
-0.1180667728 0.09528461099 0.8240522146 -0.448102355 0.1464123875 0.7258865237
-0.09495785832 0.08597326279 0.8341056108 -0.03391759843 0.06852179766 0.9251977801
-0.09755858034 0.09145987779 0.8223265409 -0.325814575 -0.05866817385 0.5785523653
-0.1024776921 0.09226653725 0.8409998417 -0.1128333062 0.1889630109 0.9717617035
-0.099282749 0.1097384915 0.8358863592 -0.2127075344 0.3107786179 0.9227975011
-0.09914629906 0.100884594 0.8408480883 -0.1801678091 0.2288941294 0.955506742
-0.08948549628 0.1047140732 0.8409999609 -0.150996998 0.2074766755 0.9642938972
-0.1210530251 0.0952424556 0.8326225877 -0.4080322087 0.2799132764 0.8674325347
-0.125822857 0.08759528399 0.8320057392 -0.4484240413 0.2967752814 0.8413329124
-0.1084864587 0.08948159218 0.8329710364 -0.187901929 0.1728903949 0.9336137772
-0.1160389557 0.08677712083 0.831278801 -0.2711179852 0.1884573251 0.9120063782
-0.1016990319 0.06869089603 0.8437993526 0.1234977096 0.2522920072 0.9568288326
-0.08814841509 0.08382365108 0.8279830217 0.1755313873 0.2704927921 0.8415244222
-0.08956413716 0.06294487417 0.8416850567 0.1897534132 0.1830320805 0.9606068134
0.02946537547 0.05234462023 0.8812996149 -0.1069883034 0.1714557707 0.9787948728
0.03409324959 0.04568227753 0.8837451339 -0.08087873459 0.1627030075 0.9832758307
0.02630701289 0.04409506172 0.8821453452 -0.1372814029 0.1393779516 0.9801230431
0.03099560924 0.03700822219 0.8828799725 -0.129405275 0.09863312542 0.9855286479
-0.05036173016 0.08361425251 0.8342666626 -0.1843698174 -0.1905803084 0.9125618339
-0.04927456006 0.07576344162 0.8338614702 -0.08337968588 0.001736504841 0.9514952302
-0.06598510593 0.07733424008 0.8355405331 0.4168658257 0.07725700736 0.8680444956
-0.06994544715 0.08622383326 0.838021934 0.3321397305 -0.1099184826 0.9043748379
-0.07178257406 0.09534233809 0.8402591348 0.02673337236 -0.1399452537 0.9749568105
-0.05922109634 0.09078597277 0.8357333541 -0.007421755698 -0.320094496 0.8542045951
-0.07406559587 0.07627990842 0.8393909931 0.3569065928 0.03063689545 0.9252176285
-0.05870210379 0.04027167335 0.8361894488 0.4185136259 0.3576072454 0.8319919705
-0.05140241235 0.03762155399 0.8306074142 0.3276853263 0.3353258967 0.8765987158
-0.05245296657 0.03032274731 0.8389928937 0.3781634867 0.494289428 0.7792096734
-0.04569575191 0.03521930054 0.839640975 0.2733231783 0.3751113117 0.8521719575
-0.03224171698 0.03123460524 0.8425170183 0.1461816281 0.3254131973 0.8840316534
-0.02555022761 0.0388058424 0.8407817483 0.007184032351 0.1704272777 0.9571726322
-0.03664664924 0.05046052486 0.8343290687 0.002827206394 -0.01460668538 0.9582954049
-0.03920711949 0.04048437625 0.8377524018 0.1493103057 0.2319124192 0.9012815952
-0.02677224204 0.04585815966 0.8378337026 -0.06047347188 0.01831901073 0.9833828211
-0.04765583575 0.0622635968 0.8345264196 -0.005211166572 -0.01943079196 0.9760013223
-0.05788518116 0.0476346612 0.8304446936 0.375705719 0.2349372804 0.8928509951
-0.06569793075 0.04288228229 0.840688467 0.4353289604 0.3377946913 0.8334054947
-0.06456320733 0.05232370272 0.8397228122 0.3803623021 0.1992598623 0.8811138868
-0.04948203266 0.05356938019 0.8346835375 0.1064308956 0.04730676115 0.9486179948
-0.01360443421 0.05547609925 0.8745963573 -0.007429793477 0.05194440112 0.9970542192
-0.01889806241 0.06352134049 0.856921494 -0.01179625466 0.008666048758 0.9975492358
-0.0299683623 0.06306503713 0.8425585628 -0.06981475651 -0.07721496373 0.9910317659
-0.02207385935 0.06792414933 0.8468720913 -0.01561461668 -0.01718444563 0.9976609945
-0.001106773503 0.06062297896 0.8747295737 -0.03913728148 0.07884187251 0.9960420132
-0.02282924019 0.07273983955 0.838806808 -0.01407778542 -0.02946713194 0.9985604882
-0.01222240366 0.06182176992 0.8651190996 -0.01591668092 0.04007095844 0.9974577427
-0.03467113897 0.08408559859 0.8305447698 -0.1712510735 -0.1949908286 0.9436064363
-0.04635066167 0.0437617749 0.8353010416 0.1938154697 0.2114537656 0.8845539093
-0.048675403 0.04454091936 0.8259997964 0.214697212 0.1708735824 0.9528284669
-0.1401807517 0.03376281261 0.8504173756 -0.3666481674 0.4105421901 0.8316690922
-0.1160627156 0.03895679489 0.8543836474 0.008880322799 0.403255403 0.8958275318
-0.1082600579 0.04069703072 0.853503108 0.1457114518 0.3916153312 0.9023615122
-0.1033536792 0.05331707001 0.8490654826 0.1746487916 0.275247246 0.9440681338
-0.07282736897 0.04638097063 0.8443101645 0.3893417716 0.2575810552 0.8790540099
-0.08134753257 0.05447699875 0.8432039022 0.2963453531 0.1925783902 0.9328243136
-0.06479722261 0.05334968492 0.8317531347 0.396992296 0.1745391786 0.8981919885
-0.0801403001 0.04564411566 0.8416668177 0.3002739847 0.2651994824 0.9146178961
0.002597854473 0.08986086398 0.8422403932 -0.1132181436 -0.1595637351 0.9730234742
0.009087421 0.09599171579 0.837588191 -0.1338014305 -0.2398515493 0.9610063434
0.02187720127 0.09690979868 0.8405816555 -0.1540643871 -0.2751755416 0.9484804869
0.0111535592 0.08098998666 0.851710856 -0.1193162501 -0.1155469567 0.9596000314
0.0169585254 0.07294847816 0.8582322001 -0.1243169382 -0.1231116652 0.9383231997
0.0148713151 0.06772839278 0.8687326908 -0.09689302742 0.07436056435 0.9738366604
0.01088438835 0.0730233863 0.8628559113 -0.09625467658 0.03097248636 0.9789518118
0.01879821718 0.08554633707 0.8399761319 -0.1607652903 -0.4046982229 0.89835006
0.02837554552 0.08911121637 0.8372484446 -0.1731173694 -0.3956406116 0.8989467025
0.02564297616 0.07727456838 0.8319684863 -0.1446858197 -0.4637164772 0.8701304793
-0.06374937296 0.09080658853 0.8096939325 -0.6772165298 0.3647679985 0.6147446036
-0.06747225672 0.1003029943 0.8031023741 -0.6429739594 0.06171525642 0.50605762
0.0004015192681 0.02392417006 0.8800000548 -0.07230403274 0.02236034907 0.9970480204
-0.009999526665 0.02567334473 0.8459051847 -0.08282674849 0.5094669461 0.6634705663
-0.003251588438 0.02432753518 0.8543114662 -0.08677396923 0.4919473529 0.6571550369
0.07194662839 0.05547832325 0.8205455542 -0.4723306 -0.5410810113 0.679764092
0.05742301792 0.05509974808 0.8247060776 -0.2468953878 -0.6623442769 0.6374800205
0.06690190732 0.04843005911 0.8221235871 -0.05459230766 -0.1788465679 0.9162777662
-0.1107514426 0.07681505382 0.8373193145 -0.1826066524 0.281087786 0.8886036277
-0.09962970018 0.07571575791 0.8382123113 0.03613259643 0.2078965753 0.9583925605
-0.07337358594 0.07304675132 0.8282057643 -0.07036165893 0.282684356 0.818809092
-0.07072655112 0.08170375228 0.8125494719 0.2728296816 0.5614897013 0.5645014644
-0.08190374076 0.07858868688 0.8240966797 0.3168035746 0.3828594089 0.7495760322
-0.08479525149 0.0711947307 0.8369061351 0.2299185842 0.1811120361 0.937307477
-0.07901366055 0.08170226961 0.8174640536 0.3833149374 0.492680788 0.644906342
-0.07368198037 0.05583930016 0.8398581147 0.3757649958 0.1723254621 0.9099737406
-0.0713673085 0.06162720919 0.8341776133 0.3439875245 0.1579297483 0.9219939709
-0.08113436401 0.06235417724 0.8400133848 0.2873016 0.1828559935 0.9381936193
-0.01032237522 0.05039409921 0.8800000548 -0.00299508404 0.06778315455 0.9976832867
0.005453045946 0.04524096102 0.8532680273 0.004930485971 -0.02029664814 0.9938154817
0.009382665157 0.0340061672 0.8753141761 -0.06832294911 0.03883742541 0.9956795573
0.002062948421 0.05459719524 0.8368578553 0.06235062703 -0.06171894073 0.9924010038
0.00466287462 0.0453303121 0.8656808138 -0.01763102971 0.02974831872 0.9946911931
0.005105747376 0.04338416457 0.873444736 -0.03757349029 0.05582277104 0.9952932
-0.001162302215 0.03522047773 0.8620311022 -0.06489190459 0.08384594321 0.9915069342
-0.005135207437 0.03805309162 0.8535143137 -0.04817627743 0.08496564627 0.9898892641
0.002225957345 0.04861323535 0.8444358706 0.02602661215 -0.02767954208 0.9924516678
0.005678407382 0.03729412332 0.8657653332 -0.04742873833 0.03330046311 0.9941011071
-0.006879602559 0.04310338199 0.8437891006 -0.01551180799 0.05883281678 0.9890742898
-0.01082678791 0.03781235218 0.8480729461 -0.05282907188 0.1166367009 0.9876900911
-0.0046411925 0.05074481294 0.8340619206 0.03652667999 -0.006407620851 0.9897316098
0.003828212153 0.05303979293 0.8707478642 -0.02675654367 0.06843649596 0.9941622019
0.002602128778 0.05517300963 0.8535916805 0.02012161352 0.005887947977 0.9931687117
-0.00165388186 0.04730793834 0.8800000548 -0.0235194955 0.07833648473 0.9962999225
0.01906237379 0.0249923896 0.8812384009 -0.1278474927 0.04416620359 0.9907411933
0.02319589816 0.03242562711 0.8815826178 -0.1567730606 0.06739223748 0.9850901961
0.00933483243 0.02668984793 0.8802090287 -0.09938211739 0.03753537685 0.9941144586
0.02416329645 0.05989579484 0.879886806 -0.1153030545 0.1708522737 0.9783664942
0.007938986644 0.06073575839 0.875035882 -0.06299523264 0.1210904196 0.9905796051
0.0113739064 0.06130633131 0.862434566 -0.03788032755 0.08855365217 0.9863144159
0.005728019401 0.06039296091 0.8433407545 0.0312396083 -0.006035299972 0.9889726639
-0.04652809724 0.1000161022 0.838222146 -0.1294259131 -0.3606210947 0.918227911
-0.0375762172 0.09810890257 0.838190496 -0.07910766453 -0.2606571019 0.9551234245
-0.04329102486 0.08810419589 0.8335721493 -0.2869469523 -0.1892655939 0.9308784604
-0.05339425057 0.09639723599 0.8353257775 -0.2544428408 -0.4456156194 0.8501407504
-0.05369259045 0.08120401204 0.821275413 -0.566875577 0.1422725171 0.7608783841
-0.05766479298 0.08958750218 0.8171693087 -0.7366461754 0.2283745259 0.6311171651
-0.03220035136 0.07011201233 0.8283411264 -0.1229508966 -0.01925300993 0.9432058334
-0.04364272207 0.0715681538 0.8233282566 -0.334749043 0.1121704951 0.8419212699
-0.02538616024 0.06432535499 0.8289679885 0.03209212422 -0.09493953735 0.9926829338
-0.09816718847 0.04155603424 0.8545206785 0.217398569 0.3454999328 0.9088035822
-0.03250237182 0.0308304932 0.827776432 0.1230337694 0.2629840672 0.9560957551
-0.03992667794 0.03472274542 0.8288738132 0.2180003971 0.3021903932 0.9262620807
-0.005283955485 0.05936167389 0.8271247149 0.09715082496 -0.06639093161 0.9908533096
-0.002817951608 0.04326316714 0.8309426308 0.0976395458 0.04453409463 0.9615727067
-0.01450545806 0.03151705861 0.8420490026 -0.06899566203 0.3518824279 0.8076776862
-0.004863041453 0.03419147804 0.8352853656 -0.01776139811 0.4578307271 0.6288103461
-0.007346894126 0.02084747143 0.8394314051 -0.07531999797 0.7662599087 0.418061018
-0.009550166316 0.04516766965 0.8362413645 0.0003666519478 0.08065976948 0.964892745
0.01969075389 0.06636663526 0.8616604805 -0.1086420491 -0.05850174278 0.9460536242
0.01854856312 0.06173148379 0.8747061491 -0.1066296473 0.1310141236 0.9777783751
-0.04333583638 0.09674777836 0.8284189105 -0.332970649 -0.3380271792 0.8330202699
-0.04483959451 0.1043573618 0.8294715881 -0.2720612884 -0.2748930752 0.8141053915
-0.06016127765 0.1051526219 0.8193119168 -0.6141557693 -0.2822522521 0.6253042817
-0.04128818959 0.1069785058 0.8358659148 -0.0941131264 -0.350728333 0.8927610517
-0.053835053 0.1081174761 0.8282484412 -0.3571017385 -0.3702352941 0.7442188859
-0.05031963438 0.1022663191 0.8224175572 -0.4779500961 -0.2118690014 0.717032373
-0.05534802005 0.09798520803 0.8172651529 -0.6583423018 -0.2348186821 0.6491143703
-0.04799971357 0.09372512996 0.8228592873 -0.4453684688 -0.1842425764 0.7692325115
-0.06193330139 0.1009123176 0.8114155531 -0.8056614995 -0.1736849397 0.5451748371
0.01289467979 0.0420210138 0.8796876073 -0.1044734269 0.0907728672 0.9897674322
0.02047226392 0.05293622985 0.8799922466 -0.1085578054 0.1541911811 0.9815360308
0.01101210713 0.05031147972 0.8797734976 -0.07189128548 0.1105232835 0.990685761
-0.01212205086 0.06755398959 0.8295610547 0.06993999332 -0.1362428814 0.9873667359
-0.02153153904 0.0802333504 0.8330610394 -0.03591997176 -0.09592648596 0.9932240248
-0.006040589418 0.06843709201 0.8611325026 -0.04364717379 0.007540487684 0.9935504198
-0.01310788374 0.07218687981 0.8494841456 -0.03512217104 -0.02446709946 0.9946293235
-0.004516263027 0.06386050582 0.8675146103 -0.03790915757 0.05074931681 0.9957498908
-0.01275378745 0.08000387251 0.8418464661 -0.05164645612 -0.09999543428 0.9894080162
-0.006808128674 0.07955399156 0.8329113722 -0.0247797966 -0.2227380425 0.970089972
-0.0138591053 0.07642669976 0.8327724934 0.01863673702 -0.1684337556 0.9845377803
-0.003343639662 0.07053039968 0.829213202 0.04118912295 -0.249098435 0.9581477046
-0.04021511972 0.04694888741 0.8254765868 -0.0007205134607 0.02117553726 0.9960204363
-0.0449459143 0.05278949812 0.827011168 0.02652076446 0.003860074561 0.9991133809
-0.03404843435 0.0567221567 0.8275538683 0.02246415988 -0.04497646168 0.9962872267
-0.03071924858 0.04788819328 0.8259672523 -0.06624552608 -0.01294256747 0.9952011704
-0.03447725624 0.02378110774 0.83381778 0.2625748813 0.4184020758 0.857373178
-0.0427625291 0.02617912553 0.8370967507 0.364238739 0.5170380473 0.7707345486
-0.01002052985 0.04055144265 0.8280680776 -0.02412929572 0.04234729707 0.9791685343
-0.01602390595 0.03504270688 0.8275997043 -0.1591179967 0.05932015553 0.9742466211
-0.01116813067 0.02879687026 0.8308250308 0.08505283296 0.164189145 0.973154664
-0.01495608781 0.01796857268 0.8312494755 0.1202407926 0.2853887081 0.9496867061
-0.04952691868 0.1121749058 0.8415330648 -0.04715903848 -0.3388345242 0.9313010573
-0.02132432163 0.070386976 0.8309543729 0.02570106462 -0.1046246216 0.9929637313
-0.01661271229 0.06106577069 0.8287832141 0.06651519239 -0.05948500708 0.9954603314
-0.01060529705 0.0499227196 0.8271893263 -0.007116059773 -0.002646038774 0.9879028201
-0.01831479557 0.04924383014 0.8277283907 -0.03565984219 0.007538184989 0.9923588634
-0.02485420182 0.03644920513 0.8262098432 -0.1229787022 0.04608083889 0.9896543622
-0.02402461693 0.02822341025 0.8272382021 -0.02516792901 0.1759482175 0.9800615907
