# .PCD v0.7 - Point Cloud Data file format
VERSION 0.7
FIELDS x y z normal_x normal_y normal_z
SIZE 4 4 4 4 4 4
TYPE F F F F F F
COUNT 1 1 1 1 1 1
WIDTH 512
HEIGHT 1
VIEWPOINT 0 0 0 1 0 0 0
POINTS 512
DATA ascii
-0.2033130676 -0.007201410364 0.6608281732 -0.160215646 0.3537583649 0.9106318951
-0.2112283558 -0.001814297517 0.6584917903 -0.05589485168 0.1755510718 0.9811015129
0.02315020747 -0.01877744123 0.6936699152 0.21466887 -0.899207294 0.354280591
0.03380189463 -0.006490377244 0.7151397467 0.2521310449 -0.7972590923 0.5366058946
0.04207482561 0.05854972824 0.7016744018 -0.2933151126 -0.6535326242 0.684979856
0.03591093794 0.05300156772 0.7059805393 -0.2352845073 -0.5693191886 0.7356545925
0.02451499179 0.03295030817 0.7182323933 -0.08628439158 -0.2853423059 0.9043750167
0.03149371594 0.04499188811 0.7108335495 -0.1765183508 -0.4561345279 0.802872777
0.02977386117 0.05960583314 0.704954505 -0.229161188 -0.6443325281 0.6931912899
0.02257750556 0.05861429498 0.7075784802 -0.1847751588 -0.6178699136 0.7103250623
0.03658555821 0.02354205772 0.7201810479 -0.06210806966 -0.3423307538 0.9027962089
0.04147550091 0.03800055757 0.7113056183 -0.1876514256 -0.4485554397 0.8165342212
0.03214155138 0.03006632999 0.7173184156 -0.1119201183 -0.2862892747 0.9059990644
0.02869818918 0.02337343246 0.7216295004 -0.05259250849 -0.218672663 0.9534034133
0.03519904613 0.01469312608 0.7253370881 0.01307572518 -0.3024306893 0.9454157948
0.04531935602 0.03064507246 0.7147333026 -0.1302939057 -0.4935023487 0.8203114271
0.0485306792 0.03952935711 0.7070855498 -0.2360924035 -0.5483995676 0.7645022869
-0.2124893814 0.02431622334 0.6617099047 0.1789416224 -0.05725694075 0.9796504378
-0.1966879517 0.01417445857 0.6537591815 -0.007474469952 0.1149578616 0.9922261238
-0.1364325434 0.02890875004 0.6802417636 -0.03860748559 0.4686605632 0.8657358289
0.01510051452 -0.018862091 0.695227921 0.1254007667 -0.9007687569 0.3792720735
0.01095611136 -0.01252132934 0.7112016082 0.02267883532 -0.8076370955 0.5706311464
0.009703415446 -0.01520443615 0.704051733 0.04043685645 -0.8434351087 0.4956287742
0.009320442565 0.04809741303 0.7104723454 -0.1769080609 -0.4498175681 0.7941837311
0.01457058731 0.06085310876 0.7063091993 -0.201119706 -0.6326460838 0.6967585683
0.008001052774 0.05668308586 0.7057956457 -0.1754445434 -0.5756335855 0.7307673693
0.005781571846 0.03132601455 0.7172455192 -0.1573849916 -0.2075207233 0.9207832813
0.03743840754 0.05906891823 0.694584012 -0.3068793714 -0.6684618592 0.6771050096
0.01691209152 0.06646565348 0.6998568773 -0.2055697143 -0.7328550816 0.6483934522
0.01949729957 0.062680915 0.6929103732 -0.2159032822 -0.7165592313 0.6627626419
0.008272558451 0.06797676533 0.7000390887 -0.180507049 -0.7416313291 0.6459814906
-0.03275996819 0.06586269289 0.6794705391 -0.2003992349 -0.5711259246 0.7950745225
-0.02123316377 -0.0184561871 0.6817882657 -0.228545621 -0.9508277774 0.184981361
-0.006244007498 -0.02039052919 0.6876677275 0.00802733656 -0.946819663 0.3155227304
-0.03347257152 -0.02040513232 0.6749385595 -0.06571342796 -0.4748181403 0.1339779645
0.05367039889 0.04184042662 0.6916700602 -0.3979061544 -0.6183244586 0.6775457263
0.05100464076 0.04506691918 0.7008797526 -0.3176301718 -0.5878998637 0.7218484282
0.05132985115 0.03224619478 0.7003247142 -0.3022034466 -0.5629169941 0.7280154824
-0.2030733228 0.04242315143 0.6610087752 0.1775637865 -0.2311900258 0.9554616213
-0.1977400333 0.02171394601 0.6543647647 0.07663671672 -0.01026017405 0.9964407086
-0.187419802 0.01880871132 0.6545168757 -0.1217803806 0.1326369941 0.9748724699
-0.00204623933 -0.01956572197 0.6951959729 0.004247603472 -0.9056822062 0.3930376768
0.0002906472946 -0.01581003889 0.7035578489 -0.02260481566 -0.8495219946 0.4966169596
0.02441262826 0.001934246859 0.6730135083 -0.04021042585 -0.6769704819 0.6099282503
0.02220960893 -0.009369606152 0.679425776 0.05192252249 -0.7382243276 0.4762168229
0.03082252108 0.005969310179 0.6657871604 -0.1234802678 -0.4317481816 0.7734710574
0.008859511465 -0.0203385409 0.6880000234 0.114306435 -0.9479733706 0.2935025394
0.004094312899 0.009865726344 0.67327106 -0.03352178633 -0.638112247 0.6726089716
0.005234363955 0.01933240332 0.6684311032 -0.06367852539 -0.5376592278 0.7891222835
0.007827711292 0.002474576235 0.6771357656 0.02051017247 -0.7183613777 0.5709028244
0.003903186414 -0.003529297886 0.6801458001 0.01852555387 -0.7808095813 0.5044440627
0.007962311618 -0.01192361955 0.6845317483 0.07869761437 -0.8718793988 0.3893541098
0.01492931694 0.00896873977 0.6722498536 -0.02712905593 -0.6449599862 0.663508296
0.01646698639 -0.01231870148 0.6844201088 0.1170837432 -0.8774792552 0.3723088205
0.0232018847 0.01094980631 0.6685684919 -0.09534601122 -0.6154187322 0.715025723
0.01783188991 0.0176483877 0.6662186384 -0.1089112759 -0.5468392968 0.7924814224
0.01437687688 -0.005330337211 0.6809049249 0.08006303757 -0.8026350737 0.4633057415
0.01323895156 0.02347644605 0.6641501784 -0.1212292984 -0.4870978296 0.8601010442
0.01941561513 -0.01094013546 0.716630578 0.09940189868 -0.7976154089 0.5916625261
0.01771526411 -0.01515226811 0.705337882 0.119303152 -0.8532608151 0.4771845043
0.003056333866 0.01649400219 0.7215505242 -0.1494576484 -0.0967227146 0.9839987159
-0.0194095578 -0.001564785372 0.7160274386 -0.06331290305 -0.1601417512 0.9810425043
0.01190361381 0.03683685139 0.7160079479 -0.1572833508 -0.2865063846 0.8800699711
0.0152659677 0.05264221132 0.7099662423 -0.1845780909 -0.5140512586 0.7596477866
0.04348828271 0.04649862647 0.7064034343 -0.2545606792 -0.5050423741 0.7700470686
0.05195267871 0.0521424897 0.6978271604 -0.3629949689 -0.6239615679 0.6919279695
-0.004466513172 0.05652653798 0.7014736533 -0.1853151619 -0.5647526979 0.7389258146
-0.004443980753 0.02999896184 0.7145252228 -0.150517121 -0.1723759919 0.9360692501
0.0004071739386 0.0514911823 0.7056902051 -0.1692819446 -0.4928895831 0.7734783292
0.001653010026 0.06700280309 0.6956882477 -0.188813284 -0.7346519232 0.6514542699
0.001598826842 0.03783134371 0.7127377391 -0.1567466706 -0.2948761284 0.8744820356
-0.02367733419 -0.00905771926 0.7144837976 -0.04244339094 -0.5359017253 0.7889123559
-0.01513742283 -0.01920531504 0.696269393 -0.0316878669 -0.8848978281 0.4172190428
-0.01455079764 -0.01570558734 0.7071425915 0.0137035083 -0.8107479215 0.5571133494
-0.01599728689 -0.02194372192 0.6878255606 -0.07041355222 -0.9438483715 0.3068802357
-0.02466814406 -0.01740806364 0.701230526 -0.1268328726 -0.8527874947 0.4421984553
0.04646009207 0.01117176097 0.7110866904 0.04531472921 -0.766938448 0.574875474
0.043949157 0.005453023128 0.7170380354 0.123970449 -0.7671409249 0.6010134816
-0.02541146986 0.001783684478 0.6709834337 -0.08541208506 -0.4469627738 0.6294273734
-0.02113977261 -0.006985128857 0.6773965955 -0.08363733441 -0.6683313847 0.4766367376
-0.03074913844 0.007962167263 0.6667413712 0.03216219321 -0.1680202484 0.7731749415
-0.1452826411 0.04550080001 0.6728932261 -0.1508587301 0.276289463 0.8748142719
-0.1584842652 0.06745135784 0.670129776 0.01147647481 -0.3418788314 0.9323858023
-0.1542282552 0.05608104542 0.6731097102 -0.02946620435 -0.1014366075 0.9000203013
-0.1389764547 0.04076609388 0.6717674732 -0.1424382478 0.4772271514 0.8609318137
-0.09896917641 0.07049843669 0.670283556 -0.1018513143 -0.1390357316 0.9826959968
-0.1149021164 0.003415674902 0.6861237884 0.2125923038 0.3858395815 0.8912452459
0.04775423184 -0.01472669374 0.6679158211 0.5425956249 0.3220061958 0.7616819143
-0.1353891939 0.04990874231 0.6717103124 0.00020971903 0.3055721521 0.9003528953
-0.1367764026 0.07360358536 0.6721509099 -0.02681891993 -0.2603116632 0.9648770094
-0.005427584983 0.02000532486 0.7192094922 -0.1426915675 -0.08410141617 0.9861395359
0.03382418305 0.003522910876 0.7221724987 0.06798329204 -0.4284960032 0.8960894346
0.02826368809 -0.002351559466 0.7206916809 0.07898836583 -0.4772242606 0.8493387103
0.01620953716 -0.001720227883 0.7218768597 -0.06994759291 -0.2710987926 0.9588205218
0.03256320208 0.03800238669 0.6748917699 -0.2813101411 -0.6223151684 0.7291755676
0.01696818322 0.02060648054 0.7223753929 -0.08515906334 -0.1079674512 0.9898597002
0.02244826034 0.0153326923 0.7233039141 -0.03430945426 -0.1665825099 0.9845420122
0.01787409 0.008883696981 0.7231794 -0.05425053462 -0.1690072566 0.9836619496
0.01097789966 0.01426411513 0.7225085497 -0.1104263738 -0.120581612 0.9858080149
0.005625315011 0.007943660021 0.7221645117 -0.1241822615 -0.132693857 0.9829306006
0.0288297087 0.06217412651 0.6940501928 -0.2585738301 -0.7005957961 0.6647744179
0.02901842073 0.05419700593 0.6883717775 -0.2778462172 -0.6667765379 0.6894410849
0.02112757415 0.04724017903 0.7125079036 -0.1431721002 -0.4595910609 0.7989025712
0.01994957402 0.03904063627 0.7157298923 -0.1236667261 -0.3402913213 0.862569809
0.01642936841 0.02893699519 0.7194381356 -0.1149894893 -0.1775556058 0.9428916574
0.005690946244 0.05773945153 0.6849844456 -0.1710173488 -0.7006857991 0.6923764944
0.01114707813 0.06308576465 0.6915985346 -0.1885156035 -0.7259668708 0.6612560749
-0.02197640017 0.04928243905 0.6944186091 -0.1777031124 -0.4426980913 0.8274056911
-0.02185369283 0.04296866432 0.6993764043 -0.1659956872 -0.3597718477 0.8640128374
-0.01654988341 0.06108636409 0.6865745783 -0.2041413784 -0.6368851662 0.730482161
-0.01571615227 0.05260019004 0.6993597746 -0.1877489388 -0.5161277652 0.7694492936
-0.01427682117 0.06026108935 0.6963540912 -0.202708289 -0.621635437 0.7140222192
-0.01382885315 0.04651872069 0.7040421367 -0.1797667146 -0.4250234962 0.8126215339
-0.01699179038 0.03010767698 0.7124266028 -0.146962598 -0.1980629563 0.9267346859
0.05616659299 -0.001325930585 0.6672728062 0.0754513815 -0.000645344553 0.6570745707
0.05441672727 -0.01013835706 0.6665812135 0.5353161693 0.1501342505 0.6709868312
-0.1913891137 -0.0003182014334 0.6606473327 -0.2828933299 0.4041003585 0.8584033847
-0.2041859776 0.001994533231 0.6575096846 -0.07376755774 0.2333738357 0.9671989679
0.008917379193 0.03624163941 0.6670603156 -0.1455116719 -0.5316179395 0.8340755701
0.04293857515 0.01479925029 0.7204775214 -0.03010110371 -0.4552888572 0.8599283695
0.04870790243 0.02512186952 0.7065507174 -0.2049488276 -0.575881958 0.7414664626
0.04553321749 0.02064721659 0.714322269 -0.1189731061 -0.4667404294 0.8319766521
0.02572636865 0.006318642758 0.7234947085 0.03117315099 -0.2466706485 0.9682183266
-0.1504957229 -0.003034383757 0.6856556535 -0.2287192047 0.478066802 0.8211492896
-0.1481671035 -0.01392650232 0.6940636635 -0.1220570132 0.4357713759 0.8791291714
-0.135261938 -0.01637300849 0.6994079947 0.1327086985 0.4629577398 0.8758897185
-0.1587411612 -0.01492366474 0.6931087971 -0.2925222516 0.4725634456 0.8241148591
-0.136762321 -0.008657439612 0.6931762099 0.09321025014 0.4352173209 0.8913840652
-0.1505400538 -0.01805328205 0.6997906566 -0.1599441767 0.485232383 0.8496964574
-0.1517593116 -0.004927419126 0.6933310628 -0.2394752204 0.4736043811 0.8463220596
-0.08565571159 -0.01983140409 0.6901126504 0.1892950982 0.6158869863 0.7631021142
-0.0632718727 -0.01272999588 0.6935638189 0.296997577 0.281667918 0.6896977425
-0.0524279587 -0.005488907918 0.7040026784 0.2332061231 -0.1906703562 0.7020472288
-0.05737316608 -0.01033171639 0.7004559636 0.2628181875 0.04472050816 0.6893639565
-0.06950914115 -0.0161623843 0.6869823933 0.3334417939 0.5438454747 0.6859475374
-0.09370300919 -0.00282214093 0.6695226431 0.2391547263 0.4178363085 0.8702728152
-0.07391604781 -0.002688135952 0.6627738476 0.1824932098 0.3175468743 0.9303870201
-0.08528545499 -0.004877335392 0.6672751307 0.1884498894 0.3782424927 0.9017013907
-0.08200857788 0.004962195177 0.6632595658 0.3027032614 0.347363621 0.8844411969
-0.1198260784 0.04114739597 0.6719480753 -0.01170043927 0.3130223751 0.9444628954
-0.127564922 0.03371267393 0.6764368415 0.05296520144 0.395560652 0.9071581364
-0.1266251802 0.02501721866 0.6811910272 0.1711793691 0.3848320842 0.9029335976
-0.1308371574 0.04241925105 0.671456635 0.02105353214 0.4448503852 0.8945735097
-0.1103529111 0.07520926744 0.6692270637 -0.07902706414 -0.1940434426 0.9754570127
-0.1178250164 -0.01935159788 0.6927226782 0.1890046597 0.559507072 0.8034220934
-0.1273407787 -0.01748508587 0.6954283714 0.1495848894 0.5114577413 0.8420433402
-0.1292699873 -0.01002863515 0.6908992529 0.1619242877 0.4464832246 0.8776855469
-0.1046716496 -0.00143251149 0.6764371395 0.1883447617 0.37550053 0.9041364193
-0.09762248397 0.005201424472 0.6813881397 0.2023499608 0.4515752196 0.8627378941
-0.1024380401 -0.001009545056 0.6850956678 0.2073149681 0.4783809483 0.8490206003
-0.1018816829 0.01401379704 0.680429399 0.2376295924 0.380643338 0.889814198
-0.1095632017 0.00770473294 0.6769929528 0.2032067031 0.2971288562 0.93148458
-0.1142527461 0.0001638845279 0.6783162355 0.2550625503 0.3864678741 0.8841487169
-0.1187841222 0.01009693835 0.6795707345 0.2119915932 0.3238036931 0.9206058979
-0.1273703277 0.007616381161 0.6823028326 0.1995601803 0.3682991564 0.9036806822
0.02363611571 -0.01949875429 0.6854528189 0.2291938215 -0.932751298 0.2101566494
0.03738863394 -0.01007287204 0.6731918454 0.184831962 -0.7071294188 0.1565695107
0.03174480423 -0.01394893788 0.6785091162 0.2146897912 -0.8235470653 0.1179763079
0.03708670661 0.00116825127 0.6642608047 -0.06847895682 -0.3461137414 0.674428463
0.02998955734 -0.007768806536 0.674217701 0.05953029916 -0.6228384972 0.4413847029
0.04486262798 -0.00247176527 0.6608688235 0.2625334263 0.04914342239 0.7028833628
0.0420864597 0.004624304362 0.6578944325 -0.009822267108 0.01770078391 0.9000918865
0.05572064966 0.03357053176 0.6863693595 -0.4129879475 -0.6336230636 0.6540737748
0.05356624722 0.01266124565 0.6939287782 -0.04688611999 -0.7251278162 0.5426291227
0.04655907676 0.003441053908 0.7095865607 0.1822681278 -0.7937648892 0.5177384615
0.04991745949 0.01563600823 0.7036597133 -0.07654705644 -0.7347083092 0.5915395617
0.0525030084 0.02234086394 0.6978719234 -0.2006759197 -0.697388947 0.6138062477
0.05589075014 0.02259581722 0.690901041 -0.2815245092 -0.680226028 0.6205589771
0.02004743181 0.02928570844 0.6661938429 -0.1632041633 -0.5535202622 0.8155418634
0.0465698503 0.04406457394 0.6889414191 -0.3931538165 -0.6105956435 0.6873971224
-0.1852665544 0.02770985477 0.6545128226 -0.05768284947 -0.02308678813 0.9939810634
-0.00947410427 -0.0006476654089 0.718516171 -0.09108015895 -0.1637398005 0.9802372456
-0.003487497801 0.01067673601 0.7208482623 -0.1499575078 -0.108148627 0.9826840758
0.006697964855 -0.001793519594 0.7212669253 -0.1220736727 -0.2381631583 0.9631149769
-0.01908195019 0.02037813328 0.7172732353 -0.1279980391 -0.07492490858 0.9888851643
-0.01129864249 0.008575031534 0.7185143232 -0.124133274 -0.09898605943 0.987105906
-0.02451278456 0.01160431467 0.7161518335 -0.1113188714 -0.06497365236 0.9916417599
0.04235433042 0.02923498861 0.67015481 -0.2996891141 -0.6404521465 0.7066970468
0.04599693418 0.0376599282 0.682040453 -0.3861892521 -0.644472599 0.6595152617
0.04413344339 0.05347505957 0.6940034628 -0.3391862512 -0.6343880296 0.6944783926
0.03856339306 0.04379299283 0.6837999821 -0.3585457206 -0.6175040007 0.6990673542
0.01755930111 0.05216177925 0.6823083758 -0.2110850811 -0.6736344099 0.7072758079
-0.01268832758 0.03924750909 0.7080578804 -0.1677619517 -0.3186077178 0.8658109903
-0.0108972406 0.065718472 0.6908811927 -0.2089051455 -0.7050326467 0.6768324375
-0.00488305185 0.06027013436 0.685346961 -0.2045529932 -0.6962116361 0.6876636744
-0.02357338183 0.06129208207 0.6789799333 -0.2050482184 -0.6034174562 0.7703375816
0.0558825694 0.0110474918 0.6778644919 0.1271440089 -0.3369929492 0.6179719567
0.05196435004 -0.003642754629 0.6737592816 0.6511793137 -0.05736486241 0.5864611864
0.05621685833 0.005637886003 0.6714300513 -0.02603266761 -0.1716890484 0.6260808706
0.04758636281 0.0215340592 0.6647721529 -0.340194732 -0.5568193197 0.7550991774
-0.01692186296 0.03751103207 0.665899992 -0.07415936142 -0.3702400029 0.9234036207
-0.1940154284 -0.008977869526 0.6644245982 -0.2853283286 0.4970129132 0.8081234097
-0.03120672703 0.004171947017 0.7155290842 -0.05012717471 -0.1842927486 0.9418309927
-0.1801246107 -0.002854705323 0.6690151691 -0.4584877193 0.5323159099 0.7100627422
-0.07547743618 -0.02175964415 0.687373817 0.2930346727 0.6766321063 0.6729112267
-0.04992501065 -0.02091055177 0.6715772152 0.0646129325 0.5850695968 0.7937675118
-0.04482924193 -0.009000508115 0.7129391432 0.0520984605 -0.617331624 0.648604095
-0.05095901713 -0.01370869204 0.7074926496 0.122134462 -0.3264085948 0.6337793469
-0.05754327402 -0.01809978299 0.698379755 0.2023195624 0.0856237188 0.6118258834
-0.1868953109 -0.01154707093 0.6718776226 -0.4112659395 0.5666202903 0.7119215131
-0.2143041193 0.01576511376 0.6612489223 0.114444688 0.0215844661 0.9926887751
-0.07879202813 -0.01106868125 0.6800737381 0.3002397716 0.6243342757 0.7177908421
-0.03284871578 0.01559764985 0.6637902856 0.1018635705 -0.03304428607 0.9930083156
-0.06424994022 -0.01905817538 0.6758913398 0.2708142996 0.6557740569 0.7033060789
-0.07123591751 -0.01330413111 0.6755746603 0.3089592755 0.6167237759 0.7208866477
-0.09621117264 -0.01038780063 0.6756013632 0.2199843526 0.512409091 0.8221104741
-0.08758935332 -0.01218303572 0.6777161956 0.272800684 0.5647642612 0.7657546997
-0.0411086753 -0.001422856236 0.7157768011 0.107780233 -0.7061092854 0.6952835321
-0.03203879297 -0.01000573207 0.6740840077 -0.0424490869 -0.4385404587 0.2959970236
-0.1171939299 0.04931701347 0.641571939 -0.4723961353 -0.3950829208 0.3207643628
-0.1032333076 0.06243681535 0.67016083 -0.07358869165 -0.05042139068 0.9783665538
-0.1073161587 0.05245669931 0.6703864932 -0.04783312604 0.03176484257 0.9635096192
-0.1117377207 0.06096186489 0.6703582406 -0.05679425225 -0.003114654217 0.9701455832
-0.1152065545 0.05242593586 0.6705643535 -0.03451046348 0.1160049886 0.9642142057
-0.118537195 0.06952115893 0.6708066463 -0.05487878993 -0.1550168842 0.9635330439
-0.09037672728 0.07157380879 0.671599865 -0.1470952034 -0.2874814868 0.9431448579
-0.03977055103 0.06417862326 0.6768954992 -0.1556019485 -0.4826742113 0.8587243557
-0.08034912497 0.06096767634 0.6633582115 -0.3021458387 -0.3490610421 0.7959560752
-0.04844713584 0.02305051498 0.6816177368 -0.03041892312 -0.01291460451 0.9945676327
-0.04403596371 0.03071433119 0.6743508577 0.0413902849 -0.07801362127 0.9927603602
-0.04122958705 0.02305103093 0.6894757748 -0.02343001589 -0.06026400626 0.9927240014
-0.05055969208 0.0270514302 0.6730163097 0.002796495566 -0.01793463901 0.9947519898
-0.01044269931 0.04892512783 0.6727228761 -0.1589017659 -0.5672562122 0.8055735826
0.0002815744956 0.04182229564 0.6688299775 -0.1263093352 -0.5278904438 0.8397451639
-0.03126909584 0.04577543586 0.6671282649 -0.08655603975 -0.3830291331 0.9194901586
-0.03202794492 0.03993123397 0.6776256561 -0.08584732562 -0.3055697978 0.9398984909
-0.03463311493 0.05169096217 0.6718984246 -0.1136265099 -0.4195890725 0.8976688981
-0.1342723817 0.01896044239 0.6827505827 0.06915666163 0.4066086411 0.9045141935
-0.1443386376 0.02338519506 0.6813034415 -0.2416144907 0.466114223 0.8484814167
-0.1428155452 0.01384054869 0.6847962737 -0.1289250851 0.415386498 0.8937343359
-0.1491877139 0.004514893051 0.6889942884 -0.2122844309 0.4633069038 0.8582721949
-0.1511080414 0.01234629564 0.6838080287 -0.337305218 0.4466842413 0.8204998374
-0.1210984588 -0.009210294113 0.6933748722 0.2118359953 0.455103606 0.8627266288
-0.1043645889 -0.01268134546 0.6904984713 0.1906218678 0.5528826118 0.8094912767
-0.1014019698 0.02170367166 0.6769142151 0.2569661736 0.3469980061 0.901237607
-0.1279219985 0.002822789131 0.6896390915 0.1746576875 0.3788606524 0.9049832821
-0.1402480751 -0.00132473791 0.6914541125 -0.02324550599 0.4534292817 0.874725461
-0.1350783408 0.01115790009 0.6819875836 0.1093082204 0.3843398094 0.9128524661
0.03898023441 0.02359366976 0.6643426418 -0.2626431584 -0.5842540264 0.7642349005
0.03405819461 0.01621853188 0.6601840258 -0.2131631523 -0.4872281849 0.8453813791
0.03134701774 0.02579395846 0.6653207541 -0.2089103162 -0.5801892877 0.7867486477
-0.1370531172 0.02264596336 0.6740580797 -0.03423885629 0.4287431836 0.869086206
-0.1301166713 0.02703618817 0.6698671579 0.02325927094 0.4185212851 0.8678836823
-0.1413832009 0.02665428072 0.6686410904 -0.1971785426 0.4359178841 0.8081358075
-0.1367036998 0.03305973485 0.6670773625 -0.1615418047 0.4402056336 0.8307267427
-0.1234522462 0.02982419543 0.6678265333 0.1086863875 0.4091024995 0.8827067018
-0.1570600718 0.03820022196 0.6591454744 -0.2991506159 0.2281349897 0.9222005606
-0.1497585922 0.0398568809 0.6627513766 -0.3331082761 0.3536292613 0.861092031
-0.1164469644 0.04009756446 0.6412858367 -0.3568445444 -0.4048773944 0.05138389766
-0.126576975 0.03730917349 0.6597235203 -0.06594028324 0.172523275 0.7273776531
-0.1185514256 0.03496637195 0.6573773026 -0.0451569818 0.06820511818 0.5682681203
-0.1221785694 0.0390997231 0.6501560807 -0.2242556065 -0.1231652349 0.3859098554
-0.1343189776 0.03937978297 0.6624970436 -0.07553389668 0.287850529 0.896530807
-0.1074669659 0.03983097523 0.6337090135 -0.4716319442 -0.631195724 -0.2530067265
-0.1342885792 0.04497408867 0.649723649 -0.3982253373 -0.02493140288 0.5469702482
-0.1275747567 0.04315363988 0.646050334 -0.3808011413 -0.1931380928 0.3367231786
-0.1322053522 0.05237922445 0.653603673 -0.260232985 -0.1254905015 0.7537924647
-0.1121373773 0.04618920386 0.6364884377 -0.5975795984 -0.4575887322 0.03063973598
-0.1451444179 0.0467476584 0.6573705673 -0.2831802368 0.1824523509 0.8768341541
-0.1533845365 0.04649647325 0.6582542658 -0.1994977295 0.118874073 0.9613413215
-0.1947417855 0.04808769003 0.6606991291 0.1289673001 -0.2742466331 0.9510320425
-0.1846399754 0.03886220977 0.656432271 0.006112712901 -0.1597110778 0.9866029024
-0.1845514178 0.05084178224 0.6626500487 0.07076971233 -0.2699125111 0.9583717585
-0.1759619415 0.03271888569 0.6553620696 -0.0965833813 -0.02019082382 0.9896460176
-0.00984522514 -0.01159380563 0.7143146396 -0.04248172417 -0.7056556344 0.6840633154
-0.002556977328 -0.004493561573 0.7180912495 -0.1413019449 -0.4038682282 0.8983860612
0.004131133202 -0.009473521262 0.7152092457 -0.0923987478 -0.7103677392 0.6872065067
0.05511345342 -0.0005431053578 0.6582115889 0.6044819355 0.1413628459 0.6956931353
0.05023839697 0.02599386871 0.6710528731 -0.3512830436 -0.6190193892 0.7002654076
0.05675042421 0.02021891251 0.6702986956 -0.4213467836 -0.5233679414 0.7388925552
0.05496045202 0.02769764885 0.6781295538 -0.408179909 -0.6445801258 0.6460779309
-0.00258491328 0.05452385917 0.6793384552 -0.179405719 -0.6632438898 0.7258996367
0.004591036588 0.0518296957 0.6779983044 -0.1710824668 -0.6555671692 0.7354143262
0.04782742634 -0.001866864157 0.6941257119 0.3993702233 -0.4095488489 0.5593062043
0.04653905332 -0.002887351904 0.7025800943 0.3991589844 -0.6563119888 0.4788157642
0.05050106719 0.002877982566 0.6865891814 0.2815247476 -0.2765754759 0.6251180768
0.05142793059 0.003208256327 0.6789684892 0.2998607457 -0.04077054188 0.6985847354
0.04814795777 -0.004662032705 0.6804070473 0.536703527 0.09184022248 0.6968103647
0.05673392117 0.01755682938 0.6828008294 -0.1560759693 -0.4886189699 0.6391574144
0.04300624505 -0.01925704814 0.674844861 0.4397647679 0.1828584224 0.5920315385
-0.08949704468 0.005507283844 0.6651801467 0.2131508142 0.3486387432 0.8556454778
-0.09072785825 0.01812920719 0.6518609524 -0.3798971474 0.1822906137 0.6721591949
-0.09877195209 0.01483335346 0.6601459384 -0.3062777221 0.1779561937 0.7428364754
-0.1017081365 0.00399253238 0.6682757735 -0.05501095578 0.3244562149 0.8079124689
-0.1027759239 0.01608401537 0.6700394154 0.03197165206 0.2521248758 0.8826890588
-0.10592594 0.02866955847 0.6556133032 -0.3198491037 0.2290494144 0.7282435894
-0.09748500586 0.03257020563 0.6372112036 -0.6356138587 -0.3322283924 0.08027864248
-0.1122337058 0.03300956637 0.6528619528 -0.09363413602 -0.06365792453 0.3722303212
-0.108435981 0.0346775949 0.6452218294 -0.2224978358 -0.3040542901 0.1010394692
-0.1003350243 0.03008594364 0.6454427838 -0.5463069677 -0.03333104774 0.4194282591
-0.0971801579 0.02439170517 0.6508304477 -0.5763775706 0.1184354499 0.6387265325
-0.1100682318 0.01648775302 0.6739193201 0.1313387305 0.2821679413 0.9236601591
-0.1055679247 0.020406425 0.6637548208 -0.1809314638 0.2126250416 0.7979351282
-0.1111068055 0.02856336161 0.6629050374 -0.05869610235 0.3011318147 0.838799417
-0.02472630516 0.02470010333 0.6625171304 0.02631440759 -0.1049231067 0.9935120344
-0.0184524525 0.02920811437 0.6636446118 -0.02184100635 -0.25236094 0.9672268629
-0.2017056495 -0.001433275756 0.6673610806 -0.1904720813 0.2946084142 0.8683584332
-0.1966518611 0.005153332371 0.6571067572 -0.1220862195 0.2954815328 0.9460408688
-0.188172102 -0.002672712784 0.6675263643 -0.3465186357 0.4774018526 0.7865160704
-0.2140787095 0.007624364924 0.6613098383 0.02102063037 0.09515289217 0.9933494925
-0.2064378113 0.01213148888 0.6617107987 0.009508688934 0.1325710863 0.9533644319
-0.2016884834 0.01794107258 0.6618420482 0.03769088909 0.08299395442 0.9300515056
-0.1855108142 0.004184217192 0.6634451151 -0.3765715063 0.4502748847 0.7998241782
-0.1525289863 0.01857514866 0.678540349 -0.4283530414 0.467333585 0.7627296448
-0.1682879627 0.003955219872 0.6716323495 -0.5267031789 0.4965973794 0.6893921494
-0.1737212539 -0.01132181194 0.6823508739 -0.5079042912 0.5198376179 0.6868242025
-0.1661040485 -0.007611372974 0.6830211282 -0.4702674448 0.5212542415 0.7110833526
-0.1711335778 -0.01548982039 0.6889140606 -0.4750118256 0.4939931333 0.7265899181
-0.1798494309 0.01616234891 0.6584130526 -0.3271109462 0.3184168935 0.8882389069
-0.1871861815 0.01302844286 0.6618877649 -0.260006249 0.3067078292 0.8570799828
-0.1497496814 0.02749930136 0.6737530828 -0.4179564416 0.4881643653 0.7614021897
-0.1588132381 0.0005183619214 0.6789927483 -0.3953922093 0.4892514646 0.7404841781
-0.1610001177 -0.005762868095 0.6883562803 -0.3842993081 0.4921593666 0.7792865634
-0.1643373817 0.00696372008 0.6781046987 -0.5436969399 0.4822853506 0.6860131025
-0.1683154255 -0.0002964855812 0.6783847213 -0.4942783117 0.509777844 0.7038795352
-0.03825044632 -0.01665811241 0.7016800642 -0.05350443348 -0.5032568574 0.6027104855
-0.02732809819 -0.02274545655 0.681689322 -0.2277969569 -0.6810094118 0.3125448227
-0.02962106839 -0.01948196813 0.6944916844 -0.17902565 -0.8931859136 0.3351977468
-0.03598840907 -0.01441110484 0.7117683291 -0.07765999436 -0.8177937269 0.550711751
-0.05385614932 -0.02014612034 0.6873329282 0.1315282285 0.4063245952 0.6827763319
-0.04499771073 -0.01979129203 0.68773669 0.006842571311 0.2363640517 0.7293117046
-0.03934970871 -0.01840789244 0.6929755211 -0.06158185005 -0.05060027912 0.7293711305
-0.04618596658 -0.02161298692 0.6800453067 0.006590980105 0.5329810381 0.7684670091
-0.03875632957 -0.02090600878 0.6821462512 -0.09406633675 0.3272490501 0.7970209718
-0.04602498934 -0.01766913012 0.6970025897 0.0420030579 -0.07781723887 0.6685581207
-0.06297881901 -0.02114482969 0.6831803918 0.2542942166 0.6889815331 0.6552984715
-0.04076306149 -0.02179381065 0.6719841361 -0.01294120867 0.5328710079 0.8426327705
-0.1822532266 -0.01314638834 0.6793929935 -0.4663285911 0.5575816631 0.6866704822
-0.04335033894 -0.00375611987 0.6660134196 -0.03249874711 0.210006848 0.9642188549
-0.0489118211 0.0123364497 0.6942836046 0.04492733255 -0.2832700312 0.868535459
-0.04893927649 0.01844965294 0.688236177 -0.06722228974 0.003991835751 0.9919508696
-0.04383545741 0.008504655212 0.7048230171 0.06309626251 -0.3879898787 0.832464695
-0.08433825523 0.0361927934 0.6722989678 -0.1001339182 -0.1432264447 0.9035513401
-0.07776807994 0.0268580839 0.6724854708 -0.02705229633 0.02986405976 0.9513037801
-0.1236687526 0.05116675049 0.6709161401 0.01040762663 0.2082367092 0.935968399
-0.1258860528 0.06436687708 0.6714635491 -0.009354925714 -0.03532695398 0.9467914701
-0.1076238155 0.05902817473 0.6492882371 -0.34274894 -0.3668963611 0.7026854157
-0.1057293564 0.06695397198 0.6591097713 -0.2296361476 -0.2306925952 0.8427724242
-0.1138044447 0.06518208981 0.6632920504 -0.1103587523 -0.09677960724 0.9738366604
-0.1016387939 0.05734409764 0.6442109942 -0.5165537 -0.4546117187 0.5663127899
-0.1279333681 0.07266270369 0.672170341 -0.02984913439 -0.2112763822 0.9614506364
-0.1326555014 0.05940112099 0.6722285748 -0.00619020965 0.07597344369 0.9333809614
-0.1156139895 0.02228945494 0.6721535325 0.1716858745 0.3407026827 0.9225629568
-0.1220569536 0.01836928725 0.6822361946 0.2065959573 0.3485866487 0.9129536152
-0.0489042066 0.06304365396 0.6744722724 -0.1203638911 -0.3810343444 0.915004313
-0.08478561789 0.04591220245 0.6512990594 -0.7134152651 -0.2790271938 0.5614153147
-0.07758437842 0.0482266061 0.6562435031 -0.4006933272 -0.3150639832 0.7125793099
-0.07244763523 0.04998686165 0.6620859504 -0.2215721607 -0.2709430754 0.8486489058
-0.06435301155 0.06971746683 0.6748943329 -0.09552308172 -0.28692168 0.9528570771
-0.07265225798 0.06920307875 0.6734843254 -0.09278469533 -0.2525827587 0.9629451036
-0.08386284858 0.05462874845 0.6537166834 -0.5218736529 -0.437068373 0.6123914719
-0.03740251437 0.03456737846 0.6771905422 -0.002781949705 -0.1576193869 0.9753789902
-0.03756497055 0.03973767534 0.670373857 -0.02387591638 -0.248736009 0.954731822
-0.02766675502 0.02901309542 0.69723171 -0.0855723843 -0.1531749815 0.9733240008
-0.03029140085 0.03573787212 0.6851553321 -0.08639153093 -0.2481013685 0.9525864124
-0.02708031237 0.03749344498 0.6650910974 -0.04744975269 -0.2877148688 0.9551507831
-0.03467062861 0.02713887393 0.6907618046 -0.01838153973 -0.08163569868 0.9913346171
-0.03276812285 0.01296277158 0.7146342397 -0.1077970117 -0.06416758895 0.9915219545
-0.03604000807 0.01908391528 0.7014263272 -0.05670027807 -0.07193540782 0.9918086529
-0.03184596449 0.01803827286 0.7079846263 -0.0839542225 -0.07027438283 0.9912143946
-0.02469518408 0.02282622457 0.7091449499 -0.0934709236 -0.07545793802 0.9899821281
-0.04384417459 0.03801344708 0.6665062904 0.05190366879 -0.132167846 0.9879015088
-0.04273047671 0.02876385488 0.6654522419 0.1016674563 -0.03573523089 0.9928283095
-0.03117544949 0.0301016476 0.6637718081 0.04080916196 -0.1117615402 0.9921670556
-0.03890522569 0.008685882203 0.6661767364 0.07199440897 0.05036054552 0.9951142073
-0.04154742509 0.01655751467 0.6650875807 0.1306390315 -0.02766346745 0.9909104705
-0.0276505053 0.04520762712 0.6894667745 -0.1472857296 -0.3596420288 0.8918300867
-0.02427670173 0.02949082106 0.705899775 -0.1267009526 -0.1681437343 0.9623934031
-0.03072092868 0.05409149453 0.6788056493 -0.15183568 -0.4601595402 0.8605225086
-0.01856715977 0.05263503268 0.6735889316 -0.1806230545 -0.571685195 0.7952980399
0.01332123484 0.04703996703 0.6760126352 -0.1918966025 -0.6221183538 0.7582932711
0.02189637162 0.04515784606 0.6772851348 -0.2353971452 -0.6254760623 0.7433920503
-0.1110855341 -0.02037288807 0.6898036003 0.2020069063 0.5923235416 0.7792577147
-0.1064158455 -0.009635083377 0.6770530343 0.1962797791 0.4714892209 0.8586043715
-0.1156071424 -0.01203564741 0.6875481009 0.2352190912 0.5113440156 0.8233713508
-0.1204695329 -0.006418938749 0.6841673255 0.2217267603 0.4330806434 0.8717178106
-0.1334270984 -0.001419423497 0.6864084005 0.1542924196 0.4121367037 0.8970295191
-0.1220823899 0.0008531589992 0.6814698577 0.2366740406 0.3788607121 0.892868638
-0.1377540678 0.06397029012 0.6618552208 -0.1219893247 -0.1669427902 0.9756525755
-0.1512831599 0.07056110352 0.6683280468 0.02030962519 -0.3806179464 0.9239906669
-0.1411780566 0.06764256209 0.6717442274 -0.0126194004 -0.1463255286 0.9415611625
-0.149311915 0.06351671368 0.670594573 -0.05813064054 -0.1283618212 0.927210331
-0.1658249944 0.05554838851 0.6618802547 0.0073625613 -0.2636089325 0.9642221928
-0.1708450466 0.05056231469 0.6586527824 0.02021620423 -0.2609391212 0.9645040631
-0.1783649623 0.04742803425 0.6587331295 0.02800050378 -0.2315951139 0.9707673192
-0.1620449275 0.02907188796 0.6614088416 -0.4176414907 0.3333086669 0.8330066204
-0.1622519344 0.02571667358 0.6722371578 -0.373922199 0.2779352069 0.7785123587
-0.1748539209 0.02969127707 0.6627362967 -0.3023238182 0.1806865036 0.8596201539
-0.1692782044 0.02751960233 0.6678004861 -0.3405194879 0.2343663275 0.819767952
-0.1777818948 0.03854094073 0.6653741002 -0.1436754018 -0.014432027 0.9027904868
-0.171174854 0.04252003506 0.6566188931 -0.04476265982 -0.1112344489 0.9915122986
-0.1724431366 0.01929464936 0.6611663103 -0.4305781126 0.3634368479 0.821718514
0.05062642694 0.006480268668 0.6576426029 -0.08526012301 0.05886025354 0.9354752302
0.05455164239 0.014669911 0.6636990905 -0.5790052414 -0.2706445456 0.7661870718
0.04492806643 0.01441978663 0.658505559 -0.3379126787 -0.3647630811 0.8642187715
0.04169896245 -0.0109771071 0.686691165 0.3777613044 -0.8555745482 0.04521169141
0.03196092695 -0.01937726326 0.6885317564 0.2964682281 -0.9019904733 0.2633319795
0.02942204475 -0.01177439373 0.7078371644 0.2319525033 -0.8323965073 0.4658820033
0.03724208847 -0.01233852841 0.6977638602 0.3262703419 -0.8622416854 0.345798403
0.03690975159 -0.008810310625 0.7057096362 0.3064774275 -0.8329561949 0.4277698398
0.02999340743 -0.01644757763 0.6971641779 0.2597080767 -0.8716105223 0.3555026948
-0.1119984314 0.02870915271 0.6759305596 0.1268033683 0.3042398989 0.9339824915
-0.1089060679 0.03587287664 0.6723408103 0.01860745065 0.2451141924 0.9683679938
-0.1199493036 0.03005426563 0.6775432825 0.1101166382 0.3269763291 0.9299793839
-0.001964530442 0.01456219144 0.6712773442 -0.05293064192 -0.5578821898 0.7494157553
-0.004715105519 -0.006641693879 0.6818151474 -0.008811456151 -0.7984760404 0.4868603945
-0.004949908704 0.005210395437 0.6761156917 -0.02861776948 -0.6515814066 0.639259696
-0.01133831404 -0.01130691264 0.6831706762 -0.05084231868 -0.8616493344 0.3960189819
-0.01030345354 -0.001301575336 0.6784625053 -0.06094879285 -0.738607347 0.5283961296
0.002982501406 0.03027755953 0.6652802825 -0.09788516909 -0.4663669467 0.8782513738
-0.007354715839 0.03031720594 0.6652470827 -0.05923443288 -0.3747088015 0.9217054248
-0.01195746474 0.02119373344 0.6662580967 -0.03388089687 -0.3292887509 0.8952598572
-0.02250945568 0.01228526887 0.6673544049 0.01601959765 -0.2471468896 0.8596035242
-0.009172674268 0.0104534803 0.672845602 -0.06683962047 -0.5832182169 0.6906765699
-0.01787853055 0.001749018789 0.6744616628 -0.02771717869 -0.5394791365 0.6391161084
-0.1534630954 0.01124953199 0.6760462523 -0.35323897 0.4257214367 0.7518180013
-0.1418728232 0.004953488242 0.682543993 -0.0009806995513 0.3803281784 0.8685985804
-0.1600887775 0.01911091991 0.6679695249 -0.5558905005 0.4697494209 0.6856973171
-0.1666742861 0.0134456493 0.67151016 -0.5123707056 0.4415521324 0.7324501276
-0.1575453579 0.00702390587 0.6832739115 -0.4468580186 0.4703707695 0.7546650171
-0.1729227304 0.05935613811 0.6657102704 0.07852485031 -0.3645175099 0.9263564944
-0.1657478511 0.04831377044 0.6672782898 -0.1267990768 -0.04667914286 0.8678095341
-0.1652130783 0.03908065706 0.6679803133 -0.2254549563 0.08950477093 0.8359056711
-0.1759158969 0.01165818144 0.6632843018 -0.4546780288 0.4410898387 0.7699726224
-0.176005125 0.004009079188 0.6678866744 -0.4833965302 0.507586658 0.7126635313
-0.1532237828 0.0464185141 0.6729524732 -0.1520017236 0.09791465849 0.8437173963
-0.1490979642 0.03528323025 0.673473537 -0.3079147339 0.3785355687 0.7980617285
-0.1606839299 0.05791483447 0.6692802906 -0.05157351866 -0.2101648152 0.8755795956
-0.08434130996 0.01245928742 0.657828033 0.03155240789 0.267799437 0.7930737734
-0.09409677237 -0.005846359767 0.6825211644 0.1626972258 0.5300840139 0.826012969
-0.08778323978 0.005628571846 0.6763848662 0.2882583439 0.4195480943 0.8353507519
-0.05889256671 0.01763927937 0.6760610342 -0.05479862541 -0.06865587831 0.9572609067
-0.08550255001 -0.00432361709 0.6787281632 0.2525613606 0.5415229201 0.7583732009
-0.07041090727 0.009206895716 0.6732391715 -0.05421106145 0.1371090114 0.9137186408
-0.0745748207 0.002344459062 0.6756995916 0.07072509825 0.3231675327 0.8373034
-0.09051478654 0.04285163432 0.6711901426 -0.1879406124 -0.1910950392 0.8926000595
-0.09491645545 0.03449780867 0.6732324958 -0.005019985139 0.06180337444 0.9091085196
-0.1225202158 0.06450452656 0.6619611979 -0.1165000051 -0.111039944 0.9634156227
-0.1117381826 0.0618016012 0.6557356119 -0.2075133324 -0.2474126369 0.8387726545
-0.1166825071 0.05914678052 0.6497533917 -0.2888199091 -0.3572977483 0.7391725183
-0.1335597485 0.06014928967 0.6561930776 -0.2191585153 -0.1896665841 0.9047719836
-0.1255261153 0.0585138388 0.6509232521 -0.2858350873 -0.3105053902 0.7899115086
-0.1119447425 0.05546564609 0.6414749622 -0.406755805 -0.5248326063 0.5869170427
-0.06974156946 0.04029943049 0.6631094813 -0.2637039423 -0.07955472171 0.8892139196
-0.1095569804 0.04401231557 0.6710099578 -0.01890023611 0.143266499 0.9622901678
-0.08829942346 0.028775407 0.6452682018 -0.8152566552 -0.0438807942 0.5313158035
-0.084655568 0.02073896304 0.6478535533 -0.6574255228 0.0821917057 0.6416271329
-0.0757760331 0.003383272793 0.6579166055 0.03129988909 0.2631984055 0.8764424324
0.02459538355 0.03607842699 0.6702833176 -0.2091487646 -0.5859416127 0.7826488614
0.01653075032 0.03637079149 0.6687130928 -0.1655750573 -0.562656939 0.8096250892
-0.09093201905 -0.01812975109 0.6839802265 0.2170648277 0.5688917637 0.7890551686
-0.1031147465 -0.01565304771 0.6821632385 0.1929292828 0.5396199822 0.8156698346
-0.1003085747 -0.02139256522 0.6895705462 0.2065308243 0.6054067612 0.7683371305
-0.1675097793 0.03531901911 0.6573662758 -0.2233867645 0.09041336924 0.9642212987
-0.1925575882 0.03424759209 0.6613320112 0.0124010779 -0.08133149892 0.935141027
-0.2045191526 0.02853778936 0.6614956856 0.1684445888 -0.1002161056 0.9642449617
-0.19012703 0.02569684945 0.6611366868 -0.09816449881 0.07477033138 0.9145470858
-0.06711302698 0.02349285223 0.6707119346 -0.111672923 0.05364670604 0.9853878021
-0.06862790883 -0.002259944333 0.6745727658 0.1530946344 0.3275182545 0.8384883404
-0.04513232037 0.001352258609 0.7086722851 0.1475443691 -0.5351353288 0.7427059412
-0.05092971399 0.001810678397 0.6984625459 0.1162812114 -0.3405027688 0.7913608551
-0.06645940989 -0.008702316321 0.685532093 0.3077313006 0.3404803872 0.7175367475
-0.0568039231 -0.0001058900816 0.6910416484 0.140413329 -0.1109217703 0.7992573977
-0.06214611977 0.006549585145 0.6739789844 -0.03449101001 -0.01630714722 0.9524752498
-0.06240041554 -0.000865491631 0.6826620102 0.1384103298 0.09330847114 0.825322926
-0.05521169305 0.008330240846 0.688052237 -0.01766293682 -0.2850985229 0.8818173409
-0.07192240655 0.05951900408 0.6696648598 -0.08428005874 -0.2520266771 0.9639914036
-0.05821089447 0.06487489492 0.6741602421 -0.0989490822 -0.3203461468 0.9414507151
-0.09459991753 0.04127863422 0.637868762 -0.7615917921 -0.4386425614 0.395132035
-0.1025609523 0.0490777418 0.630815506 -0.5681878328 -0.7533580065 0.3203828931
-0.05169406533 0.02144132741 0.6664969921 0.07717339694 0.02152248845 0.9953490496
-0.05219062418 0.03934877738 0.6669105887 0.02715928853 -0.09520432353 0.9932051897
-0.05835389718 0.0250354521 0.6694524288 -0.0268437434 0.04225088283 0.9974675179
-0.08271057904 0.0546432063 0.670153439 -0.2425998896 -0.4178292155 0.8623446226
-0.09093758464 0.06370194256 0.6712306142 -0.1309128255 -0.3092431128 0.9349067807
-0.08086468279 0.07160052657 0.6733981371 -0.1254092306 -0.2460202128 0.9591752887
-0.09924539924 0.04174410179 0.6716134548 -0.07791332155 -0.02948188968 0.9267418981
-0.09313226491 0.05172030628 0.6704490185 -0.167723909 -0.3041053712 0.8907976747
-0.09123855084 0.0226036869 0.6759057641 0.2097213715 0.2277433127 0.9306522012
-0.04636060447 0.004564264324 0.6649190187 0.07096292824 0.07244924456 0.9919219017
-0.04961028695 -0.01054536365 0.6649031639 0.0089609446 0.2922624052 0.9456551671
-0.1458132714 0.06361738592 0.6625147462 -0.07568970323 -0.2299732417 0.9671117663
-0.147696048 0.0549832955 0.6585072279 -0.08648582548 -0.1554270685 0.9830705523
-0.1546539217 0.05901291966 0.6606754661 -0.01175812073 -0.2791883051 0.957893312
-0.1394750923 0.05494111031 0.6589005589 -0.1310867369 -0.06799143553 0.985219121
-0.08192947507 0.008926134557 0.672966361 0.2255771011 0.2078442574 0.9162079096
-0.08469117433 0.01780527644 0.6743296981 0.178311795 0.1945253462 0.9424406886
-0.08923944831 0.04125348479 0.6453371644 -0.7844228148 -0.2959914804 0.4913359284
-0.09659839422 0.05287691951 0.6365349293 -0.698894918 -0.5931278467 0.3977939188
-0.102067098 0.06405172497 0.6532239318 -0.3604228795 -0.3379606605 0.7168956995
-0.09340961277 0.06660106033 0.6618686914 -0.3388185799 -0.3305678964 0.7860655785
-0.09290802479 0.06004671007 0.6528296471 -0.5209059119 -0.4214449227 0.6270278692
-0.07020366937 0.02943356149 0.6617365479 -0.2894569933 0.142577529 0.8865635395
-0.07880286872 0.03455207869 0.6570850015 -0.6172994971 -0.05033887178 0.701888144
-0.07177701592 0.02153861895 0.6591011286 -0.3558655977 0.1969980299 0.8264544606
-0.06267137825 0.01282332838 0.6629499197 -0.05775575712 0.1023365632 0.9377158284
-0.07949302346 0.02179845236 0.6555820107 -0.4945524633 0.3037970066 0.7607828975
-0.06970605999 0.009769227356 0.6596119404 -0.1221061349 0.2177592516 0.8933964968
-0.08444526792 0.03187792376 0.6521740556 -0.7743272185 -0.01441091392 0.6060059667
-0.1044421196 0.02976530045 0.6736616492 0.1289945096 0.2848045528 0.9384873509
-0.06400177628 0.04303517938 0.6700609922 -0.08777209371 -0.1778081656 0.9695806503
-0.07415876538 0.04430245236 0.6701258421 -0.2046940476 -0.2782055438 0.9152434468
-0.06670237333 0.05145319179 0.6700066924 -0.07431540638 -0.2538956106 0.9622772336
-0.05739400536 0.00172637077 0.6640115976 0.0521239154 0.1061082706 0.9873625636
-0.05416919291 0.01229144353 0.6664586067 0.04093127325 -0.007974280044 0.9962195754
-0.06610907614 -0.001107769902 0.6609787941 0.09428166598 0.2175776809 0.964594841
-0.0607586056 -0.007069334388 0.6619598866 0.07392743975 0.274074018 0.9527596831
-0.06323707104 -0.0129297087 0.6673054695 0.1607372016 0.4663151503 0.8393449783
-0.05719329044 0.05140726268 0.6677818298 -0.05743992329 -0.2434260994 0.966907382
-0.04757221416 0.04698585719 0.6681005359 -0.01323917136 -0.2313811779 0.9707904458
-0.04806001112 0.05462532118 0.6708061099 -0.08872631192 -0.3458968699 0.9312922359
-0.06353869289 0.03322424367 0.6701377034 -0.1091991961 -0.06371500343 0.9816987514
