# .PCD v0.7 - Point Cloud Data file format
VERSION 0.7
FIELDS x y z normal_x normal_y normal_z
SIZE 4 4 4 4 4 4
TYPE F F F F F F
COUNT 1 1 1 1 1 1
WIDTH 512
HEIGHT 1
VIEWPOINT 0 0 0 1 0 0 0
POINTS 512
DATA ascii
0.01238818094 0.01924882829 0.7600817084 0.7592348456 -0.3118196428 0.4408608079
0.004859214183 0.01621579193 0.7656270862 0.4446105659 -0.3814449012 0.7129871249
0.01329413056 0.02668038383 0.7424708605 0.5614504814 -0.3247127533 0.5123669505
0.01206262875 0.03154237196 0.7354037762 0.4162814915 -0.3295899928 0.5521674752
0.006197328214 0.04146221653 0.7291479707 0.3204489052 -0.6237970591 0.5557627082
-0.1462678164 -0.03713573888 0.704272449 0.1130440533 -0.7265295386 0.3564146459
-0.142317161 -0.1482748389 0.7325960398 -0.5688108802 0.05793665349 0.8183068633
-0.1346848756 -0.14536874 0.7395063639 -0.5834794044 0.01120735798 0.8115187883
-0.1701094359 -0.1365450472 0.7214463949 -0.2044043243 0.00528812455 0.9312695265
-0.1583551019 -0.1376945376 0.7198824883 -0.4146945477 0.04924297333 0.9053730965
-0.1470991075 -0.07979032397 0.7339048386 -0.1835284382 0.1681022644 0.9648116231
-0.1757268012 -0.0905668065 0.7306535244 0.000419070333 -0.1645328552 0.9121080041
-0.1672903299 -0.09186159819 0.7310135961 -0.1953790933 -0.1394839138 0.900139153
-0.1639217734 -0.1453758776 0.7207775116 -0.2872100174 0.0969138667 0.9451729655
-0.184093371 -0.1473980099 0.7194776535 -0.005033000372 0.06417611986 0.9968015552
-0.1672765464 -0.1534197032 0.721603334 -0.2162217796 0.135133639 0.9610064626
0.01773249544 0.0252092015 0.7174050212 0.3645611107 0.04061324894 0.7455658913
0.01169471443 0.03610885516 0.7217943072 0.09847052395 -0.5503361821 0.6616044641
0.01832018979 0.02673957311 0.7087922692 0.2472270429 0.09658128023 0.8167159557
0.01599148288 0.02310395986 0.7352489233 0.5779268146 -0.1266439706 0.5938062668
0.01505659241 0.0284353029 0.7244188786 0.3353230953 -0.2203299701 0.6693586707
0.01434583589 0.03470371664 0.7091876864 0.02843531594 -0.2928828001 0.7806355357
0.01700159907 0.01594075002 0.7376103997 0.6216881871 0.01205977052 0.6025494337
0.01805119589 0.01895599999 0.7286716104 0.5541343093 0.09233457595 0.6701869965
0.01922488958 0.01776060089 0.719419241 0.4370225668 0.2212420851 0.7584997416
-0.173742801 -0.1050434113 0.7298536301 -0.1160910875 -0.1767532527 0.8691281676
-0.1887494177 -0.1098221466 0.7300642133 0.1865577102 -0.1738544554 0.8906824589
-0.01938482001 -0.03969083354 0.7244464159 0.5175514817 -0.5705805421 0.1793642193
-0.01348248497 -0.03530319408 0.7265658975 0.6244755387 -0.6393740177 0.165724054
-0.02027329803 0.01205684431 0.7675455809 0.02186583169 -0.09706324339 0.9934194088
0.01675749756 0.009761817753 0.7307383418 0.4157702625 0.1826790571 0.6909764409
0.01517137233 0.01679896377 0.7497540116 0.7530225515 -0.1451815963 0.489636451
-0.1448922604 -0.1404402405 0.7305505872 -0.5793206692 0.01911241375 0.8134727478
-0.03440888971 0.04689773172 0.734149456 0.3229594231 -0.7321296334 0.5993882418
-0.176627025 -0.1397100985 0.7159261703 -0.02029524557 0.0469891727 0.9981513023
-0.1754752845 -0.1487643868 0.717407763 -0.09016634524 0.08050298691 0.9922515154
0.006617499981 0.04082477465 0.7076522708 -0.003975727595 -0.6492687464 0.7500711679
-0.003117355751 0.03779103607 0.7061241865 0.1801388413 -0.6797335148 0.7039555907
-0.1376348734 -0.02498544566 0.7331416607 0.2081593871 -0.1744760126 0.9622124434
-0.05940297619 -0.01969151199 0.7601143122 -0.05598563701 -0.06370774657 0.9957715273
-0.1932996958 -0.09751747549 0.7298061848 0.3392966092 -0.2173296362 0.9151746035
-0.1636578739 -0.1020546779 0.7303137779 -0.307156086 -0.1639483273 0.8528121114
-0.1826302409 -0.1033581346 0.7292807698 0.08108244836 -0.1985796392 0.8903182149
0.004834631458 0.04388800263 0.7380793691 0.3841529489 -0.5863556266 0.510312438
0.0003507351794 0.0254338067 0.7656825185 0.03822795302 0.2957421243 0.9154214859
-0.005758315325 0.05245920271 0.747879982 0.1606682837 -0.5418108106 0.6555097699
-0.00341323344 0.04113763571 0.7554158568 0.1087400243 -0.194456473 0.765904963
-0.01025639754 0.05951035395 0.7443429232 0.1924975514 -0.7496372461 0.5984294415
-0.01008914225 0.04675401002 0.753746748 0.1286762059 -0.3849616051 0.7379583716
0.001614048611 0.03381743655 0.7589324117 0.1181491837 0.07155130804 0.7983652353
-0.0007003801293 0.05054765567 0.7396693826 0.2814354002 -0.660439074 0.5577148199
0.009377884679 0.02825336903 0.7564089298 0.7197265029 -0.01398073975 0.5340654254
0.0006148979883 0.04533840716 0.7461874485 0.4040440917 -0.4778395891 0.5543994904
0.006354386918 0.0354016684 0.7505202889 0.5751556158 -0.2275673747 0.5412060618
-0.009168581106 0.0365231894 0.7605356574 0.07750659436 -0.1069167629 0.8451893926
-0.008725569583 0.02948862687 0.7649207115 0.04225578532 0.075597018 0.918291986
-0.01531339809 0.04024517536 0.7575954795 0.09759360552 -0.2720346153 0.816375196
-0.01743060537 0.02654401213 0.7654942274 0.03628082573 0.004847296979 0.9582749605
-0.02630098723 0.05816056952 0.7408288717 0.2311050445 -0.7627555728 0.6033354402
-0.02145040408 0.05271404237 0.7351244688 0.2098389119 -0.7754591703 0.594994545
0.009647040628 -0.001596974558 0.7338892817 0.07391312718 0.2613294721 0.7648668885
0.01000552718 0.008608229458 0.7517055869 0.5866037607 -0.1596374065 0.5768169165
0.003338670125 -0.0003520696773 0.7568175197 0.5141141415 -0.2996872365 0.6851887107
-0.1890448928 -0.1365539879 0.720141232 0.1506371051 -0.003664313117 0.9862050414
-0.1632605195 -0.1304041743 0.7197901607 -0.3290764093 -0.03894017637 0.9259677529
0.01039649639 0.02510205656 0.7007036209 0.1730516702 0.2552677393 0.9474476576
0.005091425963 0.007634462789 0.7634805441 0.4179714918 -0.2795491219 0.8087099791
0.01918581873 0.009323531762 0.7108460665 0.2984840274 0.4003618658 0.8651806116
0.01367668249 0.01716746576 0.7050313354 0.2509686947 0.3157908618 0.9050621986
-0.1593165696 -0.1533517241 0.7226443291 -0.3453918993 0.1417619139 0.9215013981
-0.1506633013 -0.1502075791 0.7262461185 -0.5101479292 0.1087089628 0.8521954417
-0.1511673927 -0.1384702623 0.7254369855 -0.5197111964 0.01797024719 0.8475052714
-0.1801466644 -0.13177903 0.7157395482 0.07057320327 -0.01080697868 0.9927653074
-0.170566231 -0.130328089 0.7158387899 -0.108050175 0.01295213215 0.988583982
-0.1756005436 -0.1243454069 0.71537292 0.001315688714 -0.03220071644 0.995192945
-0.1789504588 -0.1136424839 0.7175273299 0.1135460883 -0.1578522623 0.9696477652
-0.1110159233 -0.009408797137 0.7300235033 0.235329628 -0.2238033712 0.9457390904
-0.1015146822 -0.04378795996 0.7259335518 0.1042371914 -0.008399009705 0.92315799
-0.1049935371 -0.03447054327 0.7255094647 0.180754289 -0.1572172046 0.9156064987
-0.1089615673 -0.05237788707 0.7302789092 0.289258182 0.2674655616 0.8855808973
-0.1168490201 -0.0351675339 0.727355957 0.3307853639 -0.1971180439 0.885820508
-0.1586843133 -0.1096962094 0.7305278778 -0.4204860926 -0.1646442115 0.8264380693
-0.1842843592 -0.07444424182 0.7301825285 0.1217562407 -0.1255813092 0.9783270359
-0.1710640341 -0.08371731639 0.7308475971 -0.04205420241 -0.08363831788 0.9503765702
-0.1787546426 -0.08003915101 0.7301612496 0.102421701 -0.1408835351 0.9679083228
-0.1685644686 -0.07470168173 0.7300383449 -0.03875547275 -0.08186688274 0.9855057597
-0.1720425487 -0.05071447417 0.7306047082 0.0216432903 -0.1178283542 0.9923154712
-0.161291644 -0.08349040896 0.7265107632 -0.2577494681 -0.09116573632 0.958804369
-0.1162949875 -0.09415169805 0.737003684 0.04123175144 0.3554537594 0.9329090118
-0.1240620539 -0.0850662291 0.7334669828 -0.0008582512964 0.2878226936 0.9555746913
-0.1368872672 -0.1314979345 0.7382266521 -0.5582570434 -0.05239494145 0.8261448741
-0.0305818785 -0.05023967102 0.720813334 -0.354452014 0.4447122514 0.81062603
-0.03648795187 -0.05603236705 0.7231426835 -0.258308351 0.5289991498 0.8079578876
-0.1141291931 -0.06932397932 0.7324066162 0.1453668773 0.2880031466 0.9449228644
0.008939904161 0.03500138596 0.7422710657 0.55439502 -0.3948339224 0.4764594734
-0.03085355461 0.02741733752 0.7120121121 0.361934185 -0.5411682129 0.7578142285
-0.05193842947 0.01641679741 0.715482235 0.3747400343 -0.4473763406 0.8113080859
-0.04843611643 0.007928757928 0.7131410837 0.3509031236 -0.3476235271 0.8689336777
-0.130719468 -0.01142809168 0.7265799046 0.1715810895 -0.2769965529 0.8955900669
-0.1284655333 -0.01370980032 0.7178858519 0.07910872996 -0.4529669881 0.7517083287
-0.1377745122 -0.01656165905 0.7291212082 0.1632215828 -0.2466274947 0.9122572541
-0.1381560564 -0.02063447051 0.7216308713 0.07069746405 -0.4058865011 0.7790740132
-0.1356770247 -0.02242632397 0.7135111094 -0.0135979699 -0.5690023899 0.6461800933
-0.1248708293 -0.006061736494 0.7267053723 0.2054552138 -0.2550860941 0.9210116267
-0.1357246488 -0.03234171122 0.6964015365 -0.1385410875 -0.9249359369 0.2752766311
-0.1423389465 -0.02951466292 0.7108412385 -0.05930424854 -0.6379907727 0.5695948601
-0.1527368426 -0.02878025547 0.7324367762 0.09260172397 -0.1963569671 0.940772891
-0.1427202225 -0.03749370947 0.6946843266 0.1468609869 -0.9321348071 0.1396290511
-0.1490351409 -0.03277806565 0.7177274227 0.1069113165 -0.4762344062 0.6332972646
-0.1428773552 -0.02656114288 0.7226467133 0.02422818542 -0.3650689721 0.8034889102
-0.06561931223 -0.0173278302 0.7523161173 -0.02556532249 -0.08441760391 0.9900921583
-0.08616049588 -0.01165728457 0.735301137 0.1377254426 -0.1920504868 0.9559179544
-0.09222325683 -0.008757012896 0.7292997837 0.2004988194 -0.2371799499 0.9415279031
-0.09903563559 -0.01410996914 0.7293959856 0.2028496563 -0.2057705969 0.9511582255
-0.07169578969 -0.01581330784 0.7474246025 0.009839089587 -0.11073111 0.9819710255
-0.1035832763 -0.007026883774 0.7273868322 0.2489332408 -0.2789981663 0.9270396829
-0.07567141205 -0.01072808541 0.7419522405 0.07042495161 -0.1692748368 0.9631282091
-0.1177257225 -0.005867431406 0.7330138087 0.2370518744 -0.2297868729 0.9437171817
-0.1101488322 0.001453697332 0.7315487862 0.2488686144 -0.2979492545 0.9202461839
-0.1010539159 0.002464695601 0.7297783494 0.2523552775 -0.3347453177 0.9072771668
-0.1719556153 -0.08582347631 0.7228921056 -0.06039223075 -0.2049507499 0.9696861506
-0.1737799942 -0.0761365518 0.7244369388 -0.01788652129 -0.1176608056 0.990862906
-0.009733594023 0.05415265635 0.735530138 0.181662634 -0.8037118912 0.5660016537
-0.1928074658 -0.1293636113 0.7214194536 0.2733961642 -0.06025001407 0.9595149755
-0.1863778979 -0.122498773 0.7172547579 0.2199275196 -0.1000398621 0.9675473571
0.001578727504 -0.01439873781 0.7320163846 0.790020287 -0.5475901961 0.2240976393
0.001895028283 -0.01012884174 0.7404764891 0.7302573323 -0.5143134594 0.3516746759
-0.01207596157 0.01313195936 0.7683659196 0.07164242864 -0.08510858566 0.9932674766
-0.01419918519 0.004841405898 0.7676728368 0.02452203631 -0.129276678 0.9909129143
-0.004323837347 0.01686400175 0.7684087753 0.09462988377 -0.02771020308 0.9731701016
-0.002156947041 -0.01080634911 0.7506133914 0.6452711821 -0.4821884036 0.5244463682
-0.003034663852 -0.007645643782 0.7600151896 0.573787272 -0.4477937222 0.6711112261
-0.005018360447 -0.01823875681 0.7409749627 0.6820491552 -0.5664072633 0.3547002077
0.01288750395 0.03304587677 0.7008573413 -0.01939256489 -0.1580254734 0.9825410247
-0.1567920297 -0.05375608057 0.7301388979 -0.04896139726 -0.04618047923 0.9972708821
-0.1588247418 -0.04107027873 0.7248311639 0.03349884599 -0.2595648766 0.8514826894
-0.1536924392 -0.03955966234 0.7151921988 0.06942120194 -0.4785524607 0.6202527881
-0.1573230475 -0.04613662511 0.7186727524 0.0474156253 -0.3423518538 0.7560689449
-0.1648086309 -0.04207996652 0.7315927744 0.0192613434 -0.1329626143 0.9908665419
-0.1188431084 -0.01796280593 0.729059279 0.2688703537 -0.2913333774 0.9123313427
-0.09935685992 -0.06914505363 0.7303070426 0.1265006959 0.4086160064 0.8879275322
-0.08508525044 -0.02127386443 0.7369027734 0.08999215811 -0.1480863094 0.9769001007
-0.09225378186 -0.01874804311 0.7337694168 0.1453381032 -0.1700201482 0.9661744237
-0.07826434821 -0.02092956752 0.7438095808 0.06608002633 -0.120244652 0.9818816781
-0.09647770971 -0.02424761094 0.7224740386 0.1070215032 -0.2054761052 0.9710601568
-0.1039309502 -0.02173616737 0.7246511579 0.1863120794 -0.2788971066 0.9383254051
-0.09066473693 -0.03032334708 0.7264404297 -0.008167159744 -0.2230434716 0.9693002701
-0.08473795652 -0.02942261472 0.7328431606 -0.02110737003 -0.1955471039 0.9736845493
-0.06946390867 -0.02483286522 0.7493599653 -0.0198605638 -0.1064152718 0.9891126752
-0.07200075686 -0.02816618606 0.7420979738 0.02267128415 -0.09693029523 0.9918473363
-0.1824321151 -0.1166848093 0.7241020799 0.07779122144 -0.1633104533 0.9090124369
-0.164182663 -0.1144931093 0.7280778885 -0.3087150753 -0.1667804271 0.8505641818
-0.1612755209 -0.1201565862 0.7212528586 -0.3802435696 -0.1451022327 0.9006827474
-0.173007533 -0.1150220037 0.7271395326 -0.1329706311 -0.165248841 0.8767685294
-0.07857682556 -0.09274426103 0.7438390851 -0.1753475815 0.6213074923 0.763384521
-0.04171791673 -0.05270029604 0.751799643 0.2323843986 -0.309915334 0.6501684785
-0.04191184789 -0.05752243474 0.7442900538 0.1843806207 -0.1863866001 0.584841013
-0.04686645418 -0.06771012396 0.7422095537 0.582668066 -0.7298422456 0.1563412994
-0.1914081126 -0.08740271628 0.730861783 0.3218089044 -0.204276219 0.9238985181
-0.1803141832 -0.08749122918 0.7236238718 0.1318243742 -0.2058550119 0.9641162157
-0.1482103765 -0.06407734007 0.731271863 -0.05463182926 0.07245964557 0.9946566224
-0.1631280184 -0.06158295274 0.7306004167 -0.02633116022 -0.01528506726 0.9975602627
-0.1418214738 -0.05881534144 0.730892241 -0.03476004675 0.02582633309 0.9974264503
-0.1366238296 -0.05625290424 0.7090454698 0.003090897109 -0.4212617576 0.3476785421
-0.139757812 -0.04541655257 0.696583569 0.03723808378 -0.8488914967 -0.08567997068
-0.1499565244 -0.07768952847 0.7270207405 -0.1696452051 0.04791351035 0.966270864
-0.1614507288 -0.07496548444 0.7258469462 -0.1502946168 -0.05680060014 0.9814102054
-0.1554107517 -0.1251575351 0.7222315073 -0.4925772846 -0.09364838153 0.8648529053
-0.1435903013 -0.09561957419 0.7370618582 -0.3528316021 0.0472690016 0.931400001
-0.1477934867 -0.09011309594 0.7345162034 -0.3424172997 0.06733711809 0.9325377345
-0.1364488602 -0.09079384804 0.7371882796 -0.1852763593 0.1989624947 0.9525592327
-0.1255563498 -0.09851528704 0.7386156321 -0.1095999181 0.2099396139 0.9691708684
-0.1276220232 -0.1410151124 0.743768096 -0.5567241311 0.02427620813 0.8289811611
-0.05053690821 -0.03961736336 0.7623620033 -0.04324037582 -0.1782868505 0.9741402864
-0.02507126331 -0.04563723505 0.7227641344 -0.1144007444 0.07119149715 0.6537521482
-0.0129133733 -0.03199690953 0.7383573055 0.65607059 -0.6425808072 0.2978779078
-0.01866465993 -0.03558747843 0.7427871227 0.6251875162 -0.6244671345 0.3083477616
-0.03312164173 -0.04431226104 0.7477245927 0.1173556 -0.02651254646 0.8265442848
-0.03765087575 -0.05026543513 0.7443578243 -0.1052675396 0.2259748727 0.8878760934
-0.03777133301 -0.05507957935 0.7365026474 -0.1732851863 0.3783991635 0.8352239132
-0.03055449575 -0.05170550942 0.7295141816 0.1317743063 0.02893087827 0.501991272
-0.0275605619 -0.03672090173 0.7518524528 0.4014800489 -0.3758712113 0.7183068991
-0.02242485806 -0.03979222849 0.7358908653 0.573027432 -0.5725949407 0.2758151591
-0.03020064719 -0.04655415192 0.738530755 0.1978466511 -0.07737403363 0.6231280565
-0.05216411129 -0.0304462947 0.7140269876 0.05133148655 0.03663374484 0.9736318588
-0.03576331958 -0.04218883067 0.7170415521 -0.2575618327 0.1516121179 0.9484301209
-0.03890280053 -0.05037059635 0.7167360187 -0.2382872999 0.4025896192 0.8727793694
-0.1045437604 -0.05997658148 0.7293112278 0.2776482999 0.3537616432 0.8924221992
-0.1321149617 -0.06667644531 0.7212079763 -0.07683439553 -0.01653224044 0.7960024476
-0.1316118389 -0.04780006781 0.6989805102 -0.02844870836 -0.8277890086 0.0795480907
-0.1302844435 -0.05961825326 0.7130122781 -0.1089029238 -0.3342143297 0.5653639436
-0.1326582134 -0.03994398937 0.6954438686 -0.07014152408 -0.9615581632 0.06274781376
-0.01323825866 0.04339718819 0.7199189663 0.2313529402 -0.7762740254 0.5855509639
-0.01472469978 0.04796914011 0.7289381027 0.1940978616 -0.791615963 0.5791793466
-0.002609487856 0.05167477578 0.7297295332 0.1811712384 -0.8122022748 0.5545275211
-0.03496066108 0.03280794993 0.7171788216 0.3613931239 -0.5977042913 0.7151822448
-0.04612229019 0.03209424019 0.7237785459 0.3902043104 -0.6115865111 0.6851989031
-0.03233553842 0.01934995502 0.7121572495 0.3713538051 -0.4723034203 0.7984944582
-0.04357472807 0.02566680871 0.7166661024 0.3798693419 -0.52154392 0.7631217241
-0.04448110238 0.01652774774 0.7132518888 0.3764811754 -0.430991143 0.8192181587
-0.124477312 -0.04023556039 0.7310992479 0.2798104882 -0.05748869479 0.9358660579
-0.1199363843 -0.05512861162 0.7316221595 0.159273833 0.163087368 0.9639047384
-0.117896989 -0.04366055876 0.7308031917 0.3299254477 0.0773518756 0.8982465863
-0.1292832196 -0.02084417269 0.7324479818 0.2301260978 -0.1893300265 0.9544327855
-0.1253490448 -0.02839496359 0.7307602167 0.3346651495 -0.1831542999 0.9231246114
-0.05192438513 -0.05735960975 0.7198289037 -0.2423427403 0.5439475179 0.7945187092
-0.06490237266 -0.01107311063 0.7147429585 0.2320685983 -0.07399100065 0.9618382454
-0.03353238851 -0.03409259766 0.7181322575 -0.2097230256 0.03211044148 0.9576039314
-0.04181925952 -0.02466134913 0.7162678242 -0.05086640641 -0.02032720484 0.9575883746
-0.05716472492 -0.008456093259 0.7129742503 0.2289577425 -0.09927853942 0.9614791274
-0.04877431318 -0.01294495445 0.7143301368 0.1254669428 -0.112266466 0.9454016089
-0.04799317569 0.0004125464475 0.7134910226 0.2706799507 -0.2624722123 0.8985434771
-0.05554136634 -0.02100673504 0.7139149308 0.1184728146 0.008231591433 0.9811303616
-0.04341819137 -0.03319482505 0.7159546614 -0.08806181699 0.04207837954 0.9671032429
-0.08981129527 -0.02041827701 0.7210432291 0.1848966926 -0.1563162357 0.9649552703
-0.09444561601 -0.03930613771 0.7214850783 -0.08574922383 -0.1631141752 0.9729983807
-0.08201535046 -0.04135565087 0.7258908153 0.0774769038 -0.08256679028 0.9926748872
-0.07606271654 -0.03146599233 0.7365221977 0.04851829261 -0.1052421406 0.9910821915
-0.06431179494 -0.02560813911 0.7562553883 -0.001264777617 -0.06487540901 0.9967737198
-0.0958179608 -0.054061234 0.7256815434 0.2046724558 0.1809734106 0.9323582053
-0.0844771713 -0.05811107531 0.7249245644 0.06857927889 0.2005805671 0.9163909554
-0.09096712619 -0.06591515988 0.7260789275 0.17857261 0.3533789814 0.89107728
-0.07375866175 -0.04042788595 0.7366147041 0.05022740737 -0.06347989291 0.9952289462
-0.05937305465 -0.0275255274 0.7629561424 -0.01523026451 -0.05001097545 0.9985328317
-0.0700647682 -0.0371507071 0.7433478236 0.03348825499 -0.06000964716 0.9960747361
-0.05756091326 -0.04202120379 0.7551835775 -0.02839015424 -0.1982865036 0.9706354737
-0.06351484358 -0.03803791851 0.7497345209 0.0142202517 -0.06228120625 0.9952369928
-0.07150793821 -0.05860992149 0.7364805341 -0.05421436951 0.1692840457 0.887889564
-0.06606706977 -0.06190706789 0.7429900765 -0.100347735 0.2161802202 0.8590521812
-0.07613489032 -0.04510749876 0.7314175367 0.04894904792 -0.1250359565 0.9815489054
-0.06956632435 -0.04806591198 0.7393214107 -0.0006382220308 -0.09272847325 0.9533396959
-0.06459393352 -0.04720088094 0.7454417944 -0.01962377504 -0.142106235 0.9520475864
-0.07320451736 -0.06605466455 0.7340763211 -0.09046045691 0.3561681211 0.842128396
-0.07597699761 -0.05562980473 0.73114568 -0.01469633169 0.1242980212 0.9133331776
-0.0595962964 -0.04998638108 0.7514317632 -0.06054658443 -0.1048107371 0.9271299839
-0.08053339273 -0.05069190636 0.7257905602 0.0369451046 0.03325660899 0.9515491724
-0.06472944468 -0.01865561679 0.7144356966 0.181972459 0.001794022508 0.9832251072
-0.09993066639 -0.01582175866 0.721878469 0.1966932118 -0.2421281636 0.9059414864
-0.1115858629 -0.01996784471 0.7185829282 -0.01344980672 -0.4361976385 0.7699118853
-0.1148722321 -0.02619974874 0.7143434286 -0.1778668165 -0.5692238212 0.6654492617
-0.1274907738 -0.02349559963 0.7069440484 -0.08865263313 -0.7030725479 0.5426413417
-0.1206349432 -0.02995102294 0.7083738446 -0.2538276017 -0.7047246695 0.5497092009
-0.1201041639 -0.01884002239 0.7153204679 -0.01062603015 -0.528370738 0.6957119703
-0.1286096871 -0.03126806766 0.7015143037 -0.2562876046 -0.8369571567 0.4309184551
-0.1175364107 -0.009240364656 0.723077774 0.1828361005 -0.3432457447 0.851898253
-0.1989061087 -0.1082559824 0.7286444902 0.399541527 -0.191633299 0.8960649967
-0.1866507977 -0.1056597531 0.7213789225 0.279150337 -0.2282486111 0.932215333
-0.1911279559 -0.115240626 0.7211362123 0.3188450933 -0.1661306918 0.9314459562
-0.1680127829 -0.1150885373 0.7178552747 -0.2341652811 -0.1632385254 0.9541804194
-0.04958060011 0.01227634121 0.761397779 -0.03255392611 -0.1769222617 0.9257200956
-0.0154590467 -0.009137504734 0.7646453977 0.01158766728 -0.1657091826 0.9859256148
-0.006739398465 -0.02720892243 0.7280000448 0.7394732237 -0.6589803696 0.1327052116
-0.005172244739 0.003153694095 0.7664869428 0.1363967061 -0.1340452731 0.9811195731
0.0123406155 -0.00152664748 0.7210953236 -0.09608525038 0.5257585645 0.8410651088
0.01427153405 0.008536293171 0.738484621 0.3806605339 0.1351844072 0.6306684017
0.01503891498 0.003106432036 0.7272033691 0.1311945766 0.3570367992 0.7617482543
0.007221313193 0.01372261252 0.7104723454 0.1380547881 0.3824294209 0.9027106166
0.01217400562 0.006919364911 0.71577847 0.1684484184 0.4503051639 0.8758936524
0.001808869769 -0.005923495628 0.7242045403 0.5584544539 -0.1997906119 0.4165903926
0.0005479094689 0.03206366673 0.7019189 0.06971925497 -0.3110048771 0.8743957877
-0.006905722897 0.02767747268 0.7046480179 0.1836253852 -0.1468423009 0.9327104092
-0.1474948674 -0.04677924886 0.7021276951 0.02499729954 -0.7272527218 0.111649543
-0.1604891121 -0.06054983661 0.7200707197 -0.03012484126 -0.2339476049 0.7686339617
-0.1531934887 -0.0487425141 0.710980773 0.01365676429 -0.5007335544 0.416377157
-0.1617980748 -0.05213970691 0.7246391177 -0.003073539119 -0.1603045464 0.8892106414
-0.1153388917 -0.02622446045 0.7254692912 0.2832223773 -0.3277850449 0.9001876712
-0.1123688743 -0.0353571102 0.7105643749 -0.3468223214 -0.6586615443 0.5988716483
-0.1058794856 -0.02966513857 0.7147299647 -0.1413395852 -0.4722970128 0.7423001528
-0.0858239457 -0.03462481871 0.7177965641 0.08287349343 -0.08307635784 0.9581350088
-0.09612420946 -0.08086975664 0.7349200845 0.0432141684 0.4253136516 0.8807001114
-0.1045273989 -0.07647388428 0.7317572832 0.1439585686 0.3269177377 0.9310824871
-0.08519434184 -0.07861921936 0.7306989431 -0.05225618184 0.5602701902 0.8259621859
-0.07415670902 -0.07381565124 0.7280755043 -0.1534433365 0.6146987677 0.7711772919
-0.0645589456 -0.08110756427 0.7335790396 -0.2593323886 0.6512213945 0.7131652236
-0.1697043031 -0.0647643134 0.7267929316 -0.02874519303 -0.06191544235 0.9974149466
-0.1770448834 -0.06194818392 0.7286561131 0.01734905504 -0.0925251469 0.9951089025
-0.1764124632 -0.07105128467 0.7300445437 0.01638940163 -0.09372659028 0.9913092852
-0.1549369842 -0.03794649243 0.7318753004 0.005832973402 -0.1204545349 0.9923371077
-0.149608627 -0.04577287659 0.7303912044 -0.02460283786 -0.1108215377 0.9933541417
-0.1338514537 -0.06104914099 0.7307590842 -0.01350004319 0.1451413184 0.9860156178
-0.1262779087 -0.07180584967 0.7335633636 0.01583590172 0.2683756053 0.9612903595
-0.1321684271 -0.07646546513 0.7360755205 -0.0510866344 0.2495727539 0.9649277925
-0.1449569911 -0.03970186785 0.7317152023 0.04597062245 -0.1262591332 0.9878216386
-0.1372532696 -0.04258464277 0.7315058112 0.08404430002 -0.1084990725 0.9797250628
-0.1354576051 -0.03471665084 0.7323698997 0.1740598828 -0.1542023718 0.9660741091
-0.1353055686 -0.05263599381 0.7309647799 -0.00172672444 -0.02630332112 0.9949343801
-0.12785317 -0.04991231114 0.7319717407 0.09139936417 0.02515487745 0.985845387
-0.159809038 -0.09503526241 0.7311878204 -0.3478268385 -0.122408621 0.8774247169
-0.1248201653 -0.1180072948 0.7449530959 -0.3748965859 0.151232928 0.9101823568
-0.1129656509 -0.09787933528 0.7467439771 -0.1608240902 0.4212841988 0.8731791377
-0.1156061217 -0.08602057397 0.7376356721 0.08546657115 0.3258823752 0.9381171465
-0.1230331585 -0.09160042554 0.7430246472 -0.08463212103 0.3390619457 0.925665915
-0.1407405287 -0.1272679418 0.7321869135 -0.5873944759 -0.08405566216 0.8038473725
-0.1493911445 -0.1217020154 0.7259348631 -0.5601580143 -0.1318067163 0.8163670301
-0.1387832761 -0.07955482602 0.7281411886 -0.1491796225 0.1554057896 0.9481337667
-0.1447543949 -0.08781596273 0.726524353 -0.2606129646 0.03904626518 0.9170603752
-0.1314991862 -0.08560949564 0.740031302 -0.0808365941 0.2813225985 0.9555234313
-0.1439754665 -0.0728424266 0.7333039641 -0.1000568494 0.1844146997 0.9770424962
-0.121826008 -0.1359782815 0.7492464781 -0.5257842541 0.09590516239 0.8432933688
-0.1115396023 -0.1316161007 0.7526845336 -0.4654325545 0.1666582525 0.8666545749
-0.04673039541 -0.0528107211 0.715194881 -0.1964444518 0.3763314188 0.9051343203
-0.05248233676 -0.04517772421 0.7127992511 -0.09897566587 0.1981479973 0.967861712
-0.1182060689 -0.07656869292 0.7293763757 0.03497134522 0.3085586429 0.9453182817
-0.1122299433 -0.05789504945 0.7141358256 -0.2555374503 0.3024032414 0.8931449652
-0.1230329201 -0.07011707127 0.7256171107 -0.02015267499 0.2726626992 0.9476876259
-0.1052210703 -0.06673082709 0.7228378654 0.04745973647 0.3656483591 0.8916070461
-0.1155762598 -0.06740728766 0.7232087851 -0.0269716531 0.3082023263 0.9216014743
-0.1201084703 -0.03645229712 0.7045367956 -0.3908100426 -0.7541779876 0.5028836727
-0.12530303 -0.03897487 0.697478652 -0.3973555267 -0.7012974024 0.5137879252
-0.1146022826 -0.04372654855 0.703535378 -0.5398423672 -0.5437310338 0.6368920803
-0.1241565868 -0.05663328245 0.7093141079 -0.2272919267 -0.3493357301 0.616592288
-0.1213856637 -0.05120930821 0.702984035 -0.3572052717 -0.4954708219 0.566021204
-0.1249736771 -0.06428345293 0.7181651592 -0.1817625165 0.0008051492623 0.8639074564
-0.0150662316 0.03519764915 0.709862411 0.3042421341 -0.6791585088 0.6669745445
-0.007306755055 0.04106875136 0.711710453 0.2393724173 -0.7431784868 0.6233465672
-0.001461634296 0.04576766491 0.718675077 0.1742468625 -0.773590982 0.6056249142
-0.02067168429 0.04305618256 0.7228060961 0.2604014874 -0.7420415282 0.6149506569
-0.04559515789 0.02841211855 0.7543348074 0.1725802869 -0.3907813728 0.7852344513
-0.0357215032 0.02854661085 0.7581436038 0.1593757272 -0.2961154282 0.8482925296
-0.03053743206 0.02305688895 0.7632394433 0.05837387219 -0.158635363 0.9399917126
-0.04734785482 0.03453539312 0.7502359152 0.2789207697 -0.5046258569 0.709266305
-0.04232438654 0.0155838374 0.7627642155 -0.04957450181 -0.1562090665 0.941768527
-0.0465654619 0.02057684213 0.7586209178 0.04239618406 -0.2735180557 0.863417685
-0.06392215192 0.03759004921 0.7506855726 0.380764544 -0.6276041865 0.6244610548
-0.05506075919 0.03631903976 0.7482779026 0.3269587457 -0.5874584317 0.6533771157
-0.05777100846 0.02796756662 0.7559851408 0.2149879336 -0.4449020326 0.7485526204
-0.01983613893 0.03801288083 0.7150241733 0.3172189295 -0.6872221231 0.6525459886
-0.02305787988 0.02480143867 0.7101700902 0.3560296595 -0.52923733 0.7691761851
-0.003430465003 0.01728245616 0.712334156 0.2335395813 -0.05574721843 0.8026509881
-0.01210303232 0.01995121874 0.7115403414 0.287451148 -0.2761830986 0.7846289277
-0.01512373611 0.02659923211 0.7077610493 0.3265058696 -0.5554067492 0.7445952892
-0.07440474629 -0.0103487093 0.7177116871 0.2877931297 -0.1275224835 0.9469358325
-0.06924688816 -0.06341522187 0.7198384404 -0.08499722928 0.5078659058 0.8534933925
-0.05842468888 -0.05089650676 0.7118408084 -0.08483308554 0.2477822006 0.9510884881
-0.01203472354 -0.02024514973 0.7557016611 0.4418092072 -0.4491533935 0.6988153458
-0.0083154561 -0.01872424968 0.7487928271 0.5784643888 -0.5279148221 0.5077160597
-0.008775770664 -0.01356753707 0.7619087696 0.4779278636 -0.4280406535 0.7491224408
-0.07212858647 -0.0522268191 0.7096938491 0.04440021142 0.1185994744 0.9855645895
-0.06218403205 -0.02626502886 0.713416636 0.1848537624 -0.00159736583 0.9822965264
-0.06694280356 -0.04428239539 0.7094938159 0.08344330639 0.05018368363 0.9927073717
-0.06533034891 -0.03723048419 0.7110834718 0.1237798929 0.03017480858 0.9884930849
-0.07132825255 -0.0302129034 0.7162593007 0.1664723754 -0.03782527521 0.9841061234
-0.03352825344 0.05586829036 0.7421999574 0.2881646454 -0.7592895031 0.5826583505
-0.01914843917 0.05993488431 0.7441770434 0.2172902673 -0.7708511949 0.5976047516
-0.02443512343 0.04637756571 0.751049459 0.1793227196 -0.540102303 0.7225980163
-0.02258700505 0.03241918236 0.7604033947 0.08886020631 -0.2645146251 0.8859393597
-0.02122654393 0.05337014422 0.7476696372 0.1982575357 -0.6597598195 0.6575039029
-0.03236713633 0.04834182933 0.7473095655 0.2410103679 -0.6130287051 0.668561399
-0.02827227488 0.03988217935 0.7539183497 0.167201221 -0.4327657521 0.7795963287
-0.1688876152 -0.09964117408 0.7205217481 -0.1810849309 -0.2087364048 0.9525312781
-0.1869992912 -0.09696709365 0.7241390347 0.2822960913 -0.2215763777 0.9328480959
-0.1788544208 -0.09625457972 0.720838666 0.1488755345 -0.2316629291 0.9560927153
-0.1777539253 -0.1034456566 0.7192029357 0.1241108552 -0.2267839313 0.9597486854
-0.1570043117 -0.1114519686 0.7231368423 -0.4717861712 -0.1791181266 0.8594301343
-0.1630415469 -0.1071643904 0.7207577825 -0.3423508406 -0.1910644919 0.9165185094
-0.05640876293 0.02143563144 0.7205080986 0.3832782507 -0.5147239566 0.765071094
-0.03466333821 0.008042123169 0.7654571533 -0.06209227815 -0.1274839342 0.989772737
-0.0003382394498 0.009801961482 0.7166190147 0.1972254813 0.2411449105 0.8405537009
-0.005092794541 0.0048591136 0.7202096581 0.4431373477 -0.1596114188 0.5897744298
-0.01844210178 0.01472667139 0.715374589 0.3469014764 -0.2796961665 0.7607819438
-0.1375554055 -0.06997080147 0.7262731791 -0.05753120407 0.1537927687 0.934304595
-0.1507670134 -0.0600341931 0.7194787264 -0.0481838733 -0.2063960582 0.7065799236
-0.1454740316 -0.06533941627 0.7238631845 -0.05721815675 -0.007844799198 0.855224669
-0.143705681 -0.05277871341 0.7073356509 -0.002988034626 -0.5286464095 0.2835180163
-0.1435859948 -0.05897710845 0.7150650024 -0.02747038379 -0.2751626074 0.5503904819
-0.1527225822 -0.05789916962 0.7102302909 -0.05106826872 -0.504116714 0.4107503593
-0.1605512351 -0.06813207269 0.7197588086 -0.1103631109 -0.2480095178 0.7671545148
-0.1559404284 -0.06514841318 0.7276581526 -0.08092527092 0.007835634984 0.9931783676
-0.106909655 -0.08699326217 0.7374007702 0.01980973408 0.4067161381 0.8863187432
-0.08708552271 -0.08898587525 0.7401466966 -0.1127487943 0.5646239519 0.8022300601
-0.09358870983 -0.09029053152 0.7347413301 -0.1142485589 0.5480362177 0.8267529011
-0.04391943291 -0.04437550902 0.7602105737 -0.01866913587 -0.2248552889 0.959944427
-0.04615795985 -0.06536528468 0.7313973308 -0.2578774393 0.6234298944 0.737731874
-0.07545181364 -0.07918073982 0.7342820168 -0.1502894163 0.6104604602 0.7772244215
-0.08098901063 -0.08482246846 0.7359574437 -0.1482495964 0.5801624656 0.7979897857
-0.07323931158 -0.08682934195 0.7389018536 -0.2123595923 0.6280631423 0.7474253774
-0.1327056289 -0.1095299199 0.7351651192 -0.307851404 0.04633640498 0.9084925652
-0.1398443282 -0.1197353229 0.7368780971 -0.5273762941 -0.08920139074 0.844099462
-0.1473941356 -0.1290549934 0.7291272879 -0.5746857524 -0.05947053805 0.8143094778
-0.1282050312 -0.1295885891 0.7387984991 -0.5297868252 0.03057969362 0.8358623981
-0.1239461973 -0.1114914268 0.7379143834 -0.2480052412 0.172102958 0.907400012
-0.1314357668 -0.1185931787 0.736751318 -0.4168778956 0.03840306029 0.8725953698
-0.1058920696 -0.09473692626 0.7429210544 -0.09504432976 0.4554351866 0.8550463319
-0.08503331244 -0.1031028554 0.7491524816 -0.2523943484 0.5920912623 0.7634782791
-0.09168361127 -0.1104024872 0.755736053 -0.3078262806 0.5287787914 0.7908526063
-0.09615571052 -0.1170531288 0.7557715774 -0.3423986435 0.4499641955 0.8205287457
-0.0530898571 -0.03203447536 0.7629826665 -0.01905067638 -0.04448295012 0.998799026
-0.03852525726 -0.02367609553 0.7615579963 -0.02155114152 -0.09893499315 0.9943493009
-0.0438188985 -0.03115147166 0.7612181306 -0.01537081506 -0.0447929427 0.9987463951
-0.03587586805 -0.03996779397 0.7610000372 0.0265672598 -0.0765792802 0.9846004844
-0.02804682963 -0.03165583313 0.7610000372 0.3085996807 -0.3145660162 0.7984338403
-0.0356425792 -0.03179452568 0.7610388398 0.0500943996 -0.09306915849 0.9608251452
-0.08614707738 -0.05044104531 0.7077086568 -0.1679557413 0.1819117665 0.9309479594
-0.0860151127 -0.04176939279 0.7125444412 -0.0749578476 -0.04806919023 0.9309610724
-0.07765686512 -0.04107482359 0.7136361003 0.08509538323 -0.02302863076 0.9729715586
-0.09870091826 -0.04346547648 0.7104433179 -0.3325445056 -0.08226307482 0.8654978275
-0.1069348305 -0.05023415387 0.7066944838 -0.4170171022 0.2357158214 0.8430662155
-0.08278868347 -0.01723633148 0.7194230556 0.2544544637 -0.09187253565 0.9619781971
-0.07543649524 -0.02227335796 0.7174611688 0.1940073222 -0.001572978916 0.978867054
-0.03182162344 0.03884571418 0.7229005694 0.3273172379 -0.6752011776 0.6599529982
-0.02717368864 0.04704415053 0.7312972546 0.2536756396 -0.7563027143 0.6016633511
-0.03969291598 0.03638579696 0.7237778306 0.3791187108 -0.645580709 0.6621837616
-0.05597178265 0.04394766316 0.7444972396 0.4126231968 -0.7030333877 0.5781095624
-0.04786868393 0.0504437983 0.7445327044 0.3745136857 -0.7345639467 0.564261198
-0.04042864591 0.04322019219 0.7305967808 0.3769464791 -0.7006332278 0.6046620607
-0.03571230918 0.04240236059 0.7514345646 0.243524909 -0.5125821829 0.7122521996
-0.05440834165 0.03809964657 0.7373448014 0.4262448549 -0.6847869158 0.5910568237
-0.05644696578 0.003488237737 0.713785708 0.3433943987 -0.2993188798 0.8869327307
-0.07205720246 -0.001065523014 0.7184400558 0.3359592259 -0.2616940737 0.9025978446
-0.08102514595 -0.007358394563 0.719858706 0.3036304414 -0.1966395676 0.9309900403
-0.09141718596 -5.661492469e-05 0.7256833315 0.2615523636 -0.3143271208 0.911359489
-0.08963704854 -0.01002595294 0.7220024467 0.2837147117 -0.2148732841 0.9333409667
-0.07331455499 -0.05845560879 0.7147390842 0.03507413343 0.2950984836 0.9452747703
-0.01786901802 -0.02908181585 0.7252243161 0.4143140018 -0.4466617405 0.3992910087
-0.03304575384 0.0008401389932 0.7179187536 0.485915035 -0.4628586173 0.6244086027
-0.03907684982 0.00641344022 0.7150901556 0.4123589694 -0.4145166874 0.7537558675
-0.02025006898 0.006678028498 0.7190595865 0.5269259214 -0.5394707918 0.5448679924
-0.01341536082 -0.0002055407094 0.7226851583 0.6368431449 -0.5554724336 0.3898444176
-0.007726604119 -0.01500436757 0.72798419 0.7699907422 -0.6150951385 0.1610843092
-0.02614565939 0.01445520949 0.7154694796 0.4236624539 -0.5162765384 0.6988175511
-0.009549385868 -0.007861208171 0.725682199 0.7162973881 -0.5837308168 0.2607888579
-0.02628465369 -0.03417502716 0.7206311226 -0.08152163029 -0.08042190969 0.8057743311
-0.03946185857 -0.00914419163 0.7159155607 0.16634278 -0.2304324359 0.8568719625
-0.03069042973 -0.01580865309 0.7194645405 0.2507298887 -0.2943662107 0.6923838258
-0.02381285466 -0.02056438476 0.7222666144 0.3286156654 -0.3521927297 0.5572792888
-0.03256103024 -0.02449101955 0.7182932496 -0.01929609291 -0.1152019426 0.8593246341
-0.02588270977 -0.01021836977 0.7217890024 0.5275487304 -0.4808413386 0.4815941155
-0.02992007881 -0.01913153939 0.7627798319 -0.01638633199 -0.1386732459 0.9899176359
-0.0181358587 -0.0207044445 0.7618506551 0.1942135245 -0.3066640794 0.9156777859
-0.02239122242 -0.01482826844 0.7636066079 -0.003926143516 -0.1686782092 0.9843702912
-0.06740184128 0.03371383622 0.7404545546 0.4162967801 -0.6645192504 0.6185898185
-0.07779416442 0.01356608421 0.7271190882 0.35746786 -0.4354614317 0.8230202198
-0.04109942541 -0.0007438266766 0.7640679479 -0.09269759059 -0.1087392941 0.9891143441
-0.02913188189 -0.01048216969 0.7649198174 -0.04162827134 -0.1484897286 0.9879299402
-0.02503254637 0.00328475656 0.7666068077 -0.03599340469 -0.1321724951 0.9905459285
-0.04636467621 -0.008729685098 0.7622364759 -0.08486008644 -0.09960496426 0.9912530184
-0.04934521392 -0.01925629377 0.7624376416 -0.04325827956 -0.08239765465 0.9950048923
-0.05952567607 0.002385620493 0.7552244663 0.008082820103 -0.2100113928 0.9229676127
-0.06782633811 0.005602218676 0.7483147383 0.1302561015 -0.3314530253 0.8549300432
-0.05415659025 -0.005060762167 0.7602108717 -0.08874426782 -0.1064475402 0.983949244
-0.06460650265 0.02129095048 0.751216948 0.2188196182 -0.4373368919 0.7635555267
-0.06234260276 0.009716328233 0.752198875 0.07363153994 -0.2770024836 0.8767149448
-0.06796295196 0.02765475214 0.7488356829 0.3190740049 -0.5461022854 0.6931049824
-0.08014375716 0.02135796845 0.7376743555 0.3698410988 -0.5897946954 0.7023635507
-0.05347653106 0.004217636306 0.7594587207 -0.07070826739 -0.1247904152 0.9608524442
-0.0739710331 0.02580524795 0.7434381247 0.3574962616 -0.5826576948 0.6863473654
-0.06945544481 0.01371696591 0.7463395 0.185054034 -0.3942100704 0.8129173517
-0.09212698787 -0.09960631281 0.7452427745 -0.2285276353 0.5999302268 0.7661728859
-0.05929993093 -0.06046941876 0.7195029855 -0.183399111 0.5175474286 0.8240717649
-0.05346378684 -0.06975278258 0.7293877006 -0.2500834763 0.6202771068 0.7417628765
-0.04622382298 -0.06061526015 0.7248885036 -0.2319528461 0.5409831405 0.8021922708
-0.06539281458 -0.06916363537 0.7264714837 -0.2204189599 0.6456100345 0.7297932506
-0.05272514001 -0.06335075945 0.7459021211 -0.05793693662 0.1150876209 0.6816914082
-0.05084107071 -0.05097041279 0.7564930916 0.0197779499 -0.2745306194 0.7948339581
-0.0568279624 -0.07805304229 0.7357838154 -0.2634526789 0.6699411869 0.6935830116
-0.06605301797 -0.08399917185 0.7428479791 0.05714035034 0.2050612271 0.5511332154
-0.05597586185 -0.07127732038 0.7397056222 -0.2398647964 0.5542293787 0.7202875614
-0.06345082819 -0.0740608722 0.7428403497 -0.1945431381 0.4750043452 0.7682734728
-0.06005722284 -0.06700842083 0.74707371 -0.168662861 0.3043557405 0.8072067499
-0.07134205848 -0.0758074075 0.7427513003 -0.1457827836 0.4331912696 0.8099343181
-0.06009635329 -0.05858072266 0.7539838552 -0.1032445803 0.02767991275 0.8896217942
-0.1471008211 -0.1089447662 0.7339668274 -0.4996647239 -0.1043892801 0.855065167
-0.1489685923 -0.1015265957 0.7340158224 -0.4649885297 -0.07945023477 0.8805322647
-0.1506746858 -0.114335835 0.7278118134 -0.521969378 -0.1481589824 0.8364349604
-0.1394355297 -0.106679365 0.7393048406 -0.367423296 -0.006792313419 0.9242177606
-0.1323257238 -0.1111169234 0.7423713207 -0.3321198523 0.05957987159 0.9363919497
-0.135100022 -0.09767121077 0.7411834002 -0.2043540627 0.1269852817 0.9641525745
-0.1200929955 -0.1012130305 0.7443927526 -0.1709338278 0.2796078622 0.9237957001
-0.1112223417 -0.1011854857 0.7381634712 -0.1353594512 0.3865290284 0.8946405649
-0.1158433259 -0.1189109981 0.7452692986 -0.4480304122 0.2450262457 0.8567672968
-0.1223407984 -0.1248179823 0.7416885495 -0.5002148151 0.1335674375 0.8427501321
-0.09458494931 -0.1070796251 0.7473496795 -0.2776693404 0.5372118354 0.7896378636
-0.1105413288 -0.1084777936 0.7420688868 -0.2984053195 0.3782760203 0.857380271
-0.1021206379 -0.1055834964 0.7438737154 -0.2734723389 0.5049598813 0.8101485968
-0.0990639478 -0.09906567633 0.7394686937 -0.2050457895 0.5309672356 0.8152582645
-0.09817945957 -0.03508426622 0.7143560052 -0.2498354912 -0.2324727476 0.8039088249
-0.1072773784 -0.04110148549 0.7110511661 -0.546941936 -0.367906332 0.6871763468
-0.09094026685 -0.02853964083 0.7174232006 0.05067571625 -0.1944412142 0.8789119124
-0.04704328254 0.04287676513 0.7372069955 0.4034005404 -0.6970587373 0.5922387242
-0.04285443574 0.04353381693 0.7453939319 0.3560519814 -0.6201792955 0.638068378
-0.03957730904 0.03546159342 0.7522742748 0.2610240579 -0.4485884607 0.7484511733
-0.08219389617 -0.0555252023 0.7144786119 0.0563291423 0.2037406117 0.9750980735
-0.09121073037 -0.05614400283 0.7133253813 -0.07795348018 0.3172958791 0.9133864641
-0.08479659259 -0.07039054483 0.7239131927 0.002872010926 0.5390820503 0.8381429911
-0.07904957235 -0.0645596385 0.719125092 0.02621065453 0.4912186563 0.8659057021
-0.01488161366 -0.02808601782 0.7500494123 0.5223399997 -0.5434197187 0.5391659141
-0.01888720691 -0.0296803806 0.7600439191 0.5398846269 -0.5271857977 0.6428794265
-0.008504635654 -0.02480419166 0.7353143096 0.6521936059 -0.6212264299 0.2722226381
-0.08771429956 -0.06278288364 0.7178710103 0.1100007296 0.4611545503 0.8788458705
-0.09510508925 -0.08076821268 0.7272280455 -0.007024880033 0.4766853154 0.8777243495
-0.09495556355 -0.07227322459 0.7235831618 0.07139600068 0.480828613 0.8685578704
-0.1024488211 -0.05569217727 0.7124505043 -0.1823929697 0.3740692437 0.8631365895
-0.09599620849 -0.06341403723 0.7203803062 0.1687765718 0.4707782567 0.863611877
-0.06269086897 0.01528311241 0.7203997374 0.3844355345 -0.4595928192 0.8002744913
-0.07045854628 0.01545648929 0.7251104712 0.380084455 -0.4725573659 0.7935488224
-0.05686406419 0.03278597072 0.7324257493 0.4314503372 -0.6726558208 0.6008243561
-0.06134952605 0.02626218833 0.7285634875 0.4245271087 -0.6194416285 0.6571965814
-0.06985954195 0.02524056099 0.7323129177 0.4059395492 -0.6428802013 0.6489883661
-0.08430984616 0.01337530464 0.736871779 0.2852971256 -0.4601196647 0.8050503135
-0.06675855815 -0.00630479306 0.7494544387 0.05402839556 -0.215702638 0.9162994027
-0.07799063623 0.01026562881 0.7402240038 0.2554421723 -0.4457164407 0.7944045663
-0.07308086008 -0.001914878492 0.7457216978 0.1010756344 -0.253782481 0.9106447101
-0.08751944453 0.003792441683 0.737067163 0.1862529665 -0.314386338 0.9113593102
-0.08055905253 -0.001244157087 0.7416493893 0.1212619692 -0.2530162632 0.932307601
-0.09134361893 0.012965695 0.7325874567 0.27829656 -0.3961493373 0.8742257953
-0.1048386022 -0.1264172643 0.7575660944 -0.4255725741 0.2913002372 0.8507882357
-0.1073308885 -0.1205071881 0.7510381937 -0.3823108375 0.3411056101 0.8493869305
-0.1016297042 -0.1053530276 0.7512803674 -0.2698837221 0.5235973001 0.807613194
-0.08224117756 0.005445064045 0.7244892716 0.3359405696 -0.3629005849 0.8688746691
-0.06633242965 0.004855853971 0.7177857757 0.3706572056 -0.3308156133 0.8677228689
-0.1128314286 -0.112997137 0.7488645315 -0.3244385123 0.334263891 0.8704007268
-0.1040147915 -0.1138368472 0.7494448423 -0.3351982534 0.4487012625 0.8261548877
