# .PCD v0.7 - Point Cloud Data file format
VERSION 0.7
FIELDS x y z normal_x normal_y normal_z
SIZE 4 4 4 4 4 4
TYPE F F F F F F
COUNT 1 1 1 1 1 1
WIDTH 512
HEIGHT 1
VIEWPOINT 0 0 0 1 0 0 0
POINTS 512
DATA ascii
-0.1492667049 -0.151423499 0.6917518973 -0.03493605554 0.2825798988 0.9547456503
-0.1550802588 -0.1495402008 0.6998671293 -0.01190517936 0.2424478829 0.9402656555
-0.1514672041 -0.1286352277 0.6944938302 0.05056969449 0.0304721836 0.9776515961
-0.1262570471 -0.1555293351 0.7050738931 -0.4677679539 0.2886758149 0.8267971873
0.08391388506 -0.07132789493 0.7350192666 0.1485765725 -0.6780055761 0.596513927
0.07588199526 -0.0661938563 0.7372227907 0.04753527418 -0.1764874905 0.9129340649
0.08176483214 -0.06278721243 0.7309195399 0.06114996597 -0.4653742313 0.7547470927
0.08914568275 -0.04653300345 0.7151726484 -0.02271660604 -0.6967023015 0.6792560816
-0.1515614241 -0.1406785399 0.6884778738 0.1138256714 0.2020917684 0.9715557098
-0.1555103809 -0.1161843315 0.6906392574 0.1483706683 -0.07467053086 0.9842416644
-0.1554153562 -0.1240329817 0.6895353794 0.2084798068 -0.003703575348 0.9756231904
0.01336114947 -0.1199578345 0.694188714 -0.2924696803 -0.02752709761 0.9499842525
-0.1394676417 -0.1420942545 0.6944670081 -0.2378653735 0.2401233315 0.9158691764
-0.1652575582 -0.1358434409 0.6999875903 0.1923139095 0.09342292696 0.9640393257
-0.1523284912 -0.1399108022 0.6973517537 -0.02813777886 0.1787349284 0.9376957417
-0.1401114017 -0.151746735 0.6989123225 -0.2335431129 0.3157460392 0.8991765976
-0.1456975937 -0.1467235982 0.6971285939 -0.1602885425 0.2619083822 0.9213629365
0.058285743 -0.1056535468 0.7381287813 0.2050982863 -0.5873599648 0.6911315918
0.06817897409 -0.102613993 0.7386112809 0.1402252018 -0.2949370444 0.8543059826
0.06150478497 -0.1071320623 0.7296396494 0.2871330976 -0.6276372075 0.5252615213
0.06211859733 -0.109111391 0.7186830044 0.3884493709 -0.7643917203 0.3192485869
0.055640582 -0.1106608137 0.7236074805 0.3800750971 -0.8648258448 0.2958707213
0.05707326531 -0.1122351661 0.7118999362 0.4180294573 -0.8860435486 0.1722631007
0.03147082031 -0.1207803711 0.7334221601 0.1653991044 -0.3579344749 0.8237255216
0.03367688879 -0.1204482093 0.7217446566 0.1633954197 -0.6225708127 0.4935795367
0.03554819152 -0.1201920211 0.7112421393 0.1594460458 -0.8598991632 0.1969870329
0.09185697138 -0.0704992786 0.7118829489 0.245863691 -0.5490843654 0.5645042658
0.08949792385 -0.08527264744 0.7135990262 0.4994992316 -0.187651366 0.5683207512
0.09259047359 -0.06134646013 0.7022318244 0.05670526624 -0.5078148842 0.6670901179
0.09054347873 -0.07801991701 0.7114285231 0.3700299859 -0.3240821958 0.5826761127
0.09024015814 -0.07445254922 0.7007167339 0.2703917027 -0.09337741137 0.7075949907
0.09240683168 -0.04756749794 0.7063891292 -0.06456323713 -0.76641047 0.6336762309
0.08835474402 -0.06171211973 0.7246330976 0.0890243724 -0.8016617894 0.5596135855
0.09159237146 -0.06007971987 0.715313077 0.124213919 -0.7675986886 0.5438019633
0.08880664408 -0.07538703084 0.7302108407 0.2920269072 -0.8003677726 0.4529899657
0.0930102095 -0.05601286888 0.7082281709 0.03353731707 -0.7476676106 0.5948855877
0.09197243303 -0.07396115363 0.7215850353 0.345264107 -0.7400805354 0.452960968
0.08669181168 -0.04390790686 0.7029312253 -0.06272339076 -0.7624781132 0.6421436667
0.08614443988 -0.03521378338 0.7138724923 -0.09380433708 -0.6769282818 0.7164625525
0.08094390482 -0.03825680539 0.7199640274 -0.06689333916 -0.5419219732 0.7889926434
0.07875049859 -0.05205246806 0.7281612158 -0.02145578153 -0.3394168019 0.8614759445
0.07568773627 -0.05771932006 0.73349154 0.004949006718 -0.2148296088 0.9171643853
0.08441643417 -0.04875323176 0.721488297 -0.04994420707 -0.4867580533 0.7826780081
0.09102619439 -0.09043711424 0.7076862454 0.5075597167 -0.06568732113 0.6059165597
-0.157068029 -0.1345092207 0.6912479401 0.2139633298 0.09500368685 0.9720985889
-0.1623404026 -0.1282141358 0.6942177415 0.2506378591 0.03972871602 0.9663600922
-0.167774111 -0.1439146847 0.7005804777 0.1705227941 0.1596998423 0.9721143842
-0.1611564457 -0.1407653093 0.6948298216 0.1710503995 0.153552711 0.9713805914
-0.1437604427 -0.1385837793 0.6889611483 -0.0552440621 0.172440201 0.9712771177
-0.1563540101 -0.1468385309 0.6928520203 0.09908136725 0.2108721584 0.9722290635
-0.138872847 -0.1315516084 0.6901476979 -0.1827367693 0.08638754487 0.966850996
0.02257204615 -0.1233269572 0.7402690053 -0.001427618088 -0.08554098755 0.9954667687
-0.009418262169 -0.1172476411 0.6917372346 -0.06099536642 0.3464483023 0.9265421033
0.002304010792 -0.1175330803 0.6905092597 -0.2440108955 0.209255144 0.943870604
0.04867343977 -0.1108016521 0.7079067826 0.3470550478 -0.9232991934 0.1517186314
0.05697752535 -0.07601182163 0.6936417222 0.2176790982 -0.7169764638 0.5533593297
0.05620547757 -0.06468802691 0.687995255 0.125992462 -0.6504648924 0.71763587
0.05740202591 -0.1035770848 0.7069669962 0.4227055013 -0.8776800632 0.1767181158
0.05660063028 -0.09187337756 0.7011300325 0.3278998435 -0.8089342713 0.3465610743
0.05484291911 -0.08436588943 0.6970540881 0.2524228692 -0.7634766698 0.4747598171
0.04971107095 -0.07162258029 0.6918460131 0.1714235842 -0.6562508345 0.6731203794
0.05021335185 -0.09849530458 0.7040160298 0.3363471031 -0.8111557961 0.3259699643
0.0419684723 -0.08605620265 0.6983930469 0.2111748159 -0.6866591573 0.5588198304
0.04791781306 -0.0915100649 0.7010592818 0.2860026658 -0.7433653474 0.4374030232
0.04124817625 -0.07547421008 0.694155395 0.1593488008 -0.588498354 0.70384413
0.03683044389 -0.06561907381 0.6896689534 0.08032101393 -0.4899917245 0.8678484559
0.07776906341 -0.07580801845 0.7420650721 0.1806880236 -0.2159511 0.9306997061
0.08616967499 -0.08015768975 0.7379605174 0.2787546217 -0.8387417793 0.4511784911
0.09180565923 -0.07463080436 0.6931955814 0.2921457887 0.01804412343 0.7385103106
0.09494736791 -0.08240993321 0.6883513927 0.4720146358 0.2319945693 0.7451986074
0.1012341306 -0.08297216892 0.6824545264 0.588006258 0.2283447683 0.7178356051
0.09773638844 -0.06784445792 0.6880858541 0.2217282057 -0.2078597099 0.705518961
0.0951564014 -0.05854769051 0.6937903762 -0.09497363865 -0.5407921076 0.7094317079
0.08864317834 -0.05132095516 0.6958636045 -0.07979105413 -0.749689281 0.6526963711
0.07865405083 -0.05020998418 0.6893975139 -0.01767238602 -0.7552170157 0.6498959064
0.08299711347 -0.05421459302 0.6849729419 -0.1270991564 -0.6809023619 0.713626802
0.09501451254 -0.09177868813 0.6873705387 0.4778453708 0.3975910842 0.7821224332
0.08921536058 -0.08928581327 0.7239487767 0.5475544333 -0.6547777057 0.3200188577
0.08596653491 -0.09590560198 0.7043824792 0.4597921968 -0.2349393964 0.4024935067
0.09709847718 -0.06928510219 0.6790703535 0.08122412115 -0.1021524444 0.7940208912
0.01448917761 -0.06970050186 0.6884229183 0.1874820739 -0.2754229903 0.9412415624
0.06145875156 -0.03271408007 0.7089002728 -0.04396558926 -0.5897066593 0.8062317371
0.06487087905 -0.08239170164 0.7433797121 0.02530224063 -0.04039013386 0.9985476136
0.05714455619 -0.08325716108 0.7423574328 -0.03172609583 -0.04212710261 0.9977357388
0.04545675218 -0.0628291443 0.6875795722 0.111352019 -0.5808629394 0.8057271838
0.07484868914 -0.08389061689 0.742551446 0.07136410475 -0.1063054502 0.9915620685
0.06963860989 -0.09244689345 0.7426207662 0.05960104614 -0.1151654944 0.9898231626
-0.158124581 -0.1202255189 0.6960746646 0.1642801762 -0.03653555363 0.9776945114
-0.1445275843 -0.1238029376 0.6908811927 -0.01494554244 -0.01501130033 0.9937045574
-0.1506251246 -0.1079884544 0.6922835112 0.02887771465 -0.09075246006 0.9936833978
-0.145435065 -0.1142389104 0.6885407567 -0.001482328633 -0.06247605383 0.9969064593
-0.131220758 -0.151040554 0.6997400522 -0.3937132657 0.3029497564 0.8578637838
-0.1205823645 -0.1128211766 0.6966652274 -0.4217860103 0.07637238503 0.8928568959
-0.05763110518 -0.08255679905 0.6687712073 0.6898204088 0.3977932632 -0.471001476
-0.1169899628 -0.127709493 0.6979942918 -0.5696749091 0.1597827673 0.8053202629
-0.1173118576 -0.1197377443 0.7000373602 -0.5255662203 0.1225736663 0.8294944167
-0.0914645195 -0.1364539266 0.7138298154 -0.1304467469 0.2834448814 0.9066591859
-0.1010666341 -0.1391943097 0.7101067305 -0.3612341881 0.2464164644 0.8372996449
-0.1084555387 -0.1431697011 0.7076924443 -0.5496584177 0.2173729986 0.7821494341
-0.02349632792 -0.1108032241 0.6868488193 0.0662895143 0.2724185884 0.9536159635
0.04088316113 -0.1163965836 0.7236441374 0.275588572 -0.7061133981 0.4785628915
0.04110416025 -0.1144169644 0.7318949103 0.2712482214 -0.6296765208 0.6494674087
0.04525279254 -0.1157539114 0.7147088647 0.317974329 -0.9131238461 0.201736331
0.04784333706 -0.1124722362 0.7274166346 0.3167580664 -0.8349906802 0.3906949162
0.04677058756 -0.1109336242 0.7353627086 0.2935903072 -0.7079168558 0.6054861546
0.05113584921 -0.1035423949 0.7400961518 0.03178263828 -0.2358352691 0.9375070333
0.06223269925 -0.08955719322 0.7425592542 0.0034931954 -0.0785683915 0.9959282279
0.06150945276 -0.09728083014 0.7414004207 0.03646486253 -0.2053538263 0.9652377963
0.04630639777 -0.0929929316 0.741519928 -0.05294735357 -0.1008470505 0.9932817221
0.03169256076 -0.1135512739 0.7391080856 0.1104115024 -0.1916133463 0.9685851932
0.04157527536 -0.1031659842 0.7406423688 0.001864667283 -0.1367572397 0.9863569736
-0.008381981403 -0.1098098531 0.6874603629 -0.114020586 0.1075637937 0.9846512675
0.01026570797 -0.1240491122 0.7173960805 -0.1447527707 0.07057718933 0.9298320413
-0.0001916007459 -0.1267553121 0.7192773223 -0.01947793923 0.2447600216 0.8699548244
-0.007244115695 -0.1286228299 0.7139723301 0.05117849633 0.4014213979 0.8264119625
-0.0009819545085 -0.1270321757 0.7082151771 -0.03358216211 0.324721843 0.8600416183
0.01487692166 -0.1229495257 0.7020468712 -0.2305409312 0.08033277839 0.9492532015
0.01090106834 -0.1238282472 0.7260245681 -0.1339705437 0.007872077636 0.9376741052
-0.01518980041 -0.1307498217 0.7044409513 0.1233050227 0.5991143584 0.7756453753
0.01225436945 -0.1235805675 0.709897697 -0.183599174 0.08002351969 0.9377851486
-0.001188500552 -0.1263619214 0.700480938 -0.08702742308 0.3567166626 0.8635537624
0.006795827765 -0.1226767004 0.6955804825 -0.2348271459 0.2140071541 0.9335368872
0.01772804745 -0.1224422455 0.7303965092 -0.1559146643 -0.1004078463 0.9749062657
0.02936822921 -0.1195179 0.7022871375 -0.03876417503 -0.6109982133 0.4040849805
0.02587689832 -0.1221620142 0.7180967331 -0.09510776401 -0.2698683441 0.7980053425
0.02320583723 -0.1221217811 0.705991447 -0.236379683 -0.07708002627 0.962067306
-0.07701189071 -0.136288628 0.7203228474 0.08196681738 0.3003184497 0.9429368973
-0.08672820777 -0.1343299448 0.7208163738 -0.0570967868 0.2928959727 0.9445598722
-0.09889908135 -0.1504977793 0.7225345969 -0.3417884409 0.1945609152 0.9179700613
-0.09666863084 -0.1401384175 0.7214127183 -0.2476297021 0.2380359173 0.9341014624
-0.08982177079 -0.1473127007 0.7236036062 -0.160442546 0.2920615673 0.9423829317
-0.06107800826 -0.1400410682 0.7143245935 0.1647344083 0.3521982431 0.9211383462
0.07950304449 -0.04622026905 0.6974123716 -0.03248772025 -0.7494890094 0.6553726792
0.09628171474 -0.07903800905 0.6787505746 0.5874999762 0.2639573514 0.7479743361
0.001695011277 -0.1014532372 0.6877557039 -0.1006642058 0.1057637408 0.9771203995
0.001507042442 -0.1108954698 0.6874998212 -0.2409933358 0.1329452991 0.956389904
0.07865650207 -0.05879513174 0.6803742647 -0.1113461331 -0.5717480779 0.7971121073
-0.1365691125 -0.1160639003 0.6900268197 -0.1801316887 -0.05426558852 0.9782865047
-0.1045933068 -0.1293037683 0.71394068 -0.4842198789 0.2107362449 0.8467341065
-0.114139013 -0.1533455849 0.714241147 -0.4924777746 0.2264353782 0.8339970708
-0.03879158944 -0.09892822802 0.6798945665 0.4271819293 0.262041986 0.1363332123
-0.0455462411 -0.09391307831 0.6763327718 0.6359555721 0.3012961447 -0.325347811
-0.01120088715 -0.1298217624 0.7214596272 0.0397583507 0.3131108284 0.8573924899
0.01372872852 -0.1186932698 0.7406541109 -0.2293822616 -0.1205101535 0.9594602585
-0.01820025966 -0.1318939626 0.7123728991 0.1134603769 0.5017646551 0.8076278567
0.009609645233 -0.1241773367 0.7360355258 -0.1095406637 -0.04846165702 0.9436116219
0.024038909 -0.1160575375 0.7392060161 0.05341827124 -0.05176369846 0.9966359735
-0.1406496316 -0.09125971049 0.6953650117 -0.1300329864 -0.05111214146 0.989788413
-0.1354917586 -0.09860366583 0.6944034696 -0.1819305271 -0.03644635156 0.9782223701
-0.1322408617 -0.08872684836 0.6939619184 -0.2107221484 0.01219827775 0.9771345258
-0.1227083728 -0.0933104679 0.6947838664 -0.243925333 0.07156715542 0.9667505622
-0.04982293025 -0.08723490685 0.6740843058 0.7408765554 0.3186335862 -0.5890753865
-0.07826922089 -0.1295170337 0.713830471 0.1033835188 0.3079708219 0.9431919456
-0.07096843421 -0.134256348 0.714001596 0.1290542334 0.3150002956 0.9375872016
-0.1240413561 -0.1212343946 0.6946958899 -0.4444372654 0.09029921889 0.887198329
-0.1313331872 -0.1246644706 0.6920053363 -0.2965915203 0.04146361351 0.9439775348
-0.1242081523 -0.1456275135 0.6976723075 -0.4697340727 0.2506751716 0.8411698341
0.05045249686 -0.07952438295 0.7417656779 -0.04576736316 -0.03437436745 0.9981534481
-0.009719457477 -0.1248301715 0.6990075707 -0.01983951032 0.5439925194 0.8283625841
0.03978639469 -0.1120183691 0.7060660124 0.2533916831 -0.9237974286 0.1200812683
0.03128792346 -0.1102455556 0.7023689151 0.1639417261 -0.8049785495 0.1622699201
0.03779500723 -0.1051277518 0.7036546469 0.2751247883 -0.7459751964 0.3204195797
0.0852573514 -0.08997692168 0.7360489964 0.4988293946 -0.7226821184 0.4692194462
0.07749745995 -0.09233620018 0.7400289774 0.2319204658 -0.3529399633 0.8213056922
0.09047342837 -0.08620353043 0.7322983742 0.5707983375 -0.7388947606 0.3543504477
-0.06171302125 -0.129752934 0.7109476924 0.1920382679 0.3254283071 0.9251740575
0.07962754369 -0.02928108349 0.7154221535 -0.08817989379 -0.6363979578 0.7658894062
0.07583300024 -0.03306365758 0.7100653052 -0.08099579066 -0.6169297099 0.7822191715
0.07614281774 -0.09166966379 0.6979743242 0.3926789761 -0.2214679867 0.5138434768
0.07331562042 -0.08492329717 0.6942482591 0.3298012614 -0.3818771839 0.5618165731
0.07711792737 -0.07195547223 0.6828375459 0.1712506413 -0.07586625218 0.9413031936
0.07945719361 -0.08110836893 0.688581109 0.2626634538 0.04223338887 0.8296766281
0.08767990023 -0.07875753939 0.6836331487 0.5175351501 0.2913027406 0.7811051607
0.08749821037 -0.08748418838 0.6880490184 0.3763042986 0.2884465158 0.8429426551
0.06387519091 -0.084375076 0.6985317469 0.3441460133 -0.7235198617 0.3803241849
0.06378985196 -0.07209303975 0.6896134615 0.1990027428 -0.521909833 0.6809515953
0.06672985107 -0.07869470119 0.6929574609 0.2713471949 -0.5339480042 0.5751507282
0.07095579803 -0.0658743903 0.6825029254 0.1268892586 -0.3605694175 0.8608457446
0.0625789836 -0.06174301729 0.6841442585 0.1014422178 -0.6524151564 0.7506664991
0.07487241179 -0.09760876 0.7024928331 0.4552088678 -0.3227776885 0.3680613935
0.08219992369 -0.1022028923 0.7029591799 0.4949118495 -0.8575339317 -0.02425657213
0.07498541474 -0.09990151972 0.732984364 0.2233515978 -0.3866655231 0.7032437325
0.08138836175 -0.09721720964 0.7231641412 0.4379919767 -0.7163376212 0.334644109
0.08222041279 -0.09438385814 0.7305779457 0.4545995295 -0.7167397738 0.4283243418
0.07930537313 -0.1016960591 0.713747859 0.3845417798 -0.670675993 0.2490945011
0.07188802212 -0.1050377116 0.7068179846 0.4901930392 -0.8458072543 0.1213628799
0.06813500822 -0.1049515232 0.725318253 0.2811757028 -0.5171954036 0.5599358082
0.06539881229 -0.108819887 0.7103503346 0.4594596922 -0.8373560905 0.1790804565
0.03262426704 -0.05414691195 0.6914752722 0.0714757964 -0.5114890337 0.8556612134
0.07330247015 -0.05368215218 0.68471241 0.02622526325 -0.7369111776 0.6733041406
0.05290599167 -0.05740018189 0.6869540215 0.0945290029 -0.6219623685 0.7768909335
-0.1439847946 -0.1002768725 0.6931963563 -0.09532490373 -0.07997983694 0.9919403791
-0.1282212734 -0.11304719 0.6926632524 -0.3317890465 0.006051612552 0.9377218485
-0.1409049332 -0.108843796 0.6902688146 -0.09712185711 -0.06236189231 0.9890828133
-0.1043450981 -0.1499470323 0.7146404982 -0.4344039559 0.1969438642 0.8631078005
-0.09006336331 -0.1433591545 0.7166824937 -0.1420534402 0.2671726942 0.9188203216
-0.07163161039 -0.1408424824 0.7169700861 0.09947406501 0.3219401538 0.9395026565
-0.1045781747 -0.1423392147 0.7164757848 -0.4592155516 0.1895336658 0.8670526743
-0.09737474471 -0.08223702013 0.6893904209 -0.1054920107 0.3131358922 0.7784404159
0.02421309985 -0.1022464633 0.7410182953 0.02524595521 -0.06002933159 0.9938267469
0.01689783111 -0.1068302542 0.7410991192 -0.1076101959 -0.06648860872 0.9836643338
-0.04541186616 -0.1240767092 0.7023656964 0.2194420248 0.4181144834 0.8778737783
-0.04905683547 -0.1305731833 0.7076734304 0.1954994202 0.3944845796 0.897592783
-0.1152158603 -0.09550238401 0.6962078214 -0.3356526792 0.1412993371 0.9308122396
-0.06372848153 -0.07552032173 0.6654160619 0.651143074 0.5348562002 -0.3895970583
-0.07108231634 -0.07530426979 0.6647320986 0.5066591501 0.8142915368 0.2475693524
-0.06448350847 -0.06469608098 0.6774371862 0.4843668938 0.5572769642 -0.1747352034
-0.06605318189 -0.05619695038 0.6908162236 0.2295916229 0.03570679203 0.3834442794
-0.1058440506 -0.1336619854 0.706484735 -0.4441457987 0.2278127372 0.8080716729
-0.09306246787 -0.1292017549 0.7109695077 -0.1534450054 0.2715470195 0.8978040218
-0.09259367734 -0.1292953938 0.7193004489 -0.1229935214 0.2873178422 0.9438161254
-0.1234131381 -0.1328877509 0.6961925626 -0.5001808405 0.1692225933 0.8478599191
-0.1289907694 -0.1373704523 0.694988966 -0.4191097915 0.197564885 0.8786644936
-0.1322054565 -0.1446350515 0.6950836182 -0.3782900274 0.2593223751 0.8833818436
-0.1148336753 -0.1300988942 0.7051811814 -0.5842141509 0.1786328852 0.7887021899
0.03430593759 -0.09969385713 0.7409999967 0.01255205926 -0.08548326045 0.9943091273
0.0217221044 -0.1164247692 0.7009919882 -0.2850967646 -0.10953594 0.9450899959
0.01362898666 -0.1044270694 0.696375668 -0.198019132 0.02212467603 0.9582416415
0.01835063472 -0.1100483909 0.6987733841 -0.2340297401 -0.05550143868 0.9517287612
0.01897899248 -0.09496010095 0.6939942241 0.06786187738 -0.2212725431 0.7547043562
0.01585833915 -0.0882280618 0.6911723614 0.12030752 -0.1418006271 0.8079545498
0.02445877716 -0.1022931635 0.697850287 0.1013913751 -0.479978323 0.4934124947
0.006140965037 -0.09009571373 0.6887642145 0.03400788829 0.07234850526 0.9909505844
0.009039010853 -0.09782531857 0.6929777265 -0.1122940183 0.07207037508 0.9713592529
0.01070193108 -0.08354572207 0.6883460879 0.08832620829 0.05348973349 0.9897407889
0.009990900755 -0.1121124551 0.696213603 -0.2930050492 0.08155609667 0.9521712661
0.006222569384 -0.1054976732 0.6919456124 -0.2002769858 0.09948293865 0.9618439674
0.04119418934 -0.02825220302 0.7125884295 0.00456764549 -0.5989786386 0.8005949259
0.07088500261 -0.03854552284 0.7051538229 -0.06249630079 -0.6375018358 0.7647396922
0.08742749691 -0.07202649862 0.678149879 0.2638881803 0.1445993036 0.9065889716
0.09159463644 -0.05808616057 0.6824553609 -0.3229557872 -0.5231364965 0.7853665352
0.08125373721 -0.06604183465 0.6795764565 -0.03680825606 -0.3074811995 0.9210139513
0.03019835241 -0.06915975362 0.6894070506 0.1303345859 -0.4177615047 0.8850861788
0.0429267697 -0.09778317064 0.7029621601 0.2833873928 -0.7893980145 0.3948084712
0.03471074626 -0.08717588335 0.6970267892 0.2419220507 -0.603087306 0.607218802
0.03386212513 -0.07803677022 0.6935369968 0.1790377498 -0.5290780067 0.7355266809
0.02049183659 -0.0759236142 0.6889979243 0.1700628996 -0.2477979362 0.9093364477
0.03146620095 -0.09412912279 0.698340416 0.2497577965 -0.5161514282 0.5750293732
0.0251447577 -0.08416273445 0.6931253076 0.2042060345 -0.3597343862 0.7626025081
0.0218326021 -0.06584402174 0.6880300045 0.164283365 -0.3605890274 0.9173259735
0.01523942407 -0.05564728379 0.6945559382 0.1463763118 -0.4161294997 0.8972654343
0.02251902595 -0.0574958697 0.6918671131 0.1302781105 -0.435631901 0.8892063498
0.0212488398 -0.05105249956 0.6959689856 0.09254922718 -0.4829955995 0.8671654463
0.01571272314 -0.04664043337 0.6987876296 0.07118148357 -0.5030011535 0.8607903123
0.03368582204 -0.04722133651 0.6978556514 0.0229330156 -0.5695411563 0.8213860989
0.006481394172 -0.03896509856 0.7044064999 0.0463966094 -0.5067539215 0.8604573011
0.04076611996 -0.05541274324 0.6907480955 0.06991048902 -0.5509681702 0.8289897442
0.04166441411 -0.04777006432 0.6976894736 0.00490390975 -0.5854248405 0.8104893565
-0.08194951713 -0.1437104344 0.7205777168 -0.07393908501 0.3032657802 0.943757236
-0.08157806098 -0.07283838093 0.6710959673 0.3656177819 0.6469014287 0.3766511679
-0.08639264107 -0.07688970864 0.6773901582 0.2094513178 0.5359655023 0.5020266175
-0.1088391766 -0.07543813437 0.6943683028 -0.2447395325 0.1590429097 0.9226158857
-0.09266186506 -0.07661839575 0.6822136045 0.08079187572 0.4297676384 0.6205763221
-0.0366618 -0.128521651 0.7067304254 0.2041268051 0.531580627 0.8170025945
-0.03846081346 -0.1145693585 0.6962041259 0.3056936264 0.4510167539 0.8326063156
-0.05776121467 -0.05239052698 0.6961423755 0.1847324669 0.08655441552 0.6475556493
-0.05830420926 -0.05780053511 0.689178884 0.3382070065 0.2635366023 0.2924981117
-0.0625417456 -0.04834349826 0.7034828067 0.02351292968 -0.4452137351 0.877073884
-0.05767644569 -0.05372426659 0.7048330903 0.06043669581 -0.2353680283 0.9551458359
0.005145562347 -0.08628317714 0.7244101763 -0.3158955872 -0.03194870427 0.8769496083
-0.002585316775 -0.07827852666 0.7007431984 0.09027981758 -0.1143230647 0.947473228
0.01403796207 -0.08528395742 0.7330101132 -0.001353300875 -0.03623530269 0.98584795
0.002754532034 -0.07776571065 0.714612484 -0.08806007355 -0.1225254163 0.9219416976
-0.03105041385 -0.1134430766 0.6907983422 0.2132059783 0.4666268826 0.8556668758
-0.004162059631 -0.08901845664 0.7135589719 -0.165555194 -0.03600844741 0.9259081483
-0.003919839393 -0.08175213635 0.7092897892 -0.05809370056 -0.06306160986 0.9290991426
-0.009550538845 -0.07858917862 0.7025928497 0.0513923876 -0.08400255442 0.9532409906
-0.0127330441 -0.08683914691 0.6985347271 0.05720088258 -0.09587771446 0.9787894487
-0.008812600747 -0.08811885118 0.7054244876 -0.04654380679 -0.06919821352 0.9546942115
-0.003960386384 -0.09689401835 0.7101509571 -0.214376092 -0.162160188 0.8863883018
0.003020130564 -0.09593334049 0.7237614393 -0.3805142045 -0.06488135457 0.8580021262
0.008407930844 -0.1013106108 0.7209638357 -0.5198580623 -0.2871663868 0.7264821529
0.008373410441 -0.09502766281 0.7345665097 -0.507616818 0.01793146133 0.8392595649
0.004734668881 -0.1017341092 0.7139800787 -0.4322845042 -0.3343697786 0.7428888083
-0.004767701961 -0.09989339858 0.7022975087 -0.2004074305 -0.3137795031 0.8379309773
-0.07870943844 -0.06284497678 0.6766324639 0.2077573091 0.5470530391 0.255410701
-0.07405787706 -0.05296230316 0.6958842278 0.03911146522 -0.02133304253 0.7649101615
-0.07135368884 -0.06451814622 0.6718688607 0.3547355533 0.6971130967 -0.08450569212
-0.07356193662 -0.05694346502 0.6877834201 0.1403965056 0.225628227 0.4820884466
-0.0719833672 -0.06066281348 0.6797729135 0.2540961802 0.4577671885 0.1927429438
-0.08196441829 -0.05589228868 0.6932035685 -0.02782545425 0.1498997957 0.7430963516
-0.07050416619 -0.06787008792 0.6633148193 0.4683387876 0.8447606564 -0.2476791292
-0.06542119384 -0.06787312031 0.669100225 0.5260131955 0.7541561723 -0.3501703441
-0.07924764603 -0.07496513426 0.7035883665 -0.1039023697 0.03350978345 0.9934559464
-0.03312071413 -0.06604824215 0.6904608011 0.3340110779 0.008750846609 0.3947837353
-0.02920836955 -0.06127974391 0.6948058009 0.17860578 -0.196619764 0.7494565845
-0.09960591048 -0.1244000271 0.7159004807 -0.3198083639 0.2573063076 0.8985640407
-0.04317364097 -0.1029486731 0.6894537807 0.5030621886 0.4393966198 0.5415942073
-0.04420181364 -0.1080518216 0.6956637502 0.4273292422 0.4250791967 0.7905566096
-0.1169652119 -0.1475666165 0.7104882598 -0.5758729577 0.2217095494 0.7852538824
-0.1139082238 -0.1378181875 0.7079305053 -0.5875301361 0.1902667582 0.7850487828
0.0646320805 -0.07242076099 0.7425044775 0.04379916936 -0.01027454156 0.998829782
0.05831535161 -0.06591685116 0.7391955256 -0.01368771866 -0.06371276826 0.9838987589
0.0650941208 -0.0557853356 0.7327814698 0.009922189638 -0.1889570653 0.9402210712
0.06744330376 -0.06263315678 0.7374452353 0.02445711568 -0.1134970561 0.9606074095
0.0716541931 -0.0482506305 0.7280611992 -0.02217797935 -0.332508564 0.8802757859
0.07362145185 -0.04211190343 0.7240635753 -0.0424323231 -0.4271547198 0.845268786
0.07195480913 -0.0339322798 0.7185444832 -0.06060010567 -0.5237999558 0.8167862296
0.05108721554 -0.03166813031 0.7096549273 -0.01533596125 -0.5830532312 0.8121648431
0.05515669659 -0.04562178999 0.7218763828 -0.03757920861 -0.3717396557 0.883245945
0.06440683454 -0.02761921473 0.7139106393 -0.06493893266 -0.5601421595 0.8189735413
0.05552807078 -0.0387308225 0.7166326642 -0.04300305992 -0.4687710702 0.851139605
0.0583820045 -0.05011200532 0.7276940942 -0.0395684056 -0.2812557518 0.912376523
0.04648135975 -0.03233342618 0.7165375352 -0.007154279854 -0.5169785023 0.8317672014
0.05277617648 -0.05689626932 0.7329543233 -0.01731421053 -0.1886864305 0.9423745871
0.04853665829 -0.04081900045 0.7222973704 -0.01008081436 -0.4027483463 0.8701911569
0.008873695508 -0.1008469686 0.7416049838 -0.1450323164 -0.03991003335 0.9863679409
0.009506176226 -0.09926233441 0.7282418013 -0.5168517232 -0.1705955565 0.771006465
-0.0041189529 -0.114613533 0.730245173 -0.0311564263 0.1941209286 0.9156982899
0.004463924561 -0.116207689 0.7353284359 -0.1358455122 0.04404088482 0.9359577298
-0.005470877979 -0.1248189062 0.726472199 -0.05094357207 0.2177428007 0.8815191388
-0.01770288683 -0.1266264468 0.717574954 0.08724115044 0.4395994246 0.8381847143
-0.05185060948 -0.1375318319 0.7138425708 0.1744465083 0.381409198 0.9072437286
-0.05750227347 -0.1204173565 0.7102568746 0.2046748549 0.2684311867 0.9397819638
-0.04275804758 -0.1335832477 0.7124228477 0.1933446229 0.4288718998 0.8808186054
0.05750045925 -0.04045277089 0.7032772303 -0.01325897593 -0.6258864999 0.777893424
0.04929018393 -0.04406936094 0.70003438 -0.008262463845 -0.6310081482 0.7743615508
0.05423380062 -0.04820637405 0.6966761351 0.05229441449 -0.6504706144 0.7550873756
0.04850636795 -0.03794367611 0.7056319714 -0.01338815968 -0.5910526514 0.8062841296
0.06616258621 -0.04468389228 0.6987406015 0.004482830409 -0.6948362589 0.7173936963
0.07019447535 -0.04737234116 0.6927463412 0.01236117352 -0.7273923755 0.6828578711
0.06163849309 -0.04868992791 0.6927741766 0.02701390348 -0.6715200543 0.7365508676
-0.001985134091 -0.03773777932 0.7059791088 0.04513994604 -0.4848484397 0.8732278347
0.04117392749 -0.03819961846 0.7054133415 -0.004661158659 -0.6012259722 0.7988020182
-0.1175425425 -0.1063867733 0.6979038119 -0.3985423446 0.1087844074 0.8982378244
-0.1233287081 -0.101312995 0.6948825121 -0.2892197669 0.05001728237 0.9506073594
-0.05358767137 -0.07158925384 0.6777796149 0.6378647089 0.4743435979 -0.4176700413
-0.07201953232 -0.06628453732 0.7040513158 -0.05427538231 -0.006349632982 0.9944592714
-0.0007741074078 -0.06725434214 0.6932891011 0.1735929251 -0.2464350611 0.9521502852
0.007391378749 -0.07419390976 0.6892238259 0.2046469748 -0.1831148118 0.9596595764
-0.04074679315 -0.06934583932 0.6898844838 0.2735966742 -0.1264331043 0.3952349722
-0.09200531244 -0.0576579906 0.6997339129 -0.1913057566 0.08085986972 0.9781784415
-0.08056175709 -0.06713739783 0.7030698061 -0.1306939423 0.05135928094 0.9895424843
0.009116924368 -0.06318981946 0.6925696135 0.1578502208 -0.3290214837 0.9299681187
-0.07237999141 -0.08701791614 0.680999577 0.2278507501 0.5710471869 0.6703923941
-0.07061614841 -0.08313230425 0.6727907658 0.3191628754 0.7222505808 0.5269718766
-0.0734012872 -0.09073867649 0.6885962486 0.1387507319 0.4376566708 0.8027717471
-0.06541769207 -0.09107483178 0.6841206551 0.3514644504 0.3604005575 0.287958622
-0.05677528679 -0.09098099917 0.6784205437 0.5893645883 0.2941033542 -0.2776339352
-0.06411812454 -0.0867723152 0.6759998798 0.3673221767 0.5899139643 0.302382499
-0.02811068855 -0.05602656305 0.7009897828 0.1099854186 -0.2523601949 0.9606060386
-0.03757885471 -0.07533021271 0.6839953065 0.5488196015 0.2555419803 -0.0809174329
0.03934871405 -0.08655823767 0.7414265275 -0.04670001939 -0.04627715051 0.9976502061
0.04750114679 -0.0523346439 0.6935837865 0.06605982035 -0.6171007752 0.7828902602
0.01723237894 -0.09820789099 0.7410503626 0.05524917692 -0.0263270773 0.9970864058
-0.03547421843 -0.05922200531 0.7021262646 0.1154391468 -0.2478520274 0.9616823196
-0.04341559112 -0.05602556095 0.7052381039 0.09632094204 -0.1834022105 0.9778306484
-0.01859662496 -0.05328352377 0.7004292607 0.09199737757 -0.3153467774 0.9439983964
-0.02195333317 -0.06135914102 0.6978581548 0.1044577137 -0.2419931442 0.962662816
-0.02364412323 -0.04811007157 0.7014588714 0.08388298005 -0.3291276395 0.9398217797
-0.1196136326 -0.08187853545 0.6950801015 -0.234513849 0.06899753958 0.9691615701
-0.03168900311 -0.04646541923 0.7032395601 0.09151881933 -0.2795613408 0.9548501372
0.0001633784996 -0.07682946324 0.6914447546 0.1990927309 -0.1230635941 0.9693017602
-0.02243270539 -0.1191019267 0.6945748925 0.1528536975 0.5425952673 0.8244192004
-0.03134587035 -0.10197182 0.6869760156 0.3635348678 0.1931196153 0.2707341313
-0.03186658025 -0.09377493709 0.6895822883 0.5719769597 0.1571737081 -0.1303633749
-0.1167301163 -0.07330513746 0.6964889169 -0.2336394042 0.104385592 0.9664363265
-0.1081137285 -0.06827501953 0.6990212798 -0.2387850881 0.11714717 0.9638011456
-0.09616234899 -0.06144660711 0.6919621229 -0.09202317148 0.2216743678 0.771320343
-0.08642584831 -0.06485196948 0.6808747649 0.1161373109 0.4622060359 0.3983068466
-0.09449064732 -0.06765755266 0.6829374433 0.02714152634 0.3970769048 0.5149672627
-0.1030912995 -0.0685762167 0.6869664192 -0.08652514219 0.2913917899 0.6874153614
-0.1035970598 -0.0610104166 0.6973338723 -0.2135255784 0.09548615664 0.9719722867
0.007203835528 -0.04654393718 0.6997459531 0.07137101889 -0.459569484 0.8846245408
0.005951965693 -0.05471232161 0.6968734264 0.1113153175 -0.3892920315 0.9136000276
-0.004916976206 -0.04612991959 0.7024160028 0.07827560604 -0.4256642163 0.9010282159
-0.01294869184 -0.04755479097 0.7018039227 0.09365692735 -0.3681792915 0.9249004126
0.0008745725499 -0.06042357907 0.695584774 0.1397711933 -0.3209602535 0.9344855547
-0.003307313425 -0.05712286383 0.7018838525 0.08759878576 -0.3275600672 0.9357352853
0.01150344219 -0.08143250644 0.7274804711 0.04331757501 -0.07724289596 0.986558497
-0.0005541413557 -0.06494102627 0.705295682 0.1007536277 -0.2512806654 0.9520006776
0.005413578823 -0.05705924332 0.7059988976 0.07763646543 -0.3463732004 0.9221363068
0.006720110774 -0.07022152841 0.7182091475 0.05127457902 -0.1935440749 0.9612508416
-0.008340895176 -0.06459188461 0.6953251362 0.1450740546 -0.2571745515 0.9548177123
-0.009764927439 -0.05645444989 0.6982457638 0.100312911 -0.3055872023 0.945458889
-0.1149083152 -0.08746061474 0.6991725564 -0.2765221596 0.1330789924 0.9466148019
-0.1056080312 -0.0869827047 0.7005566955 -0.2656792998 0.1675904244 0.9474946856
-0.09858627617 -0.09295985103 0.6953564882 -0.1902540028 0.2514992952 0.8963486552
-0.08387420326 -0.08852445334 0.6852660775 0.07583920658 0.4611794949 0.7347511649
-0.08056803793 -0.09255314618 0.6934406161 0.04457398877 0.3213001788 0.8832912445
-0.08732431382 -0.09369703382 0.6962189674 -0.06144353002 0.2582368255 0.9246544838
-0.09637959301 -0.08944689482 0.6879259348 -0.0987412855 0.3889134228 0.7673617601
-0.09061643481 -0.0835333541 0.6838774085 0.004340952262 0.4502916932 0.7088027596
-0.08495555818 -0.08471754193 0.6785877347 0.1207177192 0.5755876899 0.6161507964
-0.08392804861 -0.12057551 0.7123224735 0.03991518542 0.3042475879 0.9513109326
-0.07973876595 -0.1118068174 0.7090045214 0.06509866565 0.2933647335 0.9529778361
-0.1073971838 -0.09427303076 0.6977236867 -0.3206968307 0.1944585294 0.9231873751
-0.1065590903 -0.1044510603 0.7039878964 -0.4066664279 0.2299802601 0.883061111
-0.05530424416 -0.1099593863 0.7002347112 0.3491508961 0.2980258763 0.6727306247
-0.05389629677 -0.09756366163 0.6848250628 0.5688741803 0.2853018641 -0.08523453027
-0.05234453082 -0.1035124883 0.6906502247 0.4945695996 0.3071580827 0.2373587638
-0.06749723107 -0.09571129829 0.6929740906 0.2684274614 0.2608812153 0.5245708823
-0.07408156246 -0.09590239078 0.6976442933 0.1054509506 0.2513680458 0.8748390079
-0.06061550975 -0.09936760366 0.6941157579 0.3845692873 0.2725982666 0.3859437406
-0.07422626019 -0.1029788628 0.7080179453 0.09097599983 0.2527745664 0.9597177505
-0.07678672671 -0.08878277242 0.7030694485 -0.009259185754 0.1517565101 0.9859467745
-0.06605549902 -0.1002674326 0.7073221803 0.1677051783 0.2114290148 0.9585579038
0.04211774096 -0.07951892912 0.7413067818 -0.05827942118 -0.03365503624 0.9976445436
0.05145901814 -0.0710703209 0.741009295 -0.03541564196 -0.02069653198 0.998980999
0.03281229362 -0.07879790664 0.7408263087 -0.04352234676 -0.01836670935 0.9986490607
0.04347707331 -0.06917285174 0.7373081446 -0.05068874359 -0.06669633836 0.9842467904
0.04611804336 -0.05523662642 0.7277342081 -0.02702732384 -0.2576431632 0.9196436405
0.02805937827 -0.03021685779 0.7160097361 0.02105422691 -0.570368886 0.8114124537
0.03293282539 -0.03978086263 0.7211425304 -0.0004912801669 -0.4469132423 0.8523025513
0.03407524154 -0.05682400241 0.7300399542 -0.02606989816 -0.2389577478 0.9260495901
0.03523568064 -0.06862794608 0.735488534 -0.04202100635 -0.1082504168 0.9715077877
0.04166558757 -0.04871117696 0.723246932 -0.02417195402 -0.3513712883 0.8866519928
0.04023180529 -0.0415446423 0.7197910547 -0.01181148645 -0.4392142594 0.8549114466
0.03684179485 -0.03356229886 0.7172981501 0.003270852147 -0.5268986225 0.8213047385
0.04025432467 -0.06257991493 0.7331011891 -0.04502248392 -0.1576616466 0.9521552324
0.01066916622 -0.06019644812 0.7129291892 0.05424137414 -0.283380121 0.9358395934
0.01843912341 -0.07788023353 0.7331718802 0.00783131551 -0.07490431517 0.9839063883
0.01508021168 -0.07370502502 0.7268812656 0.02555897459 -0.1372303516 0.9696525931
0.02787997574 -0.0461643897 0.7236255407 0.002043351298 -0.3864033818 0.8752767444
0.01531496644 -0.06189421564 0.71964854 0.02570209093 -0.2385073155 0.9420526028
0.01257993933 -0.05405510962 0.7175194025 0.02880443633 -0.3211692274 0.9138137102
0.008971660398 -0.04986360669 0.7117287517 0.04735324532 -0.3823981583 0.8994913697
-0.04294513538 -0.06499774009 0.7025792003 0.1548295617 -0.2860340476 0.9385731816
0.01296504308 -0.03549690172 0.7074025869 0.03348634765 -0.5445768833 0.8376260996
0.01802555472 -0.05430350825 0.7231757045 0.006854468491 -0.3033629656 0.9093361497
0.006145811174 -0.03693800792 0.7115106583 0.04042227566 -0.5069563389 0.8521161079
0.01693993993 -0.04536589608 0.7178811431 0.01891668327 -0.4144637585 0.8722631931
0.02070663311 -0.06189927459 0.727923274 -0.005220186431 -0.2111509293 0.9381774664
0.02619158104 -0.05408139154 0.7266902924 -0.002802456031 -0.2969812155 0.9043012857
0.02685837075 -0.07453034073 0.7361207604 -0.02709254622 -0.05944004655 0.9837835431
0.02333204262 -0.03702360764 0.7171785831 0.02062236518 -0.5025379658 0.8370885253
0.02717804722 -0.06574233621 0.7325009704 -0.01748627052 -0.1595742553 0.9498656988
0.0194020886 -0.04084046185 0.7029980421 0.04423703253 -0.5543730855 0.8306706548
0.02279379778 -0.03568475321 0.7081038952 0.03073854558 -0.5740830898 0.8179237843
0.02986466698 -0.03800955787 0.7055763006 0.0242631752 -0.5908515453 0.8059665561
-0.09516471624 -0.08338664472 0.7028688788 -0.1587991416 0.1621461362 0.9730240703
-0.1013044715 -0.07822341472 0.6999696493 -0.2228229046 0.1347350329 0.964093864
-0.09560138732 -0.07341839373 0.7017531395 -0.1901061237 0.08303234726 0.9778829813
-0.08620242774 -0.07962111384 0.7030958533 -0.1037128568 0.1071792468 0.9869260192
-0.0930531621 -0.06599602848 0.7010484934 -0.1963889301 0.1024614722 0.9748789668
-0.03998439386 -0.04888216779 0.7029177547 0.06631147861 -0.2564569414 0.9546732306
-0.05230265483 -0.04794065282 0.7041679621 0.06341125816 -0.1472559124 0.9866217375
-0.04746665061 -0.06521057338 0.6906494498 0.08719007671 -0.2201032043 0.5113622546
-0.04763616249 -0.05293510854 0.697429359 0.1865380406 -0.045135241 0.6734454036
-0.0525434576 -0.06506340951 0.6849390268 0.340495348 0.1619906425 0.1332532912
-0.009464154951 -0.07822177559 0.6941351295 0.1772062778 -0.09665809572 0.9784285426
-0.003075871617 -0.09189514816 0.6897242665 0.07568253577 0.029084526 0.9926188588
-0.00772259431 -0.1001539826 0.6880503297 0.01662426628 0.05380323529 0.9961026311
-0.01296829991 -0.0936095342 0.6903523207 0.1066280827 0.03208110482 0.9871544242
-0.01804346777 -0.1012809053 0.6882231832 0.05416769907 0.08268767595 0.9892450571
-0.003251367249 -0.114019528 0.7081591487 -0.2759172916 -0.1307900101 0.6891307831
-0.008855264634 -0.1162000448 0.713894248 -0.07034806162 0.1648933887 0.7964785099
0.008669491857 -0.1072127968 0.7114340067 -0.5187186003 -0.5125873685 0.6388733387
0.006334933918 -0.1063027084 0.7268016934 -0.2699592412 -0.182088986 0.8329619169
0.0004052850709 -0.1105399057 0.7190962434 -0.2255579233 -0.08924185485 0.7880271673
-0.01616752893 -0.1203212887 0.7122709751 0.08343186975 0.4052464664 0.8317433596
-0.01342272013 -0.1054774895 0.6967638135 -0.05886762217 -0.03656490892 0.9561311007
-0.01970103756 -0.1230865866 0.7040859461 0.06672349572 0.4015814066 0.7690768838
-0.01165297162 -0.1112384796 0.7012215853 -0.1005795896 0.01454850286 0.8421615362
0.002165196929 -0.1091673374 0.7074146867 -0.3985818624 -0.3524729609 0.6836449504
-0.02911358327 -0.1282067746 0.7044640183 0.1831062883 0.592426002 0.7843969464
0.001923745032 -0.1078668311 0.7338073254 -0.07380975783 0.09733682871 0.946615994
-0.007135532331 -0.1142064184 0.7234014869 0.01208428945 0.2630268931 0.8938331604
-0.02608593367 -0.1339091957 0.7092208266 0.1630600691 0.5929169655 0.7885072231
-0.05378064513 -0.1003604159 0.7058179379 0.3589963913 0.1088767201 0.9127212167
-0.03756444529 -0.08955809474 0.6867676377 0.6540711522 0.2095956057 -0.3467939794
-0.03448183462 -0.08249251544 0.6870808601 0.5402705073 0.1483784169 -0.04795037955
-0.01728007942 -0.08134707808 0.6942226291 0.192085728 -0.0701181218 0.8385179043
-0.0450287573 -0.07616522908 0.6805288792 0.6752242446 0.3706422448 -0.4341473579
-0.02740405872 -0.07788972557 0.6895489097 0.4025049508 0.07005301118 0.3430597782
-0.02692927048 -0.07111949474 0.6972715855 0.02321257815 -0.2136861235 0.9745897055
-0.01733935066 -0.0674988851 0.6960192323 0.08876210451 -0.2309560478 0.9668429494
-0.02269990556 -0.09218565375 0.6964369416 0.01370400563 -0.1687647104 0.9837682247
-0.02861651033 -0.12006253 0.7028027177 0.1647243351 0.4289762378 0.8310146928
-0.02758745849 -0.1131364703 0.7011304498 0.1177285761 0.2577080429 0.8731065392
-0.0202941075 -0.1088346243 0.6979806423 0.04182916135 0.1241666004 0.9311987162
-0.02407382987 -0.1015730798 0.6978110671 0.02734662034 -0.03304904327 0.9488142133
-0.06650929153 -0.05665625259 0.7042925954 0.001904335804 -0.1515569836 0.9845966101
-0.08314011246 -0.05835097656 0.7020459771 -0.1421534419 0.06479333341 0.9873782992
-0.08763465285 -0.08799672872 0.7042784691 -0.08463736624 0.1939917803 0.974812448
-0.09660743177 -0.09260522574 0.7053573728 -0.1834831089 0.24273628 0.9489964247
-0.1071824133 -0.1108873338 0.7001106143 -0.361869216 0.1998420358 0.8747965097
-0.06820560992 -0.1077902094 0.7045960426 0.1438712031 0.2367572635 0.9584970474
-0.06037824601 -0.112358585 0.706135273 0.2327126265 0.2706219256 0.9320608377
-0.06778275222 -0.0827723667 0.703790009 0.08875623345 0.1144762784 0.9787632823
-0.06665555388 -0.07501988858 0.7042894363 0.06475953758 0.02887162752 0.9861369729
-0.05806406215 -0.07522737235 0.7039513588 0.255016923 -0.1417416781 0.9287651777
-0.06412576884 -0.0670819506 0.7047832012 0.07055609673 -0.08158739656 0.9854742885
-0.06071615592 -0.08815445751 0.7039385438 0.2654482126 0.1417738199 0.9497580528
-0.0493227765 -0.060876064 0.7048002481 0.1403980404 -0.2629152834 0.9441024661
-0.055063162 -0.06696844101 0.7035577893 0.180195272 -0.3861795068 0.8992117643
-0.04859405383 -0.07120528072 0.7025067806 0.2330230325 -0.3372323513 0.906150043
-0.05312213674 -0.08474481851 0.7040182352 0.3632641137 -0.09373725951 0.9026033878
-0.0372524932 -0.07760758698 0.6989603639 0.1205366552 -0.1622736305 0.9738491178
-0.03503947705 -0.06797045469 0.7000020146 0.09809269011 -0.2240684777 0.9659341574
-0.04703705758 -0.08101794124 0.7019895911 0.2793203592 -0.2424617857 0.9039056897
0.02022986487 -0.09080318362 0.7405794263 0.02835158072 -0.01522401348 0.9990335107
0.03181583434 -0.08701891452 0.7410293221 -0.02503228188 -0.02996606566 0.9988145232
-0.04846921563 -0.1222797483 0.7091433406 0.2345510721 0.3446010947 0.9011865258
-0.04538666829 -0.1150867045 0.7064046264 0.3343802989 0.3301535547 0.8716542125
-0.04416371137 -0.1042073295 0.7028508782 0.380928427 0.21815148 0.8728548288
-0.03261992335 -0.1007725224 0.6996453404 0.1536965966 0.01793190651 0.9284725785
-0.03982646391 -0.1103747189 0.7032625079 0.3072063625 0.3006435931 0.8567478657
-0.03887463734 -0.1211410835 0.7061637044 0.2700713277 0.4490062892 0.8376383781
-0.03038463369 -0.08155228198 0.6971504688 0.0268589817 -0.1715424657 0.9789284468
-0.03138811141 -0.09082021564 0.6984274387 0.09387342632 -0.1171765253 0.9581766129
-0.03917555511 -0.09655977786 0.7015488148 0.2697409093 -0.03647055849 0.9274952412
-0.04319531471 -0.08917716891 0.701510489 0.2723246515 -0.052475743 0.9385508895
-0.09994295239 -0.1078199521 0.7096961737 -0.2739708424 0.3055665493 0.9111901522
-0.08106096089 -0.09877769649 0.702180922 0.02989798784 0.2704280317 0.9609909654
-0.09164515883 -0.09818723798 0.7073374391 -0.09851589054 0.2915864885 0.9478784204
-0.08721549064 -0.1084395945 0.7094025612 -0.01514575165 0.3066479266 0.9480315447
-0.09701479971 -0.115618214 0.7109737992 -0.2337090224 0.276188314 0.91634655
-0.103652522 -0.1245794967 0.7040673494 -0.3137035072 0.2126586139 0.8730977774
-0.1096167415 -0.1177715361 0.7056592107 -0.5550398827 0.1971986145 0.8061872721
-0.06486726552 -0.1175601855 0.7107492089 0.1764471382 0.2396980524 0.9542636871
-0.07242581993 -0.1221651435 0.7143095732 0.1424784213 0.2976901829 0.9431272745
