# .PCD v0.7 - Point Cloud Data file format
VERSION 0.7
FIELDS x y z normal_x normal_y normal_z
SIZE 4 4 4 4 4 4
TYPE F F F F F F
COUNT 1 1 1 1 1 1
WIDTH 512
HEIGHT 1
VIEWPOINT 0 0 0 1 0 0 0
POINTS 512
DATA ascii
-0.204673022 -0.1370094568 0.7093606591 0.2000079751 0.02461790852 0.9777451158
-0.0006964993663 0.01637663133 0.749992609 0.1881129593 -0.2184255272 0.7804227471
-0.002398908837 0.0235921964 0.746109426 0.1550739855 -0.4043833911 0.6986638308
-0.005602443125 0.03674690053 0.7356936932 0.08486925066 -0.7926847339 0.5300152302
-0.137037605 -0.05165630579 0.7262967825 0.2035254389 -0.02860996127 0.9583841562
-0.1384563744 -0.04223959148 0.7237359285 0.272323817 -0.1309749633 0.9460737705
-0.1782673448 -0.04708142206 0.7256900072 -0.03546421975 -0.1630191654 0.9772353768
-0.1628300101 -0.04394315556 0.703400135 -0.03307785094 -0.6717405319 0.4634411335
-0.2007248253 -0.1577407569 0.7148984671 -0.008356402628 0.1451844275 0.9859135747
-0.006501636934 0.008477605879 0.7631252408 0.02979733795 0.2057370842 0.968048811
-0.01042754482 0.01628303155 0.7590005994 -0.04574694857 -0.02389633842 0.7594279647
-0.01108013373 0.02378982492 0.753595531 -0.1306771338 -0.3195718527 0.4891438186
-0.008865995333 0.03733592853 0.7435907722 -0.271500349 -0.7996659875 -0.01074878313
-0.1907764971 -0.1083095297 0.7120751739 -0.05553356558 -0.2302889377 0.9667543173
-0.1883338243 -0.136487782 0.7072913051 -0.1298256963 0.01513282582 0.9871540666
-0.1941218823 -0.1432863325 0.7070991993 0.03089490533 0.09940935671 0.9925276041
-0.1873090118 -0.1489125192 0.707496047 -0.1611575931 0.1542213261 0.9706031084
-0.04662785307 0.03166181967 0.7333869338 0.3104904592 -0.7552862167 0.5767072439
-0.1048914567 -0.05606560037 0.7182763815 0.1667069346 -0.01826708578 0.9689016342
-0.1129192337 -0.05610670522 0.7208946347 0.241954416 0.06964571029 0.9577558041
-0.1137927473 -0.0640019998 0.7215061188 0.3158415556 0.1784595251 0.913939178
-0.155009225 -0.0465891324 0.7269599438 0.03512598947 -0.06537772715 0.9932951927
-0.1490830183 -0.05157348514 0.7281523347 0.05685501546 -0.004844468087 0.9922815561
-0.1072373986 -0.1222081929 0.7473255396 -0.3189892471 0.5305333138 0.7830700874
-0.1900703758 -0.15586254 0.7097674012 -0.1214812696 0.1638170481 0.9738000631
-0.0303828232 0.02375658415 0.7521678209 0.07577400655 -0.3869011402 0.7987170219
-0.04187906161 0.03915874287 0.7411109209 0.2363799363 -0.792224288 0.5592143536
-0.04091707245 0.03103371337 0.7466212511 0.185843274 -0.5804473758 0.6784894466
-0.04385483265 0.01712956652 0.7531633973 0.03791934997 -0.3094990551 0.8220537305
-0.03604986519 0.006160931196 0.7609411478 -0.07646071166 -0.02349544503 0.9905779362
-0.03269535676 0.01725357026 0.7559831738 0.04178306833 -0.2324408889 0.881562233
-0.1963232309 -0.1492886394 0.7132633328 -0.06496921927 0.1028847769 0.9745767117
-0.1828901768 -0.1423260272 0.7096946239 -0.2752557397 0.09102959931 0.9541965723
-0.177815631 -0.1354797333 0.7123901248 -0.4067248702 0.003482805798 0.9094574451
-0.1970749646 -0.1227189526 0.7079288363 0.1052643284 -0.1301812083 0.9811999202
-0.0525743328 0.001970843179 0.7090115547 0.3319733143 -0.4174131453 0.8411378264
0.01211901661 -0.005579928868 0.7048119903 0.4111231565 0.3845562041 0.8234553933
-0.05484092981 0.02072643302 0.7489473224 0.1919099987 -0.4791698158 0.7134106755
-0.0521238856 0.02804395184 0.7451005578 0.2545006275 -0.6089656353 0.6392268538
-0.04425982758 0.00858693663 0.7575272322 -0.0433370918 -0.1340576559 0.9167817235
-0.05483727157 0.0338010937 0.7413128614 0.3483088017 -0.7528783083 0.5542959571
-0.1215216368 -0.04935585335 0.7212615609 0.2817159593 -0.07290040702 0.9385373592
-0.1288238168 -0.05038042739 0.7233141065 0.2778117359 -0.07679918408 0.9319851398
-0.1336312443 -0.05831978843 0.7277800441 0.1273525804 0.0682387203 0.9824723601
-0.1450796872 -0.04384507239 0.6903085709 -0.2372083962 -0.870352149 0.3189118505
-0.1692997068 -0.0435045436 0.7187325954 -0.02338065393 -0.3289568126 0.8091951013
-0.1640694886 -0.03942546248 0.712751925 -0.006795605179 -0.4653413594 0.6646324992
-0.1716004312 -0.04105752334 0.7267491221 -0.009331715293 -0.136471048 0.99031353
-0.1601707935 -0.05420365557 0.7236266732 -0.06421410292 -0.06949229538 0.9946127534
-0.01415491849 -0.02553257346 0.7543857098 0.1706031114 -0.2839558423 0.8642427921
-0.00645571528 -0.01789703034 0.7542154789 0.3234141469 -0.408590585 0.7848610878
-0.008877243847 -0.02356595919 0.7468932271 0.3748105466 -0.4229105115 0.6752002835
-0.008352205157 -0.026532216 0.7390102744 0.491371721 -0.4885253608 0.5261138678
-0.01402487885 -0.03287858516 0.7383149862 0.4920515716 -0.4860621095 0.5267425179
-0.01778679714 -0.0314261727 0.750194788 0.2705151439 -0.3495226204 0.7757314444
-0.06757624447 -0.05378753692 0.7331306934 -0.2673974633 -0.1059224457 0.92139709
-0.0840991959 -0.05448488519 0.7279682159 -0.06022873893 -0.2233963162 0.9349533916
-0.08097250015 -0.05453269184 0.7203564644 -0.07342138886 -0.08574052155 0.9635010362
-0.0742329061 -0.05421810597 0.7239022851 -0.162285313 -0.05717751011 0.9527547359
-0.08929658681 -0.05489196256 0.7173757553 0.03209859878 -0.1398165822 0.9717068672
-0.0638327226 -0.0462686047 0.7570653558 -0.4614720047 -0.3275274634 0.8217060566
-0.07237757742 -0.05248822644 0.7440168262 -0.258823365 -0.2961018384 0.8779118061
-0.06772723794 -0.05172842368 0.7500059009 -0.3361902237 -0.3200720251 0.8567008972
-0.1707438231 -0.1390278488 0.7155512571 -0.4949631691 0.04275362194 0.8620714545
-0.1849519908 -0.1622299999 0.7137615681 -0.2501667142 0.1904785037 0.948872149
-0.1749949753 -0.1610769629 0.7173263431 -0.3920424283 0.1948916763 0.8928596973
-0.155254513 -0.1380551308 0.7248529792 -0.5473561883 -0.01438363269 0.8358127475
-0.1598936021 -0.1300920099 0.723271966 -0.5763979554 -0.07276108116 0.812200129
-0.1315953135 -0.03828142583 0.7226889133 0.3545453548 -0.2279905528 0.8995837569
-0.134550184 -0.03108827956 0.7259891033 0.2880898714 -0.2634685934 0.912425518
-0.04485778883 0.004564288538 0.7085719705 0.3420186043 -0.4693796337 0.8133758903
-0.01094822772 0.01710457541 0.6988166571 0.147792533 -0.4433732331 0.8692430258
-0.03872316331 0.03612359241 0.7333880663 0.2345415652 -0.792214632 0.5620687008
0.0005493978388 0.01617196016 0.6966892481 0.2761807442 -0.00812052004 0.9058121443
-0.004744524602 0.02534226328 0.7347658277 0.1466286033 -0.5844183564 0.6294839978
-0.04467587918 0.02410030738 0.721809566 0.3297247887 -0.7018951178 0.6280292273
-0.1696451902 -0.05097300559 0.7241084576 -0.07103767991 -0.1206326112 0.989302814
-0.05524059385 -0.0701687634 0.7161103487 -0.2917479575 0.4690359235 0.8271015286
-0.1869145632 -0.1206400469 0.7107305527 -0.1727335304 -0.1523391604 0.9593437314
-0.1835881025 -0.1301406771 0.7094557881 -0.2547088861 -0.05825376883 0.9554353356
-0.1757096201 -0.1172520965 0.7135567069 -0.4616510272 -0.1445794553 0.8717199564
-0.2130966485 -0.1292355508 0.7163998485 0.2459158301 -0.08151914924 0.962751627
-0.2125062943 -0.1393803358 0.7142558098 0.248913765 0.04151059687 0.9666419029
-0.07474309951 -0.0774672851 0.7170453072 -0.1996879578 0.6234422326 0.7526879311
-0.1392895132 -0.03469387069 0.703712821 -0.2146263123 -0.7003081441 0.5801942945
-0.1701488197 -0.1245214567 0.7153956294 -0.5258206725 -0.1172095388 0.8410616517
-0.1809563935 -0.09594277292 0.7153670788 -0.2745271325 -0.1715561002 0.9385203719
-0.1707469821 -0.09189300239 0.724123776 -0.3972123265 -0.04634397104 0.9147506952
-0.2036116719 -0.09892291576 0.7175278664 0.1358752996 -0.2147160023 0.966355145
-0.1977296621 -0.09236007184 0.7157752514 0.0279662814 -0.1924818456 0.9802832007
-0.2017614394 -0.08673175424 0.7200039625 0.04432478175 -0.1802762747 0.9824923277
-0.1935858727 -0.08925784379 0.7213979363 -0.09988470376 -0.1640138775 0.9572222233
-0.1843230873 -0.09170904011 0.7214979529 -0.246348694 -0.1372411251 0.9319588542
-0.136051178 -0.07197382301 0.7301881909 0.119375363 0.155730471 0.9773725867
-0.1412112117 -0.08846385032 0.7302591205 0.07387129217 0.2081396431 0.9732704163
-0.1385207325 -0.08504006267 0.7240974903 0.07670293748 0.1950564533 0.9642134309
-0.112499468 -0.07555949688 0.7221742272 0.2951875329 0.3324603438 0.8847982287
-0.1214903966 -0.08453629911 0.727914989 0.2149653137 0.2853537798 0.9284052253
-0.1232953221 -0.05856526643 0.7240196466 0.2195727825 0.08653336763 0.9629167318
-0.124138616 -0.06878712028 0.7243793011 0.3549564183 0.1849344671 0.9128180742
-0.1310734004 -0.06612220407 0.7271471024 0.2282615304 0.1505590677 0.950039506
-0.1291723102 -0.08046284318 0.7302334309 0.1557018906 0.2181914151 0.9593115449
-0.1472761333 -0.03438424319 0.7268958688 0.2006423473 -0.1770259589 0.9594132304
-0.1544011086 -0.0384013392 0.7273743749 0.07201430947 -0.09881032258 0.9900217056
-0.09869016707 -0.09941431135 0.7306671143 -0.1502428353 0.5481169224 0.8223383427
-0.06199720129 -0.07830142975 0.7390014529 -0.2732242048 0.1936769634 0.6585445404
-0.03529172391 -0.05570388958 0.7334592342 0.2632211149 -0.411316067 0.6008199453
-0.03351151198 -0.05790713802 0.7224544883 0.1604156196 -0.3224362135 0.5707729459
-0.04724472389 -0.06834973395 0.7266560793 -0.2042678446 0.3242478669 0.7418274283
-0.03997435048 -0.05655478314 0.7429989576 0.2640843391 -0.3226827681 0.6557170749
-0.04158305749 -0.06230309233 0.7292332649 -0.05076024309 0.08409847319 0.7705818415
-0.01248879731 -0.01812479086 0.761228919 0.0370390825 -0.1513738185 0.9867246747
-0.04766916111 -0.05816045403 0.7535497546 0.08835280687 -0.6649097204 0.7169383168
-0.1015617102 -0.06758839637 0.7179680467 0.1778471172 0.1486483663 0.9199905396
-0.0939527601 -0.060550116 0.716353178 0.07422512025 -0.02887591533 0.9380799532
-0.09310500324 -0.0749951154 0.7199690342 0.02490464039 0.3592245579 0.8398185372
-0.08202549815 -0.08371379972 0.7214386463 -0.1508407295 0.6631267667 0.7328370214
-0.06407274306 -0.06154511124 0.7508698106 -0.3712150753 -0.1112167388 0.8030877709
-0.06635522842 -0.06728503853 0.7456529737 -0.3393669426 0.06874103844 0.7791250348
-0.07313267142 -0.08204103261 0.730019033 -0.2517028749 0.5650924444 0.7112451196
-0.0571304597 -0.06087650359 0.7547569275 -0.4774310887 -0.3993631601 0.7536019683
-0.06711271405 -0.06158166006 0.7243962288 -0.2664255202 0.2111836523 0.8879457116
-0.06867801398 -0.06897129864 0.7375705838 -0.308237493 0.2104419023 0.7746531367
-0.0701129809 -0.07120905071 0.730363071 -0.2751416862 0.3429803848 0.7829054594
-0.0671441108 -0.06348516047 0.7321220636 -0.2949001193 0.1596245617 0.8422955275
-0.06497073174 -0.05915892124 0.7390553951 -0.3302742243 -0.01360146608 0.8529520035
-0.05109713599 -0.0682618767 0.7399367094 0.03962083533 -0.3326387107 0.5539525151
-0.0545296371 -0.07596058398 0.7352255583 0.3496242166 -0.4993474185 0.1800289303
-0.1132920533 -0.09977156669 0.7322158813 -0.01336294971 0.4578681886 0.8652511835
-0.1137311384 -0.09238793701 0.7286108732 0.04419517145 0.4017434418 0.8955544829
-0.104535982 -0.1160491109 0.742328167 -0.2439064533 0.5794032216 0.7773786187
-0.147887364 -0.1381575167 0.7290403843 -0.5010122061 0.016837731 0.8607996106
-0.1336265355 -0.1314447075 0.7360845208 -0.4292787015 0.1875020564 0.8765450716
-0.1655246019 -0.153466478 0.7224524021 -0.5428533554 0.09976889193 0.833291769
-0.1626166999 -0.1449922323 0.7219130397 -0.5645957589 0.02645226009 0.8249276876
-0.1582870781 -0.1511896104 0.7275665402 -0.5479861498 0.04033778235 0.835121274
-0.1419625729 -0.1376008242 0.7373921871 -0.4426512122 0.06593240798 0.8916762471
-0.148523286 -0.1510785669 0.7334282994 -0.4903175533 0.01339358836 0.8711752892
-0.1379182488 -0.1454216987 0.7383555174 -0.4670748413 0.110127598 0.8758991361
-0.1421603411 -0.01907727681 0.7284387946 0.2133797705 -0.3294771314 0.919436872
-0.03196173906 -0.01209351327 0.7617048025 -0.05312041566 -0.08218930662 0.9949756265
-0.05536663905 0.01618276536 0.7191939354 0.3524709046 -0.6023688912 0.7138169408
-0.01440229081 0.009991900064 0.7635750771 0.005403870717 0.1290305406 0.9898974299
-0.04223983362 0.01299057342 0.7101417184 0.3427236974 -0.5459410548 0.7624478936
-0.05194210261 0.01024106331 0.7125727534 0.343054831 -0.5198081732 0.7807510495
-0.04627954215 0.01800329611 0.7158230543 0.34107849 -0.5979246497 0.7234799862
-0.0134728197 0.03453903645 0.7272349596 0.08582792431 -0.8508158326 0.5182285309
-0.01397276204 0.03267243877 0.7476776242 0.0226818081 -0.5632833242 0.5926193595
-0.02286168188 0.01181567647 0.7609956264 -0.01609749906 -0.03999298438 0.9798465967
-0.01782153361 0.02037072927 0.75586766 0.02424868383 -0.2216208577 0.8519727588
0.009668772109 0.001833469723 0.7012190223 0.4365807176 0.3588251173 0.8243803382
0.009802456014 0.01008760277 0.7004359365 0.2058915645 0.02479771711 0.7119013667
0.005663601216 0.009681092575 0.7080731392 0.3739160597 -0.005492975004 0.7079589367
0.003580369987 0.01735118963 0.707207799 0.06533945352 -0.3643261194 0.632868886
-0.002081210259 0.02492018975 0.7128996849 -0.0269671455 -0.7005115151 0.5595114827
-0.006370966788 0.0288267415 0.7263982892 0.1260501593 -0.7544667125 0.5588986278
-0.02455355786 0.0415283516 0.7374156117 0.109718293 -0.826048851 0.552408278
-0.03359986469 0.04053298756 0.7377170324 0.1740998179 -0.8150433898 0.5497640371
-0.02924354747 0.03404106945 0.7461875677 0.1085441709 -0.6294826865 0.6591937542
-0.02041543275 0.03603538871 0.7452002764 0.08247191459 -0.6782586575 0.632196486
-0.02170629986 0.02921174653 0.7495664358 0.05339130014 -0.5063191056 0.7309184074
-0.0165518783 0.03895169124 0.7340536118 0.08266213536 -0.8408884406 0.5346249938
-0.1701297611 -0.05031061545 0.7088843584 -0.06036385149 -0.4942195415 0.6331618428
-0.1747418344 -0.04852204397 0.7170444727 -0.04970375076 -0.3402100503 0.7943643928
-0.1724109054 -0.07140485942 0.7253459096 -0.149886027 0.02657680959 0.9762603045
-0.1857168674 -0.06399792433 0.7211855054 -0.07267094404 -0.1158122122 0.9900860786
-0.05597946793 -0.07516252995 0.7220458388 -0.3189483881 0.5846253633 0.7457727194
-0.2082980722 -0.1081212088 0.7157437205 0.2130118757 -0.206803903 0.9541240931
-0.1963021755 -0.1152839586 0.710313797 0.08396498859 -0.1938398927 0.9751629829
-0.1992769688 -0.1090463623 0.713226974 0.09119204432 -0.2172887474 0.9653537869
-0.03712327406 -0.04608840495 0.7532832623 0.1328188032 -0.2841732502 0.9019479752
-0.041734837 -0.05233770981 0.7523651123 0.3821074665 -0.645807445 0.6385602355
-0.1690751165 -0.1160554886 0.7224928141 -0.4492239058 -0.1192778274 0.8731377125
-0.1597354412 -0.1092068925 0.7310525775 -0.4385758042 -0.03632707521 0.8953126073
-0.1662018448 -0.1333813667 0.7198363543 -0.5651018023 -0.03507418185 0.8239660263
-0.154047966 -0.1447597593 0.7310187221 -0.5279064775 0.01172432862 0.8486699462
-0.1595768183 -0.1240822077 0.7300720811 -0.5547971725 -0.07352329791 0.8279650211
-0.1849101782 -0.08556772023 0.7166067362 -0.09751282632 -0.1157523394 0.9880895019
-0.1887509376 -0.09395153821 0.7145623565 -0.08045524359 -0.1976020485 0.9743467569
-0.1765531152 -0.1028246209 0.7208699584 -0.3989678919 -0.1360555142 0.8760042191
-0.1924328804 -0.09919087589 0.7197020054 -0.1007412821 -0.179036513 0.9292749763
-0.180691883 -0.106690459 0.7157469988 -0.2885649502 -0.1969141215 0.9235003591
-0.1632469893 -0.09788288921 0.73023808 -0.3997624516 -0.004187054001 0.9146757722
-0.1733501256 -0.1093346328 0.7166408896 -0.5121917725 -0.1555517912 0.8432032466
-0.1372602433 -0.09478572756 0.7322660089 0.08298461884 0.2445719689 0.9651253223
-0.1470218003 -0.1134874672 0.7336725593 -0.2424115092 0.02905241027 0.9692838192
-0.1647827774 -0.09883899242 0.7222387791 -0.3210152686 -0.01527193189 0.9233165979
-0.1534799784 -0.09611637145 0.7268000245 -0.1968302727 0.09950952232 0.9645262361
-0.1629346609 -0.1113695279 0.7195615172 -0.4506856501 -0.08139690757 0.8523109555
-0.1765629053 -0.08834885806 0.7188823819 -0.3360931277 -0.08782915771 0.9340485334
-0.1415250748 -0.07516580075 0.7232625484 0.08486350626 0.1701630801 0.9787542224
-0.1306930482 -0.07861812413 0.7204999328 0.2026183456 0.2274209559 0.9413468242
-0.164162904 -0.03577051312 0.7267868519 0.03361064568 -0.1408902556 0.9858936667
-0.1515205503 -0.0328364335 0.709087193 0.0892014876 -0.636444211 0.5451954007
-0.1546045393 -0.03090394102 0.7223145962 0.1453805715 -0.3716058135 0.8303052187
-0.1479540914 -0.02624161914 0.7183548808 0.150025472 -0.4785043001 0.7367806435
-0.1447924972 -0.02857399546 0.7112348676 0.01328313258 -0.6120904684 0.6399120688
-0.1488450617 -0.03633384034 0.6966418624 -0.0264193695 -0.8755833507 0.3097008169
-0.1513272077 -0.02513327263 0.7290870547 0.1844797134 -0.2816515863 0.941010952
-0.03076283261 -0.0346262157 0.7564837337 0.1004395708 -0.2638255656 0.9339603186
-0.020780636 -0.02989474684 0.7578940392 0.1132145748 -0.2531087697 0.9412022829
-0.005030370317 -0.01270818431 0.7607111931 0.08080954105 -0.1891604215 0.9599222541
-0.003375770058 0.0003028317587 0.7618514895 0.03935176507 -0.02703140117 0.9856612682
-0.0718183741 -0.08560945094 0.7370294333 -0.2870668471 0.3904134333 0.7361765504
-0.07072903961 -0.09030233324 0.7311948538 -0.2424795777 0.6665636301 0.7042133212
-0.1804680973 -0.1552437246 0.7112740278 -0.299092859 0.2088333666 0.9274217486
-0.1756462157 -0.1455157846 0.7125681639 -0.4193955958 0.1326257885 0.8959462643
-0.09039557725 -0.0941382125 0.7287421227 -0.1528955102 0.5715609789 0.8056069016
-0.06573431939 -0.0543750003 0.7225539684 -0.2578558028 0.06805985421 0.956592679
-0.07955284417 -0.06821461767 0.7211411595 -0.128496781 0.2703120708 0.8435128331
-0.08527603 -0.06330506504 0.718875289 -0.04168667272 0.1044548154 0.8940791488
-0.05854260176 -0.08266222477 0.7316380143 0.464471817 -0.4480734766 0.01438142732
-0.09823254496 -0.1065227687 0.7352884412 -0.1713079363 0.5899975896 0.7853993177
-0.103395015 -0.09460464865 0.7265274525 -0.06557244807 0.5152797103 0.8535996675
-0.1229283139 -0.09334363788 0.7314936519 0.1018056422 0.3309625387 0.9169037938
-0.1187981069 -0.107359685 0.736124754 -0.1071011573 0.4819427729 0.8405411839
-0.1287845671 -0.09970051795 0.7342321277 0.02594337799 0.3290931582 0.9219635129
-0.1480846703 -0.1294348985 0.7336958051 -0.4344143569 0.007637524977 0.8981732726
-0.1529672146 -0.1190151125 0.7320719361 -0.3973345757 -0.0274987556 0.9146818519
-0.1448038965 -0.1228175312 0.7339950204 -0.3410881758 0.05634045601 0.9357047081
-0.009677843191 -0.03469714895 0.7226252556 0.7301083803 -0.6451083422 0.2219876945
-0.02435597591 -0.04175269976 0.7439886332 0.493767947 -0.5321714878 0.6180588603
-0.01985868439 -0.03930667415 0.7385343909 0.5577107072 -0.5574406385 0.5140346289
-0.01401072368 -0.03668451309 0.7301635742 0.6495370865 -0.6011910439 0.3600765765
-0.0305027999 -0.04656780884 0.747122407 0.4925078154 -0.5832821727 0.6042116284
-0.02212448791 -0.04418354481 0.7326658368 0.6003016829 -0.6321399808 0.4138064981
-0.02888745442 -0.04240529239 0.7535825968 0.404500097 -0.4743606448 0.7779142857
-0.02687316202 -0.05119938403 0.7226057649 0.5624045134 -0.7833440304 0.2361242026
-0.03197297081 -0.05033217743 0.7402128577 0.5338911414 -0.6810781956 0.4571154118
-0.02855443582 -0.05018386245 0.7309926152 0.5580724478 -0.7267069817 0.3437257409
-0.1821841598 -0.07465369999 0.7184537649 -0.1218406335 -0.07359499484 0.9893040061
-0.1538513303 -0.04583814368 0.6884415746 -0.08128960431 -0.9649894238 0.1494772136
-0.1711348593 -0.05840264261 0.7077260017 -0.0870943889 -0.4379834235 0.6636773348
-0.1780732572 -0.06704887748 0.7174238563 -0.09725576639 -0.1477057487 0.9426576495
-0.1775161624 -0.05860692263 0.7137249112 -0.07672481984 -0.3126287162 0.7952582836
-0.1811318994 -0.05638593063 0.7204684615 -0.05547448993 -0.193441242 0.9340652227
-0.1579320133 -0.08858848363 0.7303228378 -0.1900777817 0.150603801 0.964812994
-0.05013862252 -0.006647028029 0.7584835291 -0.08279934525 -0.03572697192 0.9958232045
-0.03852942958 -0.006279106718 0.7612394691 -0.08578261733 -0.0355366841 0.9952405691
-0.03239832073 -0.001083416399 0.7614947557 -0.07090237737 -0.02476860397 0.9966727495
-0.05224597454 -0.02160788141 0.7603471279 -0.05702856928 -0.08573527634 0.9945157766
-0.05180929974 -0.01391893532 0.7594637275 -0.08772629499 -0.0584702976 0.9940875173
-0.03474104404 -0.02152254432 0.7610659003 -0.05229455605 -0.1503681242 0.986851573
-0.04365143925 -0.01735375263 0.761045754 -0.05277192593 -0.09527316689 0.9939370751
-0.02948061191 0.0159887448 0.7069377303 0.3162581921 -0.6604676843 0.6782056093
-0.0261010807 0.02279165201 0.7096756697 0.271659106 -0.7284942865 0.6280779839
-0.03431205079 0.02028103359 0.7109398842 0.3083041906 -0.6618173718 0.6804785728
-0.03525397554 0.02646303736 0.7196400166 0.2605603337 -0.7456399798 0.6106335521
-0.001052663662 -0.016460374 0.7453858852 0.5115619898 -0.4920626879 0.5689278245
-0.0002397112839 -0.01190253068 0.7520304322 0.4627759755 -0.5045104027 0.6588938832
-0.0004881840432 -0.01955379918 0.73742944 0.6076352 -0.5176990628 0.4203974307
-0.03101104684 0.03481981531 0.7301636338 0.1695111096 -0.8077585101 0.5621425509
-0.02370658144 0.03606010973 0.730179131 0.1027702838 -0.8303927779 0.547401607
-0.02605743706 0.0311830882 0.7227005959 0.1448877901 -0.8127869964 0.5629708767
-0.06771411747 -0.07452873886 0.7160074115 -0.3057430983 0.5867717266 0.7466221452
-0.2116403282 -0.1165349409 0.716847837 0.2582007945 -0.1758139431 0.9498045444
-0.2045276612 -0.1157402396 0.7130758762 0.2096368521 -0.1671294421 0.9630839825
-0.2028369159 -0.1286568791 0.7081885934 0.208502382 -0.0679813996 0.9753689766
-0.1967678517 -0.1312069744 0.7131551504 -0.04896245152 -0.05667072535 0.9551551342
-0.1352287531 -0.06968919188 0.715905726 0.0009421745199 -0.02685690112 0.8597516418
-0.1473212838 -0.05350947753 0.6902580261 0.04571369663 -0.8855847716 0.02687652037
-0.1416352242 -0.06000193581 0.7008625865 -0.1684280187 -0.4881354868 0.4939749837
-0.1419555247 -0.06637597829 0.7105823159 -0.1238774881 -0.1943265051 0.7402105927
-0.131651938 -0.05310910568 0.6915528774 -0.5100933909 -0.6924141645 0.506192863
-0.1376296729 -0.04652009159 0.6919858456 -0.4323484302 -0.7562580705 0.4824104309
-0.1279294491 -0.06552081555 0.7030940056 -0.1713055074 -0.2643631697 0.6794425845
-0.1309515983 -0.05963866785 0.6976026893 -0.3463827372 -0.4599580467 0.5964518785
-0.1343480647 -0.06460232288 0.7081151009 -0.1645817906 -0.229970783 0.746105969
-0.1230308786 -0.07979908586 0.7181395292 0.271001935 0.2360780835 0.9051775336
-0.04890058935 -0.06029131263 0.7126272321 -0.2310124636 0.1779676825 0.954113543
-0.05759547651 -0.05155975744 0.7562378645 -0.3432349265 -0.3948937654 0.8449910283
-0.05578669906 -0.0414176248 0.7568596005 -0.172763139 -0.2493062764 0.9333857894
-0.04965090007 -0.04758482054 0.7548187971 -0.09079152346 -0.3075705767 0.9171336889
-0.1603007317 -0.08277150989 0.7239967585 -0.200927496 0.09619612247 0.9536232352
-0.1673943996 -0.07753689587 0.7217097878 -0.2208811343 0.03943187743 0.9607993364
-0.1429953873 -0.06581600755 0.729162097 0.02995703556 0.1189994588 0.9869194627
-0.1443380117 -0.07933343947 0.7296205163 0.02270014398 0.167539075 0.9820573926
-0.1488033235 -0.08457217366 0.7266153693 -0.06158359721 0.1793126911 0.9796050787
-0.1504539996 -0.06976916641 0.7271521091 -0.07816083729 0.1234733984 0.9826209545
-0.1593198329 -0.07383454591 0.7261298299 -0.1704171598 0.1188314483 0.9767651558
-0.1500633061 -0.06599965692 0.7102037668 0.05194572359 -0.2679170966 0.5747250319
-0.1554841548 -0.07103635371 0.7173817158 -0.03686904907 -0.05265960842 0.8177880049
-0.1572695225 -0.06306692958 0.705734551 0.0008451237809 -0.4256927073 0.4492921531
-0.1531552523 -0.05743329972 0.6976513863 0.0808480829 -0.6725625992 0.1804496497
-0.1617843211 -0.06751451641 0.7120804787 -0.07488267869 -0.2347615212 0.6635026336
-0.1674376428 -0.07118521631 0.7172641158 -0.1565031707 -0.08321360499 0.8432892561
-0.1521420181 -0.0587951988 0.7249379158 -0.03593315557 -0.005127891432 0.9963514805
-0.1923145056 -0.07955078781 0.7179812789 -0.05148447677 -0.1446036398 0.9874435663
-0.116695255 -0.07815535367 0.7143920064 0.1478744298 0.2001932412 0.8614991903
-0.1132051125 -0.06743282825 0.7099227905 0.1467751414 0.2427679151 0.8474110365
-0.1193090752 -0.06620210409 0.7050684094 -0.1175831109 -0.1193538234 0.7285033464
-0.1210754737 -0.07277551293 0.7095240951 -0.006688109133 -0.03885843232 0.7759384513
-0.1005709693 -0.05407552421 0.7051517367 -0.2138669789 -0.293820262 0.8241444826
-0.1090752855 -0.05528935418 0.7063525915 -0.1397654116 -0.07005075365 0.8953632116
-0.09283518046 -0.05527679622 0.7064079046 -0.09772884846 -0.1928609461 0.8956524134
-0.09250981361 -0.0478515476 0.7093055844 -0.02061990835 -0.201199621 0.9025626183
-0.08656346053 -0.06029839069 0.7069055438 0.03395217285 0.03757690266 0.9942699671
-0.09921682626 -0.06313100457 0.7071374655 0.05680261552 0.1977222115 0.9753760099
-0.1202147901 -0.04377849028 0.7032872438 -0.3650515676 -0.5914983749 0.6437500119
-0.1367472708 -0.03900788352 0.6977183819 -0.3222013116 -0.781747818 0.5020868182
-0.1157962829 -0.03715664893 0.7078294754 -0.1546667069 -0.4767525494 0.7416678667
-0.1261570454 -0.03454678878 0.7041926384 -0.1384832114 -0.5990538001 0.6500000358
-0.1200517491 -0.03061862476 0.7106758356 0.0301464498 -0.4514914453 0.778098166
-0.1249628216 -0.05262910947 0.6962621212 -0.5094850659 -0.6538456678 0.5519608855
-0.1271612346 -0.04569108039 0.6991791725 -0.4346607625 -0.6902329326 0.5590170622
-0.1349719614 -0.02029153332 0.7252319455 0.1950755864 -0.355042547 0.8940990567
-0.1355378181 -0.03139485791 0.7093037367 -0.09317149967 -0.5965127349 0.6722906232
-0.1361865699 -0.02486752346 0.7182292342 0.06016255543 -0.4698925018 0.7898655534
-0.1255614311 -0.02885522507 0.7176918387 0.1596992761 -0.3456993103 0.87941432
-0.02257931791 -0.0126377428 0.7620905638 -0.01151818782 -0.08344189823 0.9963021874
-0.01296170242 -0.007397851441 0.7630413175 0.003784505185 -0.07192717493 0.9969279766
-0.01518702973 0.002037135419 0.7643028498 -0.001584166894 -0.05290664732 0.9985788465
-0.02464265004 -0.002186498372 0.762252748 -0.02594591118 -0.05170088634 0.9982623458
-0.1231610626 -0.1373002231 0.743244946 -0.4314523339 0.3029139042 0.8420032263
-0.1312938035 -0.1418477744 0.7420322895 -0.466578871 0.1812978089 0.8652528524
-0.05194648728 -0.06549228728 0.7490951419 0.1038882956 -0.6610526443 0.5328181386
-0.04655740783 -0.06773096323 0.7180352807 -0.2687787116 0.4241613448 0.8516892195
-0.06864597648 -0.08037658781 0.7221608162 -0.2752023339 0.6538651586 0.703678906
-0.09909456968 -0.04165293649 0.7156903148 0.1496034563 -0.1781990975 0.9724546075
-0.0688270852 -0.03989107534 0.7509457469 -0.2594668269 -0.2322567999 0.9102630019
-0.07383772731 -0.04295994341 0.7442055941 -0.2366950512 -0.2495099753 0.8923155665
-0.08929064125 -0.04709246382 0.723246932 0.01778873801 -0.2008847594 0.9449898601
-0.08103082329 -0.04697084427 0.7344459295 -0.1473851651 -0.2407857776 0.9032604098
-0.09729292989 -0.0519143492 0.7156888247 0.129899621 -0.150547415 0.9775307178
-0.09907112271 -0.03159306943 0.7130963206 0.1055947021 -0.2391787022 0.903567493
-0.09225560725 -0.03736069798 0.718937695 0.1578350663 -0.1379557997 0.9688917398
-0.08436769992 -0.03516574576 0.7296062112 0.06061200425 -0.1441417038 0.9645546675
-0.07595277578 -0.03589767218 0.7411282659 -0.06529094279 -0.1664557457 0.9616708159
-0.05285855383 -0.03766306117 0.7139784694 0.2611712813 -0.3041874468 0.6612718701
-0.06145111471 -0.03407816216 0.7110101581 0.133185029 -0.08049860597 0.8613942862
-0.04216874018 -0.0542849116 0.7157497406 -0.0232429821 -0.09938395023 0.7621438503
-0.03490913659 -0.0487202853 0.7192590833 0.4389886558 -0.7427383661 0.2558946908
-0.07384949923 -0.07211641967 0.7110361457 -0.1733681113 0.5108736157 0.8345726728
-0.0614367947 -0.06868626177 0.7119326591 -0.2588432431 0.3818257153 0.8841545582
-0.08158586919 -0.07551015913 0.7128747106 -0.07789804041 0.5207203031 0.8459302783
-0.08827995509 -0.08022426069 0.7169725299 -0.0420793891 0.5797355771 0.8096631169
-0.1368809193 -0.1172987744 0.7365667224 -0.2709855139 0.1673706323 0.9268511534
-0.1107504293 -0.112987563 0.7383075356 -0.2039147317 0.5801267624 0.7880206108
-0.1161563694 -0.1256979555 0.7444814444 -0.3328610361 0.4270997941 0.8344818354
-0.1233215705 -0.1253029406 0.7383095622 -0.3600694835 0.3464551568 0.8533036113
-0.02147380076 -0.04412949085 0.7222046852 0.6474304199 -0.7183341384 0.2479678392
-0.02596479096 -0.02559820935 0.7200027704 0.5885587931 -0.6309352517 0.4283025861
-0.03766683862 -0.009858934209 0.7142212391 0.4397648573 -0.5234088898 0.6632412672
-0.0463802889 -0.003888915526 0.7112947702 0.3663273752 -0.4557729959 0.7866692543
-0.03602528945 -0.002380525228 0.7125034928 0.3985051811 -0.522224009 0.7132353783
-0.03251628578 -0.02072550915 0.7178864479 0.5301648378 -0.5752671361 0.5278095603
-0.03997693956 -0.01701910235 0.7152332067 0.4618060887 -0.4979855716 0.6375193596
-0.04717192426 -0.01385776792 0.712371707 0.3870212138 -0.4069246054 0.7525135279
-0.05345828086 -0.006431545131 0.7092766166 0.3095633984 -0.3463504314 0.8730888367
-0.03385129571 -0.03948852792 0.7192574739 0.5159373879 -0.6960010529 0.3333617747
-0.0347991474 -0.03094899654 0.7185556293 0.531339705 -0.5641212463 0.4756029546
-0.02610039338 -0.0351020731 0.7222453952 0.6348635554 -0.6324534416 0.3594775498
-0.04092686996 -0.02583414316 0.7158753276 0.4656371176 -0.4822994173 0.5924872756
-0.06007766724 -0.01785351336 0.7090616226 0.2356704324 -0.1843842566 0.9174275398
-0.05130187795 -0.02414865419 0.7119173408 0.3318347633 -0.4090779424 0.7009554505
-0.0651358366 -0.02652639337 0.709757328 0.142310679 0.0020781192 0.975982964
-0.04190219194 -0.04073691368 0.7168502808 0.4044753909 -0.6041613817 0.41609779
-0.1698855013 -0.06864905357 0.7104238868 -0.09141198546 -0.2961650491 0.6765093207
-0.1676672846 -0.06522484869 0.7240701318 -0.1505089253 -0.01483166963 0.9837463498
-0.1597740948 -0.0522637777 0.696023643 -0.057791017 -0.7484813333 0.3250132799
-0.1641635001 -0.05765142292 0.701813221 -0.01305225771 -0.5842792392 0.426368475
-0.175267905 -0.06197773293 0.7242584825 -0.109968625 -0.05541667342 0.9829109907
-0.0635041371 0.02937356755 0.742287159 0.3621720076 -0.740185976 0.5640109181
-0.06220316887 0.02052313089 0.746602118 0.2459061593 -0.5542812943 0.6767889261
-0.06961259991 0.02010305226 0.744241178 0.2977807522 -0.6266482472 0.6423302293
-0.05582410842 0.01340902783 0.7519020438 0.1114798859 -0.3468903303 0.795861125
-0.04970012978 0.00109445618 0.758053124 -0.06611050665 -0.07167249918 0.9586780667
-0.06163261831 0.006563753821 0.7512951493 0.09472904354 -0.3136244416 0.826228559
-0.06029829383 -0.01962061971 0.7577980161 -0.06634823978 -0.07408747077 0.9946250319
-0.05547212064 -0.03200391307 0.758326292 0.00613987213 -0.1207554787 0.9920651317
-0.06156196818 0.002291112905 0.712569654 0.3320641518 -0.4371349216 0.8323743939
-0.02739065699 -0.02544417419 0.7595320344 0.004146053456 -0.191195935 0.9805826545
-0.01945487037 -0.02178921551 0.7610691786 0.03685739264 -0.1696145087 0.9837133288
-0.001422593836 0.02264446579 0.702573061 -0.1956824958 -0.6939620972 0.6459026933
0.001194258919 -0.02396219783 0.7200334072 0.7592602372 -0.5776231885 -0.08578178287
0.0008844881086 -0.02160613239 0.7280797958 0.7173913717 -0.5641763806 0.1769466847
-0.06325944513 -0.009093689732 0.708309114 0.2889195383 -0.2635031641 0.9200953245
-0.09225749969 -0.03898946568 0.7092502713 0.0345801115 -0.1641742885 0.9014924765
-0.08574341983 -0.04482232034 0.7120537758 0.1331554055 -0.09761472791 0.9763020277
-0.1117176563 -0.04592286795 0.7048887014 -0.3422384262 -0.4840020537 0.7080860734
-0.1019102409 -0.04109091684 0.7083634138 -0.09990438819 -0.3014130294 0.8259975314
-0.1284665912 -0.1161802784 0.7384857535 -0.2793847322 0.323387742 0.87802881
-0.1525552273 -0.109277755 0.7262464166 -0.244175747 0.01947131567 0.9212465882
-0.1477067322 -0.1017061472 0.7278574109 -0.06730365008 0.09757205099 0.9848902822
-0.1572779566 -0.1176737398 0.7247033119 -0.4333542883 -0.05792471021 0.8531658053
-0.1054455191 -0.102799952 0.7305849195 -0.08289207518 0.5456780791 0.8325725198
-0.1323891431 -0.09371877462 0.7246226072 0.1144940779 0.2309211195 0.9483696818
-0.1267663389 -0.08793663979 0.7215935588 0.2090958655 0.253888756 0.9292340875
-0.1184862927 -0.08932460099 0.7209163308 0.2027913779 0.3456946909 0.9088782668
-0.1983156353 -0.07740802318 0.721455276 0.009721746668 -0.1518400908 0.9874051809
-0.1911578774 -0.06894286722 0.7217234373 -0.02346171625 -0.1547642052 0.9867132306
-0.1793435067 -0.08012840897 0.7241662741 -0.1714996099 -0.00527045643 0.9667044878
-0.08528759331 -0.06898672134 0.7065057755 0.0112134302 0.3337825835 0.9320971966
-0.08713869005 -0.01164685749 0.7160394788 0.2697801292 -0.3036421537 0.9119535089
-0.1144225225 -0.04670872912 0.7204779387 0.1965257823 -0.0601842925 0.9676384926
-0.1214713901 -0.036056187 0.7211592197 0.1731045693 -0.2352167815 0.9410324097
-0.1104131564 -0.03321820125 0.7172660232 0.1689200699 -0.2473546565 0.9516783953
-0.1081106365 -0.04120960459 0.7179810405 0.1725324243 -0.1194239706 0.9718607068
-0.1197267324 -0.02430550009 0.7210967541 0.2519704998 -0.3119334877 0.9158586264
-0.08952806145 -0.08581732213 0.7220163345 -0.1084909588 0.6260915399 0.7707206011
-0.1036689207 -0.08206927031 0.7220656872 0.1317476779 0.4628500938 0.8561856151
-0.06437841803 -0.05950290337 0.7058663964 -0.2410267889 0.02314068936 0.9670549631
-0.06360422075 -0.0442131348 0.7087357044 -0.1763726324 0.03821439669 0.9816808701
-0.05782484263 -0.05482507497 0.7093732953 -0.2213363796 0.104290843 0.9666448236
-0.05081801489 -0.05125514418 0.7126533985 -0.1694398224 0.1378326267 0.9721947312
-0.07763367891 -0.06120769307 0.7050674558 -0.06358980387 0.03558014333 0.9905270338
-0.07175579667 -0.04740133137 0.7067785263 -0.09923095256 -0.01373506337 0.9928478003
-0.07233864069 -0.05560577661 0.7054534554 -0.1271923333 -0.03927502036 0.9888140559
-0.08467301726 -0.0356031619 0.7109773159 0.1916248798 -0.03018202446 0.9805576801
-0.0796880126 -0.05201772973 0.7077816725 0.02828508429 -0.01853024773 0.9980554581
-0.04831697047 -0.03758522496 0.7577244639 -0.05260453373 -0.1954726875 0.9693838954
-0.04448454827 -0.02658896521 0.7601027489 -0.02957512625 -0.1365709901 0.9895091057
-0.04128354788 -0.03554564714 0.7574676871 0.005976522341 -0.174061209 0.9844887853
-0.05593121052 0.0220585037 0.7248305678 0.3637557626 -0.6891030669 0.6258949637
-0.06889513135 0.002087264787 0.715778172 0.3211502135 -0.4662941098 0.8227607608
-0.1303453892 -0.01375042088 0.7299743295 0.2418181896 -0.3612118065 0.9001761675
-0.01628967002 -0.01085463725 0.7151986361 0.3384062052 -0.2130649835 0.6934258342
-0.02280429192 -0.01680419408 0.7169601917 0.4977758527 -0.5346776247 0.521756649
-0.02608173341 -0.000216287066 0.7112956047 0.3985211849 -0.5468729138 0.6535108089
-0.01707046852 -0.02342122793 0.7193753123 0.4661273658 -0.3421753943 0.5408109426
-0.006925960071 -0.01103384607 0.7155875564 0.1893426329 0.1824957281 0.8429182768
-0.007491478696 -0.01949590631 0.7183986306 0.2759869099 0.09387078881 0.7395077944
-0.008310028352 -0.02750943974 0.722389698 0.6641949415 -0.4732976854 0.2984722257
-0.01847585291 -0.03409290314 0.7229936719 0.6057868004 -0.5182396173 0.3763371408
-0.07630153745 -0.005520546343 0.7151345015 0.2990644872 -0.37977314 0.8749563098
-0.08991378546 -0.0198442284 0.7146714926 0.2466110736 -0.2224414945 0.9423858523
-0.0692589283 -0.02562953718 0.7499129176 0.009312344715 -0.1189290807 0.9863351583
-0.06452666223 -0.029604638 0.7563787699 -0.1101915091 -0.139904961 0.9776586294
-0.07463940978 -0.02782960981 0.7429366112 0.008549408987 -0.1524876803 0.9711287618
-0.08823439479 -0.02576683648 0.7248838544 0.161600396 -0.1721666753 0.9611434937
-0.09155931324 -0.02970835939 0.7138256431 0.2186082304 -0.1229526624 0.9651411772
-0.08301279694 -0.02634487674 0.7116099 0.2427307814 -0.1078966036 0.9626913071
-0.0739538148 -0.0157098528 0.7106903195 0.2791221738 -0.2105560899 0.935508728
-0.1404415518 -0.1075293794 0.7336579561 -0.1231371388 0.1592040658 0.9645423889
-0.1277387738 -0.1017385423 0.7271025777 0.04330617934 0.3826938272 0.9129066467
-0.1193644479 -0.05902725458 0.6974471807 -0.3674088717 -0.3699068427 0.633680582
-0.1070402712 -0.06523831934 0.7030543089 -0.1108909324 0.06966784596 0.792177856
-0.1221167296 -0.01558542252 0.7265559435 0.2560024858 -0.3687412441 0.8935163617
-0.1105533764 -0.08908390999 0.7201917768 0.1254717261 0.4304735661 0.8900151849
-0.09881370515 -0.08009885252 0.7161365747 0.07825573534 0.5006788969 0.8616941571
-0.09736593813 -0.07332732528 0.7094016075 0.09138254821 0.4137557447 0.904048562
-0.1056463793 -0.07712370157 0.7128227353 0.1658014357 0.3649335802 0.9112542868
-0.05995221436 0.02552349493 0.733271718 0.3801693022 -0.7192070484 0.5809445977
-0.1149565652 -0.00864160154 0.7271873951 0.2812405825 -0.3844493628 0.8791233897
-0.01021738071 0.02749983594 0.7147058249 0.1215939745 -0.8052349687 0.5707058907
-0.007867520675 0.02511097118 0.7069212198 0.06650362164 -0.7341551781 0.664619267
-0.0184329506 0.0253602732 0.7110719681 0.1944736987 -0.7579402924 0.6187368631
-0.01655989699 0.0226521641 0.7040513158 0.1845144928 -0.7242504358 0.6622636914
-0.01638721675 0.01206396613 0.7040139437 0.2168055624 -0.5746079087 0.7248492241
-0.01196193229 0.005135281477 0.7070142031 0.2726294398 -0.2404417694 0.7638322115
-0.00820802059 -0.004312668461 0.7118968964 0.2627433538 0.0925495103 0.820387423
-0.02070516534 0.004801543895 0.7089188695 0.3386054933 -0.3358224928 0.7477226257
0.001372280647 -0.00344684138 0.7090089917 0.2785427272 0.2822000384 0.84262079
-0.007901120931 0.009998779744 0.701777637 0.1949576139 -0.2252206802 0.8662344813
0.001248341403 0.003904984333 0.7032187581 0.3117159903 0.2390729934 0.8795318604
-0.001289510634 0.01543194335 0.7150943279 0.2350230813 -0.3387691379 0.6443517804
0.006808546837 -0.01089379098 0.7231371403 0.2924805582 0.163648665 0.8361225724
0.01019041333 -0.01393309049 0.7109615207 0.2295071185 0.3954412937 0.8789422512
0.004435047973 -0.01090524532 0.7338595986 0.3021399379 -0.02952907421 0.8133097291
0.003825583495 -0.009165068157 0.7432345748 0.3605696857 -0.2307343185 0.7801741362
0.002035063226 -0.003190479241 0.7515169978 0.348505199 -0.1280471385 0.8268859982
0.002828476951 -0.001971786842 0.7421560884 0.3019480705 0.1526155323 0.8770384192
0.0009606645908 0.006204823032 0.7396429181 0.2399344593 0.03260782734 0.836242497
0.0007338805008 0.004974983633 0.7202641964 0.2409152091 0.03320951387 0.7694369555
0.00217246823 0.004097403493 0.7573828101 0.2556476593 0.1471313089 0.9298437238
-0.001508786809 0.01419063285 0.739987433 0.1990018338 -0.2508470118 0.757512331
0.0005754684098 0.008581127971 0.7508753538 0.2308198959 -0.02694498561 0.8582719564
-0.003846906126 0.02018103004 0.7247840166 0.1640382856 -0.4979188442 0.6353051066
-0.00120298774 0.01226091757 0.7306429744 0.2063420415 -0.2029830068 0.7387121916
0.003486852394 -0.003469929332 0.724406004 0.2854421735 0.3429982066 0.8710971475
0.001887912978 0.002174050082 0.729308188 0.2577961981 0.1530443877 0.834481895
-0.07077927887 -0.03971782699 0.7077492476 -0.05726922676 0.01664186642 0.9923487902
-0.07651365548 -0.03247868642 0.7088742256 0.1530013829 0.002871751552 0.9858956933
-0.1251847148 -0.1093118861 0.7301158309 -0.08860719949 0.3730124533 0.9125471115
-0.11819987 -0.1042167097 0.7271597385 -0.02018838935 0.4472413063 0.8882966638
-0.1323286295 -0.1131681427 0.7318838835 -0.1283235103 0.2894605398 0.9433364272
-0.1213255674 -0.1169939041 0.7354223132 -0.2447989732 0.4226136804 0.85349828
-0.1309898645 -0.1237511858 0.7364240885 -0.3439394832 0.25924474 0.8978564739
-0.09114518762 -0.006485060789 0.7194526792 0.2830630541 -0.3736415207 0.8828236461
-0.1146224663 -0.01697788574 0.7233024836 0.2702883482 -0.355151087 0.8943814039
-0.07101994008 0.0114511475 0.7455332875 0.2405201644 -0.5160423517 0.7152659297
-0.06533251703 -0.008287521079 0.7534170747 0.01786989719 -0.2026931345 0.9076905251
-0.05997204781 -0.002172689885 0.7536875606 0.00972562097 -0.178882122 0.9100472927
-0.06662970036 0.02046950348 0.7306461334 0.3818759918 -0.6975348592 0.606157124
-0.08416556567 -0.01168757211 0.7414967418 0.1390714049 -0.2768755555 0.9195461273
-0.09487877786 -0.005344926845 0.7331913114 0.2255215943 -0.3585219383 0.885186851
-0.06770448387 -0.01570253074 0.753235817 -0.02593107335 -0.1163177192 0.9754440188
-0.1067895666 -0.01687606424 0.7202364802 0.2689445913 -0.3294419944 0.9049727917
-0.1097537652 -0.02474749461 0.7183621526 0.2347410619 -0.2721171975 0.9326305389
-0.1022900343 -0.02286330052 0.7178913355 0.2490378469 -0.2459415793 0.9348778725
-0.07751008123 0.01325436309 0.7265960574 0.3620594144 -0.6549380422 0.6623283625
-0.06891410798 0.01316346135 0.7237830162 0.3607825637 -0.6416739821 0.6742084622
-0.07441285998 0.0198757872 0.7341992259 0.3697271049 -0.6996528506 0.6092674732
-0.09872832894 0.0004616922233 0.7261101007 0.292549938 -0.4566085637 0.8371794224
-0.08566316217 -0.003247950226 0.7367126346 0.1756350845 -0.3769878447 0.8571298718
-0.07266625017 -0.01017783582 0.7473762035 0.03896638006 -0.2179390043 0.9237949848
-0.08047130704 0.01756500639 0.7389134765 0.3493100107 -0.6809029579 0.6329729557
-0.08528422564 0.0119477706 0.7344273329 0.3382054567 -0.6392736435 0.6812059879
-0.09478618205 0.006548234727 0.7317653298 0.3136124015 -0.5189579129 0.7778772116
-0.08767911047 0.005369705148 0.7249959707 0.3156057596 -0.58438766 0.7468870282
-0.08432521671 0.00453256024 0.7356635332 0.2556991577 -0.5194906592 0.7607289553
-0.07828579843 0.002458370058 0.7412519455 0.2019789219 -0.4519982338 0.7844198942
-0.0725421384 -0.0005408712896 0.7466379404 0.1401060373 -0.3716714382 0.8180766106
-0.07843737304 -0.005965098273 0.7417001128 0.1143023148 -0.3204486668 0.8756779432
-0.07908062637 0.002690829802 0.7202702761 0.3168185949 -0.5091112852 0.7948457003
-0.09403096139 -0.01223859563 0.7247985005 0.2454742491 -0.3073804379 0.9097768068
-0.07974781096 -0.01839713752 0.740354836 0.1134417877 -0.2101715952 0.9497880936
-0.0907241106 -0.01246608328 0.7343203425 0.1853561848 -0.2780852914 0.9220287204
-0.0915306434 -0.01904074661 0.7293974757 0.1858079582 -0.2615606189 0.9316856265
-0.09437939525 -0.02182001807 0.7224347591 0.2123662531 -0.2336935699 0.9399536252
-0.08546697348 -0.02144704014 0.7350085378 0.1357870549 -0.2171904147 0.948969245
-0.09642981738 -0.015444085 0.7174001932 0.2683646679 -0.2984265387 0.915787518
