# .PCD v0.7 - Point Cloud Data file format
VERSION 0.7
FIELDS x y z normal_x normal_y normal_z
SIZE 4 4 4 4 4 4
TYPE F F F F F F
COUNT 1 1 1 1 1 1
WIDTH 512
HEIGHT 1
VIEWPOINT 0 0 0 1 0 0 0
POINTS 512
DATA ascii
-0.1738259345 0.1182624251 0.7888062 -0.04403762147 0.081344001 0.9945187569
-0.193347007 0.08658961207 0.7997328043 0.1284393817 0.409390986 0.9012310505
-0.1894844919 0.0968619138 0.7966997027 0.1275595278 0.2963340878 0.9369046092
-0.1858106703 0.1064529642 0.7940335274 0.1217896566 0.1725685298 0.9729507565
-0.185119465 0.07674309611 0.8063721061 0.04748954251 0.5092564821 0.849458456
-0.1817207634 0.06903359294 0.8116907477 -0.006718449295 0.5838339925 0.8105254769
-0.1827948391 0.09778191149 0.7900650501 0.1297920346 0.237084806 0.9623652101
-0.1859169155 0.09056989104 0.7938141823 0.1291653961 0.3347264826 0.9303774834
-0.07698766142 0.1282183528 0.7708513737 -0.619848907 -0.6614294052 0.238668263
-0.08041646332 0.134212479 0.7799248695 -0.510220468 -0.405714035 0.4738462865
-0.09067073464 0.1391721219 0.7858117819 -0.4217032194 -0.1333266199 0.6210514307
-0.09417473525 0.1436915696 0.7916273475 -0.3458031714 0.0618493259 0.7682284713
-0.08562920243 0.129156515 0.7752307057 -0.5675009489 -0.4845323563 0.3487707078
-0.1130746529 0.1354602277 0.7935836315 -0.3464023769 0.1963253915 0.8095884323
-0.1056658402 0.144859314 0.7951943278 -0.2956963181 0.2311206162 0.8671720028
-0.0909011364 0.1335655004 0.7795882225 -0.5043725967 -0.3089005649 0.4669011831
-0.1005786508 0.1386044323 0.787227571 -0.4036410749 -0.02188422158 0.6648400426
-0.1177231744 0.1426161379 0.7949827313 -0.2913415432 0.3282105923 0.8983962536
-0.1306141615 0.1397134215 0.7907567024 -0.2739666402 0.2631832361 0.9227169156
-0.002249720506 0.1273886561 0.8088390231 -0.1202659234 -0.2623114586 0.9553909302
-0.01005464885 0.128776148 0.8077045679 -0.09122853726 -0.2390267104 0.966232717
-0.1911772192 0.07793001831 0.802133739 0.07770305127 0.5248717666 0.8476133347
0.04692052677 0.04792893678 0.8094721437 0.2314348072 0.4814361632 0.4968497455
0.04421724007 0.06519277394 0.8057692647 0.04130646959 0.001798375044 0.6197881103
0.03878294304 0.04667850584 0.8128996491 0.1217447147 0.6645460129 0.1810792536
0.04213120043 0.05405113474 0.8096112609 0.1072580591 0.3795464635 0.3993873298
0.05364832655 0.05049587414 0.8062186241 0.3087939322 0.2831799686 0.7776728868
0.03697759658 0.06302112341 0.8091086149 -0.0470720008 0.1970834583 0.3252111077
0.03978481516 0.07652880996 0.8043451905 -0.1229077354 -0.2658362389 0.6026600599
0.0311748255 0.04514763504 0.8175410628 -0.06588965654 0.8975055814 -0.205949083
0.03474951535 0.07139598578 0.8075758815 -0.130199641 -0.02274072357 0.3962510824
0.03057637066 0.05858536065 0.8127355576 -0.09940577298 0.446054101 0.04017401114
0.07327435911 0.09650459141 0.8173661232 -0.4642050564 -0.6290479302 0.6097182035
0.07143714279 0.10679432 0.8207550049 -0.4552097023 -0.5437337756 0.7002856731
0.04213556275 0.04865876585 0.8588579893 0.01806149632 0.08411790431 0.9561403394
0.03991474956 0.04614344239 0.8496008515 -0.07724493742 0.3317200541 0.667200923
0.04289066419 0.04338464886 0.8388810158 -0.09155564755 0.5710546374 0.3575606942
0.06123288348 0.1001387537 0.8316704035 -0.1996840537 -0.18827793 0.8439607024
0.05886450037 0.1154057235 0.8215872049 -0.3206090629 -0.4126664996 0.836163938
0.05965648219 0.107646741 0.8269827962 -0.2506763637 -0.2897489369 0.844047904
0.05426052585 0.1018307284 0.8349722624 -0.07493329048 -0.0684318319 0.9070124626
0.04942532629 0.09473659098 0.8418989778 -0.0406342335 0.1083873659 0.9374631047
0.05130142346 0.108838506 0.8308972716 -0.1506088376 -0.1536543816 0.9091591835
0.05740394816 0.08449275047 0.8484703302 0.1100286618 0.1918492913 0.8849256039
0.06450347602 0.08835949004 0.8426371217 -0.07922405005 -0.05620666966 0.6930635571
0.07656091452 0.09478596598 0.8321508169 -0.2678688169 -0.3381213546 0.3893024027
0.06923017651 0.09847252816 0.8107478619 -0.406073004 -0.6028833389 0.6796874404
0.06570512801 0.1061794758 0.8135077953 -0.3870658875 -0.5367740989 0.7428966761
0.0711215958 0.08987264335 0.8037683964 -0.3853071332 -0.6090804338 0.6893481612
0.05638170615 0.107947588 0.8156858683 -0.3022844791 -0.5023789406 0.8081858754
-0.1765176356 0.08096275479 0.8020482659 -0.05397012085 0.486315906 0.8530320525
-0.1842164844 0.08293191344 0.8013651967 0.04264537618 0.4578123987 0.8734881878
-0.08671502024 0.1495720893 0.800698936 -0.2005051225 0.199486956 0.9521123767
-0.07967261225 0.1431288123 0.7931690216 -0.3124709725 -0.09510355443 0.773757875
-0.07277487218 0.1359069049 0.7848941088 -0.4384625256 -0.4100686908 0.578684926
-0.07418830693 0.1500466466 0.8032821417 -0.1301140338 0.08777263016 0.9665374756
-0.1095940322 0.1385715157 0.8011895418 -0.2735002637 0.329575628 0.9036153555
-0.0995221138 0.1378145814 0.8029856086 -0.2655879557 0.2786005437 0.9217150211
-0.009912442416 0.07248652726 0.8491475582 -0.251485765 0.1510910988 0.9442555904
-0.03832403943 0.04680921137 0.8177720308 0.3187645376 0.6864885688 0.6532412767
-0.02143321931 0.0492676124 0.8047693968 0.1178412884 0.586653173 0.7821755409
0.07644703239 0.06792006642 0.7901091576 0.4349136353 -0.03787770122 0.8923409581
0.0001872248249 0.04791386425 0.810362637 0.05180045217 0.7291550636 0.2241738439
-0.00782567542 0.04643167928 0.8096927404 0.09842119366 0.776725471 0.4302204251
0.05157541484 0.04400959611 0.8295689821 -0.06715272367 0.5736484528 0.1790447384
0.05117571726 0.04213895649 0.8135667443 0.1525566429 0.6022323966 0.6212077737
0.05449850112 0.04239379615 0.8222059608 0.02636133321 0.5398263335 0.4274731278
0.06275706738 0.04980310425 0.8369319439 0.156097427 0.01826117001 0.6968255639
0.002813351341 0.08162921667 0.7983853817 0.04830676317 -0.101036042 0.8826212883
0.01212483551 0.04654761404 0.8166560531 0.08462159336 0.8643885851 -0.1594072431
-0.00162210979 0.05494717881 0.8064005971 0.03618122637 0.5263673067 0.4312600791
0.008644318208 0.06343360245 0.8083730936 0.07059779763 0.408988446 0.3124926984
-0.0002020405518 0.06312932074 0.8039733171 0.04010633752 0.3345277309 0.5678967237
0.007659966126 0.05257788301 0.8120529652 0.06849500537 0.671861589 0.1045567691
0.000429278065 0.07194975019 0.8008973598 0.04123347998 0.1193762571 0.7418383956
-0.01281211711 0.06128194928 0.7982462049 -0.003189316019 0.2638084292 0.901088655
-0.009415873326 0.05569295958 0.8021336794 0.009196970612 0.4353627861 0.6784175634
0.04438814893 0.04089124873 0.8286401033 -0.1346160173 0.7975167632 0.06420155615
0.04963929951 0.04633665085 0.8428774476 0.008711544797 0.3121821284 0.5459515452
0.05763113499 0.05139604211 0.8505328894 0.1376833916 -0.09550058097 0.8454047441
0.06526461989 0.05402600765 0.8482839465 0.2000361532 -0.259085536 0.8354890347
0.05130033568 0.0495842807 0.8540014625 0.096174106 0.002296471968 0.9032601118
0.05692101642 0.04924587905 0.8424705267 0.07925186306 0.1150785238 0.5902993679
0.07484489679 0.08172484487 0.841837883 0.483051002 0.403034687 0.6948401928
0.07242234796 0.07307861 0.846802175 0.4076645374 0.3336307108 0.7988882065
0.06505497545 0.07501097769 0.8512634039 0.2980225682 0.2713618577 0.8930613995
0.08487875015 0.0905642882 0.8314396143 0.6809886098 0.5483115911 0.4762606919
0.07250062376 0.06548155099 0.8494048715 0.3799798191 0.2955163419 0.8557577133
0.04829299822 0.1166509092 0.8171070218 -0.258592844 -0.4191973805 0.8696644902
-0.1782005429 0.08698141575 0.7928577662 0.04422432184 0.380591929 0.9204859138
-0.1773554385 0.1043808907 0.7929221392 0.02002520487 0.1844239086 0.9705119729
-0.1660236418 0.09638190269 0.7916308045 -0.1366560906 0.2525197864 0.9560928345
-0.1207080185 0.1354195625 0.7953131199 -0.302467674 0.3161268532 0.8990603089
-0.1064652354 0.1290466189 0.7895171642 -0.4076915085 0.02429190837 0.6907254457
-0.09640361369 0.1286990792 0.7826118469 -0.4861157835 -0.2238123864 0.5241078138
-0.1431978494 0.1263559312 0.7932959795 -0.2824799418 0.2122927159 0.9327356815
-0.07227693498 0.1181744039 0.7725632191 -0.6521805525 -0.6369000077 0.06265143305
-0.08381792903 0.1218212396 0.7776203752 -0.5040185452 -0.5550158024 0.1381826848
-0.09034049511 0.1224016324 0.7818976641 -0.4575463831 -0.3930392861 0.2558769584
-0.1190348193 0.106635794 0.8118018508 -0.2413361818 0.4283003211 0.8629861474
-0.1039283052 0.05865794793 0.8350043297 0.1503164768 0.5048902035 0.8490076661
-0.1085815579 0.06375962496 0.8326432705 0.100444153 0.446921736 0.8870276213
0.05649036169 0.0662849918 0.799749136 0.2649691701 0.03167266026 0.9136570692
0.04913861305 0.0706659928 0.8021746874 0.07768692076 -0.1924869418 0.8344888687
0.05425557867 0.07451958954 0.798212409 0.1664694101 -0.1462709755 0.9167103171
0.05385025591 0.05933118612 0.8034293652 0.2490646839 0.08681403846 0.8517271876
0.04619464651 0.08255836368 0.7998061776 -0.05836128443 -0.4435153902 0.8426148891
0.06774382293 0.08185433596 0.8475996256 0.3701253533 0.3435091078 0.8048102856
0.06066066399 0.08386767656 0.7938970923 -0.09949719161 -0.5017445087 0.8344609141
0.0723047629 0.07569561154 0.7918506265 0.3140301704 -0.1334322989 0.9226765037
0.06971187145 0.08475542068 0.7942273617 -0.3128460348 -0.5889091492 0.7395974994
0.0698107332 0.05763665214 0.7958935499 0.4837101996 0.2113738358 0.8463504314
0.07937557995 0.06082454324 0.789090991 0.5696923137 -0.005579621065 0.8118185997
0.04047612846 0.09047523886 0.797853291 -0.1462864578 -0.5574804544 0.8166485429
0.03400721028 0.1126603261 0.8105177283 -0.245822981 -0.415930748 0.8739945889
0.01756594516 0.116308488 0.8077551126 -0.1659681946 -0.3706923425 0.9129884839
0.008441153914 0.1226914674 0.8066212535 -0.1568209082 -0.321338892 0.9329494834
-0.1140632629 0.06990639865 0.8298309445 0.02721769176 0.4311875403 0.8994842172
-0.01112625934 0.1083125994 0.8033090234 0.003324037651 -0.2010680735 0.9789537191
-0.007410402875 0.1148189977 0.8044931889 -0.04738382623 -0.2374183089 0.9697602987
-0.02073701099 0.1120728403 0.8030241728 -0.03030174226 -0.1675357819 0.9845134616
-0.03096624278 0.04913684726 0.8086562753 0.2642877102 0.6852746606 0.6759586334
0.0571461767 0.04411808029 0.8074513674 0.3841437995 0.381323874 0.8376770616
0.07242838293 0.04565072805 0.8003225923 0.5028187633 0.2323445231 0.832497716
0.06355308741 0.05170028657 0.8011713624 0.4435763061 0.2949741483 0.8432378769
0.06481510401 0.04273195192 0.8055158854 0.4245098531 0.3221512735 0.8337221146
0.07077072561 0.0494915396 0.8204470873 0.3944374919 -0.01694899611 0.8562076092
0.06569264829 0.04814111441 0.8265900612 0.3231054842 0.01502215955 0.8586736917
0.0621439442 0.04305182025 0.8144823909 0.352157563 0.2716540396 0.8409584761
0.07119969279 0.05455545709 0.8393512368 0.3804702759 0.1208936647 0.8700486422
0.04153284058 0.03905411437 0.8203585148 -0.1796628535 0.9691746831 -0.134025082
-0.02917522006 0.05731933191 0.7975004315 0.09310248494 0.3760898113 0.920367837
-0.005927185062 0.03954722732 0.8154149055 0.149130702 0.9279301167 0.3160151243
-0.02397433668 0.05521679297 0.8413873911 -0.2065442801 -0.1572819203 0.7384248376
-0.0212918967 0.06197708845 0.8445191979 -0.4438972175 -0.09179983288 0.794374764
-0.004430395551 0.06745149195 0.8507852554 -0.1523265988 0.1550803483 0.9750939012
0.004736339208 0.06486023217 0.8510152698 -0.1337669194 0.1333746016 0.9812107682
-0.001720118686 0.05947264656 0.85256356 -0.2049589902 -0.06806343794 0.9189587831
-0.006510487758 0.08243196458 0.7972300649 0.07528764009 -0.08843766898 0.9755328298
-0.01007660851 0.06907249987 0.7975202203 0.01862242632 0.120750159 0.9451288581
-0.06597975641 0.1306172311 0.7829040885 -0.4989826083 -0.6019731164 0.4955950975
-0.06268384308 0.1446583867 0.8045101762 -0.1006109715 -0.1920102686 0.9185532928
-0.06616963446 0.139174968 0.7937197089 -0.2834465206 -0.3537245095 0.7219059467
-0.07139703631 0.1446669996 0.7967799306 -0.2346797884 -0.123539485 0.8213797212
0.02577051707 0.06456384808 0.8542258143 -0.1739819944 0.1482456028 0.9730732441
-0.1696918309 0.08758111298 0.7955089808 -0.1313224584 0.3894212544 0.901868999
-0.1726500541 0.09283594042 0.7904551029 -0.04921818152 0.2991578579 0.9474630356
-0.112750262 0.1255398542 0.804041028 -0.2691565454 0.3115484118 0.9101299047
-0.1463688463 0.1346293539 0.7886633873 -0.2349274307 0.1827223152 0.9539999962
-0.1386959106 0.1381097138 0.7928059697 -0.2769003212 0.23392272 0.9278706908
-0.09983224422 0.1061376855 0.8075399399 0.01256118063 0.2793640196 0.9311220646
-0.0841300562 0.1081310064 0.7902382016 -0.5205338597 0.01367673185 0.514940083
-0.07981151342 0.1120282561 0.7832818031 -0.4997809827 -0.3572556674 0.2125086486
-0.1039194912 0.1268681288 0.806677103 -0.2039040774 0.2796733975 0.9376552701
-0.1330427229 0.1295954287 0.7954266667 -0.3094913363 0.2623586059 0.91293782
-0.1189806312 0.119707413 0.8014540672 -0.2898903489 0.3346191049 0.88603127
-0.111726597 0.1109456047 0.8056401014 -0.1426683217 0.3300049305 0.9108617902
-0.131850943 0.1187686622 0.7989783287 -0.3611589074 0.3196463287 0.8730297089
-0.1722710431 0.1078273132 0.7887717485 -0.06091232598 0.1355607808 0.9879987836
0.06764346361 0.06562451273 0.7935662866 0.4317826331 0.1792648882 0.882696867
0.08186493814 0.0911629349 0.8220620155 -0.774777472 -0.5125466585 0.2281275541
0.07944881916 0.08413857222 0.8056778312 -0.5799611211 -0.5305575132 0.5279374123
0.07931123674 0.08977367729 0.8133782744 -0.605260849 -0.6236122847 0.3966315687
0.07564923167 0.08265394717 0.7981407642 -0.4651744068 -0.5391281247 0.6526258588
0.08136188984 0.08415726572 0.8268754482 -0.6377192736 -0.03521061689 0.2686055899
0.08046402037 0.08075013757 0.8344088793 0.1649166644 0.2840980291 0.5091575384
0.07466033101 0.0600743033 0.821382463 0.06635775417 0.1403107345 0.6615529656
0.07265020907 0.05442313105 0.8262945414 0.3307954669 0.2266360521 0.8008596897
0.07292097807 0.05184988305 0.813405633 0.3329771757 0.206206575 0.7769526243
0.07697077096 0.06914039701 0.8251627088 -0.2667306364 0.04787307978 0.5053973794
0.07669922709 0.07123205811 0.8362955451 -0.2633756995 0.0670702979 0.5286186337
0.074108392 0.06114688888 0.8323542476 0.1092159897 0.1709405631 0.7038506269
0.06069662422 0.09409616143 0.8370961547 -0.1244757324 -0.07671088725 0.8243339062
0.07218416035 0.1010842174 0.8267160058 -0.4548929334 -0.4994633496 0.5019143224
0.06806565821 0.09460510314 0.834395349 -0.2982468307 -0.2942306399 0.5520029664
0.07768013328 0.05281690508 0.7935142517 0.5863292813 0.1195410565 0.7862917781
0.0813389197 0.07256454974 0.8022914529 -0.2868426442 -0.1733721495 0.5380442739
0.08114802837 0.06538495421 0.795561254 0.1560856849 -0.1140417904 0.6484969258
0.08177118003 0.08250723034 0.8149678707 -0.8283688426 -0.2029723674 0.312343061
0.07758247107 0.06016777083 0.8051599264 0.06711090356 0.09392859042 0.6147448421
0.04328271374 0.09786794335 0.804692626 -0.1504110396 -0.5771965981 0.7988016009
0.03529693559 0.1036047786 0.8047774434 -0.2033002377 -0.4812659621 0.847540915
0.06531072408 0.09048942477 0.7976810932 -0.2820023298 -0.6292603612 0.7216894031
0.05562382564 0.08930775523 0.796816349 -0.157426253 -0.5821846128 0.7972152829
0.05935680121 0.09413926303 0.8017214537 -0.2518003583 -0.5957122445 0.7577655911
0.03344711289 0.09487324953 0.7984284163 -0.1588423401 -0.5272444487 0.8334999681
0.02641654387 0.106007956 0.8043513894 -0.183147952 -0.4387955368 0.8767479658
-0.03816127405 0.05159508437 0.8110654354 0.3074344695 0.681304574 0.6630969644
-0.01462069526 0.09128300101 0.8269097209 -0.06694772094 0.02841465361 0.9792423248
-0.01912609302 0.1021868512 0.8072783351 -0.003743462265 -0.1139527038 0.9864948392
0.02217900008 0.05724834278 0.8538088799 -0.1427530497 0.1138590723 0.9830440283
0.0141505748 0.05947668105 0.8517770767 -0.1397282034 0.1258125156 0.9820470214
0.07931955904 0.07350615412 0.8154143095 -0.4929557443 -0.03788294271 0.3729592562
0.07834000885 0.06613014638 0.8098618388 -0.1885430813 0.03708129749 0.5062127113
0.03457530588 0.04219890386 0.8350624442 -0.09659913182 0.6662893891 0.1831232011
0.02629724704 0.03847812861 0.823839128 -0.04582908005 0.9431626797 -0.2618106902
0.02549957857 0.04191351309 0.8352701068 -0.0731934011 0.4978439212 0.1264715791
0.0283883363 0.04682369158 0.8518568277 -0.1026599854 0.002045877045 0.6979326606
0.03347318619 0.04827949032 0.857798636 -0.08219661564 0.05318070948 0.8904472589
-0.01667393558 0.04502151906 0.809317708 0.06586361676 0.6766740084 0.7194476128
-0.0295854006 0.04437350482 0.8143017888 0.2340160906 0.7386726737 0.6290884614
-0.01317053381 0.04131331667 0.8192595243 0.02884691767 0.6348059177 0.6297054291
-0.01019295398 0.04324236885 0.8298351765 -0.07647114247 0.3046908677 0.6767907143
-0.00425865408 0.04328884184 0.8355873227 -0.08702211082 0.2282987982 0.5419421792
-0.0159322191 0.05285653099 0.8466261625 -0.2196974754 -0.1569398344 0.8445031047
-0.01718947105 0.04870517552 0.8365215659 -0.1008916125 0.1564638615 0.7601783872
-0.02504969388 0.04870871454 0.8362855911 -0.0004816635337 0.2378317565 0.735578239
-0.02989573404 0.04535837099 0.8280115128 0.1443868577 0.5305505395 0.6554995775
-0.02410399914 0.04219899699 0.8205314279 0.1485193521 0.6989853382 0.6125043631
-0.02047830261 0.04546646774 0.8285666108 0.02130448632 0.4249350727 0.6871484518
-0.001751544303 0.04093569517 0.8271787167 0.04040698707 0.5998378992 0.2494634986
-0.008551226929 0.05417117849 0.8526929617 -0.2945253551 -0.317543596 0.8742881417
-0.01244505774 0.06144645438 0.8493998051 -0.2743855119 -0.04515520111 0.9366003871
0.03134589642 0.1219002008 0.8133964539 -0.2401480377 -0.393761456 0.8871158957
0.02602523752 0.1150169373 0.8100374341 -0.2226717323 -0.3956348896 0.8907948136
0.01867390238 0.1204319671 0.8176484704 -0.1858806163 -0.2341670543 0.9240303636
0.0238088239 0.1244181991 0.812419951 -0.219940573 -0.3938313127 0.8920122385
-0.001414270722 0.09404767305 0.7977659702 0.0363917239 -0.2127020508 0.9756477475
-3.990928963e-05 0.1008668542 0.8005862236 0.008401810192 -0.2490511686 0.9676984549
-0.0193573311 0.06892457604 0.7977775931 0.0542347841 0.1006263942 0.9648743272
-0.01900687069 0.05553382263 0.7979640961 -0.01483168546 0.3609318435 0.9244231582
-0.06418016553 0.1134962291 0.7780963182 -0.8409944773 -0.09489998966 0.501583159
-0.05798464268 0.1345949918 0.7971230149 -0.3384429812 -0.3918581307 0.7322914004
-0.05427993089 0.1382759809 0.8030024767 -0.1828644276 -0.3521187305 0.8415370584
-0.05777074397 0.1207649559 0.7850966454 -0.762311101 -0.2536710799 0.5704908967
-0.06708569825 0.1247386336 0.7767913938 -0.6818310022 -0.5529361367 0.4038521051
-0.09512137622 0.132156983 0.8061465621 -0.2048262954 0.2233412713 0.9513470531
-0.03324047849 0.1113250926 0.8025397062 -0.1224185452 -0.1439806074 0.979355216
-0.05081779137 0.112412259 0.7876893878 -0.6017013192 0.02061727084 0.7148349881
-0.03549224883 0.1337643862 0.8083505034 -0.05167981982 -0.2860912085 0.9567703009
-0.02517224103 0.1036237702 0.8023475409 -0.006373674609 -0.1130355746 0.992625773
-0.03072803654 0.0937359184 0.8102210164 -0.07967673987 -0.01845832169 0.9919086099
-0.03302935511 0.1033925191 0.80541116 -0.1353745162 -0.04411049187 0.988050282
-0.02317358367 0.09782227874 0.8150815964 -0.07152700424 -0.02170848474 0.9864055514
-0.01354828477 0.0800441131 0.8454061747 -0.1682011783 0.1711847335 0.9653521776
-0.02923631482 0.08720151335 0.8182269335 -0.1869813353 0.007954680361 0.9592246413
-0.02421154641 0.08718826622 0.8243063092 -0.1234287396 0.05485137179 0.9777728319
-0.02011343464 0.07983801514 0.8377205729 -0.2568760812 0.1104393154 0.939492166
0.01195785683 0.0761404857 0.8519072533 -0.1143980697 0.1816382855 0.9766675234
-0.102219373 0.06893314421 0.8295619488 0.1672532856 0.4083835781 0.8938558102
-0.1003053784 0.07779482007 0.825235486 0.1890715063 0.3526000381 0.9128581882
0.04772409424 0.05822097883 0.8594627976 0.08487880975 0.1068342626 0.9887298346
0.03607762977 0.05569882691 0.8585836291 -0.08196312934 0.120622471 0.9878144264
0.01713636331 0.08309325576 0.8510763645 -0.09737945348 0.2273601294 0.9685061574
0.01839945093 0.07202567905 0.8528829813 -0.1348206848 0.1725346297 0.9749932885
0.03844838962 0.08610571921 0.8505243063 -0.06663364172 0.3169734776 0.9457101226
0.04935131595 0.08239341527 0.852786243 0.03240624443 0.2794501483 0.950615406
0.0565867275 0.07846873254 0.8550054431 0.1862677336 0.2616797686 0.9408843517
0.04739992693 0.07544688135 0.8568777442 0.03944052383 0.2392849624 0.9664701819
-0.123474054 0.05603016168 0.8325374126 -0.1350050718 0.4623898864 0.8725638986
-0.1609805375 0.08520023525 0.797103405 -0.2707904577 0.4446507394 0.8473208547
-0.1585472375 0.1233016029 0.7909924984 -0.1814877689 0.1332730949 0.9730318785
-0.1794284284 0.1128824055 0.7918964028 0.04947038367 0.1109940633 0.9881341457
-0.1675944179 0.1233509928 0.7898628116 -0.1007799879 0.08899291605 0.9899370074
-0.1079102382 0.1187611595 0.8092139959 -0.1461172998 0.3425816 0.9251298904
-0.09959183633 0.1172761992 0.810544014 -0.09222843498 0.2392560393 0.95524019
-0.09230888635 0.1234825253 0.8088681102 -0.1270435154 0.1259105951 0.9819690585
-0.09284872562 0.1184058785 0.7878344059 -0.3464545608 -0.2519772649 0.3657533526
-0.1082753837 0.1235671863 0.7948265672 -0.306981504 0.1122528389 0.7013860941
-0.1152484864 0.1269813329 0.7968206406 -0.3142392337 0.2519703805 0.826018095
-0.09957312047 0.1189284101 0.7927458286 -0.2891485691 -0.05339885131 0.555315733
-0.1071700528 0.1166343987 0.8014064431 -0.1574434042 0.2374302745 0.8417190909
-0.09428692609 0.1097997874 0.7982906103 -0.1318039596 -0.008561564609 0.6246505976
-0.1048108414 0.1078637093 0.8131154776 0.002952369163 0.3250441551 0.9376030564
-0.09554136544 0.1116387546 0.8131379485 -0.02233862504 0.185124442 0.9657177329
-0.1239995062 0.1241805926 0.7979487777 -0.3497394621 0.3274219334 0.8768749833
0.05211583897 0.09740365297 0.8050718904 -0.2030278891 -0.5485845804 0.8076251745
0.04047670215 0.10772679 0.8107889891 -0.2165477425 -0.4607412517 0.8565906882
0.04783089459 0.1065701842 0.8132991195 -0.2320239544 -0.4769541919 0.8460918665
0.04088560492 0.1080062166 0.8330218792 -0.1769877076 -0.04908648878 0.9109390974
0.04794645309 0.1175783426 0.8243382573 -0.2339607477 -0.2833897173 0.8930796981
0.0308531262 0.08732390404 0.8507019877 -0.0874337852 0.3123649061 0.9455922842
0.04078207538 0.09830862284 0.8412098289 -0.1202889681 0.1289603561 0.9293851256
0.04550115764 0.08967892826 0.8464589119 -0.06607276946 0.2217319161 0.9513594508
-0.05075871572 0.05545824766 0.8218518496 0.2123353928 0.5782915354 0.6859810352
-0.1618437618 0.0789213106 0.8014767766 -0.2400886118 0.5256183147 0.8139693141
-0.01060862653 0.09785488248 0.8000215888 0.05231594667 -0.1657170802 0.9839305878
0.01630553044 0.03893458471 0.8215706348 0.0554359667 0.9696718454 -0.2342169732
0.02115534991 0.04418683052 0.8189336061 -0.005123899318 0.9483270645 -0.3060751855
0.02071806416 0.04462209344 0.8425107598 -0.1223460659 0.2001969814 0.4511055946
0.01890043728 0.04154463112 0.8316784501 -0.04658713937 0.6484220624 0.1003507525
0.005721393041 0.05681592599 0.8528884649 -0.1937591881 -0.07995565981 0.937323451
0.01481532957 0.0509846583 0.8533179164 -0.1723692268 -0.03411484137 0.9779790044
0.008103289641 0.07255283743 0.80453825 0.06496943533 0.1729054302 0.5318893194
0.01962093264 0.07360104471 0.8057456017 -0.05688538775 0.09242808074 0.4893100858
0.03484525904 0.08698604256 0.8025388122 -0.1574687958 -0.5196044445 0.8128612041
0.02733962983 0.07488541305 0.8064056039 -0.1032012329 -0.03897573054 0.4974682927
0.02747922949 0.06729332358 0.8095814586 -0.09756147861 0.2062657028 0.2818524241
0.02095311508 0.08137604594 0.8027213216 -0.07130381465 -0.175853774 0.7047254443
0.02105792053 0.05322580412 0.8146908879 -0.03335426375 0.7151364684 -0.08805080503
0.01476013754 0.06727547199 0.808116138 0.005005837884 0.3102294505 0.3378057182
0.01376592088 0.05752071366 0.8127025366 0.05811532214 0.5773032308 0.0788847506
0.0248486232 0.0899251923 0.7998077273 -0.114639394 -0.4413876534 0.8801216483
0.006657477468 0.08854364604 0.7972463965 0.02408766001 -0.261677146 0.9638598561
0.008388458751 0.09828484803 0.7986349463 -0.04111580178 -0.3078162372 0.9481371045
0.001198486309 0.1129358634 0.804282248 -0.06957061589 -0.281653285 0.9552612901
-0.01153098978 0.08931403607 0.7979962826 0.1006777436 -0.1108170748 0.9886310697
-0.02315463126 0.09422880411 0.8015479445 0.05832194909 -0.07368436456 0.9953396916
-0.0267796386 0.1311193407 0.8065226078 -0.05850571394 -0.2529824078 0.9649873972
-0.03060622513 0.1226114035 0.8046889901 -0.08903729916 -0.2083424926 0.9726398587
-0.01607409492 0.1193021014 0.8047253489 -0.04478304088 -0.1958348155 0.9793154001
-0.0181611646 0.129021138 0.806530118 -0.07067975402 -0.2116664052 0.9744964838
-0.0813530162 0.1461771131 0.8048776388 -0.1490246505 0.1465415657 0.9764211178
-0.04192218557 0.0855043903 0.7980801463 0.08771984279 0.08837845176 0.974280715
-0.04721803218 0.091117993 0.7973909974 0.1644103527 0.1347542703 0.9546551108
-0.03341524675 0.08617064357 0.8008666635 -0.008600884117 -0.02964887396 0.9950338006
-0.0332232751 0.07844953984 0.7990155816 0.02735875361 0.005706788972 0.9941472411
-0.0224708803 0.0807897374 0.799454689 0.08293242753 -0.0952353701 0.9895862341
-0.03462092578 0.06549565494 0.7962448001 0.06917161494 0.2067328691 0.9747906923
-0.09221684933 0.1434280574 0.8036993742 -0.2446157187 0.2355577648 0.9383371472
-0.09339035302 0.08103433996 0.8210280538 0.2462267876 0.3334213197 0.9038278461
0.06027677283 0.06852823496 0.8552930951 0.2046101391 0.1970443875 0.9571093917
0.05453061312 0.06320273131 0.8581683636 0.1588461399 0.1452117264 0.9760910869
0.06368808448 0.06026464701 0.8541374803 0.1693682522 0.1572480202 0.9726771712
0.04888923466 0.06884161383 0.8597255945 0.0943954885 0.1950619221 0.9752665162
0.02588885278 0.080768466 0.8532283902 -0.1127306968 0.2664029002 0.9568328857
0.03972093016 0.06765558571 0.8572463393 -0.05131855607 0.1947680712 0.9746534824
0.03533529118 0.07852592319 0.8542154431 -0.08809415251 0.2768222392 0.9563653469
0.03237430751 0.07189100236 0.855050385 -0.1190011129 0.2243943214 0.9664427638
-0.126260221 0.09189146757 0.8164957762 -0.2839723229 0.393268019 0.8727270961
-0.1218863726 0.06396660209 0.8286964297 -0.1085987985 0.4626686871 0.8733478189
-0.133016035 0.05661861971 0.8308236599 -0.2557094693 0.4794379771 0.8371463418
-0.1400826275 0.05766030028 0.8249887824 -0.3144493699 0.4670476317 0.8222274184
-0.1272539645 0.1009424627 0.8120650649 -0.3749966621 0.4385379255 0.813970983
-0.1637245119 0.109734416 0.7887746096 -0.1324597448 0.1267268658 0.9815160036
-0.1573918909 0.1064710543 0.7921661139 -0.2229549438 0.1852359325 0.954447329
-0.09529398382 0.06998043507 0.8183800578 0.2521980107 0.4423829615 0.8580588102
-0.1038327813 0.07362236083 0.8201458454 0.1712743491 0.4082743824 0.8905707598
0.04054617509 0.1151863337 0.8143078089 -0.2538423538 -0.4151231647 0.8735548854
0.03159696981 0.1161971539 0.8209968209 -0.2134796381 -0.241780892 0.8992960453
0.01992204972 0.1005254611 0.8368054032 -0.1353590339 0.1179897413 0.9374809861
0.02170846798 0.1056013554 0.831799984 -0.152081877 0.009252417833 0.9261303544
0.02266059257 0.1139763966 0.8229783773 -0.1855534762 -0.1789324135 0.9089390635
0.02295186743 0.09575838596 0.8428341746 -0.1057826281 0.2408069074 0.9445154071
0.04176819697 0.1212929487 0.8186430335 -0.2487394661 -0.3529514372 0.8918284178
0.03277867287 0.1112027615 0.8272269368 -0.1903336793 -0.1215406135 0.9104241133
0.03163845837 0.1055880189 0.8337314725 -0.1592945457 0.01513769664 0.922957778
0.03051326424 0.09545102715 0.8444512486 -0.1030795574 0.2534813583 0.9370511174
-0.05181020498 0.05679539964 0.830019176 0.05613970757 0.4321566522 0.7589095235
-0.05903607607 0.05495034158 0.8271250725 0.1862846017 0.5094003081 0.7507209778
-0.04497417808 0.05741902813 0.8345589638 -0.09140536189 0.3536217809 0.7671839595
-0.07089731842 0.04988889024 0.8289939761 0.3017008603 0.6175454259 0.7261078358
-0.06761979312 0.05375215411 0.8230901957 0.3119681478 0.5982304215 0.7368602157
-0.04887162149 0.049027998 0.8247706294 0.2531999946 0.610873282 0.6769996285
-0.04117874429 0.05040837079 0.8280821443 0.1348343343 0.5349350572 0.6887153983
-0.03024336323 0.05933475867 0.8376919031 -0.2624872923 0.2520276904 0.7675924897
-0.03714747354 0.0563261956 0.8334740996 -0.09804844111 0.3646405637 0.7412660122
-0.04668308049 0.0506634973 0.816454649 0.3459692895 0.6792954803 0.6469625235
-0.05355242267 0.0727352351 0.7980558872 0.3120247424 0.2973337471 0.9001882672
-0.1110600159 0.09668040276 0.8180634975 0.02526889928 0.3599057496 0.9262089133
0.01078484021 0.04458938166 0.8412505388 -0.06598889828 0.2936362028 0.5151408315
0.006627483759 0.04125668108 0.8310784101 0.01646675728 0.5867269039 0.1405723542
-0.002366630826 0.04827799276 0.8550897837 -0.3255737424 -0.4741367996 0.7948508263
0.00363969407 0.04614182934 0.8460585475 -0.1969621778 -0.08300249279 0.6020209193
0.01436979324 0.09301493317 0.7977636456 -0.07120077312 -0.3531439602 0.9308536053
0.01967501827 0.089511998 0.8474392295 -0.1017888784 0.2926853597 0.9503874183
0.01095917542 0.08816833049 0.8470550776 -0.11932946 0.2377642244 0.9636248946
0.008616069332 0.1207820624 0.815618813 -0.1551556587 -0.2130215913 0.9428983331
0.008515804075 0.1134509891 0.8227969408 -0.1469307095 -0.09731706977 0.9475283027
0.01280498598 0.1058321372 0.8312919736 -0.1545587033 0.01296202373 0.9452848434
0.009953298606 0.09733244032 0.8389697671 -0.1349511445 0.1533167511 0.9550455809
0.003145505441 0.1077869758 0.8270956278 -0.1210886165 0.004084870219 0.9596049786
0.002686697524 0.08595500141 0.8469887376 -0.1382918507 0.2177479118 0.9660237432
-0.00383401406 0.07805006206 0.8494054079 -0.143006742 0.1869541556 0.9718388915
-0.01009278558 0.09210665524 0.8339520097 -0.1116306707 0.07999999821 0.9740034938
-0.007950850762 0.08588991314 0.8427147269 -0.1356312931 0.1599158347 0.9712944627
-0.01004692353 0.09783407301 0.8272067308 -0.09531871974 0.02120724693 0.9748120308
-0.01394848246 0.1009120569 0.819942832 -0.0675958395 -0.04679054022 0.9788005948
-0.005540403537 0.1069509983 0.8156372905 -0.07726136595 -0.1312500536 0.9674453735
-0.004700688645 0.1153953075 0.8174207807 -0.1181335524 -0.1394670308 0.9636318684
-0.004023112357 0.1098067686 0.8229053617 -0.1229718924 -0.07242634892 0.9641064405
0.005068825092 0.1012796611 0.8339288831 -0.1218252033 0.1007562131 0.9603441358
-0.002377011813 0.1010209098 0.8317191601 -0.1299635172 0.03807990626 0.9645292163
0.002904137131 0.09320610762 0.8408164978 -0.1321422905 0.1699521542 0.9627800584
-0.005093086511 0.1198792011 0.8113577366 -0.1055053025 -0.2072893679 0.9634202719
-0.05526494607 0.1421693563 0.8091830611 -0.02899574861 -0.3113411963 0.9496213794
-0.04739528522 0.1297792792 0.8105037808 0.01605285145 -0.2364070415 0.9540987611
-0.04827029258 0.1212593988 0.8084508181 -0.02719949931 -0.1408771425 0.95168823
-0.05709127337 0.1140650213 0.8100048304 0.1907973588 -0.06562641263 0.9238036871
-0.05798988789 0.1060893536 0.8081153631 0.1528112292 0.02374818549 0.921292901
-0.05070085451 0.1119799614 0.8068158627 -0.0277773086 -0.03782089427 0.9443371892
-0.05732803047 0.1248993054 0.8111602068 0.1532733738 -0.1707757711 0.9377096891
-0.06154866889 0.08316227049 0.7980784774 0.5007146597 0.2278412879 0.8331698179
-0.02911183052 0.07970829308 0.8275079131 -0.2743255496 0.0534539856 0.9332411289
-0.04116467386 0.08663465828 0.8059108257 -0.0655714497 -0.02559512667 0.9913521409
-0.03643212467 0.08457070589 0.8135865927 -0.1408432126 0.001275224029 0.9705446959
-0.03147268668 0.09634061903 0.8003834486 -0.08264484257 -0.03430584446 0.943492651
-0.04255573079 0.1029990017 0.7954263687 -0.3879041374 0.050746236 0.8007102013
-0.06230567396 0.1075469926 0.7819573283 -0.8265166879 0.08077209443 0.5426067114
-0.05606838316 0.1074552685 0.7876210809 -0.7420255542 0.1493147761 0.611803472
-0.07440622151 0.118381694 0.8121663928 0.07178559899 0.05471504852 0.9934260845
-0.0710356012 0.1354456991 0.8111423254 -0.01872577518 0.03418949619 0.9949913025
-0.08554560691 0.1342172772 0.8093780875 -0.1495775878 0.154581368 0.9764558077
-0.078407906 0.1368711889 0.8110923767 -0.1128225401 0.1266635209 0.982739985
-0.08437698334 0.122572802 0.8112427592 -0.08275355399 0.07739049196 0.9898598194
-0.07549656183 0.1444201171 0.8102079034 -0.1136072651 0.1053897813 0.9858827591
-0.06881579012 0.1498984247 0.8091915846 -0.06289086491 0.04157997295 0.9962251186
-0.08733029664 0.06816589087 0.8181269765 0.2859015465 0.4451875389 0.8477790952
-0.09252159297 0.09516156465 0.8100363612 0.1637185067 0.2761841714 0.9456759095
-0.09006754309 0.07559739798 0.815197885 0.2789965868 0.3143940866 0.9067744017
-0.1299967617 0.06799377501 0.8267681003 -0.2558585703 0.4470064342 0.8538195491
-0.1223668531 0.07260740548 0.8256951571 -0.1199813858 0.4410774708 0.8851041794
-0.1454485357 0.07396888733 0.8113322258 -0.4337754548 0.4899731278 0.755390048
-0.1470379084 0.06940148026 0.817011416 -0.3747924864 0.50544554 0.7742561698
-0.1413936019 0.06541929394 0.822206676 -0.3965260983 0.4674428105 0.7899342179
-0.08426348865 0.06183532625 0.8226798773 0.3112545907 0.5136863589 0.7987806201
-0.07647208124 0.05654508248 0.8254902959 0.303217113 0.5756245852 0.7585684061
-0.1706048548 0.07415147126 0.8014883399 -0.1123423427 0.5754570961 0.8065892458
-0.1780599654 0.07160720974 0.8021703959 -0.01778295822 0.5835886598 0.8112081289
-0.1142410785 0.0583765842 0.8304790258 -0.006234118249 0.4583697021 0.8688592315
-0.09140707552 0.06069397554 0.8268640041 0.2656915188 0.519651711 0.8097327352
-0.09199727327 0.05395643786 0.832184732 0.246469453 0.58873564 0.7692668438
-0.08463919908 0.05555551127 0.827778995 0.2939662635 0.5982350707 0.7453327179
-0.1221930459 0.1119862944 0.8062571883 -0.3129035532 0.383326441 0.864813745
-0.1338346004 0.09340012819 0.8084776998 -0.4314540327 0.3974539936 0.7900849581
-0.1320044398 0.08450128883 0.8108074069 -0.377006948 0.401415199 0.7921500206
-0.1354446709 0.1017683968 0.8045713305 -0.4697553813 0.4014570713 0.7857586741
-0.151010111 0.1265697181 0.7881845832 -0.2167935818 0.1725063473 0.9605228901
-0.06425906718 0.0769964233 0.8041021228 0.4828413129 0.2269031852 0.845605731
-0.04781992361 0.06057660654 0.8057185411 0.3473617435 0.5329153538 0.7643799782
-0.04425882548 0.06687448174 0.7974171042 0.2107180059 0.2901163101 0.9312455654
-0.05199704319 0.0658717826 0.802469492 0.3563395143 0.4392067492 0.8146196604
-0.03890853003 0.05740324035 0.8033829927 0.2523715794 0.5125374794 0.8047136664
-0.04166356102 0.0609960109 0.8276981115 0.01206100639 0.4356355071 0.7407521009
-0.02042179182 0.07213599235 0.8461156487 -0.45062536 0.126487717 0.8822821975
-0.0428247042 0.07848757505 0.8126830459 -0.0358283408 0.1156038269 0.925188601
-0.03185350075 0.07278296351 0.8316171169 -0.2204722017 0.1829887033 0.8745028973
-0.03718001768 0.07610041648 0.8218923807 -0.1344953626 0.1374984235 0.9053528905
-0.04508292675 0.06641013175 0.8216602206 0.09089040756 0.4107298851 0.7846398354
-0.02756630443 0.07045707107 0.8391098976 -0.291977644 0.2115757763 0.8535946012
-0.05056511611 0.06552155316 0.8158317804 0.2081863731 0.4642454088 0.7673656344
-0.03920347616 0.06965957582 0.8256799579 -0.0502791591 0.2997881472 0.8293305039
-0.04532237351 0.07181168348 0.8161201477 0.05959294364 0.2862111628 0.84586972
-0.05272417516 0.07298380882 0.8080331087 0.1989348978 0.2958059907 0.848736763
-0.04875209183 0.08032078296 0.8053796291 0.06970528513 0.1022807062 0.9376600385
-0.06210254133 0.06745733321 0.8113653064 0.4122182131 0.4476081133 0.7697800398
-0.06197896227 0.06041074917 0.8153640032 0.3764235377 0.5812149048 0.7171141505
-0.1227887496 0.08449467272 0.8214390278 -0.1826495975 0.3703508377 0.9059886336
-0.1188306585 0.09107466787 0.8160005212 -0.1274745911 0.3540998101 0.9087491632
-0.1185979024 0.09905640781 0.8140175343 -0.1543927193 0.3783610165 0.9006812572
-0.1121605039 0.08876778185 0.8210906982 0.04486896843 0.34406057 0.9349139333
-0.1120340228 0.1028970182 0.8131189942 -0.06011906639 0.4013309479 0.9095073342
0.01903268322 0.1033842266 0.803137064 -0.1512349099 -0.368253231 0.9164771438
0.009939562529 0.1150876805 0.8058004975 -0.1181900725 -0.3339416981 0.9345431924
-0.04075454548 0.1234352291 0.8064647913 -0.0778574869 -0.2242121994 0.9646490812
-0.04125374556 0.109961465 0.8027791381 -0.203276813 -0.06146117672 0.9655722976
-0.04049374163 0.117825456 0.8002414703 -0.3038279116 -0.2235529125 0.9039328098
-0.04852123186 0.1228320003 0.7922087312 -0.4763866365 -0.2554827631 0.7224785686
-0.04676690325 0.1396627575 0.8076085448 -0.07153496891 -0.3095480502 0.9274799824
-0.05545257404 0.126333937 0.7900038958 -0.5984399319 -0.2834495902 0.6378088593
-0.05017987266 0.1307887584 0.7971977592 -0.3834360242 -0.2903526425 0.7589122653
-0.04234567657 0.1324450225 0.8031194806 -0.2070806921 -0.2884086072 0.8641401529
-0.04951259121 0.1028631032 0.8042718768 -0.09566239268 0.04157337174 0.9541689754
-0.05045527592 0.09953824431 0.7932339907 -0.5160985589 0.1588350087 0.7216956019
-0.0413845256 0.09512508661 0.8001374602 0.004695550073 0.03885572404 0.9570282102
-0.04118877649 0.07410594076 0.796126008 -0.01311935019 0.129301399 0.9538525343
-0.04905840382 0.08427357674 0.7931151986 -0.3197647035 0.2234704643 0.7951182723
-0.06038801745 0.09670289606 0.7900949717 -0.3776653111 0.407916069 0.6220752001
-0.1119164228 0.08093385398 0.8188909888 0.03395638242 0.3529848754 0.9330602884
-0.09447056055 0.08446967602 0.8135753274 0.2143327892 0.3070885539 0.9246115685
-0.1025194824 0.08407282084 0.8172743917 0.1691104472 0.3099930882 0.9344446659
-0.1009437814 0.09073238075 0.8148394823 0.140381813 0.3008988798 0.9428424239
-0.1139625758 0.0750092417 0.8227602839 0.0111184977 0.4004229307 0.9144152403
-0.148740679 0.05892114714 0.8202691078 -0.3326832652 0.5257338285 0.7804227471
-0.1541536599 0.06213001534 0.815515399 -0.3080228567 0.5764879584 0.7564024329
-0.1397468597 0.07934058458 0.8142489791 -0.4703560174 0.4422356486 0.7618596554
-0.1323403716 0.07571744174 0.8197545409 -0.308577776 0.4522154629 0.8253322244
-0.1196476147 0.0789077729 0.8176074028 -0.1044120044 0.391245991 0.8796765804
-0.06946901977 0.06208548695 0.8166822195 0.3503634036 0.5393103957 0.7639003396
-0.07010870427 0.06990267336 0.8110902309 0.3906868696 0.3821311891 0.8216149211
-0.1455361098 0.08337083459 0.8073493242 -0.4580682516 0.4346218407 0.772583127
-0.1542674452 0.07968822867 0.803717196 -0.3758528531 0.4926849008 0.7826344967
-0.1478755176 0.1129358783 0.7939253449 -0.2914962769 0.2119909227 0.9265988469
-0.1551616043 0.1151647195 0.7894954085 -0.2122438401 0.1707313657 0.960936904
-0.1382611096 0.1167353913 0.7951151729 -0.3450666964 0.2730656266 0.8963078856
-0.1517102569 0.09348487854 0.797215879 -0.3951953053 0.3755085766 0.8366029859
-0.06083894894 0.1318876892 0.8112838864 0.0365636535 -0.1651922911 0.9756785631
-0.06810442358 0.1264255345 0.8116673827 0.06198246405 -0.04467207938 0.9895986915
-0.07081545144 0.09995359927 0.7924177051 -0.0628785193 0.235252738 0.6304164529
-0.07516041398 0.0983446613 0.7992689013 0.08381778747 0.2637085617 0.7837693095
-0.07374814153 0.1060998365 0.7851855159 -0.6419625282 -0.09119968116 0.4053032994
-0.08049605042 0.08326604962 0.8096636534 0.2894701362 0.2529024482 0.910659194
-0.0686301738 0.08275124431 0.8019240499 0.4470340014 0.2458865941 0.8510659337
-0.0757547766 0.09173358232 0.8046436906 0.2812722325 0.2068844885 0.9142129421
-0.06301669031 0.09615641087 0.8093578815 0.3562908769 0.05055396631 0.9046153426
-0.05502282828 0.09695415944 0.8065094948 0.1607352644 0.02993410081 0.9482308626
-0.05081382021 0.08958987892 0.805218339 0.08740255982 0.003123053117 0.9677191973
-0.05721336231 0.08125145733 0.8075318933 0.2363349944 0.1237501726 0.9096841216
-0.06760655344 0.0819035545 0.810885191 0.4641359448 0.1985907853 0.8484899402
-0.1579376757 0.07182499766 0.8082677126 -0.3223931491 0.5639907122 0.7572308779
-0.07832057029 0.07168149948 0.8164126873 0.3117154837 0.3381194174 0.8733586669
-0.07658220828 0.06343751401 0.8200630546 0.3166238368 0.4624108374 0.8148639798
-0.0750920549 0.07776917517 0.8125311136 0.3436958194 0.2122931778 0.9125225544
-0.129007265 0.1070803851 0.8050481081 -0.3729845881 0.39661479 0.8373514414
-0.1344062239 0.1098621562 0.7999191284 -0.4075055122 0.3561136425 0.840051949
-0.148345679 0.1015777737 0.7970136404 -0.3626832962 0.2970658839 0.8702172041
-0.143833831 0.09208618104 0.8034371138 -0.4615336955 0.3854838312 0.7980407476
-0.1684875339 0.06558336318 0.8120765686 -0.1719499081 0.6160618067 0.7651019096
-0.07178772241 0.1074531749 0.8119261265 0.2961004078 0.06051558256 0.9345247149
-0.08339332789 0.08904641867 0.8148827553 0.2193259001 0.1641181558 0.9596108794
-0.07412566245 0.1000412777 0.8111599684 0.2509638667 0.07457257062 0.9574822187
-0.0657523647 0.08965247124 0.7979546785 0.425033778 0.2878114581 0.8270916939
-0.09137644619 0.1040135995 0.8052771688 -0.004933827557 0.1646465659 0.8905104995
-0.07193074375 0.1087230146 0.7787169218 -0.8693532348 -0.1755226403 0.2456902117
-0.08412537724 0.09964640439 0.8044198155 -0.02462695353 0.1465196908 0.860475719
-0.08248776942 0.1028009281 0.7960063815 -0.2927761972 0.06681932509 0.6520073414
-0.0826177448 0.09843221307 0.8146148324 0.155028969 0.1583932787 0.967302978
-0.09305196255 0.08902315795 0.8194399476 0.202471897 0.2648623288 0.9372705221
-0.09068700671 0.1022887751 0.8134198189 0.08492676169 0.198226288 0.9670532942
-0.09880003333 0.1007430032 0.8155710101 0.08809986711 0.2600195706 0.9509928823
-0.08472953737 0.1079171449 0.8117405772 0.02197523974 0.1217878535 0.9879380465
-0.08797138929 0.1153732315 0.8116819859 -0.054551173 0.09830538183 0.9865897298
