# .PCD v0.7 - Point Cloud Data file format
VERSION 0.7
FIELDS x y z normal_x normal_y normal_z
SIZE 4 4 4 4 4 4
TYPE F F F F F F
COUNT 1 1 1 1 1 1
WIDTH 512
HEIGHT 1
VIEWPOINT 0 0 0 1 0 0 0
POINTS 512
DATA ascii
-0.055465102 -0.12918001 0.898 0.06939237565 -0.7579799294 0.6485762
-0.26036912 0.01119065 0.85100001 0.2062217146 -0.4196906984 0.8839300275
-0.12725773 -0.016346032 0.86823815 -0.3393681943 -0.5178800821 0.7852575779
-0.21073051 -0.08164835 0.88700002 0.07012951374 0.5628032684 0.8236105442
0.0040765 -0.05765336 0.93000019 -0.4760893285 -0.5187102556 0.7101258039
-0.13511759 -0.11327492 0.8676399 0.2376617789 0.6306972504 0.7387407422
-0.055317741 -0.055001862 0.86323696 -0.4107404649 -0.2900715768 0.8643788099
0.014322408 -0.12639441 0.87195671 0.1846404672 0.1282268912 0.9744053483
-0.19497743 0.023170142 0.88354552 -0.3531283736 -0.8282698989 0.4350509346
-0.074990064 -0.079934463 0.94000006 -0.09203867614 0.2478222847 0.9644236565
-0.016690586 -0.11511216 0.94469225 0.1850689054 -0.06048266962 0.9808625579
-0.18456686 -0.03497687 0.85747379 0.09062758088 0.3055624664 0.9478492737
-0.10138255 -0.07340242 0.82900006 -0.4091163874 0.4551633 0.7908540964
-0.25362861 -0.044509105 0.86200011 -0.07122184336 0.5600379109 0.8253998756
-0.0069531938 -0.07804279 0.88139999 -0.670724988 -0.6444429755 0.3671800494
-0.086771153 -0.097109385 0.87333345 -0.5405547023 0.3293399811 0.7741678357
-0.1449562 -0.065087564 0.86407715 0.1108177602 0.4124803841 0.9042009711
-0.16982348 -0.10426372 0.90100002 0.3797743022 0.5722154975 0.726870656
-0.044962268 -0.04657786 0.92440015 0.1518122405 0.3517456949 0.9237034321
-0.092744321 -0.12121845 0.92800003 -0.4018193483 -0.8650705218 0.3003234863
-0.21518083 0.0050506247 0.8485747 -0.2000511289 -0.2555430233 0.9458738565
-0.15489143 0.0034015079 0.89471436 -0.5356323123 -0.7988141179 0.2738504112
-0.095069967 -0.042251382 0.86066657 -0.1075585335 -0.6937076449 0.7121803761
-0.024805848 -0.14343657 0.87628585 0.5241743326 -0.3096779585 0.7933100462
-0.054078601 -0.12243249 0.94214296 -0.2556816339 -0.5544807911 0.7919456959
-0.23550732 0.027175106 0.87444454 -0.1005155072 -0.8393173814 0.534268558
0.013101671 -0.094992928 0.93412501 0.2120623887 0.2971337438 0.930989325
-0.09275502 -0.13267379 0.8827858 -0.7242509127 -0.3545740545 0.5913863778
-0.036181785 -0.079764396 0.93800002 0.07407640666 0.4426236749 0.8936425447
-0.17379247 -0.0015775216 0.86090922 -0.3458217382 -0.618673861 0.7054430842
-0.21421088 -0.051873244 0.86900008 -0.005850784481 0.4562560022 0.8898293376
-0.17507969 -0.074571036 0.87428576 0.2083980739 0.5330266356 0.820032239
-0.22467445 -0.025422454 0.85448837 -0.2414053679 0.4322659075 0.8688323498
-0.1235876 -0.086158872 0.85515398 0.6258587837 0.2649481893 0.7335551977
-0.01142735 -0.11046438 0.86900002 0.3067134917 0.04922619089 0.9505280852
-0.15533835 -0.024764078 0.85600007 -0.09246355295 -0.1216454878 0.9882574677
-0.083680086 -0.071648218 0.85771424 0.03729413822 0.4716022909 0.8810223937
-0.27090403 -0.01575896 0.85600007 0.3143411279 0.1705786139 0.9338589907
-0.027903132 -0.058621529 0.87599999 -0.4582665563 -0.2308797091 0.8583043218
-0.12647028 -0.045027304 0.85733324 0.1242116764 -0.09776885808 0.9874272943
-0.022905821 -0.062178962 0.91668755 -0.006223412231 -0.09396070242 0.9955564737
-0.12420613 -0.073675066 0.88000005 -0.01618803293 0.3067193627 0.951662302
-0.09839619 -0.046208926 0.83140004 -0.2448546141 -0.6874443889 0.6837151647
-0.10500108 -0.11500997 0.86363161 -0.07592799515 0.523196578 0.8488228917
-0.0018040704 -0.082835026 0.91512507 -0.7935703993 -0.3519867361 0.49633798
-0.23221147 -0.068660535 0.88000005 -0.05690846965 0.5116448998 0.8573102951
-0.10140403 -0.11241146 0.89666671 -0.5885381103 0.03860181943 0.8075473905
-0.2435502 -0.0038614981 0.83899999 -0.006000007503 -0.1431335956 0.9896851778
-0.074612126 -0.10502542 0.9443903 -0.1798409075 -0.1284424961 0.9752742052
-0.14593126 -0.095507853 0.88195652 0.6266090274 0.2596440613 0.7348102331
-0.18588935 -0.088576488 0.8912726 0.1824474782 0.6368902922 0.7490552068
-0.23561309 0.015347145 0.8536666 -0.07352443039 -0.7039020061 0.7064814568
-0.10160303 -0.077768221 0.87140006 0.2882877588 0.4239941537 0.8585563898
-0.017412025 -0.048543554 0.93462509 -0.2362741232 -0.3950630426 0.8877497911
-0.075037099 -0.14200471 0.89435297 -0.4233975708 -0.3337255418 0.8422361612
-0.21407235 0.020569229 0.86900002 -0.2118718624 -0.849840343 0.482578218
-0.19531094 -0.014884242 0.85407323 -0.05128756538 0.150484249 0.9872811437
-0.05459924 -0.094312221 0.94366676 -0.04546818137 0.2470374852 0.967938602
-0.031589221 -0.13157599 0.94000006 -0.0771138519 -0.4396883845 0.8948338032
-0.16507845 -0.054856364 0.86457914 0.1535270661 0.411123991 0.8985580206
-0.17517753 0.012856527 0.88308001 -0.4782966077 -0.7959551215 0.371063143
0.0042421911 -0.094270885 0.87111133 0.1382979304 -0.159568578 0.9774515629
-0.24518938 -0.024488151 0.84630454 -0.03786089644 0.4127144516 0.9100732803
-0.19255456 0.0094995601 0.86000001 -0.3543489277 -0.6728388071 0.6494033933
-0.19441053 -0.06488248 0.87374991 0.1490281671 0.496876657 0.854929328
-0.081357293 -0.12243088 0.90100002 -0.5510752201 -0.7094086409 0.4393808246
-0.0054899291 -0.1340567 0.87438875 0.2879609168 0.1718723178 0.9420925975
-0.043292839 -0.1432872 0.88792312 0.4101076722 -0.4602187276 0.7874073982
-0.034858555 -0.1045773 0.94672203 -0.02536175586 0.1803187728 0.9832811952
-0.11241368 -0.064914122 0.84446156 0.5844948888 -0.2804764211 0.7613794804
-0.15680279 -0.0045889113 0.87250006 -0.4541469514 -0.8132238388 0.3638921976
-0.14201842 -0.010607841 0.90300006 -0.5038361549 -0.8229210377 0.262583375
-0.10755852 -0.02801057 0.86877775 -0.2208817452 -0.5246113539 0.8221886158
-0.07470344 -0.044352256 0.86174285 -0.1775608808 -0.5760469437 0.797898531
-0.23603192 -0.052852713 0.86800003 -0.1169659793 0.5186237693 0.8469642401
-0.064098798 -0.12738186 0.92550009 -0.1978073269 -0.9584943652 0.2053309828
-0.058953203 -0.06959857 0.93400002 -0.01045940071 0.3517223299 0.9360459447
-0.20603886 -0.035308041 0.86173338 0.07262227684 0.4050383866 0.9114109278
0.012878706 -0.075076982 0.93161541 -0.6657769084 -0.2998948991 0.6832306981
-0.094524831 -0.058426764 0.84900004 -0.4251705706 -0.4362148941 0.7930614948
-0.030868893 -0.12891938 0.8876667 0.5651949644 -0.3073202968 0.7655774951
-0.16427965 -0.092548907 0.88711774 0.3167579174 0.5625923872 0.7636453509
-0.12846433 -0.1222733 0.88275003 0.3803465366 0.7674404383 0.5161120892
-0.13603763 -0.028810773 0.8573333 -0.1997938305 -0.2079612166 0.9575147629
-0.059240751 -0.14928669 0.90100002 0.03722321242 -0.7682529688 0.6390632391
-0.10798874 -0.096140526 0.85490912 -0.5591446757 0.05536954477 0.8272191286
-0.14486498 -0.045036864 0.85619074 0.0205684565 0.1287625283 0.9914621115
-0.030087199 -0.076375201 0.88000005 -0.3825222552 -0.2875493467 0.878061533
-0.15536499 -0.11068957 0.89185715 0.5786783099 0.3785305619 0.722389102
-0.069178201 -0.065457635 0.84850001 -0.3209272027 0.1647653729 0.9326618314
-0.15654315 -0.076324321 0.87185723 0.2271736562 0.4846543968 0.8446906209
-0.10337851 -0.10183908 0.87675005 -0.2390319854 -0.1308599263 0.9621534944
-0.013877137 -0.093277588 0.87603343 0.01810589805 -0.2710368335 0.9623987079
-0.12764491 -0.063988395 0.86299998 0.3738770783 0.3436092436 0.8614804745
-0.13572575 -0.083038963 0.87100017 0.4197981954 -0.1490273625 0.8952990174
-0.061558366 -0.0442027 0.92800003 0.1173047945 0.3701651394 0.9215298891
-0.10850854 -0.081197739 0.84200001 -0.03657754511 0.5257902741 0.8498274684
-0.10815699 -0.048890822 0.84500003 0.463316828 -0.5607348084 0.6862317324
-0.038233478 -0.12788492 0.90233344 0.4020780623 -0.6593956351 0.6352406144
-0.11835438 -0.10919146 0.87100005 -0.02089266293 0.5673094392 0.8232396245
-0.089441039 -0.032106161 0.87200004 -0.1085869372 -0.6528097391 0.7496988177
-0.21844912 -0.011536494 0.84900004 -0.1956083924 0.1880960613 0.962474525
-0.14405504 -0.014810144 0.86169696 -0.3017956018 -0.6057739854 0.7361774445
-0.26307744 -0.0054826448 0.84654838 0.2617265284 0.003575431881 0.9651354551
-0.08844018 -0.10870287 0.93700004 -0.09824263304 -0.2612066269 0.960270524
0.0043951343 -0.11280844 0.86900014 0.1550629884 0.01856664754 0.9877300858
-0.2157535 -0.068317659 0.88000005 0.0086115757 0.5108039975 0.8596540689
-0.15137447 -0.11064804 0.87650001 0.6999905705 0.37359038 0.6086406708
-0.2332167 -0.039455842 0.86000007 -0.189695999 0.5362258554 0.8224823475
-0.042048734 -0.064223029 0.87211126 -0.5015744567 -0.1213103309 0.856566906
-0.17526908 -0.014915652 0.85305262 -0.1633296013 -0.1349376589 0.9772999883
-0.1849345 -0.054880302 0.8666411 0.1509700716 0.4406646192 0.8848857284
-0.075945921 -0.11760793 0.9355334 -0.1572235972 -0.496394366 0.8537408113
-0.03084727 -0.12088795 0.95100003 -0.05207478628 -0.2922632992 0.9549190402
-0.088905983 -0.1184549 0.88700002 -0.7492001057 -0.05787874013 0.6598100066
-0.13422233 -0.10146072 0.85799986 0.4715323448 0.2390798926 0.8488215804
-0.02924034 -0.048555061 0.91800004 0.1306641549 0.214864105 0.9678637981
-0.079807349 -0.082847625 0.86700004 -0.04116584361 0.6375893354 0.7692757845
-0.26154703 -0.034318268 0.85523075 0.08875623345 0.4716553688 0.8773046732
-0.044541974 -0.049123432 0.87100005 -0.5130647421 -0.3577780426 0.7802304029
-0.11198803 -0.087609686 0.86900002 -0.2854213119 -0.5196053386 0.8053228855
-0.016696803 -0.06747473 0.88321435 -0.64115417 -0.7098159194 0.2916894257
-0.2045805 -0.0048130727 0.84900022 -0.1829265058 -0.006436192431 0.9831055403
-0.04502961 -0.13019027 0.93400002 -0.2306358665 -0.7409145832 0.6307556629
-0.15690474 -0.0094774682 0.85799998 -0.2735952437 -0.5491924286 0.7896412611
-0.1650006 -0.035253193 0.85552394 0.01028728671 0.1323066354 0.9911554456
-0.19526568 -0.075875342 0.88279319 0.1478528529 0.576191783 0.8038299084
-0.2348624 -0.014819714 0.84514284 -0.1965435445 0.2713284791 0.9422056675
-0.19515976 -0.045393839 0.86434996 0.1582012773 0.411000222 0.897803545
-0.018051444 -0.12685658 0.88233334 0.4774506688 0.05361029133 0.8770215511
-0.096509822 -0.11910985 0.87375003 -0.7853185534 0.1276364625 0.6057918072
-0.16758853 0.0039821388 0.87581831 -0.4680519104 -0.8059792519 0.3623877466
-0.11423931 -0.1221861 0.87220013 0.1444956362 0.6833375692 0.7156611085
-0.053450365 -0.081957236 0.93800002 -0.01908745058 0.3425718844 0.9392976761
-0.2449851 -0.035945114 0.85407513 -0.08843057603 0.5293884277 0.8437582254
-0.18477435 -0.0051995651 0.8528958 -0.2545229197 -0.3382819891 0.9059709907
-0.18559404 0.014109907 0.87445009 -0.4018983543 -0.8049354553 0.4365279377
-0.083750732 -0.095133699 0.9430002 -0.1657714099 0.03950205445 0.9853727221
-0.20542577 0.012703776 0.85739994 -0.2833788693 -0.706603229 0.6483890414
-0.025777163 -0.09489686 0.94417858 0.08662358671 0.2539267242 0.9633367062
-0.16687292 0.012013547 0.89366668 -0.528725028 -0.7868397832 0.3183285296
-0.1747864 -0.084933713 0.88365698 0.2147031575 0.6155683398 0.7582731843
-0.010412754 -0.072888114 0.91366673 -0.4433073103 -0.43140468 0.785728097
-0.12110098 -0.10079212 0.85800004 -0.01154826023 0.3928358257 0.9195361137
-0.22587092 0.018885907 0.8617143 -0.1489890367 -0.8164970279 0.5577946901
0.0069754608 -0.085107937 0.92460012 -0.06670752168 0.2286636978 0.9712172747
-0.016720371 -0.12636216 0.93800002 0.06542818248 -0.2537820935 0.9650459886
-0.064428911 -0.11485931 0.94465005 -0.1861916035 -0.4565944374 0.8699736595
-0.044815734 -0.11453516 0.94672203 -0.1847153455 -0.2779048383 0.9426819086
-0.26259235 -0.022374222 0.84853852 0.2096857131 0.263076365 0.9417126775
-0.1169984 -0.054383799 0.85275 0.3468112648 -0.3440717161 0.8725460172
-0.23531723 0.0050504776 0.84594113 -0.09377684444 -0.3882714212 0.9167612791
-0.065773331 -0.055306867 0.85538113 -0.3207874 -0.3025002182 0.8975461125
-0.0046193106 -0.064604662 0.92394114 -0.4760893285 -0.5187102556 0.7101258039
-0.01426668 -0.054909177 0.92413056 -0.3560459912 -0.6125667691 0.7056863308
-0.174899 -0.047511324 0.86152387 0.1258955747 0.3861015141 0.9138249159
-0.24101636 0.022879247 0.86400002 -0.01745401323 -0.8026027083 0.5962585211
-0.12126185 -0.077877805 0.84600008 0.6470384598 0.01884734817 0.7622243762
-0.094302155 -0.07054098 0.84700006 -0.6060378551 0.5769463181 0.5475865602
-0.0577548 -0.12754185 0.91500002 -0.1758924425 -0.9474841356 0.2670873106
-0.1490335 -0.0051374421 0.88819999 -0.5128958821 -0.8145544529 0.2709960043
-0.17598118 -0.06272345 0.86900002 0.1735594273 0.4541067481 0.8738788366
-0.064266145 -0.086881138 0.94042897 -0.04679053277 0.2876839936 0.9565817118
-0.076076142 -0.124558 0.92562509 -0.2655307353 -0.9185202718 0.2929401398
-0.15515421 -0.051079866 0.85799986 0.1444433182 0.3303770423 0.9327310324
-0.22498655 -0.056098338 0.87228554 -0.06492386013 0.511410892 0.8568802476
-0.13439286 -0.054073349 0.8569715 0.07882450521 0.3071135879 0.948402822
-0.25453076 -0.014800373 0.84399998 0.2175221592 0.1349710077 0.9666783214
-0.095220558 -0.10437 0.88510704 -0.7584700584 0.08814048022 0.6457200646
-0.11592828 -0.043031257 0.86250013 -0.03897869214 -0.4262568355 0.9037619829
-0.067140892 -0.12697163 0.89800012 -0.3725429475 -0.5206314921 0.7682151794
-0.097501107 -0.065353915 0.83681828 -0.7056074739 0.1600367576 0.690294385
-0.17449957 -0.096010089 0.89395851 0.2785006166 0.5938416719 0.7548440099
-0.20494191 -0.024603182 0.85697865 -0.0270457603 0.3517127633 0.9357171655
-0.20302495 0.018819053 0.87259996 -0.2934942245 -0.8325191736 0.4698648155
-0.097992338 -0.088829421 0.87100005 -0.5886364579 0.3407285213 0.7330833673
-0.084955156 -0.053208608 0.85285711 -0.2728273869 -0.4181748629 0.8664265871
-0.15625197 -0.087773457 0.8803637 0.318123132 0.5313636065 0.7851435542
-0.11988153 -0.067958325 0.87100005 0.06594506651 0.4079478979 0.9106205106
-0.22353587 0.02573269 0.87287515 -0.171008423 -0.8694340587 0.4635089934
-0.24516912 0.01116435 0.8490001 -0.007563438267 -0.538330853 0.8426996469
-0.1240408 -0.034456547 0.8607223 -0.2394990772 -0.3307516277 0.9128217697
-0.22589202 0.011784592 0.84900004 -0.1409422457 -0.6086066961 0.7808541656
-0.1339117 -0.090786725 0.86300004 0.6632634997 -0.1447658092 0.7342509031
-0.22524457 -0.044892937 0.86579078 -0.1133617088 0.4855953157 0.8668023348
-0.16569613 -0.069485478 0.87100011 0.1944819987 0.4659909606 0.8631507158
-0.084964134 -0.063818894 0.84700012 -0.4869072139 0.04675485194 0.8722014427
-0.045321476 -0.13525501 0.89539498 0.3082455397 -0.6379134655 0.7057273388
-0.0057294313 -0.053611487 0.9333685 -0.4336072505 -0.5612322688 0.7049844861
0.0052522258 -0.13386104 0.87623698 0.2141644508 0.1595349908 0.9636815786
-0.21487102 -0.029214919 0.86000007 -0.1287114918 0.432572782 0.8923643827
-0.15679744 -0.098955326 0.89160001 0.4817739725 0.4386422336 0.75860852
-0.24184427 -0.06046107 0.87300003 -0.114074178 0.5187571645 0.8472768664
0.0055105807 -0.074025244 0.92389995 -0.6171818376 -0.2297856361 0.7525191903
-0.0040794676 -0.086976066 0.87623078 0.02709416859 -0.2599353492 0.9652458429
-0.10447925 -0.042316493 0.86566669 -0.0791644603 -0.6404767632 0.7638864517
-0.2050799 -0.056262299 0.87203717 0.1068842113 0.4719293416 0.8751333952
-0.13809548 -0.093602024 0.87512505 0.7185069323 -0.05979875103 0.6929444075
-0.18513516 -0.024737416 0.85497975 -0.002232034458 0.1742775291 0.9846940637
-0.044418629 -0.08570423 0.94180024 -0.01283359714 0.3121332228 0.9499516487
-0.20522247 0.025388218 0.883389 -0.2705799937 -0.8500592113 0.4518691897
-0.10160216 -0.13008155 0.87800002 -0.6475189328 -0.6757531166 0.352245599
-0.10226887 -0.053533033 0.83782351 -0.1820444018 -0.6565734148 0.7319639325
-0.14486189 -0.07504338 0.86700022 0.1802185029 0.3192676902 0.9303705692
-0.19479036 -0.035647601 0.85899985 0.1417145133 0.3670097291 0.9193589687
-0.05471525 -0.10445907 0.94566643 -0.1585437208 0.03780310601 0.986627996
-0.096415803 -0.11454526 0.94000006 -0.1677407175 -0.270978868 0.9478573203
-0.022034921 -0.082739994 0.88022226 -0.2370156944 -0.3262780011 0.9150771499
-0.18518089 -0.045665722 0.86217642 0.1320049018 0.4151288271 0.9001348615
-0.15499583 -0.065182313 0.86586505 0.1997250319 0.3971419036 0.8957612514
-0.06475015 -0.045753054 0.8634243 -0.3452288806 -0.5310047269 0.7738546133
-0.14527841 -0.085865013 0.87303704 0.4462366104 0.262678653 0.8554956317
-0.16545288 -0.024637319 0.85497868 -0.08403047919 -0.01841186918 0.9962930679
-0.22352034 -0.036016162 0.86138469 -0.1844089627 0.4834463298 0.8557295203
-0.20503479 -0.044676464 0.8656978 0.1123922244 0.4242077768 0.8985631466
-0.034734521 -0.14367424 0.8828063 0.4551852345 -0.5234381557 0.7202908397
-0.14528963 -0.025156166 0.85693341 -0.1521573812 -0.1427387297 0.9779947996
-0.20526229 -0.014920983 0.85397446 -0.1162124202 0.2686121166 0.9562124014
-0.24455874 -0.014901476 0.84290689 -0.02267456986 0.2512300909 0.967661798
-0.064664394 -0.10445967 0.94566643 -0.1610490829 -0.0569691658 0.9853008389
-0.078530677 -0.037037544 0.86728573 -0.1501532644 -0.6634879112 0.7329650521
-0.044801224 -0.10453942 0.94638866 -0.117451489 0.1074192524 0.9872518778
0.013408616 -0.085092701 0.93330759 0.13195768 0.294131726 0.9466117024
-0.2237425 -0.073671937 0.8824231 -0.0007533554453 0.5300588012 0.8479605317
-0.16064654 -0.00077234331 0.88100004 -0.4807204902 -0.7961898446 0.3674092293
-0.024886034 -0.10452067 0.94622177 0.1853838563 0.09243064374 0.9783094525
-0.19499242 -0.024752017 0.85547626 0.04601367936 0.2834143937 0.957893014
-0.2147547 0.013860407 0.85444993 -0.2173466831 -0.6759729981 0.7041454911
-0.23499757 -0.0050411592 0.84366661 -0.1856977046 -0.005518745631 0.9825914502
-0.14476454 -0.035252661 0.85559201 -0.0722489208 -0.02532488666 0.9970650673
-0.064821795 -0.14259981 0.89652169 -0.1537945271 -0.4951545 0.8550843596
-0.18504964 -0.015003927 0.85355008 -0.1182940826 -0.01303783804 0.9928929806
-0.015200546 -0.13476446 0.8734749 0.3223496675 0.1763136238 0.9300560355
-0.085314013 -0.042277567 0.86121452 -0.0884558782 -0.6348129511 0.7675858736
-0.16558427 -0.014910463 0.85539567 -0.1632014066 -0.3170755208 0.9342528582
-0.20521533 -0.074717291 0.88302445 0.07087797672 0.5345996618 0.8421279788
-0.10550579 -0.10567674 0.86102796 -0.3278496861 0.08304598182 0.941072762
-0.15536824 -0.035277575 0.85616344 -0.007050476037 0.05734632909 0.9983294606
-0.0091629196 -0.10002854 0.87100005 0.2620680034 -0.09907017648 0.9599507451
-0.17497526 -0.035297498 0.85661232 0.08606223017 0.3039576411 0.9487903118
-0.077299833 -0.058373604 0.84900004 -0.1439761817 -0.1524901688 0.977761507
-0.093270317 -0.071457103 0.85800004 -0.3306493163 0.6972077489 0.6360599995
-0.23364718 -0.027923638 0.85218745 -0.2369625121 0.4624135792 0.8544135094
-0.17502023 -0.024821324 0.85434097 -0.07007311285 0.06418570876 0.9954747558
-0.044040892 -0.12328092 0.94296557 -0.2099385858 -0.5495458245 0.8086563945
-0.16435754 -0.0025162278 0.86177772 -0.3624431789 -0.6944198608 0.6216236353
-0.12483988 -0.11487512 0.87500012 0.277257055 0.6231158972 0.7313379049
-0.024559742 -0.12433451 0.94297063 -0.09194168448 -0.2932055891 0.9516181946
-0.18380873 0.0071482426 0.86285186 -0.3628275692 -0.7160416245 0.5963560343
-0.18537074 -0.066988803 0.87188005 0.1694581062 0.4961256385 0.8515534401
-0.10667411 -0.04641512 0.85400003 0.1083750278 -0.7374241352 0.6666787267
-0.24434939 -0.046198677 0.86212122 -0.1274309158 0.5554975271 0.821695745
-0.12489767 -0.025152134 0.86590719 -0.2964349985 -0.3648822308 0.8826025128
-0.074473746 -0.094820343 0.94154871 -0.1405403763 0.1052882671 0.9844606519
-0.065043703 -0.12363806 0.93403125 -0.1951730102 -0.7019041181 0.6850095987
-0.1481491 -0.10475613 0.89123064 0.6019400954 0.344421804 0.7204455137
-0.04474017 -0.094454743 0.9450832 -0.01145628002 0.2790900469 0.9601966143
-0.18354078 0.016912732 0.88409096 -0.4328848124 -0.8098574281 0.3959061503
-0.22498702 -0.0051980433 0.84700006 -0.2441740036 0.03707191721 0.969022572
-0.082611799 -0.14106356 0.88900006 -0.5147465467 -0.1827676594 0.8376347423
-0.058828425 -0.061332185 0.85666674 -0.4070614576 -0.1317398995 0.9038504362
-0.18644603 -0.078158699 0.88125008 0.1559957862 0.5794177651 0.799962759
-0.19394007 -0.0051518241 0.85260522 -0.2386988699 -0.188984409 0.9525270462
-0.005267032 -0.12489897 0.87449986 0.2244023085 0.1603748351 0.9612094164
-0.12509219 -0.054539308 0.85693353 0.3381109238 0.1320588738 0.9317947626
-0.044817332 -0.077249035 0.93695641 0.006029976066 0.3809155226 0.9245901704
-0.25491881 0.0052012228 0.84695363 0.168660298 -0.3202841282 0.9321865439
-0.098535582 -0.11057046 0.85800004 -0.5076181293 0.2208308876 0.832801044
-0.11545368 -0.08694534 0.85129994 0.0884815678 0.5503905416 0.8302055597
-0.034743689 -0.094303831 0.94358349 0.0415622443 0.2930616736 0.9551897645
-0.19522281 -0.083323687 0.88768941 0.1473741084 0.6012393832 0.7853611112
-0.028018266 -0.087351061 0.94000006 0.1613517106 0.3829580247 0.9095651507
0.0051693437 -0.12512878 0.87453842 0.1695418358 0.1496810466 0.9740899205
-0.19402291 -0.053245932 0.86823815 0.1465084404 0.4526382089 0.8795759678
-0.22497094 -0.064178228 0.87584203 -0.04238247871 0.5131027699 0.8572801948
-0.13571417 -0.015186349 0.86455172 -0.3418579102 -0.6014229655 0.7220966816
-0.065216683 -0.075713485 0.93491429 -0.03882501274 0.3199292123 0.9466456175
-0.20466337 -0.064235099 0.87571806 0.1162790284 0.4932194352 0.8620984554
-0.13495545 -0.044984695 0.85522246 -0.02560073324 0.02914435416 0.9992473125
-0.014980174 -0.065822884 0.91617393 -0.4190684855 -0.5509132743 0.7217174768
-0.16162066 -0.081707232 0.87649995 0.2634468675 0.5822451115 0.7691465616
-0.16575035 -0.046989702 0.86084205 0.129537791 0.3760960102 0.917481184
-0.077418312 -0.075800993 0.86214286 -0.1491969675 0.6006920338 0.7854357362
-0.19459577 0.017310547 0.87420821 -0.3384582102 -0.8153986931 0.4696499109
-0.1149432 -0.10602843 0.86123794 -0.009829405695 0.3933429122 0.9193392992
-0.1456053 -0.05681755 0.86155552 0.1245724931 0.3612483144 0.9241111279
-0.10163254 -0.033622213 0.87166685 -0.150108248 -0.6250748038 0.7659954429
-0.12831262 -0.084275723 0.86300004 0.4720632732 -0.2363506109 0.849290669
-0.05549461 -0.047018852 0.86624998 -0.4004639387 -0.5285862088 0.7484819889
-0.083341233 -0.12412877 0.89289474 -0.578980267 -0.2430964708 0.7782582641
-0.14189534 -0.1081321 0.86740005 0.588781178 0.4292358458 0.6849038601
-0.054965053 -0.144243 0.89564729 0.06451294571 -0.6300324202 0.7738845348
-0.054842345 -0.11470313 0.94560492 -0.2637837827 -0.3934713602 0.8806806803
-0.16421916 -0.10499718 0.89465654 0.4439969063 0.5200425982 0.7296727896
-0.025534032 -0.13307227 0.88254553 0.539868772 -0.2339482009 0.8085851669
-0.085727125 -0.12129304 0.93275005 -0.2440078706 -0.8225902319 0.5136199594
-0.037708439 -0.13214298 0.89342862 0.4464541674 -0.5359285474 0.7165607214
0.011588569 -0.066755451 0.9309001 -0.6657769084 -0.2998948991 0.6832306981
-0.25503889 -0.0051775202 0.84402692 0.1938256919 -0.04667707905 0.9799249172
-0.11191644 -0.11479444 0.86844444 0.1103960648 0.6127197742 0.7825517058
-0.03656752 -0.11376563 0.94800007 -0.03398261219 -0.2358144075 0.9712037444
-0.034766786 -0.064882159 0.87620002 -0.4720533788 -0.2307153046 0.8508443236
-0.083603166 -0.10499753 0.94266701 -0.1368719935 -0.1906864494 0.9720621109
-0.06427481 -0.094648905 0.94327289 -0.06602629274 0.1736595035 0.9825899005
-0.11756665 -0.062624842 0.85318184 0.6734764576 -0.1532559395 0.7231473327
-0.25469008 -0.023991549 0.84673691 0.1336533278 0.3722999394 0.918438673
-0.10627435 -0.12112991 0.86900002 0.04782805592 0.719270885 0.6930814385
-0.094358258 -0.03651686 0.86708701 -0.09679269791 -0.6704981327 0.7355701327
-0.095017903 -0.076518364 0.86662865 0.1237230524 0.5257290602 0.8416064978
-0.24407667 0.020778365 0.85666668 -0.02618458681 -0.7350184321 0.6775413156
-0.074154168 -0.113677 0.94250029 -0.1886640489 -0.4190301597 0.8881551623
-0.0056357617 -0.1156539 0.87150007 0.2063817084 0.1383918822 0.9686352611
-0.024471607 -0.1144798 0.94708824 -0.003703242866 -0.169334203 0.9855517149
-0.023410974 -0.0534444 0.92093343 0.02171983011 0.08850745857 0.9958387017
-0.17517607 -0.054064035 0.86635309 0.1587230712 0.4287388623 0.8893761635
-0.13266359 -0.075758979 0.87290913 0.2476449609 0.263171196 0.9324231148
-0.09542682 -0.095728509 0.87441939 -0.5026988387 0.08322529495 0.8604460359
-0.054810416 -0.12712385 0.93556517 -0.2572404742 -0.6772810221 0.6892879009
-0.075034425 -0.12623954 0.89627796 -0.4951521158 -0.316328913 0.8091726303
-0.034838606 -0.12500659 0.94346333 -0.0771138519 -0.4396883845 0.8948338032
0.0042346925 -0.065354139 0.92748266 -0.5677958131 -0.3742530942 0.7331729531
-0.11505486 -0.035193689 0.86435014 -0.2180474252 -0.5410223603 0.8122500181
-0.26311752 -0.014468541 0.8471601 0.2631710768 0.1441049129 0.9539259672
-0.11522189 -0.025671046 0.86817056 -0.2745972872 -0.4809324145 0.8326466084
0.004390398 -0.10478137 0.86870587 0.1542505771 -0.03136082739 0.987533927
-0.23469138 0.018865867 0.86080009 -0.05711947381 -0.7938832641 0.6053814888
-0.014884192 -0.075155959 0.88191491 -0.6334325671 -0.6312534213 0.4475291073
-0.091349289 -0.12415165 0.88200009 -0.7346404791 -0.1295329481 0.6659764051
-0.23391937 -0.062824436 0.87486368 -0.06792366505 0.5303786993 0.8450353742
-0.16573288 -0.085628793 0.88203335 0.2656030953 0.6031553149 0.7521028519
-0.22571069 -0.014597517 0.84810567 -0.2508140504 0.2914758623 0.9231111407
-0.11442824 -0.074935772 0.84331107 0.6467372775 -0.00547047006 0.7626932263
-0.034071732 -0.13567026 0.88509512 0.5035880804 -0.4306793511 0.7489421368
-0.053645156 -0.062594876 0.86440003 -0.4752553999 -0.09931723773 0.8742244244
0.0090165166 -0.10164073 0.93500006 0.1323253363 0.3245265186 0.9365748763
-0.035317056 -0.056724451 0.87438452 -0.5063768029 -0.2205890864 0.833620429
-0.15462454 -0.093969464 0.88483328 0.4646010995 0.4338228405 0.7719737887
-0.10476264 -0.085385621 0.87281817 -0.1905484796 -0.0009571245173 0.9816772938
-0.088920303 -0.10129182 0.88200003 -0.2123702765 0.464869976 0.8595317006
-0.00145439 -0.071597196 0.92180002 -0.5447580814 -0.3251767755 0.772980392
-0.10445224 -0.094616309 0.87466663 -0.5999391675 0.1929264963 0.7764356732
-0.017670605 -0.1062889 0.94475001 0.2427872717 0.05277331918 0.9686430097
-0.10466544 -0.074228391 0.83576924 -0.1179858968 0.45681867 0.881700635
-0.034946535 -0.053439882 0.9171924 0.1484214813 0.3302642405 0.9321462512
-0.18612021 0.0029164946 0.85704005 -0.3228281438 -0.5747165084 0.7519859672
-0.12528548 -0.09460555 0.85733336 0.2206610888 0.3303182721 0.9177137613
-0.11433058 -0.047748368 0.85500002 0.2529032528 -0.5718080401 0.7804328799
-0.1653457 -0.09772861 0.89338887 0.4093553722 0.5318524837 0.7413238883
-0.24497995 0.0051560751 0.8445909 0.011009668 -0.4105106592 0.9117893577
-0.131404 -0.11788522 0.87316674 0.3186892271 0.6845847964 0.6555767059
-0.21482353 -0.074788176 0.88352501 0.05377203599 0.5229885578 0.8506418467
-0.21502011 -0.0050170515 0.84819144 -0.1801147759 0.01338745281 0.9835544825
-0.015032487 -0.084813803 0.87899995 -0.04493635148 -0.2681656778 0.9623242021
-0.13490029 -0.06495662 0.86408591 0.06459331512 0.3961075246 0.9159293175
-0.16849774 0.011259906 0.88575006 -0.4994536936 -0.7937558889 0.347127676
-0.047299132 -0.055346012 0.86823809 -0.4946050644 -0.154260233 0.8553184271
-0.0050373259 -0.058036376 0.9272002 -0.4501016438 -0.5299547911 0.7187185884
-0.21511611 -0.044848442 0.86706406 -0.01313862018 0.4456170499 0.8951272368
-0.01722913 -0.14179499 0.87350011 0.365413785 0.06822316349 0.9283417463
-0.17397895 0.0071786251 0.87427276 -0.4654347599 -0.789458096 0.4001579285
-0.081942327 -0.11191761 0.94099998 -0.177365303 -0.3173806071 0.9315637946
-0.060156867 -0.079934463 0.94000006 -0.03029918857 0.3336109519 0.9422237873
-0.15790382 0.0016680462 0.88728577 -0.5330104828 -0.7970731854 0.2838559151
-0.065256782 -0.13534531 0.89630002 -0.2191669494 -0.4527564645 0.8642785549
-0.2620948 0.0041043228 0.84668428 0.2134081423 -0.271633029 0.938441515
-0.085217915 -0.13446991 0.88752937 -0.6005150676 -0.4059191942 0.6889203191
-0.18415189 -0.073858857 0.87590921 0.178779155 0.540782094 0.8219444752
-0.091672741 -0.091672741 0.86900002 -0.4359001517 0.4590597153 0.7741157413
-0.025809737 -0.13181451 0.93569243 -0.1329175383 -0.4790424109 0.8676700592
-0.1542708 -0.083276801 0.87515384 0.2902857363 0.5186257362 0.8042148352
-0.10589682 -0.064638644 0.84153843 0.50996387 -0.2298221737 0.8289262056
-0.17887419 -0.089827649 0.89100003 0.2277190387 0.6214427352 0.7496352196
-0.25417259 0.014448781 0.85233331 0.05690700188 -0.5818595886 0.8112959266
-0.18830116 0.012026289 0.8682 -0.3729535639 -0.767018795 0.5220994353
-0.044693343 -0.13074499 0.90144444 0.2408097833 -0.7860740423 0.5692962408
-0.1846659 -0.08411444 0.88586956 0.1641210765 0.6244857311 0.7635979652
-0.075329483 -0.13493022 0.89386511 -0.4638952911 -0.3179443479 0.8268691301
-0.11482664 -0.094379693 0.85440004 -0.077530846 0.5714884996 0.8169393539
-0.16424516 0.004731128 0.88362062 -0.4957960844 -0.8053674698 0.3249145746
-0.20581807 0.0021453067 0.84900004 -0.2071944922 -0.2432588935 0.947573483
-0.017866114 -0.057461292 0.91800004 -0.349558115 -0.5831756592 0.7332907319
-0.048147406 -0.14313249 0.89299995 0.3082455397 -0.6379134655 0.7057273388
-0.085071564 -0.07609883 0.86296564 0.1435813308 0.5501970649 0.8225980401
-0.013889761 -0.12530521 0.87690008 0.2879609168 0.1718723178 0.9420925975
-0.022592951 -0.065464452 0.88000005 -0.6249070168 -0.7203785181 0.3009085953
-0.085626543 -0.069203809 0.85142851 -0.4400515258 0.5409171581 0.7167728543
0.0072926977 -0.092076302 0.92400002 0.1323384643 0.361389637 0.9229756594
-0.17550761 -0.0060953517 0.85584623 -0.2589558363 -0.4775358737 0.8395840526
-0.19293417 -0.089046538 0.89099997 0.1719626188 0.6369845867 0.7514516115
-0.19385861 -0.071542569 0.87750006 0.1478500217 0.5376309156 0.8301165104
-0.24286216 -0.053486381 0.86676925 -0.1120832786 0.5307935476 0.8400568962
-0.086707123 -0.12617539 0.88676918 -0.6253047585 -0.2585070729 0.7363206148
-0.16754393 0.0011398857 0.86675006 -0.4014136195 -0.7488011122 0.5274125934
-0.17594714 0.0032289093 0.86541677 -0.3823609054 -0.7242055535 0.5738697052
-0.0061942996 -0.093905143 0.87225813 0.1607373953 -0.1793373376 0.9705677032
-0.12291761 -0.12107029 0.87740004 0.04530087486 0.5747357607 0.8170842528
-0.094059415 -0.12137558 0.9347778 -0.2627091706 -0.6800518036 0.6844804287
-0.05488139 -0.075533174 0.93591648 -0.01354625169 0.3855707049 0.9225788713
-0.035428543 -0.085578047 0.94162536 0.01110343169 0.2853107154 0.9583707452
-0.074870624 -0.05413685 0.85384613 -0.2038307339 -0.3353946507 0.9197627306
-0.19055226 0.019286666 0.88000005 -0.373521775 -0.8192025423 0.435188055
-0.2045996 0.0069163605 0.85379422 -0.2680949867 -0.4745541513 0.8384053111
-0.068607278 -0.11872894 0.93725002 -0.1922270358 -0.5041000247 0.8419809341
-0.0053310925 -0.10505089 0.86833334 0.2768005729 -0.04883776978 0.9596855044
-0.11198557 -0.055470966 0.84820002 0.4333915412 -0.4345793128 0.7895014882
-0.25708655 -0.028797273 0.85100001 0.1013448238 0.4421482384 0.8911981583
-0.027324822 -0.070428766 0.87800002 -0.3967045844 -0.2818410993 0.8736080527
-0.062361062 -0.05159058 0.86000007 -0.3552727997 -0.391263485 0.8489370346
-0.13494182 -0.024030048 0.86209995 -0.2262165397 -0.2025963664 0.9527752995
-0.2147337 -0.01532012 0.85331583 -0.1690963507 0.3217330575 0.9316084385
-0.14540257 -0.0091855172 0.86533332 -0.3983335793 -0.7372580767 0.5456930399
-0.098213926 -0.11547198 0.86310005 -0.6700829268 0.2794338465 0.6876813173
-0.16171256 0.0075787832 0.89400005 -0.5213162899 -0.8045247197 0.2845509946
-0.20394795 -0.082192227 0.88726676 0.08958151937 0.5693119764 0.8172264099
-0.2347292 -0.045119837 0.86345005 -0.162009716 0.5279054046 0.8337078094
-0.24468534 -0.030701965 0.84900004 -0.08762485534 0.4775372446 0.8742311597
0.00077146664 -0.084089868 0.88000005 -0.5569195747 -0.5249968171 0.6435984373
-0.10799526 -0.073430471 0.84183335 0.5329127908 -0.2811741531 0.7980883718
-0.10504045 -0.098994955 0.86200005 -0.3640007675 -0.09954186529 0.9260641932
-0.22515011 0.0052036606 0.84761244 -0.1800332367 -0.3032559156 0.9357477427
-0.08266966 -0.088456541 0.94300002 -0.1517432481 0.1502354294 0.9769356847
-0.075563326 -0.086670324 0.94000036 -0.1399859339 0.200261876 0.9696902037
-0.085168228 -0.03612392 0.86648017 -0.103522934 -0.658829093 0.7451357245
-0.23600762 -0.023363287 0.84781098 -0.1975715607 0.4056917131 0.8924010992
-0.19553605 0.0047914889 0.85620034 -0.2934611142 -0.4903763831 0.8206166029
-0.17285098 -0.091823444 0.88871431 0.283126533 0.5909776092 0.7553706765
-0.13963546 -0.097976267 0.88000005 0.7342005968 0.07202380896 0.6751015186
-0.22760387 -0.020988978 0.8490001 -0.2598875165 0.4071822762 0.8755918741
-0.0719826 -0.077368595 0.93457144 -0.08472891152 0.2813750207 0.9558499455
-0.20906746 -0.068660535 0.88000005 0.07124832273 0.5193116069 0.8516097069
-0.16533586 -0.007363826 0.85726666 -0.2493598759 -0.510422349 0.8229755163
-0.17358001 -0.079461068 0.88 0.2157954425 0.5877398252 0.7797398567
-0.20522445 0.0167761 0.86270595 -0.2686570883 -0.8161394596 0.5116050839
-0.15407461 -0.0035631533 0.88409996 -0.5213406086 -0.805439651 0.2819058597
-0.15484384 -0.056543197 0.86183339 0.1712869704 0.3802850246 0.9088696837
-0.13488749 -0.035146635 0.8555817 -0.1621054709 -0.1287071556 0.9783436656
-0.14065766 -0.10304866 0.85800004 0.6348363161 0.1131931469 0.7643102407
-0.20183496 -0.031842288 0.85799998 0.05339673907 0.3744622767 0.9257034063
-0.09701661 -0.029359275 0.87366676 -0.1429002136 -0.6095835567 0.7797355056
-0.13703002 -0.074424498 0.86817396 0.2386863083 0.2369671166 0.9417406321
-0.060156867 -0.1211378 0.94000006 -0.2127291709 -0.6181382537 0.7567373514
-0.023738729 -0.13695708 0.87620008 0.5190685391 -0.0875652656 0.850235343
-0.012257992 -0.051753867 0.93216664 -0.3821132481 -0.5976231098 0.7048659921
-0.12863417 -0.080745965 0.87166673 0.2054460794 0.002888458548 0.9786641598
-0.21087925 0.0092125973 0.852 -0.2533025742 -0.4939368367 0.8317837715
-0.075702667 -0.071624413 0.85742855 -0.276632458 0.5357543826 0.7977730036
-0.19592357 0.0130448 0.86431593 -0.3480302393 -0.753462255 0.5578257442
-0.1836544 -0.061756577 0.86841196 0.1573524326 0.4708375037 0.8680738807
-0.13716204 -0.058697212 0.86059999 0.04910975322 0.4145187438 0.9087147117
-0.14407027 -0.051797908 0.8577646 0.08828628063 0.2700795233 0.9587818384
-0.2551575 -0.035340823 0.85504663 0.06764744967 0.5042017102 0.8609322906
-0.038867895 -0.044532329 0.92366672 0.1521267593 0.3171527684 0.9360938072
-0.18277974 -0.0413699 0.85800004 0.1185864061 0.3792031407 0.9176830649
-0.18803623 0.021273894 0.88560009 -0.3899078369 -0.828471899 0.4020026624
-0.083925307 -0.12315788 0.92685717 -0.2317011803 -0.8985922933 0.372621119
-0.085907511 -0.084859848 0.86665529 -0.1052638292 0.6456553936 0.7563390136
-0.21467835 -0.063619912 0.87575871 0.02710637078 0.5004951358 0.8653149009
0.014082618 -0.13277988 0.87252951 0.1695418358 0.1496810466 0.9740899205
-0.085492119 -0.11540319 0.9352423 -0.1217037886 -0.3551588058 0.9268497229
-0.13012713 -0.08950942 0.85800004 0.5847708583 -0.008486131206 0.8111541271
-0.16515057 -0.075038128 0.87411416 0.2386796921 0.5077117085 0.8278048038
-0.020601667 -0.1310266 0.94000006 -0.06343986094 -0.358390063 0.9314139485
-0.054290101 -0.12780869 0.90412503 0.08231080323 -0.8406087756 0.5353520513
-0.2345695 0.02292599 0.86572015 -0.09027925879 -0.807548821 0.582850337
-0.047204904 -0.063196011 0.86850005 -0.4753745794 0.01614371687 0.8796353936
-0.09318804 -0.064127117 0.84648407 -0.4220838845 -0.5462039113 0.7235375047
-0.084939227 -0.047354788 0.85742861 -0.03376960754 -0.4913771451 0.8702919483
-0.12542467 -0.1041007 0.86121869 0.1420862824 0.4878739417 0.8612726331
-0.21714661 0.011722567 0.84900004 -0.1961018145 -0.5129463673 0.835721314
-0.055425555 -0.045663755 0.92778593 0.09850946069 0.3774014711 0.9207953215
-0.245139 -0.041733935 0.85774994 -0.09048663825 0.5468166471 0.8323482871
-0.1888603 -0.038827565 0.86000001 0.1495263726 0.3678317964 0.9177917242
-0.094934404 -0.047328103 0.85694736 -0.1191431582 -0.7084064484 0.6956760883
-0.074409246 -0.12240733 0.93176198 -0.1740748286 -0.667314887 0.7241469622
-0.19932769 0.0112827 0.85800004 -0.2992439866 -0.6859262586 0.6632934213
-0.10618247 -0.056409329 0.84179986 0.7594022751 -0.226172626 0.6100443602
-0.22481678 0.015465431 0.85395646 -0.1526671201 -0.7141437531 0.6831482053
-0.22629572 -0.070043914 0.87800002 -0.04262578487 0.5054922104 0.8617776036
0.0019927509 -0.087740563 0.87490004 0.02709416859 -0.2599353492 0.9652458429
-0.23558703 -0.034688603 0.85670465 -0.2007710189 0.5208676457 0.8296914697
-0.11432994 -0.082099393 0.84750009 0.4443064928 0.3820840418 0.810310781
-0.094324261 -0.053449541 0.85277778 -0.3399333358 -0.5706344247 0.7475438118
-0.14211643 -0.020733166 0.86000001 -0.2064301819 -0.2713414133 0.9400853515
-0.12246376 -0.061983403 0.85699999 0.636539638 -0.08687695116 0.7663351893
-0.23431787 -0.057138503 0.87218189 -0.1031474769 0.5111288428 0.8532924056
-0.094231203 -0.084830225 0.86805892 -0.2682141364 0.5960130095 0.7568551302
0.0016086834 -0.077977754 0.91700006 -0.6171818376 -0.2297856361 0.7525191903
-0.075178556 -0.064417213 0.84722233 -0.3069356382 -0.02066306956 0.951505959
-0.055004895 -0.13515328 0.8963334 0.1225036681 -0.5932797194 0.795620501
-0.22560814 0.022419609 0.86679995 -0.1584599018 -0.824755013 0.5428348184
-0.012217227 -0.11625455 0.87100017 0.2697762549 0.1289117038 0.9542549849
-0.10136354 -0.10489667 0.88509089 -0.7160063982 0.1151238009 0.6885356307
-0.12813294 -0.037483416 0.85724992 -0.1322402656 -0.2415550649 0.9613342881
-0.024107333 -0.075015426 0.88057119 -0.3336955309 -0.3147291541 0.8885903955
-0.15271816 -0.013966113 0.8584879 -0.261346221 -0.530893445 0.8061329126
-0.011940112 -0.06244541 0.92030001 -0.4190684855 -0.5509132743 0.7217174768
-0.14777677 -0.0035730985 0.89400005 -0.5290292501 -0.8080531359 0.2591874897
-0.1427149 -0.08202298 0.86900002 0.3587535024 -0.01406282838 0.9333263636
-0.13297518 -0.095474876 0.85752928 0.5994706154 0.05248906091 0.7986738086
-0.22111231 -0.016980704 0.85137492 -0.2412750572 0.3353239298 0.9106833935
-0.025102327 -0.048325811 0.92383337 0.02171983011 0.08850745857 0.9958387017
-0.21558447 -0.023860106 0.8571502 -0.1473615468 0.4060430825 0.9018944502
-0.23422343 0.011988418 0.84877777 -0.0882813856 -0.6190546751 0.7803702354
-0.09583687 -0.12470792 0.8760345 -0.7990366817 -0.09892503917 0.5930887461
-0.042276196 -0.051992469 0.92380011 0.1434982121 0.3619835973 0.9210733771
-0.16148463 -0.00076532998 0.87300003 -0.4801327288 -0.7968444824 0.3667579889
-0.0031420826 -0.097770363 0.86875015 0.2406500876 -0.09254010022 0.9661903977
-0.20883954 -0.0294034 0.86000001 -0.003019135911 0.4164973795 0.9091318846
-0.11609731 -0.11577509 0.87266666 0.09333688021 0.6874610186 0.7201983333
-0.023136031 -0.04708736 0.93345469 0.06089162081 0.3174503744 0.9463178515
-0.16488296 -0.06429676 0.86808574 0.1834934354 0.4442982376 0.8768861294
-0.084253624 -0.058203477 0.8490001 -0.4063451588 -0.2746218443 0.8714737296
