# .PCD v0.7 - Point Cloud Data file format
VERSION 0.7
FIELDS x y z normal_x normal_y normal_z
SIZE 4 4 4 4 4 4
TYPE F F F F F F
COUNT 1 1 1 1 1 1
WIDTH 512
HEIGHT 1
VIEWPOINT 0 0 0 1 0 0 0
POINTS 512
DATA ascii
0.0929960683 -0.03442703933 0.7056306601 -0.3442744017 -0.7174165249 0.6048741937
-0.1676173359 -0.116411753 0.6818376184 0.07070485502 0.1869914681 0.9782654047
-0.1704534888 -0.1217004731 0.6865865588 0.01490653958 0.2371864766 0.9668265581
0.07780124992 -0.0481614098 0.6759671569 -0.2366519868 -0.6909008026 0.6707000732
0.08864109218 -0.04815491289 0.6827023625 -0.2747028172 -0.7262269258 0.6300400496
0.08707929403 -0.05202280357 0.6756836772 -0.3985550106 -0.5641071796 0.6862570643
0.09374281019 -0.05062123016 0.6892386675 -0.4831900895 -0.6195111871 0.611030817
0.09375421703 -0.06224766746 0.6799285412 -0.1316788942 -0.2005628198 0.7370209694
0.09384975582 -0.07395845652 0.6746798158 0.3662804365 0.1879337728 0.8495633006
0.09372765571 -0.05734511465 0.6858209968 -0.2386416495 -0.3987375498 0.6750332713
0.07787230611 -0.06180674955 0.6691707969 -0.1673197597 -0.1726438552 0.9662463069
0.08422846347 -0.06908104569 0.6721618176 -0.03011620976 0.1011058837 0.9596447349
0.09294164181 -0.05855220929 0.6731231213 -0.6037430763 -0.2976030409 0.717928648
0.0919836238 -0.06679837406 0.6686885953 -0.373811841 0.04121086001 0.826079607
0.06649965793 -0.06274949014 0.733897984 0.06897164881 -0.334341526 0.8902478218
0.07478384674 -0.0468171984 0.7253907919 -0.115756385 -0.4152821302 0.8154245615
0.07979554683 -0.03575257584 0.7188256979 -0.2347877175 -0.5134186745 0.7461409569
-0.1663335711 -0.1089047864 0.6803286672 0.07499240339 0.1265820861 0.988106966
0.08545586467 -0.03214626387 0.7040000558 -0.3367677927 -0.6930099726 0.6371622682
0.0783379972 -0.02363681048 0.7066924572 -0.3176477253 -0.6592110991 0.680957377
0.0900541842 -0.0264469739 0.7123548985 -0.3374885023 -0.6977463961 0.6317873001
0.08385718614 -0.0365338102 0.6972942352 -0.3215952516 -0.7215473056 0.6127366424
0.08415003866 -0.0651274845 0.725443244 0.1441711038 -0.8333493471 0.4577312768
0.09052992612 -0.04020843282 0.7106481791 -0.2493640482 -0.7330092788 0.5848568678
0.091403611 -0.04847212136 0.7086173892 -0.1918997616 -0.7643498778 0.5431086421
0.08204638213 -0.05176138505 0.7234197259 -0.0483331345 -0.6923158169 0.6575081944
0.07848323137 -0.06887427717 0.7314546704 0.1981111914 -0.7577142715 0.5746615529
0.08684643358 -0.04513590783 0.7181627154 -0.1297471374 -0.7408682108 0.579138875
0.0785477981 -0.05768892914 0.7276237011 0.02776195295 -0.6660652161 0.7019257545
0.08688379824 -0.06973496825 0.7199298739 0.1496585906 -0.8393264413 0.4222647548
0.09343569726 -0.04910444841 0.6975602508 -0.3516664505 -0.6993806362 0.5732750297
0.08991520107 -0.05907930434 0.7129579186 -0.02963243239 -0.8035094738 0.4792699218
0.06414975226 -0.01535664406 0.7038146853 -0.1990905702 -0.6537764668 0.72729671
0.07025056332 -0.02191032469 0.7035752535 -0.2721127272 -0.6527180076 0.7056196928
0.06440301985 -0.02518308349 0.7117815614 -0.1746010035 -0.5516391397 0.7735179663
0.07153289765 -0.0317229256 0.7187612653 -0.1904902607 -0.4828026295 0.7929751277
0.06399124116 -0.04218807071 0.7231120467 -0.09137307853 -0.3372478485 0.8782129288
0.07251895219 -0.02523528226 0.7147367597 -0.2276906818 -0.5661444664 0.7506659627
0.06624950469 -0.05060125887 0.7284790874 -0.07097230852 -0.2475859821 0.9134307504
0.08020973951 -0.02866508998 0.7148137689 -0.2824500203 -0.5899843574 0.7070773244
0.07387018949 -0.03924066201 0.721280694 -0.1841331869 -0.4283905923 0.8032227755
0.09362917393 -0.04148074239 0.6980220079 -0.339204371 -0.7380396128 0.5829204321
0.07711961865 -0.0320285596 0.6993439794 -0.2873931229 -0.7042475343 0.6485103965
-0.1293646693 -0.1178952008 0.6889646649 -0.4989816844 0.2269699425 0.8343468308
-0.1278829128 -0.1250403076 0.6933164001 -0.5209950209 0.2757300735 0.8056444526
0.09025972337 -0.07187476009 0.6828495264 0.1352244765 0.03243454173 0.7917032838
0.09202735871 -0.08279457688 0.6776322126 0.3590859175 0.3250051439 0.8710980415
0.08139395714 -0.0830964148 0.7013905048 0.3533430696 0.01405981835 0.6896426082
0.08298119158 -0.08125498891 0.7170055509 0.3633018434 -0.5547596812 0.480532974
0.08504966646 -0.07847717404 0.6857016683 0.3801757395 0.2444750071 0.8390521407
0.08523531258 -0.07644863427 0.7097780108 0.3031020164 -0.4520372152 0.5572769642
0.08736474067 -0.06958257407 0.7089438438 0.094704777 -0.6149616838 0.521613121
0.08741959929 -0.07021985203 0.698156476 0.124736473 -0.3132815063 0.6456549764
0.09146428108 -0.05704753101 0.6983014941 -0.2767843902 -0.6718828082 0.5578393936
0.0897545144 -0.06219210476 0.7038418055 -0.1254731566 -0.6794472337 0.5299420357
0.08658274263 -0.07348644733 0.6909700632 0.2313444018 -0.03575877845 0.74688977
0.07654221356 -0.07978013158 0.731136024 0.3417342305 -0.7893096209 0.5003959537
0.05104606599 -0.08018875867 0.7335089445 0.002169643762 -0.1355163008 0.9897374511
0.0589941591 -0.07763272524 0.7338638306 0.04235351458 -0.1533235162 0.9871945381
0.06836038828 -0.07688682526 0.7336162329 0.1295063496 -0.3895358145 0.8482783437
0.06544551998 -0.08928234875 0.731351614 0.1901857853 -0.4388082623 0.8659009337
0.05439950898 -0.02757088654 0.7128056884 -0.07633702457 -0.5094570518 0.8131514788
0.05590518564 -0.0166907683 0.7058081031 -0.1391253024 -0.6485282183 0.7428433895
0.06000137329 -0.03237108886 0.7161383629 -0.103969641 -0.4554683864 0.8285907507
-0.07046757638 -0.03915923834 0.693711102 0.0122416066 -0.2909662426 0.9347744584
-0.1533304453 -0.08370764554 0.6807456613 -0.1713650227 0.006391462404 0.9844402671
-0.1538799405 -0.1212523058 0.679574728 -0.04055161029 0.2767781019 0.9587180018
-0.1629181951 -0.1240796298 0.6829169989 -0.02169672959 0.2725223303 0.9606880546
-0.1601861715 -0.1153477132 0.6808316708 0.02861901745 0.2239784151 0.9726842046
-0.1472340822 -0.1149966419 0.6799682379 -0.1933106035 0.1570359319 0.967264235
-0.09905206412 -0.04971805587 0.6760931611 -0.3841179907 -0.136446178 0.5428308249
-0.1073029488 -0.04925835505 0.6813123822 -0.3089561462 0.002262059366 0.7693430185
-0.09464037418 -0.05123126507 0.6690634489 -0.4825164378 -0.2925128639 0.2788670063
-0.1066339761 -0.04837348685 0.6885390878 -0.2237948775 0.1074703485 0.9684541821
0.05416968465 -0.08922162652 0.7324827313 0.01221574098 -0.1606571823 0.9866605997
-0.01782503724 -0.07552182674 0.691976428 -0.009356738999 -0.09463877976 0.9925402403
0.002438608557 -0.08447439224 0.7231759429 -0.04503786564 -0.003999805078 0.9977958798
-0.006346835289 -0.07879180461 0.7101792097 -0.04257172719 -0.05380015075 0.9949122071
-0.01365435403 -0.07776816934 0.7010743022 -0.0394163318 -0.08564846963 0.9929387569
-0.00984841492 -0.1164129972 0.7104412913 0.07676032931 0.4963989556 0.8035390973
0.006047940347 -0.1126639768 0.7266956568 0.02845882252 0.1413936615 0.9507787228
-0.001631691121 -0.1127797961 0.7207525373 0.04658440873 0.2706007063 0.8965021968
-0.01152195781 -0.1171623319 0.7020487189 0.04963726923 0.5997792482 0.7665494084
0.01333490014 -0.1123039424 0.6939415932 -0.2097270638 0.352265209 0.902484417
0.00497592194 -0.1138797477 0.7137210369 -0.01601397991 0.2927918136 0.8968513608
0.01433594152 -0.1120571494 0.708650589 -0.1262793392 0.2164735943 0.9432964921
0.002838798333 -0.1143285409 0.705277741 -0.05079378933 0.3905629218 0.8636816144
0.03634374589 -0.08869335055 0.6931292415 0.3020756841 -0.769436717 0.3358924985
0.0308140181 -0.08000449836 0.688344419 0.2552202046 -0.6308200955 0.5248972178
-0.1152860522 -0.131334886 0.7066796422 -0.4337779284 0.2836961746 0.851981163
-0.1206335872 -0.135280773 0.7028170824 -0.5015257001 0.2805489898 0.8173876405
-0.1086087674 -0.1157484874 0.7011739016 -0.3827403486 0.2828693986 0.8393437862
-0.124506712 -0.1309692562 0.6976633072 -0.550381422 0.278560698 0.7869527936
-0.12154755 -0.1222982034 0.6953006983 -0.5464299321 0.255248189 0.7968416214
0.07846133411 -0.08535828441 0.7270671725 0.4306284785 -0.8149985671 0.3863411844
-0.1667970121 -0.133269161 0.6899428368 -0.04951542988 0.3141738772 0.9476534128
-0.1511856467 -0.134035781 0.690128386 -0.1664591283 0.398932606 0.8941608071
-0.158986032 -0.1307059079 0.6884485483 -0.114494279 0.3198345304 0.9352500439
-0.1361293197 -0.1297945529 0.6916652918 -0.4067250192 0.3331176937 0.841067493
-0.1429607272 -0.1329589635 0.6892271042 -0.2342607677 0.4203585088 0.8732293248
0.08767230064 -0.08717697859 0.6821363568 0.3075968921 0.2319243699 0.6681544185
0.06006906554 -0.07051547617 0.734126091 0.03699332103 -0.1322939843 0.9904245734
0.05133904144 -0.06738069654 0.7335461974 -0.01249406021 -0.1154792085 0.991907835
0.03858366236 -0.05401936173 0.7238172293 -0.0436545983 -0.2314865291 0.9368563294
0.04403194413 -0.06024222448 0.7290982604 -0.05599031597 -0.1640737504 0.9669870734
0.03860645369 -0.06529641151 0.7311230898 -0.07707560062 -0.09310521185 0.9880523682
0.0357946828 -0.03324998915 0.7097303271 0.01481211465 -0.481826514 0.8416166306
0.03531345353 -0.04724466056 0.7186796665 -0.02723531052 -0.3092583418 0.9049740434
0.04463076591 -0.07236674428 0.7335456014 -0.07336168736 -0.1018820256 0.9920787215
0.03014921211 -0.07151722163 0.7313486934 -0.08518449217 -0.08288307488 0.9926717877
0.07165043801 -0.09650741518 0.6925032139 0.3662568033 -0.3968859613 0.3526924253
0.08072122931 -0.09240625054 0.6877027154 0.2918343842 -0.1299287826 0.296020329
0.07826055586 -0.08688063174 0.7170999646 0.4230403006 -0.8439753652 0.2844780982
0.07564562559 -0.0897057727 0.7092896104 0.4278973043 -0.8609303236 0.1974753588
0.07605536282 -0.09049773216 0.6998168826 0.4219023287 -0.8896390796 0.09698409587
0.06582107395 -0.09824682027 0.7016894817 0.4169265032 -0.8916154504 0.122503221
0.06962732226 -0.09418071061 0.7105232477 0.4311212301 -0.8570103049 0.2108560652
0.05723839253 -0.05048941448 0.7275664806 0.001731541241 -0.2257237881 0.9449501038
0.05166602135 -0.04563012719 0.7223562002 0.01927123219 -0.2988991737 0.9174327254
0.05128364637 -0.03769759089 0.7184351683 -0.006999006961 -0.386164397 0.8776892424
0.04497570172 -0.02526420541 0.7092861533 -0.0122083528 -0.5440303683 0.8120040894
0.04257982597 -0.03389675543 0.7120738029 0.03409671783 -0.4594516456 0.8535841703
0.03652513027 -0.02660223655 0.7056519985 0.03752705082 -0.560562551 0.8127576113
0.0489574708 -0.05482573807 0.7271677852 -0.01756507717 -0.2072682232 0.9523212314
0.05336626992 -0.05979025364 0.7316231132 -0.01869373769 -0.1374631375 0.9806009531
0.04302949086 -0.04244741052 0.7175878286 0.004765544087 -0.363855809 0.8903129697
0.05477026105 -0.0125854183 0.699447155 -0.110749498 -0.650403738 0.7510222793
-0.06180899963 -0.04384442791 0.694917798 0.07623553276 -0.3961795866 0.9104498029
-0.04833997786 -0.02996102348 0.6958660483 0.07753769308 -0.2510999739 0.9642860889
-0.149263829 -0.1063435003 0.6805787683 -0.1776902676 0.05496911705 0.9805228114
0.0351139456 -0.01732328907 0.7048422098 0.005538688507 -0.6134510636 0.7896167636
0.04366511106 -0.01566955633 0.7033470869 -0.0420588702 -0.6313669086 0.7724185586
0.03655183688 -0.02408590727 0.6984091997 0.02236400917 -0.615677774 0.7865670919
-0.06693860143 -0.04956232756 0.6942495704 0.1307397485 -0.3037649989 0.9253843427
-0.0991409719 -0.04383856058 0.6872907281 -0.2271642536 0.06895044446 0.9082200527
-0.08783906698 -0.04721635208 0.6714876294 -0.4491520822 -0.2875283659 0.3071163595
0.04503767937 -0.09768671542 0.6989244223 0.3749106228 -0.9173346162 0.1329268515
0.03862275928 -0.1070418879 0.6969735622 0.3022643924 -0.946711421 0.06867988408
0.04596246034 -0.09785225242 0.7302994728 0.1679813415 -0.5104208589 0.7539702654
0.05340748653 -0.09651550651 0.7304494381 0.2499048114 -0.6321214437 0.706684649
0.04989506304 -0.09922667593 0.7203432322 0.3261347711 -0.8074527979 0.4374020696
0.05440053716 -0.09872644395 0.7134885192 0.3551084697 -0.8501996994 0.3169488907
0.05269029364 -0.1013089567 0.7029430866 0.4048447013 -0.8854214549 0.1732824594
0.04475717992 -0.1030335352 0.7055178285 0.365383327 -0.8840040565 0.2180819958
0.06757735461 -0.09314569831 0.7230026722 0.4258368313 -0.8164292574 0.3560138345
0.06054700539 -0.09488136321 0.7234638333 0.374371022 -0.8138121963 0.4072745144
0.06080508977 -0.09884913266 0.708016634 0.3861092627 -0.8707820177 0.2211946845
0.01230860222 -0.09555914998 0.7301884294 -0.006834718864 0.02156396583 0.9997266531
0.009771356359 -0.1096054018 0.7326607704 0.01515245438 0.02361892909 0.9995802045
-0.05724228919 -0.05076912791 0.6939509511 0.0005042277044 -0.3910443485 0.890003562
0.001324907644 -0.1137853861 0.6926416755 -0.0911225751 0.5070683956 0.8302811384
-0.005080843344 -0.1153175458 0.6957402825 -0.02627999522 0.5651174784 0.7957811952
0.005834029522 -0.09965047985 0.7300086021 -0.00325804227 0.01786692254 0.9998099804
-0.03628943861 -0.07892288268 0.6872916818 0.004608792253 -0.03150663525 0.9865497947
-0.04125242308 -0.07348474115 0.6888887882 -0.09769883007 -0.1018041149 0.9565574527
-0.0513378419 -0.06633878499 0.6910276413 -0.2682445049 -0.1981121898 0.8911448121
-0.05074310675 -0.07871559262 0.6931442618 0.1015754491 0.0330593735 0.9181734324
-0.03434483334 -0.07013468444 0.6867226958 -0.1086396426 -0.160108 0.9774461985
-0.0415478535 -0.06402786076 0.6880728006 -0.2454237491 -0.2529790699 0.927687943
0.02152064443 -0.1115267053 0.7042605281 0.07183095068 -0.6312531829 0.2080102712
0.01830996573 -0.1116771922 0.7178069949 0.04009176418 -0.3062103987 0.6056980491
0.02190385014 -0.1113063544 0.7303941846 0.012552334 0.01462248806 0.9993846416
0.02626202442 -0.1097285151 0.6955510378 0.145168826 -0.9814170003 -0.07856376469
0.02810273878 -0.1095650941 0.722170949 0.05719180033 -0.2447586358 0.7735043764
-0.02026949823 -0.07979657501 0.6840137839 0.03699298203 -0.02952562273 0.9919755459
-0.02776975185 -0.07898114622 0.6866250038 -0.04274562374 -0.1284744442 0.9903106689
-0.01700758189 -0.08965847641 0.6984639764 -0.01123275235 0.005475548096 0.9580037594
-0.008206179366 -0.09644285589 0.7110113502 0.007486859802 0.2034020722 0.9073997736
-0.01593203098 -0.100047946 0.7014520168 0.02816190198 0.2545070648 0.8753973246
-0.01214025822 -0.09153552353 0.7051176429 -0.008157309145 0.07083950937 0.9450055957
-0.02118611336 -0.09819981456 0.6942967772 0.02553319931 0.188136965 0.8880049586
-0.00137008098 -0.09025251865 0.7190132737 -0.02245277166 0.08761768043 0.9597010016
-0.01149821468 -0.1031192765 0.7077202201 0.03624771163 0.3460686505 0.8526738286
-0.007190869655 -0.08820384741 0.7110860944 -0.02536964417 0.01406078134 0.9736780524
-0.01493703108 -0.1084196344 0.7040275931 0.05979455635 0.4557326138 0.8088871837
-0.04335456714 -0.07292850316 0.676707983 -0.5819711685 -0.1913508773 0.7312805653
-0.0028542215 -0.08373596519 0.7161889672 -0.0416896306 -0.02945243567 0.9963237643
-0.02276676521 -0.07117266953 0.6858879328 0.01081735641 -0.1056980267 0.9927028418
0.00844487641 -0.08029869199 0.7281478643 -0.04793666303 0.008271766827 0.9987980723
-0.05060838535 -0.07677619904 0.6714711189 -0.8139085174 -0.3164140284 0.4665195048
0.01143767312 -0.05972391739 0.6783428192 0.1902387887 -0.2425986975 0.949927032
-0.0651012063 -0.03330967948 0.6933803558 0.02809634618 -0.4047294557 0.9120074511
-0.1057426706 -0.07039953023 0.6925194263 -0.1939941198 0.2129478306 0.9557157159
-0.1017742604 -0.1126117557 0.7030698657 -0.2360900789 0.3103271425 0.8845462799
-0.09354213625 -0.1317067146 0.7150146961 -0.1598042399 0.3999245465 0.8967223167
0.06448487192 -0.07943371683 0.6894510984 0.247254625 -0.7580901384 0.3347839415
0.04290584475 -0.05495744944 0.6780760884 0.1087297276 -0.5543518662 0.8043295145
0.04649006203 -0.06369631737 0.6831499934 0.187812984 -0.6429408789 0.6228096485
0.05629216507 -0.08569870144 0.6959616542 0.3832880557 -0.8699176311 0.1625694185
0.04648523405 -0.07059153914 0.6870191693 0.2634590268 -0.6985253096 0.4912994206
0.05221638083 -0.09229787439 0.6981701255 0.3965353072 -0.9047100544 0.1183257848
0.04398433119 -0.08846955746 0.6946309209 0.3329332471 -0.8339034319 0.2751989961
0.04128892347 -0.0765671432 0.688716352 0.2686044574 -0.7228067517 0.4689721763
0.03711939231 -0.06595940143 0.6830996275 0.2040775567 -0.609300673 0.6642958522
0.02462576702 -0.06433068961 0.6806402206 0.1931181699 -0.4021538198 0.8451458812
0.03533795476 -0.05731369182 0.6788113117 0.1563290656 -0.5334581137 0.8028233647
-0.1369189769 -0.1230924726 0.6868315339 -0.4070703089 0.2451249957 0.8774135113
-0.1479867846 -0.1283234805 0.6838666201 -0.1502769589 0.3557691872 0.9169599414
0.07405567169 -0.06848730892 0.6766058803 -0.0349814184 -0.0893734768 0.8967479467
0.07241085917 -0.08657297492 0.6910266876 0.3198770285 -0.1175236255 0.5016040802
0.06826034188 -0.07026833296 0.6809577942 0.07436460257 -0.4547472 0.6820006371
0.07181749493 -0.07732682675 0.684347868 0.167896226 -0.1329321861 0.6947311163
0.07848656923 -0.08182062954 0.6836557388 0.1741538644 0.3293628693 0.8458567262
0.08458474278 -0.07591476291 0.6765462756 0.06844188273 0.2306676209 0.9209660888
0.06485807151 -0.09201970696 0.6944045424 0.3609015942 -0.4087611437 0.3579461873
0.04742909968 -0.03199990466 0.6908875108 -0.007594198454 -0.6673846841 0.7433886528
0.0523205772 -0.0236734394 0.6935771108 -0.05845940113 -0.663397789 0.7432739735
0.04001438245 -0.02984909527 0.6936401725 0.02241216786 -0.63689363 0.7692172527
0.04565499723 -0.02082138136 0.6964460611 -0.03492030129 -0.634457469 0.7675271034
0.05187119916 -0.03695093468 0.6877509356 -0.0007373091066 -0.6817132235 0.7311086059
0.03666774184 -0.1008256376 0.7300694585 0.08838736266 -0.3029341102 0.8623406291
0.03513355926 -0.08584365994 0.7320635915 -0.06737154722 -0.08819379658 0.9936970472
0.04371643811 -0.08578577638 0.7327564359 -0.04651343822 -0.1166724116 0.9920251966
-0.06395764649 -0.03525850549 0.6834968925 -0.1700186729 -0.4084593058 0.7913042307
-0.05857332423 -0.03201610222 0.6905704141 -0.03227423131 -0.2904110551 0.8968194127
-0.1379871666 -0.1159696653 0.6842452884 -0.3590485454 0.196300745 0.9074468017
-0.1348988265 -0.1053141654 0.6842390895 -0.387024492 0.09820567816 0.9164425135
-0.1472121775 -0.09385679662 0.6815667748 -0.2019365132 -0.004830692429 0.9789571166
-0.1449937522 -0.08708894253 0.681635499 -0.2053588927 0.0198164992 0.9784003496
-0.1558433473 -0.09208232909 0.6789999604 -0.1304681897 -0.00704380637 0.9908611178
-0.1614653617 -0.09672953188 0.6789999604 -0.05336730927 0.02810960449 0.9961814284
0.06422656029 -0.03244618326 0.6926329136 -0.1444438696 -0.7089644074 0.6893296838
0.06029472128 -0.03984416649 0.6849722862 -0.054512389 -0.6895492077 0.7212428451
0.05301297829 -0.05706461892 0.6769072413 0.03877699375 -0.5275488496 0.8231742382
0.06337369978 -0.06289668381 0.677162528 -0.002482338343 -0.5093374252 0.7940754294
0.05989436433 -0.06814337522 0.6821926832 0.1077515408 -0.6095104218 0.6281954646
0.05573223159 -0.07688774168 0.6899622679 0.2726311386 -0.7615597844 0.3695954084
-0.09150473773 -0.05619431287 0.6640521884 -0.5609397292 -0.4006287158 0.08352079988
-0.1030706838 -0.05604404584 0.674584806 -0.4088248014 -0.1393788755 0.5193998814
-0.1039037034 -0.0614434965 0.6811373234 -0.3403124511 -0.01595425978 0.7080087662
-0.1097883657 -0.06502640992 0.6891040802 -0.2341214269 0.1540003121 0.9590264559
-0.1117150858 -0.05644934997 0.6870627999 -0.235363692 0.1318649501 0.9624172449
-0.09901877493 -0.05975000933 0.6914887428 -0.1808223873 0.1192415655 0.975045085
-0.1197910383 -0.064848423 0.6855829954 -0.2685018778 0.1366891116 0.9533959031
-0.1223152131 -0.05707135051 0.6840915084 -0.2490445375 0.1179042086 0.9611829519
-0.1391206682 -0.09616503119 0.6827255487 -0.2762389183 0.02352907695 0.9591743946
0.03766972199 -0.1044529751 0.7221004963 0.2372008711 -0.5814367533 0.5883045793
0.039569024 -0.104213804 0.7144969702 0.3127802312 -0.781807363 0.3692709804
0.03380744532 -0.1080251262 0.709569633 0.1918417662 -0.6289907098 0.3931641281
0.03152597323 -0.1097925305 0.7014775276 0.2019488066 -0.8283064365 0.1835876703
0.01642874256 -0.102768153 0.7300814986 0.007440504152 0.01809033938 0.9997688532
0.02898796089 -0.05608467013 0.7234550714 -0.06416820735 -0.2064471543 0.9407651424
0.02806021459 -0.03981981054 0.7131705284 -0.03532972187 -0.4059087038 0.8660985231
0.0324465856 -0.06145208701 0.7274207473 -0.07683564723 -0.1341341436 0.9678785205
0.02907058224 -0.02756392024 0.7053709626 0.004146054387 -0.556039691 0.8111077547
0.02159483172 -0.04930282757 0.7167463899 -0.05058454722 -0.2938641906 0.9046154618
0.0241889786 -0.03313609585 0.7080874443 -0.02105114982 -0.4930770695 0.8327711821
0.02728475817 -0.02602829225 0.6978266239 0.01992120221 -0.6165090203 0.7868993282
0.0007494210731 -0.1036096141 0.7226984501 0.01490640081 0.160921067 0.9420443773
-0.004964935593 -0.1057346016 0.7172366977 0.04113622755 0.3188894689 0.8767157197
0.002759632887 -0.0958737433 0.7240017653 -0.002558471868 0.1175285354 0.958807528
0.006203442346 -0.08992655575 0.7279520631 -0.02897158824 0.01703403145 0.9992470145
-0.05999575928 -0.08729531616 0.696893394 0.3260907829 0.2282563001 0.9142079353
-0.06645853072 -0.09166721255 0.6988400817 0.2568358779 0.2536118627 0.9257504344
-0.05804383382 -0.09466394037 0.6962206364 0.3052237928 0.3208259642 0.8951541185
-0.04322828725 -0.1234962493 0.7072857618 0.1295361817 0.6424584389 0.7548388839
-0.03654735908 -0.1214121506 0.70439291 0.1492467076 0.6522035599 0.7429722548
-0.04991944879 -0.1175672859 0.7024501562 0.1428673267 0.5612251759 0.8101732135
-0.0698459819 -0.098068133 0.699450314 0.2042254955 0.3131191134 0.926107347
0.01880365983 -0.1033645198 0.6903018355 -0.02840788104 -0.104815267 0.6956954002
0.01140260044 -0.09243230522 0.6848156452 0.0006920508458 0.05485961959 0.8875908852
0.009954834357 -0.08445008099 0.6824601889 0.08192121238 0.01760186069 0.9144830108
0.02121106535 -0.09516380727 0.6895067692 0.1140960678 -0.2945520282 0.6118583083
0.01672975719 -0.08788888901 0.6860410571 0.140189141 -0.2055526376 0.7268559933
0.03119391389 -0.09497044981 0.6936288476 0.2679512799 -0.6850265861 0.3258067667
0.03356614709 -0.101884149 0.6964538097 0.2274131328 -0.7786476016 0.2071109712
0.02432432771 -0.07294977456 0.6838892698 0.220503971 -0.4558808208 0.7122819424
0.02765619382 -0.08902753145 0.690764606 0.2817115188 -0.6080112457 0.425732851
0.01751567982 -0.06624455005 0.6794732809 0.1922987849 -0.258451879 0.9066767693
0.01824486256 -0.07957325876 0.6845921278 0.2420358956 -0.3343062699 0.6972180605
0.0140082892 -0.07385914773 0.6812763214 0.2187736481 -0.2047697604 0.841242075
-0.01858537644 -0.09100459516 0.6798369884 -0.001523468527 0.06917783618 0.99085325
-0.005530761555 -0.08204901963 0.6796293855 0.07401312888 0.01914142072 0.9864688516
-0.0250116419 -0.1086839512 0.6864756346 0.1860501915 0.6407632828 0.7395066023
-0.007697705179 -0.1026924103 0.6792964935 -0.06702633202 0.1971699148 0.9770843983
-0.015234611 -0.1069850847 0.6835990548 -0.02775015309 0.4858680367 0.8657506108
-0.008871925063 -0.1129213423 0.6882302761 -0.005416208878 0.5910280347 0.7997951508
-0.02532119676 -0.08711522073 0.6876088381 -0.01126347575 -0.08871516585 0.9743623137
-0.02325434238 -0.1081441715 0.6968731284 0.09035278112 0.4301977456 0.8026394844
-0.01963819191 -0.1130294427 0.6919109821 0.1160017028 0.6837233305 0.7180160284
-0.02537789941 -0.1166613623 0.6986835599 0.1679430008 0.6781406999 0.7154342532
-0.04339502752 -0.08956791461 0.6900254488 0.2289977074 0.2171270549 0.922252357
-0.05104381964 -0.08759139478 0.693934381 0.3106989264 0.2017610669 0.9155992866
0.01582763344 -0.04913004488 0.6828016639 0.1303417534 -0.4142130315 0.8980878592
-0.006034913473 -0.05561741441 0.6861342192 0.1535864621 -0.2020909488 0.9664340019
-0.0001363354677 -0.06903124601 0.7099360824 0.02678619139 -0.07799068093 0.9875456691
0.005083602387 -0.07644498348 0.7216973901 -0.02351552807 -0.0130867362 0.9962574244
-0.005985846277 -0.06456355751 0.7019714117 0.05098322034 -0.110211134 0.98500067
-0.01005223393 -0.06366737932 0.6942564845 0.08845609426 -0.1059566289 0.9848427176
-0.01255885046 -0.05801859125 0.690189302 0.09670677036 -0.1620095074 0.9789014459
0.00170400762 -0.07436209917 0.7154662013 0.003729866119 -0.02495614998 0.9945918322
-0.06809926778 -0.05715374276 0.6935173273 0.1879291385 -0.2076725513 0.9322072268
-0.07534430921 -0.05611743033 0.6938204169 0.04748819768 -0.04334384575 0.9817374945
-0.07716225088 -0.08881983906 0.6973128319 0.1499954313 0.2728442848 0.9500026107
-0.08788828552 -0.09148719907 0.7011142373 0.07506139576 0.3061094284 0.9459102154
-0.07812379301 -0.0739524588 0.6935229301 0.09628692269 0.1614898294 0.9786840081
-0.09206864983 -0.08140303195 0.69816643 -0.01912712306 0.2665809691 0.959174335
-0.06018278375 -0.08471955359 0.6803564429 -0.4922778904 -0.1136409864 0.5938245654
-0.0774622187 -0.08201678097 0.6903079748 0.09791895747 0.2406034768 0.9414327145
-0.09706758708 -0.06336518377 0.6802385449 -0.2858274579 -0.02214161307 0.6686576605
-0.0876050517 -0.06453430653 0.6748341322 -0.2899260521 -0.1248088405 0.4665204287
-0.09122595936 -0.06795010716 0.6826151013 -0.1529156566 0.06551685184 0.7577810884
-0.08098708838 -0.05491992459 0.6556274295 -0.6585381031 -0.6044769883 -0.2524943054
-0.09177405387 -0.05982048437 0.6710061431 -0.4353268743 -0.2437344193 0.3230861425
-0.08162656426 -0.07280097157 0.6825520992 -0.02858495526 0.1046498567 0.7556497455
-0.09842412919 -0.0677441135 0.6877368093 -0.1258392483 0.1703335643 0.9493862987
-0.0837457329 -0.05907733738 0.6638550162 -0.4996354282 -0.3986769021 0.05551243946
-0.1033139452 -0.08308316767 0.6894432306 -0.1792405695 0.2326926887 0.9255705476
-0.08697709441 -0.08052186668 0.6896793246 0.03882366791 0.2571404278 0.9500374198
-0.09562212974 -0.08387178928 0.6911230087 -0.06773822755 0.2553130388 0.9375182986
-0.07780212909 -0.1209327355 0.7113600373 0.08365457505 0.5091825724 0.8553007245
-0.1015599072 -0.08496165276 0.6977025867 -0.1615718305 0.3058248758 0.9337610006
-0.1143341586 -0.1080531925 0.6975738406 -0.4783574939 0.246708259 0.8219437599
-0.1181209683 -0.1147690713 0.6974432468 -0.5828216076 0.2225843668 0.7810040712
-0.07583105564 -0.128046304 0.716442287 0.06654230505 0.5471045971 0.8334086537
-0.08551356196 -0.1232860461 0.7096192241 0.03326145932 0.4981014729 0.8649841547
-0.07774536312 -0.1124575958 0.7075875998 0.1278229803 0.4458821416 0.8801362514
-0.09676900506 -0.1129196957 0.7088907361 -0.1113532856 0.3301746547 0.9196562171
-0.07225573063 -0.1201804876 0.7067422867 0.1267479956 0.5208400488 0.8428088427
-0.07012343407 -0.1080220342 0.7024604082 0.1853518933 0.3832771778 0.9009435177
0.0782553032 -0.03728179634 0.6929017305 -0.2730311751 -0.7387014031 0.6147694588
0.08411489427 -0.04320485145 0.6878518462 -0.2816264927 -0.7400452495 0.6101256609
0.07571189106 -0.04098509252 0.6857587099 -0.2214051187 -0.734010756 0.6409801245
0.05958566442 -0.01807834208 0.6960864067 -0.1370586008 -0.6717696786 0.725204289
0.06460843235 -0.02371888608 0.6949176192 -0.1931973696 -0.6803187132 0.6994175911
0.07110269368 -0.0339839533 0.6904940009 -0.2249411196 -0.7201790214 0.6513281465
-0.07849972695 -0.04146993533 0.6933746934 -0.02132160589 -0.1935938299 0.9439441562
-0.1326123476 -0.06240480393 0.6834380627 -0.2395220697 0.1010546833 0.965575397
-0.1320519298 -0.09524468333 0.6850298047 -0.3550718427 0.07316988707 0.9269206524
-0.1283750087 -0.0875120163 0.6857017279 -0.3340617716 0.09827589244 0.9361878633
-0.04235754162 -0.03905759379 0.694445312 0.1019702554 -0.2535076737 0.9612919092
-0.05103919655 -0.03793574497 0.6957300901 0.05825363845 -0.286177814 0.9487004876
-0.04417075962 -0.05521508306 0.6906442046 -0.1048039272 -0.2471425533 0.93852669
-0.04512745515 -0.04706963152 0.6927675009 0.05328959599 -0.2371139079 0.9565490484
-0.007940835319 -0.0288285967 0.6947075129 -0.003198215039 -0.4511792362 0.8913167119
-0.0003714900231 -0.02799106576 0.695248723 -0.01053480897 -0.4967953861 0.8673602939
0.001224550302 -0.03475437313 0.6908382773 0.01220994163 -0.4703870714 0.8813230395
-0.04720044136 -0.08946632594 0.6780536771 -0.1295037568 0.1317076534 0.6534247994
-0.0519316569 -0.09465934336 0.6841856241 0.01227132045 0.2120674998 0.7451791167
-0.05748870969 -0.1001819745 0.6908277869 0.139519617 0.2818884254 0.836755991
-0.06051011384 -0.1092913821 0.7013069987 0.192089811 0.4244481921 0.8784094453
-0.01406658348 -0.08421043307 0.6817229986 0.01007707883 0.01031558216 0.9929904342
0.009499349631 -0.1031687781 0.6868386865 -0.1636938304 0.2290094048 0.9463521838
0.006180291995 -0.07576151192 0.6798297167 0.1430000961 0.0151495114 0.9785249829
0.001883302117 -0.0887228623 0.6850103736 -0.06057626754 0.1040618047 0.9884361029
-0.004580847453 -0.09293392301 0.6810454726 -0.07100258023 0.09353615344 0.9912840724
0.02584023587 -0.08754910529 0.7309299111 -0.03983840719 -0.0463468805 0.9977027178
0.02952007577 -0.09480056912 0.7301498652 -0.01756176539 -0.0574067235 0.9975725412
0.02395265736 -0.1032520235 0.7300638556 0.008398022503 0.002973229624 0.9997289777
-0.064176552 -0.05514167622 0.6609911323 -0.70492208 -0.4939548671 0.4773527384
-0.05873656273 -0.06569988281 0.663351953 -0.7632290721 -0.3104667664 0.5662962794
-0.01710892096 -0.09909769148 0.6775095463 -0.06200168282 0.1529065073 0.9756138325
-0.02739502862 -0.09464693069 0.690372169 0.04348817095 0.1214321703 0.9038193226
-0.03167176992 -0.1084966809 0.6953366399 0.146385923 0.5150227547 0.7721010447
-0.04047518596 -0.1123110801 0.6970486641 0.1921454072 0.6316962242 0.7499427795
-0.03639930114 -0.1070094109 0.6891425848 0.2293995023 0.5734562278 0.7831211686
-0.03915980086 -0.08433608711 0.6767308712 -0.3786169291 -0.02142560296 0.8098930717
-0.03518024459 -0.09299252927 0.6774550676 -0.01814839616 0.146979332 0.9180888534
-0.03000248224 -0.0855884403 0.6800545454 -0.1456680447 -0.006483909208 0.921084404
-0.03066577017 -0.1004291996 0.6782297492 0.1809506118 0.3829637766 0.9019565582
-0.03842968866 -0.09902266413 0.6821141839 0.2833474874 0.4375569224 0.8503066301
0.02023305744 -0.05686916783 0.6770108938 0.1651885659 -0.3445279002 0.9207735658
0.02885054797 -0.05314815789 0.6770264506 0.1376773566 -0.4534122348 0.8770490289
0.04450210556 -0.04430348054 0.6818601489 0.04779286683 -0.6280647516 0.7758438587
0.01605309732 -0.08203133941 0.7302623391 -0.05462197959 -0.02314891852 0.9979956746
0.02148633078 -0.07327066362 0.7303264737 -0.08016056567 -0.04780095816 0.9953323007
-0.03019704111 -0.0627996996 0.6863254905 -0.06219221652 -0.1901014447 0.9732072353
-0.03190335631 -0.06422898173 0.6786553264 -0.2642026842 -0.1880133897 0.8218913674
-0.02167513035 -0.06484119594 0.6820748448 -0.02379480004 -0.1190528646 0.9191901684
-0.02310852148 -0.05658499524 0.6860663891 0.07380652428 -0.1532650292 0.9844885468
0.02164977044 -0.0179773476 0.7039703131 0.003717298154 -0.6021006107 0.7982740402
-0.07695972919 -0.06667988747 0.6928145289 0.09659068286 0.05769973993 0.9798193574
-0.05906197056 -0.06149858981 0.6922587156 -0.01686459407 -0.2159046382 0.8959422112
-0.05941279233 -0.06873348355 0.6918933392 -0.02831420861 -0.07078770548 0.8970313668
-0.07091763616 -0.07717764378 0.6933844686 0.2637955546 0.1863106042 0.9373678565
-0.05920956656 -0.07818923891 0.694042325 0.1913685352 0.09330560267 0.903218925
-0.06632469594 -0.08276902884 0.6951150894 0.28808254 0.2372778505 0.9255147576
-0.09397507459 -0.07235978544 0.6954342723 -0.09483681619 0.2132070959 0.9703601003
-0.08676402271 -0.06930734962 0.6940727234 -0.03609187901 0.1526182294 0.9829071164
-0.118158184 -0.1020991504 0.6949359775 -0.5120880604 0.2326118499 0.8259193897
-0.1231984571 -0.09864131361 0.6897093058 -0.4775288105 0.1830685139 0.8585598469
-0.1227263734 -0.1112728566 0.6924858689 -0.5533452034 0.2156089544 0.8041534424
-0.1277565807 -0.1093145758 0.6873143315 -0.4845056832 0.1767373234 0.8553794026
-0.02253976092 -0.03401887789 0.6905409694 0.06230625138 -0.3334168792 0.940384984
-0.01735244878 -0.02925279364 0.6935087442 0.02816740423 -0.3843340278 0.9217345119
-0.006127398461 -0.03640241176 0.6894665956 0.009057465941 -0.3937521577 0.9190754294
-0.07222636044 -0.05558318272 0.6564574838 -0.6711741686 -0.6843124032 0.05236250162
-0.1019056216 -0.09328024834 0.7012631297 -0.199942559 0.3299826384 0.9160666466
-0.09427911043 -0.09031000733 0.6973475218 -0.03980129957 0.3335557282 0.9368281364
-0.1117942408 -0.08469494432 0.6928411722 -0.3741817176 0.2452436537 0.8902164102
-0.1054840758 -0.07813922316 0.694788754 -0.1997233629 0.2771908045 0.9386127591
-0.120142974 -0.09080693126 0.6896948814 -0.4381086826 0.1979722232 0.8756471276
-0.1393046528 -0.06897635013 0.6832585335 -0.2272323519 0.08237875253 0.9698521495
-0.1381933242 -0.08350882679 0.6836163402 -0.2519324124 0.06172630936 0.9652642012
-0.1455842406 -0.07837213576 0.6826736927 -0.2079819441 0.03495915234 0.9774710536
-0.1148020029 -0.1212956756 0.7033149004 -0.5056535602 0.2518684268 0.8249143362
-0.1059595719 -0.1051628068 0.7048142552 -0.3166242242 0.2846895456 0.9019428492
-0.0864687264 -0.131537661 0.7184427977 -0.06605126709 0.4532421827 0.8816281557
-0.1071555167 -0.1326259375 0.7084110975 -0.3611826301 0.3229771554 0.8561323285
-0.09654616565 -0.1222171411 0.7063204646 -0.1449751556 0.42134583 0.868955493
-0.1083256081 -0.09807602316 0.7010774612 -0.3591250777 0.3016691208 0.8798918128
-0.06308088452 -0.1256470829 0.7120181918 0.1194004938 0.5856550932 0.8016477823
-0.05631505325 -0.1236634031 0.7092991471 0.1240351722 0.5912780762 0.7965670228
-0.06244717538 -0.1169159487 0.7033445239 0.1485806853 0.4817348719 0.8620840907
0.06895823777 -0.04429148138 0.6794496179 -0.1130347922 -0.7010688186 0.7001475692
0.06916064769 -0.04918827489 0.6735499501 -0.1127662957 -0.6369789839 0.7489315271
0.07512842119 -0.05333672836 0.6705968976 -0.1985008717 -0.5540283918 0.7942073941
-0.08964463323 -0.06010436267 0.6932633519 -0.1039251983 0.07985427231 0.9897841215
-0.0818728283 -0.06108980253 0.6935250759 -0.03378136829 0.06153716147 0.9950837493
-0.08593738079 -0.04941211268 0.6930404902 -0.1117035821 0.03540547565 0.9927837849
-0.09234945476 -0.04487371072 0.6914941669 -0.1466912776 0.04976226017 0.9877945781
-0.1308970898 -0.07441177964 0.6842580438 -0.2623900175 0.1180586144 0.9570134282
-0.1210835353 -0.08215646446 0.6870818138 -0.3525766134 0.1706106663 0.9187011719
-0.1148342639 -0.07761390507 0.689591825 -0.3383416533 0.2080483586 0.9163318872
-0.1207739264 -0.07301216573 0.6863805056 -0.2896855474 0.157977432 0.9437133074
-0.02833902277 -0.02934871428 0.6935436726 0.06529454887 -0.3471222818 0.9354529977
-0.03516411409 -0.03397267684 0.6943236589 0.07843729109 -0.3097188175 0.9474418163
0.01701743715 -0.03136520833 0.6938133836 0.01636181585 -0.5769754648 0.8161607385
0.02887890674 -0.04598526657 0.6809264421 0.1008337885 -0.5359427333 0.836866498
0.008666285314 -0.0530430302 0.6815009713 0.1443005353 -0.3145395815 0.9342755079
0.008853150532 -0.06792593002 0.6781111956 0.2003994882 -0.08122676611 0.9733484983
-0.01160651259 -0.07100762427 0.6911336184 0.08753664047 -0.05025776848 0.9924834371
-0.004050229676 -0.07437098771 0.7049728632 0.03450214863 -0.0279672835 0.995067358
-0.007695458829 -0.07425634563 0.6835451722 0.1366288662 -0.02232566662 0.9896941185
0.001362438896 -0.06934435666 0.6806886196 0.1974533945 -0.04981208965 0.9778884053
-0.01359810028 -0.06416302919 0.6844941378 0.1467745304 -0.08715900779 0.9846432805
0.00183048076 -0.05757085979 0.6821317077 0.1818237305 -0.217995882 0.9582908154
-0.004245571326 -0.06470001489 0.6833016872 0.1990892738 -0.1114036217 0.9734823704
-0.0777874738 -0.06093477458 0.6599296927 -0.2029308528 0.0001995025377 0.1904016584
-0.07957386225 -0.06778069586 0.6728985906 -0.1330616623 0.007451731246 0.4823553264
-0.03846577182 -0.09566975385 0.6908991337 0.1884146333 0.2552029192 0.8757894039
-0.03347236663 -0.08965137601 0.6887805462 0.1022769511 0.06924764067 0.9344550967
-0.04327464104 -0.103774935 0.6893215775 0.283513248 0.4807760119 0.8253166676
-0.05022082478 -0.1066711098 0.6932705641 0.2273237407 0.4529962838 0.8581748009
-0.05068968982 -0.09598955512 0.6933315396 0.3290637434 0.3968191743 0.8553941846
-0.069925569 -0.06676395983 0.6578672528 0.289239794 0.7604193687 0.5635152459
-0.07318284363 -0.070444718 0.66802001 0.2303612232 0.5917205215 0.696742475
-0.002873862395 -0.04987032712 0.6995089054 0.00524319103 -0.2488116175 0.9569080472
0.004352333955 -0.06579511613 0.7155682445 -0.03067515232 -0.1089135408 0.9801196456
-0.004850384779 -0.04933601618 0.6923419833 0.06471253186 -0.2562230825 0.9558194876
0.0009163185605 -0.06101395935 0.7091075778 -0.004735501949 -0.1526229829 0.9725801945
-0.001558089629 -0.06038878113 0.6967140436 0.09928717464 -0.1618421078 0.9716421962
0.01360174455 -0.07368835062 0.7269747257 -0.08148472756 -0.03168886155 0.9947108626
0.01186369453 -0.06334931403 0.718739152 -0.05885584652 -0.110905394 0.982681632
-0.01460825279 -0.03695163876 0.69143188 0.03206812963 -0.3445589244 0.9374573827
0.006214194465 -0.02629485726 0.6992580295 0.001798699377 -0.559291482 0.8249903917
0.003983149771 -0.04052513465 0.7017900348 -0.00603217911 -0.3681049943 0.9037021399
0.009945761412 -0.05618906766 0.7136029005 -0.04325814545 -0.1864185631 0.9608330727
0.004767252598 -0.05347819254 0.7072093487 -0.02455790713 -0.2042161822 0.9655141234
0.008971461095 -0.04610900953 0.7090036273 -0.02776508965 -0.3127584159 0.9140102863
0.008119506761 -0.03369084373 0.7037029862 -0.009708082303 -0.4695496559 0.8551029563
0.0003349719627 -0.04130646586 0.6871759892 0.04139862582 -0.3926658332 0.9176713228
0.02031553723 -0.04257303476 0.712765038 -0.0399816595 -0.372377634 0.8775703311
0.01848450489 -0.025529759 0.7028670907 -0.01209499501 -0.5739811659 0.8071489334
0.01724376343 -0.0595965609 0.722065866 -0.06875998527 -0.1644062102 0.9538014531
0.01869038679 -0.06635221094 0.7261137366 -0.08160088211 -0.08308751881 0.981854856
0.01294860058 -0.03824298456 0.7093177438 -0.02878723294 -0.4209902585 0.8651448488
-0.0199328661 -0.049395632 0.6877799034 0.06302917004 -0.2169162035 0.9720754027
-0.01019315515 -0.04799794406 0.6868245006 0.08204499632 -0.2646294236 0.9590935111
-0.07576803863 -0.03834507242 0.6864532232 -0.07133282721 -0.5149045587 0.7722231746
-0.07383902371 -0.04356641322 0.6743167639 -0.3419265747 -0.5862110853 0.5731524825
-0.0672416985 -0.03968295082 0.6769295335 -0.3116637468 -0.5142459273 0.635956943
-0.07062784582 -0.04605482146 0.6673665643 -0.5057754517 -0.6355933547 0.4515202045
-0.08795052767 -0.03826909512 0.6893286109 -0.09251318127 -0.1406158209 0.9263806939
-0.08238796145 -0.04187039286 0.6800791621 -0.2743186951 -0.3147665858 0.7360556126
-0.0800903216 -0.04665426537 0.6694128513 -0.5003964901 -0.421094209 0.4197711349
-0.078373909 -0.05035935342 0.6609000564 -0.6159775853 -0.5762840509 0.08500498533
-0.08924660087 -0.04339392856 0.6791783571 -0.3408746123 -0.1402527541 0.5670633316
-0.06866247207 -0.04928056896 0.6592887044 -0.658837676 -0.6367459297 0.3796589673
-0.1145273745 -0.09211885184 0.6944295168 -0.4373418987 0.2429705113 0.8654068708
-0.1077949479 -0.09057105333 0.6971665621 -0.3122217357 0.3034392893 0.8984945416
-0.09974750876 -0.1020011902 0.7007206082 -0.15220581 0.3121654093 0.9185134768
-0.1009808034 -0.1334624439 0.7149731517 -0.2787390351 0.3247995079 0.9005073309
-0.1020023301 -0.122980237 0.7115800977 -0.2920326591 0.3203473985 0.8975223899
-0.1083952263 -0.1190394536 0.7077312469 -0.3690271676 0.278360039 0.8865813613
-0.06774234772 -0.09578114003 0.6919282079 -0.0624499917 0.1682250053 0.8157518506
-0.06189899147 -0.09247035533 0.6850028038 -0.3307101727 0.007078404073 0.6641495824
-0.06823457778 -0.1044393703 0.6947566271 0.05377393588 0.27475968 0.8512570262
-0.07753312588 -0.09684922546 0.6958435774 0.1356341541 0.3247900307 0.9338462353
-0.09099855274 -0.1047157794 0.7020698786 -0.01701663062 0.3241687715 0.941604197
-0.07548725605 -0.1052287668 0.6986297369 0.1409816444 0.3452064991 0.9238561988
-0.08277952671 -0.1098623276 0.7017966509 0.07066510618 0.3807740808 0.9155781865
-0.08972870559 -0.1105097681 0.7075944543 0.05117020011 0.3700117767 0.9158847332
0.05642544106 -0.0473199226 0.6772916913 0.009098629467 -0.6540027857 0.7556929588
0.05240995064 -0.04219766706 0.6821529269 0.01355173718 -0.6629803777 0.7479526401
0.04933862761 -0.04953983426 0.6775570512 0.04529478028 -0.6120224595 0.7892829776
-0.04997063056 -0.04996821284 0.6796672344 -0.1735373139 -0.4126910567 0.7801378965
-0.05021612719 -0.034974657 0.6866381168 -0.1000607684 -0.3645909131 0.8249276876
-0.04997711256 -0.0432192795 0.6827280521 -0.1019488797 -0.4159019291 0.8040652275
-0.06217003986 -0.04780719057 0.6660442948 -0.4900710583 -0.5622085333 0.535032928
-0.06093700603 -0.04211608693 0.6721936464 -0.3976819515 -0.4888593853 0.6135748029
0.03752039745 -0.04137114435 0.6845812201 0.0586023964 -0.619687736 0.7813298702
0.03197909147 -0.03270373493 0.6919957399 0.04250725359 -0.6175564528 0.785264492
0.02060335875 -0.04246411473 0.6839070916 0.07864262909 -0.5251352787 0.8462870121
0.00919255428 -0.0439914763 0.6861765385 0.08525551111 -0.4272352457 0.8986639977
0.02578981221 -0.03627052531 0.6892342567 0.04562234133 -0.5930628777 0.8035655022
0.009561823681 -0.03428693116 0.6902359724 0.02628959529 -0.5198749304 0.8531005979
0.003543400206 -0.09879676998 0.6853196621 -0.1240644678 0.2183106244 0.9591112733
-0.0008815991459 -0.1047466695 0.6826384068 -0.1234206185 0.2669453919 0.9523718953
0.0009526741342 -0.1115034968 0.6848993301 -0.1082380489 0.4307207167 0.8952149153
-0.05891525373 -0.07526217401 0.6645511389 -0.5980111957 -0.1005920768 0.4978047907
-0.06323672831 -0.078753151 0.675644815 -0.3830240071 0.009179740213 0.6068291664
-0.07399041951 -0.0749495402 0.6766519547 0.1487530023 0.4440787137 0.8013408184
-0.07060350478 -0.07862509787 0.6823198795 -0.2064944804 0.06175273657 0.7654768229
-0.06551707536 -0.07477083802 0.668186605 -0.0295878239 0.4158918262 0.6155205965
-0.03110619262 -0.05175083131 0.6856915951 0.0452741161 -0.2170777172 0.9514537454
-0.04446814582 -0.06266839057 0.6747713685 -0.5282306075 -0.2764554024 0.7077293992
-0.0430101417 -0.05502356961 0.6785230041 -0.3043826222 -0.2778066099 0.7841407061
-0.0563785024 -0.05766163766 0.6690234542 -0.7360916734 -0.3051546514 0.5846530795
-0.03835615516 -0.04885362089 0.6834908724 -0.03760835528 -0.2650950551 0.8896771073
-0.03015813977 -0.03766753525 0.6898136735 0.07308157533 -0.3071184754 0.9482758045
-0.03660126403 -0.04312176257 0.6887782216 0.111827679 -0.2616758645 0.9583818316
