# .PCD v0.7 - Point Cloud Data file format
VERSION 0.7
FIELDS x y z normal_x normal_y normal_z
SIZE 4 4 4 4 4 4
TYPE F F F F F F
COUNT 1 1 1 1 1 1
WIDTH 512
HEIGHT 1
VIEWPOINT 0 0 0 1 0 0 0
POINTS 512
DATA ascii
0.045408025 -0.12555657 0.73313636 0.1956182271 -0.8878765106 0.4164238572
-0.1912536 -0.088367999 0.72000003 0.5380569696 -0.1060889065 0.8362056017
-0.050169002 -0.079481229 0.64300001 -0.7594496012 0.2566798627 0.5977889895
-0.088623255 -0.13651088 0.74150008 0.08824118227 0.6674252152 0.7394302487
0.10350454 -0.030964741 0.74100012 -0.4186836779 -0.575681448 0.7023495436
-0.091902718 -0.038931012 0.72800004 -0.08659803122 -0.8449912667 0.5277220607
0.11492673 -0.10561911 0.67619109 -0.3867112994 0.2771650553 0.8795645833
0.017643793 -0.049280941 0.69400001 0.08580432087 -0.8169734478 0.570256114
-0.024274983 -0.13302879 0.69616127 -0.08532047272 0.5741618872 0.8142840862
-0.12440377 -0.092148103 0.70755565 0.04452105612 0.4822663367 0.8748925924
0.077550687 -0.061430793 0.69185722 -0.2659300268 -0.7514981627 0.6037646532
-0.04525293 -0.058706477 0.69756258 0.1862190813 -0.6160134077 0.7654083371
-0.1545188 -0.044460215 0.73235488 0.2682563365 -0.7517989278 0.6023594141
0.070687883 -0.083087966 0.7617144 0.0995850414 0.006794897839 0.995005846
0.12318754 -0.080938056 0.74522227 -0.880954802 0.3015672565 0.3646585047
-0.15166245 -0.13178404 0.73149997 -0.09503504634 0.5585501194 0.824008584
0.0030404262 -0.050520107 0.74516672 -0.5232173204 0.5978056192 0.6073483825
0.00116772 -0.090498298 0.66600001 -0.643384099 0.3907779455 0.65829283
-0.072879821 -0.10508706 0.705625 0.2078294456 0.5989668965 0.7733340859
0.017820407 -0.095565312 0.76229161 0.1694865674 0.01812201925 0.9853658676
0.05479008 -0.032548245 0.73424244 0.2093634456 -0.7857624888 0.5820173621
0.079177245 -0.13155895 0.69475001 0.7515591979 -0.5033587813 0.4263669252
-0.041323438 -0.1456982 0.73650002 0.5143591762 0.7688574791 0.3798590004
0.0031998332 -0.14015269 0.73000002 -0.02728453651 -0.7716528177 0.6354584694
-0.045781869 -0.049021155 0.73900002 -0.02492870949 -0.9734658003 0.2274705768
0.02033779 -0.11216599 0.70300001 -0.003388309618 0.5151248574 0.8571084738
-0.095002532 -0.066325419 0.69767451 0.1012435406 -0.3680872023 0.9242627025
-0.035956264 -0.1077351 0.66562498 -0.5627569556 0.4943338931 0.6625244617
0.0905395 -0.11073089 0.74300003 0.370642215 -0.8472334743 0.380551964
-0.12508397 -0.052274652 0.71274072 0.08561877161 -0.7422702909 0.6646083593
0.020681443 -0.13142724 0.76099998 0.1247888207 -0.8747342825 0.4682602584
0.10190043 -0.058117345 0.71800005 -0.6215924025 -0.4525030255 0.6394246817
-0.155068 -0.075241007 0.7044034 0.194965288 -0.1824887693 0.963683784
0.10821413 -0.093353458 0.71627778 -0.9341501594 0.1904816777 0.3017949164
0.085944608 -0.085124761 0.66799974 -0.4659848213 -0.3382104337 0.8176012635
-0.16427647 -0.10756756 0.71056008 0.02724386752 0.4330635965 0.9009515643
-0.015177502 -0.065058529 0.68373674 0.2903964818 -0.5891244411 0.7540572286
-0.011136822 -0.10169999 0.69800001 -0.5524812937 0.6929221749 0.4632745087
-0.11486252 -0.12098869 0.72790015 -0.03541294485 0.586456418 0.8092062473
0.045176301 -0.064639091 0.68465221 -0.1459380835 -0.5878739953 0.7956796885
0.054451194 -0.11197083 0.76116657 0.1674280465 -0.5317755342 0.8301702142
-0.049622402 -0.123116 0.71650004 0.2662395239 0.6991740465 0.6635301113
0.029347513 -0.048487335 0.72775006 0.1987956166 -0.9650996327 0.1704788506
0.0085913334 -0.13930233 0.70000005 -0.6143946052 -0.3617942929 0.7011591792
-0.17557706 -0.063535251 0.72313637 0.4958368242 -0.5940273404 0.6334645748
0.071300171 -0.12172504 0.72157145 0.5825343132 -0.7292955518 0.3588617444
0.07490804 -0.045578275 0.71508777 -0.1117313057 -0.7718511224 0.6259089112
0.044436943 -0.077621743 0.75452173 0.002794324886 0.2361303419 0.9717173576
-0.056505032 -0.082921892 0.69129419 0.1474018544 0.04184636474 0.9881910682
-0.011955104 -0.1201685 0.71766669 -0.7160567641 0.350105226 0.6038948894
0.021385232 -0.071000002 0.67380005 -0.1305874437 -0.3195637763 0.9385232329
-0.021114519 -0.089601465 0.65100002 -0.328951478 0.7148433328 0.617081821
-0.0067889066 -0.049991041 0.70400006 0.1205741614 -0.8480600715 0.5159999728
-0.062769331 -0.052098546 0.71600002 0.005145038478 -0.9400055408 0.3411204517
0.089738227 -0.10901087 0.68700004 0.3751118481 0.3610458374 0.8537780643
0.035508033 -0.14206436 0.71630758 -0.005248617847 -0.7991052866 0.6011682153
0.12108812 -0.057211269 0.73600006 -0.7335676551 -0.3059706092 0.6068446636
-0.064670354 -0.13355252 0.73426682 0.113183178 0.7750953436 0.6216242909
-0.093028322 -0.11280503 0.71844995 0.1457132995 0.5988110304 0.7875233293
-0.13658647 -0.11251329 0.71868414 -0.125808537 0.4994350374 0.8571678996
0.010551341 -0.091946773 0.68774998 -0.1408647895 0.7432721853 0.6539905071
-0.12085289 -0.071593858 0.69800001 0.1504321843 -0.1301960498 0.9800097942
0.058912002 -0.050934333 0.70000005 -0.1318914294 -0.88604182 0.4444485903
-0.018672999 -0.15000643 0.71000004 -0.08452035487 0.9420398474 0.3246801496
-0.08872743 -0.091175087 0.69800001 0.1861965358 0.4694763422 0.8630890846
0.098800331 -0.070571668 0.70000005 -0.6866380572 -0.5833951831 0.4337951243
0.075894393 -0.03037202 0.73022223 -0.07945048809 -0.768846035 0.6344788671
0.083434448 -0.10228981 0.76137495 0.2562595606 -0.2595432103 0.9311113358
-0.022356812 -0.084075324 0.67700005 0.2819715738 -0.5215627551 0.8052728176
-0.1733783 -0.085881598 0.70704466 0.4068197012 -0.08881643414 0.9091805816
0.061599858 -0.14017111 0.71700001 0.4085795581 -0.6895090938 0.5980300903
-0.0849462 -0.052204464 0.7128846 -0.07113724947 -0.8326752186 0.5491734743
-0.14563231 -0.093809322 0.70795017 -0.06731459498 0.3393785357 0.9382382035
-0.12552489 -0.040317897 0.73000002 0.09595029801 -0.8233574033 0.5593533516
-0.075438783 -0.075262703 0.6937052 0.1326287091 -0.03773988411 0.9904470444
-0.15395284 -0.057864502 0.71677274 0.3022630513 -0.6966754198 0.6506000757
-0.025134528 -0.11675901 0.68382955 -0.6997716427 0.37729913 0.6066011786
0.11281542 -0.074212007 0.72408003 -0.7777283788 -0.2267376333 0.5862837434
-0.10519123 -0.098966897 0.71000004 0.1118081659 0.5778428912 0.8084532022
0.047298208 -0.047351766 0.71858329 0.2512114346 -0.8805090189 0.4019908607
0.065934896 -0.11824751 0.74591666 0.2685253322 -0.901416719 0.3396204412
-0.10504407 -0.051892504 0.71320838 0.005311664194 -0.7626764178 0.6467584372
0.0043212306 -0.061656136 0.68124002 0.1121569499 -0.6631931663 0.7399970293
0.025803482 -0.12847674 0.7272107 0.05357496813 -0.8769224286 0.4776366353
0.035069998 -0.11821669 0.75708014 0.338898629 -0.4152611196 0.8442190886
-0.075052649 -0.12121157 0.71753848 0.1674319804 0.6562028527 0.7357746959
-0.064882293 -0.044511072 0.73387808 -0.1066709086 -0.9531540275 0.2830524743
-0.005755234 -0.12814917 0.69309533 -0.4227207899 -0.09847668558 0.9008936882
-0.17068642 -0.12173802 0.72200006 0.1672101915 0.5636529326 0.8089104891
0.044731338 -0.094805188 0.76155365 0.01015747339 0.1554630399 0.9877895117
-0.05329388 -0.14573312 0.75050002 0.1480192244 0.7335180044 0.6633563042
-0.036428597 -0.073418058 0.69089288 0.2902435064 -0.4695270061 0.8338483572
-0.02932415 -0.076851755 0.64080006 -0.3153602779 0.7608913779 0.5670910478
0.093154363 -0.037371244 0.72746664 -0.3479984105 -0.6276724339 0.696365118
-0.02567843 -0.055724762 0.69517767 0.1876980066 -0.6802879572 0.708503902
0.098434322 -0.081133306 0.68050003 -0.5898106098 -0.4864845872 0.6445589066
0.016920744 -0.11299966 0.7664091 0.2926906049 -0.1154646724 0.9492102861
-0.063027076 -0.059049632 0.69800001 0.09222418815 -0.5851334333 0.8056758642
-0.18361227 -0.10379196 0.71625912 0.3823454082 0.3229298294 0.8657530546
-0.0047886386 -0.074947909 0.67381686 0.2205683887 -0.4349394739 0.8730276227
0.016398927 -0.13698699 0.71522576 -0.144267261 -0.9471752048 0.286436826
-0.10518482 -0.13367754 0.73761117 -0.004988273606 0.6274466515 0.7786435485
-0.13471299 -0.12916659 0.73000002 -0.1210559011 0.5369607806 0.8348763585
0.083215132 -0.1174587 0.70370007 0.7613291144 -0.502332747 0.4099265039
0.066004641 -0.072377898 0.6857335 -0.1734649986 -0.7135313153 0.6788099408
-0.15305354 -0.11908991 0.72044444 -0.08091298491 0.5409547687 0.8371505141
-0.016968058 -0.10223264 0.66133338 -0.4575102925 0.6202090383 0.6372010112
0.037352577 -0.050962824 0.69000006 -0.06032385305 -0.8121937513 0.5802606344
0.023102444 -0.041915365 0.74166667 -0.2198102176 0.9228241444 0.3163528144
-0.10477453 -0.084947251 0.70114535 0.1516116709 0.31310606 0.9375385046
-0.057723239 -0.11110172 0.708 0.2332271636 0.6319157481 0.7391126752
0.027635163 -0.083443776 0.75779998 0.0474547036 0.1554711461 0.9866999388
-0.13482137 -0.064859852 0.70267111 0.1781288236 -0.410546124 0.894271791
0.084511593 -0.056274265 0.70547074 -0.3785244524 -0.7644439936 0.5218665004
-0.16930187 -0.070334964 0.71000004 0.4012855291 -0.4788889289 0.7807914615
0.0048032566 -0.10459202 0.69545841 -0.3421522379 0.5796575546 0.7395464778
0.086210154 -0.071208015 0.68258816 -0.338326633 -0.7101165056 0.617470324
-0.046682499 -0.049172234 0.71000004 0.1589781195 -0.9257849455 0.3429988027
-0.16789417 -0.052426297 0.73057139 0.4018623531 -0.6805607677 0.612653017
0.0071160374 -0.1254655 0.72761548 0.3065271974 0.8961738944 0.3208011687
0.093032308 -0.12337195 0.68384844 0.3771069646 0.3696888983 0.8491880894
0.0018719338 -0.1213368 0.71185726 0.7224319577 0.6312580109 0.2821443677
0.089354247 -0.10000575 0.67500001 0.08639197052 0.2748164535 0.9576076269
0.10860599 -0.051422197 0.73016667 -0.6577843428 -0.3982843161 0.639288187
0.041616242 -0.040336311 0.73033333 0.3385354877 -0.7313349247 0.5920666456
-0.030991044 -0.090634182 0.66700006 -0.754933238 0.5891664624 -0.2880254686
0.059880715 -0.039710369 0.71900004 0.1614029557 -0.7797552347 0.6049221754
-0.073987588 -0.093424931 0.69678783 0.1573205739 0.45209378 0.8779871464
-0.044124972 -0.13138215 0.72711122 0.4832779467 0.7040842175 0.520295918
-0.18294796 -0.077105075 0.71619046 0.5655581355 -0.3130318522 0.7629908323
-0.089005515 -0.10166738 0.708 0.1883947551 0.6065898538 0.7723705173
0.011177061 -0.080883026 0.671 -0.3219038546 0.2107780129 0.9230116606
0.034773175 -0.10498971 0.76278561 0.1074688137 -0.06710698456 0.9919410944
0.10396594 -0.097927086 0.6811111 0.01682359353 0.1590151042 0.9871327877
-0.030643336 -0.14398274 0.70262504 0.4951682985 0.6435036063 0.5837049484
0.0029356522 -0.052604385 0.69395655 0.1435714811 -0.8347638249 0.5315604806
0.025238819 -0.055826977 0.6839999 0.07636272162 -0.7693488002 0.6342484951
-0.12509577 -0.10468455 0.71768874 -0.02189706452 0.5269970894 0.8495849371
-0.076708332 -0.060752999 0.70000005 0.09343035519 -0.6319550276 0.7693527341
0.10268379 -0.1133781 0.68292594 0.4041690826 0.2791036367 0.8710617423
0.054896399 -0.12648308 0.72313994 0.3064137399 -0.7897148132 0.5314707756
0.044893332 -0.12332864 0.74675763 0.2211379409 -0.8715075254 0.4376901686
0.067657843 -0.10921799 0.7585001 0.1879448891 -0.475181073 0.8595811129
-0.025812099 -0.10537843 0.67453837 -0.5965828896 0.433645457 0.6753076315
0.058041472 -0.08806292 0.7610001 0.002184739569 0.1041699275 0.9945571423
-0.14451885 -0.047537774 0.72365713 0.2320889086 -0.7532086968 0.6154765487
0.015661411 -0.051794101 0.73600006 -0.3497245014 0.8173081279 0.4579303563
-0.114928 -0.05665103 0.70482695 0.06646523625 -0.6126059294 0.787588954
-0.0027561053 -0.14163238 0.69292301 -0.1135883331 0.602814436 0.7897546887
-0.075575739 -0.04621096 0.72571796 -0.1580358595 -0.8716369867 0.4639758468
-0.049007419 -0.050915923 0.72600007 0.05492679402 -0.9565556049 0.28632918
-0.08587528 -0.12855354 0.73100007 0.116613999 0.6572108865 0.7446308136
-0.048475284 -0.091841064 0.64800006 -0.4472624362 0.5666332841 0.6920137405
-0.10500943 -0.040338609 0.73037499 -0.01162032411 -0.8332239985 0.55281353
0.064416066 -0.059470259 0.68800008 -0.2460716814 -0.7240863442 0.6443195343
0.093134731 -0.048307724 0.71813327 -0.4308596253 -0.593098402 0.6801428199
0.070987299 -0.13400507 0.71030003 0.605068028 -0.6612250209 0.4434795678
0.0508116 -0.048996899 0.69000006 -0.1734442711 -0.8416312337 0.5114430189
-0.11377337 -0.11062174 0.71899998 0.06291706115 0.5906180739 0.8044947386
-0.13469407 -0.085270636 0.70478123 0.09706947953 0.2934373021 0.9510373473
-0.010826614 -0.11167922 0.70574999 -0.5982509851 0.6729047298 0.4350803792
-0.11467227 -0.043286767 0.72287792 0.03442497551 -0.8016841412 0.596755743
0.085378014 -0.0278823 0.73804766 -0.2042417675 -0.7167719603 0.6667257547
-0.064666472 -0.12560487 0.7245667 0.09986269474 0.7404124141 0.6646931171
-0.1649296 -0.095487729 0.70726585 0.1453162432 0.2062332481 0.9676523209
-0.14506525 -0.10505331 0.71326572 -0.1534888446 0.4448736906 0.8823426366
0.082422152 -0.1154722 0.71588886 0.5636956096 -0.7957628965 0.2213790715
0.11836597 -0.074260868 0.73511112 -0.7550156116 -0.2205664366 0.6174964905
-0.095242701 -0.056449182 0.70503765 0.06343708932 -0.7010047436 0.7103295922
-0.015275599 -0.12332983 0.68641686 -0.4786260724 0.1076886505 0.8713898063
0.01110912 -0.051225387 0.70400006 -0.002124413382 -0.9636535645 0.2671466172
-0.10537147 -0.073307224 0.69800001 0.1090728119 -0.05096095428 0.992726624
-0.094808586 -0.12244321 0.72580957 0.1112579331 0.6337018013 0.7655348778
0.044489685 -0.13229606 0.72250009 0.1615121365 -0.8325871229 0.5298230648
-0.13435359 -0.096902236 0.71210802 -0.04643293098 0.4490441382 0.8923022747
-0.036827974 -0.052262481 0.70300013 0.1942424327 -0.760596633 0.6194857359
0.11089933 -0.03800926 0.7348572 -0.5634632707 -0.5136538148 0.647046268
-0.00060314668 -0.09590032 0.68800002 -0.1958310157 0.7838020921 0.5893254876
-0.025503639 -0.074547082 0.68315142 0.2676367462 -0.5788826942 0.770237267
0.010491947 -0.1203488 0.70400006 -0.6727825999 -0.1002771854 0.7330129743
0.10532094 -0.075197689 0.71517777 -0.7495217323 -0.3175429404 0.5808473825
-0.12441796 -0.1334884 0.73315793 -0.08831858635 0.5589810014 0.8244635463
0.077899344 -0.077381738 0.67743474 -0.2088813931 -0.6215624809 0.755002439
-0.014593652 -0.091777779 0.67325008 0.09990946949 -0.6512147188 0.7522881627
-0.12521183 -0.1147686 0.72296506 -0.07840842009 0.5343613625 0.8416115642
-0.04674387 -0.077202775 0.68800002 0.3010320365 -0.4510736465 0.8401858807
-0.032159813 -0.12507094 0.6870001 -0.06003254279 0.7020639181 0.7095789909
-0.055096943 -0.13944027 0.74133343 0.1781430542 0.7482247353 0.6390812397
0.064908579 -0.028470451 0.73700011 0.1011942253 -0.7960797548 0.5966713428
-0.14511846 -0.12537061 0.72520357 -0.1173253655 0.5433045626 0.8312970996
-0.01475104 -0.056179386 0.69341677 0.170046404 -0.728043437 0.6641061306
-0.13405986 -0.049515706 0.71859998 0.157788977 -0.7718468308 0.6159180999
0.030358089 -0.067264006 0.67900008 -0.08151306212 -0.5523608327 0.8296102285
0.075439021 -0.09250918 0.75855547 0.2745966613 -0.1026939005 0.9560599327
0.063488193 -0.050417099 0.71000004 -0.06290902942 -0.8878037333 0.4559024274
-0.17787461 -0.096367903 0.71050006 0.3570011258 0.1472600251 0.9224232435
-0.048756693 -0.11602859 0.70400006 0.5100517273 0.6783884764 0.528806448
0.075988963 -0.12542027 0.70476747 0.723472774 -0.5457461476 0.4227863252
-0.14525409 -0.064979054 0.70540589 0.2074733227 -0.4608652592 0.8628777862
-0.10506167 -0.11549676 0.7229318 0.08326784521 0.6029289961 0.7934375405
0.025893051 -0.14167276 0.71160012 -0.07467005402 -0.9245379567 0.3737030625
0.014613381 -0.055757243 0.68515861 0.08169733733 -0.7745047212 0.6272702813
-0.054907396 -0.065201364 0.69477946 0.1349659413 -0.4981433451 0.8565263748
-0.11581425 -0.098690532 0.71025002 0.08862670511 0.5327818394 0.8415989876
0.065596581 -0.11871382 0.73000002 0.3787885308 -0.8655287623 0.3276876807
-0.094105132 -0.082058936 0.69773078 0.122588031 0.2646685243 0.9565159678
0.024714503 -0.10523044 0.76607835 0.1792739332 -0.04973457381 0.9825412631
0.054965746 -0.078146704 0.75542861 0.0003172582656 0.1951386929 0.9807755947
0.085852891 -0.11677185 0.69294453 0.8385426402 -0.3182891607 0.4421970248
-0.075516067 -0.1296999 0.73000002 0.09169444442 0.694911778 0.7132248878
-0.15502366 -0.085518561 0.70630187 0.05119718239 0.08642039448 0.9949423671
-0.09563791 -0.049139965 0.71679997 -0.03280262277 -0.8103568554 0.5850177407
0.082845002 -0.1111175 0.75000006 0.3209385276 -0.7941303253 0.5160963535
0.026312387 -0.12526718 0.75485098 0.2133144736 -0.8876072764 0.4082281888
0.045234032 -0.11734192 0.75534207 0.2216308713 -0.6242323518 0.7491419911
0.055332031 -0.064952776 0.6860472 -0.1927007288 -0.6665759087 0.7200993299
0.12515819 -0.065177538 0.74100012 -0.7523017526 -0.2556419671 0.6071978211
-0.13511072 -0.075011365 0.70132816 0.2278354913 -0.007316111121 0.9736721516
-0.13570192 -0.041084915 0.7306428 0.157525003 -0.8119751811 0.5620340109
0.054845575 -0.12226138 0.74481243 0.2812021375 -0.889846921 0.3593018055
-0.065242358 -0.11484572 0.71375012 0.2363819927 0.636410892 0.7342374921
-0.065327607 -0.075146392 0.69253784 0.1456228048 -0.09979185462 0.9842944741
-0.04331281 -0.10626099 0.65875006 -0.2906892896 0.6359348893 0.7149031758
0.03509799 -0.12652759 0.7306841 0.07286226749 -0.9361650944 0.3439272642
-0.0037468246 -0.058576778 0.68650001 0.1676008254 -0.7570614219 0.6314807534
0.044847652 -0.10509326 0.76355088 0.09934309125 -0.2062527239 0.9734427333
-0.085041359 -0.065305755 0.6964429 0.129558295 -0.3592579365 0.9242014885
0.035889026 -0.038478896 0.73838896 0.3535137773 -0.7351830006 0.5783891082
-0.065759741 -0.097309791 0.70103723 0.1849881858 0.5093860626 0.8404196501
0.034709863 -0.09478648 0.7614066 0.07091291994 0.1172998995 0.9905614853
0.085885055 -0.042320751 0.72147828 -0.2795452774 -0.6807394028 0.6770880818
-0.054767251 -0.12684533 0.72453851 0.2534035146 0.7342380881 0.6298261881
0.08663892 -0.13056576 0.68633336 0.7779695988 -0.4014074504 0.4833584726
-0.013917639 -0.075797498 0.6776318 0.3285019398 -0.4415692985 0.8349269629
-0.085301645 -0.044919666 0.72367281 -0.1010012999 -0.8538309932 0.5106577277
-0.083949603 -0.10919759 0.72000003 0.1800179034 0.5889847875 0.7878391147
-0.014439846 -0.13280785 0.69515395 -0.1759676784 0.5290371776 0.8301536441
-0.021132343 -0.1169602 0.71600002 0.5088008642 -0.6358266473 0.5803844929
-0.1448977 -0.054983873 0.71430343 0.2325813025 -0.7057694793 0.669175148
-0.11457056 -0.08510799 0.70170498 0.1137463078 0.3455190361 0.9314925671
-0.08510375 -0.056933321 0.70434779 0.03440988064 -0.7622784972 0.6463338137
-0.085180357 -0.075299948 0.69347727 0.1253277808 -0.01250537392 0.992036581
-0.055411141 -0.054790866 0.7022751 0.1376900375 -0.8461049199 0.5149251819
0.065508023 -0.12680067 0.71566665 0.5601818562 -0.6573652625 0.5040508509
-0.14544369 -0.075299241 0.70339954 0.1756501794 -0.01511915214 0.984336555
-0.11511894 -0.051708966 0.71314275 0.04340567812 -0.7527951002 0.6568222642
-0.11456078 -0.13436583 0.73539215 -0.05410484597 0.6000050902 0.7981644869
0.11210766 -0.084532492 0.71676475 -0.7993357778 -0.1965397298 0.5678331256
-0.15529819 -0.095256567 0.70755023 -0.01205778681 0.2488978356 0.968454659
0.1085229 -0.063479185 0.72250009 -0.7137550116 -0.3233391941 0.6212934256
-0.024729412 -0.065660343 0.68667942 0.2651658356 -0.5721006989 0.7761365175
-0.15440205 -0.10540278 0.71110713 -0.07941845059 0.4387421906 0.8950966597
-0.1547308 -0.065914817 0.7064718 0.2736617327 -0.5039568543 0.8192293644
0.045010552 -0.14195141 0.71709991 0.06302582473 -0.7769988179 0.6263390183
-0.023394726 -0.049872685 0.70233339 0.1553522944 -0.7279826999 0.6677625775
0.064747371 -0.094787039 0.76141077 0.05525330454 -0.01102733519 0.9984114766
0.097903162 -0.062535867 0.7106154 -0.6499231458 -0.4967246056 0.5752082467
-0.0064730886 -0.083833076 0.67108339 0.1030124277 -0.4287930727 0.8975104094
-0.10510721 -0.056876421 0.70525002 0.06515800208 -0.6523324251 0.7551270723
0.075335965 -0.11520312 0.74613047 0.3219828308 -0.8610916734 0.3935075104
-0.17441876 -0.11446507 0.71748763 0.2286533117 0.4939455986 0.8388893604
-0.038505536 -0.14827824 0.72799999 0.5785833001 0.7237296104 0.3761074543
-0.095127515 -0.095004842 0.70580018 0.1459001899 0.5636006594 0.8130605221
-0.12628472 -0.12279931 0.7275334 -0.09303645045 0.5511260033 0.8292191625
-0.14538476 -0.042849984 0.73199999 0.2217979431 -0.7867659926 0.5760251284
0.035284843 -0.1326479 0.72344732 0.006971955299 -0.8404713869 0.5418111086
0.075838663 -0.053339306 0.7042433 -0.2457943261 -0.8252322674 0.5085045099
0.015751319 -0.12858385 0.72714293 -0.3770075738 -0.921043396 0.09769512713
0.014878794 -0.064903915 0.67603922 0.03959158063 -0.6262848973 0.778588295
0.036236577 -0.050319795 0.72200006 0.1862124056 -0.9397442937 0.2867151201
-0.056112003 -0.046986066 0.73427272 -0.09124843031 -0.9742667079 0.2061022967
0.094352454 -0.084997654 0.67333335 -0.5699779391 -0.4235450029 0.7040843368
0.0048519527 -0.074364156 0.67163664 0.007642485667 -0.3427560925 0.9393933415
0.056326885 -0.050814755 0.71560007 0.1028174236 -0.8889466524 0.4463210404
-0.10555828 -0.12646098 0.7322222 0.0282021407 0.6388380527 0.7688241601
-0.048302725 -0.13397016 0.73466676 0.2293481678 0.7511307001 0.6190331578
-0.1720318 -0.10272253 0.70800012 0.2842515707 0.332965672 0.8990744948
-0.10478733 -0.14123712 0.74242866 0.01597738266 0.6401132941 0.7681143284
-0.18510391 -0.094954051 0.71607429 0.453402102 0.07097641379 0.8884755969
-0.065269247 -0.051652011 0.72456008 -0.06950473785 -0.9412715435 0.3304194212
-0.030793697 -0.11239012 0.67122227 -0.384331435 0.5398487449 0.7489010096
-0.18275225 -0.072095901 0.72355556 0.5911207795 -0.438811183 0.6767724156
0.074650563 -0.10356714 0.76146317 0.2276133299 -0.3537340164 0.9072290063
-0.08349549 -0.040706918 0.73125005 -0.1457228214 -0.8513110876 0.5040181875
-0.10501888 -0.064833991 0.70137942 0.09265268594 -0.4097262025 0.9074910283
-0.14494449 -0.08527182 0.70574278 0.03257550672 0.1292124838 0.9910817146
-0.16465069 -0.085434437 0.70577788 0.2071942091 0.003916165326 0.9782919884
-0.064811744 -0.085111372 0.69328368 0.1215836257 0.2194744647 0.9680125713
-0.035438258 -0.06472943 0.69201511 0.2220119089 -0.5608890653 0.7975676656
-0.084866039 -0.12375506 0.7236765 0.1640294939 0.6485589743 0.7432802916
-0.16224523 -0.059628587 0.71900004 0.3722693026 -0.6614037156 0.6511226296
-0.095376283 -0.10568971 0.71243739 0.1116256639 0.6129046082 0.782232523
0.1058557 -0.10609435 0.67874998 0.204057917 0.3339389563 0.9202418923
0.10213985 -0.046756372 0.72666669 -0.5240409374 -0.5029527545 0.6873278618
-0.11506812 -0.064492166 0.70108068 0.1042011827 -0.3660886586 0.9247276187
-0.025555165 -0.084483862 0.64556754 -0.3414774537 0.6863299608 0.6421404481
-0.0060325377 -0.11784163 0.71122229 -0.7593919039 0.3843025267 0.5250100493
-0.078022234 -0.10507522 0.71254998 0.1995776147 0.6036433578 0.7718701363
0.074725382 -0.035656046 0.72353214 -0.06436701119 -0.748603344 0.6598863006
0.074659042 -0.065853424 0.68509841 -0.213512972 -0.7452243567 0.6317062974
0.094709367 -0.071229018 0.69250005 -0.5313237309 -0.6781749129 0.5077143908
-0.078679956 -0.049411125 0.71800005 -0.1046512201 -0.8700683713 0.4816940725
-0.0043071434 -0.067613572 0.67818183 0.2272794396 -0.5491636395 0.8042159677
0.090077497 -0.1058575 0.75000006 0.09510273486 -0.7110952139 0.6966340542
-0.14486732 -0.11354307 0.71692485 -0.1444686502 0.5152994394 0.8447456956
-0.15591167 -0.053253476 0.72364283 0.2920118868 -0.7361159921 0.6106245518
0.073401354 -0.12337274 0.71259379 0.6745734811 -0.6011072397 0.4285098314
0.11451204 -0.045629036 0.734128 -0.6555250883 -0.4208009839 0.6270672679
-0.015103827 -0.05132436 0.70029992 0.09213768691 -0.7885810733 0.6079889536
0.036133505 -0.078499056 0.75335711 -0.05528863519 0.348396033 0.9357154369
-0.16158947 -0.047826726 0.72740012 0.3364424407 -0.7280443311 0.5972921252
0.081659555 -0.12394988 0.69178277 0.8119515777 -0.4133225381 0.4121881723
0.014472246 -0.14227247 0.70520008 -0.4330587387 -0.8435453176 0.3176341653
-0.18457161 -0.085185818 0.71499997 0.5342331529 -0.155355975 0.8309389353
-0.095499322 -0.1275993 0.73228002 0.08901432157 0.6382634044 0.7646543384
0.09478607 -0.055263892 0.71392727 -0.5200280547 -0.5831524134 0.6241025925
0.063047588 -0.078972764 0.75700009 -0.001674295636 0.166812703 0.9859871864
0.06526871 -0.036230233 0.72421581 0.08934553713 -0.7796956897 0.6197515726
-0.09551695 -0.1338117 0.73783332 0.06118477508 0.6573013663 0.751140058
0.055044193 -0.11672929 0.75444448 0.1622753739 -0.6814365983 0.7136601806
0.024823727 -0.11450379 0.76459575 0.1801053286 -0.1791116148 0.967202723
-0.074756518 -0.085289128 0.6957497 0.1773766428 0.2729561031 0.945532918
-0.12489731 -0.057302352 0.70621967 0.07086759806 -0.6201345921 0.7812879086
-0.017595207 -0.095121138 0.65726918 -0.4590114057 0.6973869205 0.5504180193
-0.0050442424 -0.054496586 0.69442236 0.1150849611 -0.8310939074 0.5440940261
-0.17623594 -0.074466817 0.71229029 0.4851771295 -0.3431992233 0.8042496443
-0.12496331 -0.065286294 0.70122445 0.149242878 -0.3693111837 0.9172435999
0.086199775 -0.093663178 0.67097127 0.1547901034 0.2128158957 0.9647535682
0.0086358972 -0.048793953 0.73883337 -0.3043155372 0.8905341625 0.3381434381
0.043998081 -0.057129107 0.68750006 -0.1524159014 -0.6581502557 0.7372974753
0.085245252 -0.063509569 0.69338483 -0.33511132 -0.7634984851 0.5520601869
-0.16459557 -0.11404704 0.71543479 0.05564755201 0.5177910924 0.853695333
0.094690368 -0.11477129 0.68289202 0.3751118481 0.3610458374 0.8537780643
-0.045786206 -0.14340858 0.7428261 0.4532169998 0.7646169662 0.45820871
0.11737961 -0.063845828 0.73331583 -0.7547363043 -0.2605377138 0.6020740867
-0.0059643388 -0.10831267 0.70028573 -0.4830864966 0.7092994452 0.5133436918
-0.00058561331 -0.079057798 0.66800004 0.1338044554 -0.3876531422 0.912042439
-0.085345387 -0.09516228 0.70409626 0.1853274703 0.5370881557 0.822915554
-0.058930408 -0.090521969 0.69300002 0.08378957957 0.3312195837 0.9398260117
0.09540429 -0.10444164 0.67767256 0.07468016446 0.2999759912 0.9510190487
-0.16257273 -0.066916697 0.70749998 0.3190927505 -0.4852928221 0.8140459061
0.013803992 -0.10800639 0.70133328 0.126947552 0.34321329 0.9306390285
0.092082262 -0.077910066 0.67706662 -0.5019813776 -0.553289175 0.664744854
-0.075215854 -0.097864434 0.70318758 0.2017373741 0.5804139972 0.7889370322
-0.031702898 -0.13334288 0.69357151 0.2684284151 0.6663614511 0.6956353784
0.045169689 -0.035295635 0.73518187 0.3148147762 -0.7697464228 0.5553216338
-0.025412187 -0.13806978 0.70204765 -0.1131964773 0.6465433836 0.7544323802
-0.13457812 -0.058402512 0.70705563 0.1449555606 -0.6019032001 0.7853027582
-0.054936804 -0.07527601 0.69127584 0.1993576139 -0.1959709823 0.9601311684
-0.044982038 -0.053835955 0.70361835 0.218032971 -0.7858740091 0.5786740184
0.10353766 -0.065521598 0.71505249 -0.7142778635 -0.4197603166 0.5600075126
-0.026992843 -0.095577441 0.67145705 0.4358836412 -0.5680129528 0.6981165409
-0.17288099 -0.067821875 0.71635717 0.4848717749 -0.5531072617 0.6774744987
-0.13524735 -0.10521352 0.71658188 -0.1086684242 0.476619184 0.8723676205
0.052417301 -0.041050792 0.72040004 0.2526498139 -0.7747549415 0.5795885324
-0.11267336 -0.040331706 0.73025 0.03372564167 -0.8284707665 0.5590158701
-0.10495239 -0.044222921 0.72377086 -0.01016692631 -0.803830862 0.5947710276
0.055776417 -0.13522229 0.71754527 0.3356261849 -0.6794383526 0.6524711251
-0.084960073 -0.085183226 0.6951133 0.1624964178 0.288480103 0.9435963631
0.07366962 -0.11142112 0.75255555 0.2358445525 -0.6992980242 0.6748034358
0.11089114 -0.058316391 0.72780001 -0.6669554114 -0.3394108415 0.6633028984
0.065211087 -0.045135826 0.71523458 0.02790068835 -0.8319827914 0.5540994406
-0.074050464 -0.041969802 0.73187494 -0.1671905667 -0.8893541694 0.4255543351
-0.082161196 -0.098966897 0.71000004 0.1789450645 0.6154602766 0.7675853968
-0.065372847 -0.1039999 0.70510012 0.2637810111 0.5540829897 0.7895641923
-0.12541024 -0.043522604 0.72311097 0.09376270324 -0.8050191402 0.5857924223
-0.095364347 -0.074578553 0.6972971 0.1144783422 -0.03940233588 0.992644012
0.078526184 -0.083440393 0.67294437 -0.2600677311 -0.4110138714 0.8737461567
0.095170155 -0.04407198 0.72404444 -0.3902798593 -0.5859057307 0.7102084756
0.0445164 -0.1124045 0.76169986 0.1202948615 -0.3406217396 0.9324730635
0.054755472 -0.094822481 0.7616877 0.02173806727 0.06384317577 0.9977231622
-0.044992398 -0.065042198 0.69348633 0.1850554496 -0.5618025064 0.8063079119
-0.12477405 -0.085244365 0.70457792 0.08975263685 0.3715964258 0.9240457416
-0.14423113 -0.13223186 0.73052633 -0.1043054685 0.5424450636 0.8335908651
0.0051072286 -0.11515974 0.70369822 0.3106189966 0.2420090139 0.9192102551
0.013663013 -0.07385271 0.67159361 -0.1303915828 -0.2725163996 0.9532747865
0.094518498 -0.094773591 0.67367196 -0.1316865683 0.06025086716 0.9894586802
-0.025262877 -0.12720445 0.6916365 -0.6731480956 0.4342213571 0.598601222
-0.034754269 -0.056384765 0.69718617 0.1909330487 -0.6287972927 0.7537629604
-0.18935999 -0.100992 0.72000003 0.4635844231 0.1740236431 0.8687952757
-0.1495944 -0.052389599 0.72000003 0.2586519122 -0.7521524429 0.6061071754
0.073878899 -0.073609836 0.68224531 -0.2011016309 -0.7101831436 0.6746836901
0.065781467 -0.050867967 0.70250005 -0.1853292286 -0.8722648025 0.4525562525
0.052228954 -0.12444021 0.73550004 0.2969540358 -0.871632576 0.3899679184
0.064188659 -0.12226606 0.72312909 0.5056465268 -0.7380894423 0.4467052221
-0.10511142 -0.1047916 0.71439624 0.08583064377 0.5962601304 0.7981897593
-0.12558739 -0.097143345 0.71270585 -0.0002415211784 0.4980652034 0.8671395779
-0.17378904 -0.057609838 0.72695005 0.4250834286 -0.6529032588 0.6269142032
-0.18090279 -0.11156723 0.71900004 0.3599261642 0.4141304791 0.8360317349
0.084550291 -0.046883084 0.71599996 -0.2968995571 -0.6846312284 0.6656806469
-0.01277441 -0.094970427 0.66700011 0.2658372521 -0.7465413213 0.6099234819
0.043554924 -0.087681696 0.76100004 0.01637936197 0.2147714049 0.9765269756
-0.014894813 -0.084679022 0.67455697 0.2148305029 -0.5453791022 0.8101910353
0.054848071 -0.10501508 0.76299983 0.09230405092 -0.2004499137 0.9753459692
-0.16478962 -0.075147919 0.70711464 0.3334437013 -0.2919156551 0.8964377046
0.092523456 -0.027359834 0.73868746 -0.2779069245 -0.6696842313 0.6886877418
0.1047838 -0.054562464 0.72353482 -0.5809298158 -0.4136786759 0.7009925246
0.081667013 -0.058782507 0.69742858 -0.3191379309 -0.768410027 0.5547044873
0.088364065 -0.11597934 0.68608338 0.3771069646 0.3696888983 0.8491880894
-0.064667232 -0.12093378 0.71745449 0.1854228526 0.6918064952 0.6978697181
-0.084979862 -0.10489649 0.71416324 0.1793038994 0.6081941724 0.7732722163
0.099190153 -0.05117337 0.72066671 -0.5173825622 -0.5001830459 0.6943573952
0.094838597 -0.064454697 0.70446891 -0.6414262652 -0.5972801447 0.4814859927
0.019347157 -0.08873006 0.76100004 0.06430029124 0.08315254003 0.9944602251
0.064998418 -0.055238489 0.69369227 -0.2352956384 -0.7865160108 0.5709890127
-0.1643953 -0.055768099 0.72457153 0.3956296146 -0.6835672259 0.6133621335
-0.10410905 -0.12140633 0.72743762 0.07743167877 0.6291386485 0.7734267116
0.055018894 -0.058052085 0.68770963 -0.1980365366 -0.73521173 0.6482632756
0.084555514 -0.075932309 0.67541933 -0.2865767479 -0.6425942183 0.7105958462
0.024827644 -0.09463992 0.76161122 0.0783027485 0.06636239588 0.9947184324
-0.032019183 -0.10521805 0.67096871 -0.6951996088 0.4821488261 0.5331322551
0.10442542 -0.035716578 0.73313153 -0.4064458907 -0.5908482075 0.6969219446
0.034755103 -0.11317955 0.7620464 0.2203369737 -0.2292534858 0.9481004477
-0.11425912 -0.07410755 0.69752872 0.12094827 0.05033617094 0.9913817644
0.034863107 -0.055891369 0.68558937 -0.0402748026 -0.7226535082 0.690036118
0.094490536 -0.075283423 0.68316132 -0.4930267334 -0.5884876847 0.6407861114
0.034867018 -0.087746903 0.76099992 0.01095013041 0.2400599122 0.9706963301
0.016967226 -0.10595189 0.76643771 0.1792739332 -0.04973457381 0.9825412631
0.047854751 -0.038283885 0.72783345 0.279738307 -0.7628155947 0.5829741359
-0.14151505 -0.058964599 0.708 0.2126011848 -0.5725043416 0.7918582559
0.098768182 -0.040744547 0.73000002 -0.4020313323 -0.5849817991 0.7043913007
0.0049802507 -0.066423647 0.67617017 0.1442837864 -0.6073063016 0.7812561989
-0.11507154 -0.10469641 0.71553689 0.07091899961 0.5686503053 0.8195165396
0.034445331 -0.12442928 0.75395334 0.3040303886 -0.7996218801 0.5178516507
0.08626736 -0.052505989 0.71107709 -0.3549384177 -0.7147843242 0.6025795341
0.03378525 -0.042702544 0.73324984 0.3535137773 -0.7351830006 0.5783891082
0.11446902 -0.11253848 0.67681479 0.2447224408 0.3702835441 0.8961032629
0.065143526 -0.13498199 0.71403164 0.5427289605 -0.6700361371 0.506455183
0.0040777279 -0.13672939 0.69540006 -0.440207392 -0.1315861344 0.8882018924
-0.0054979967 -0.092095107 0.66707993 -0.4058974087 0.8850361705 0.2279435396
0.0076648491 -0.13634183 0.72630435 -0.3764081001 -0.8807779551 0.2873102129
-0.0048556114 -0.13507801 0.6937052 -0.2100295424 0.3237734437 0.9225282073
-0.055599645 -0.0516202 0.72799999 -0.02588794753 -0.9667551517 0.2543900609
0.07502076 -0.027168324 0.73629034 -0.05455610156 -0.7838138342 0.6185947657
-0.064834915 -0.065345779 0.69580817 0.07096587867 -0.4308266342 0.8996400833
-0.094799154 -0.044241942 0.72467268 -0.08282733709 -0.8291065097 0.5529214144
-0.064990506 -0.10873442 0.71055561 0.2485161871 0.6164486408 0.7471483946
-0.15528829 -0.12447716 0.72412974 -0.05726052821 0.561902225 0.8252194524
0.074809939 -0.13218071 0.70427281 0.6951422691 -0.5644609928 0.4451527297
0.077060312 -0.041372091 0.72050005 -0.1313136071 -0.7284621 0.6723836064
-0.095234931 -0.1405849 0.73900002 0.05437482148 0.6663143039 0.7436858416
-0.1009657 -0.080160648 0.69800001 0.09161552787 0.1789965928 0.9795747995
-0.057597 -0.12991323 0.73000002 0.2137123644 0.7589054704 0.6151337028
-0.16862401 -0.061764669 0.72040004 0.4069193304 -0.6479318738 0.6438950896
0.02915355 -0.039519258 0.73900002 0.3047981262 -0.8681853414 0.3916022778
0.0054364083 -0.05661305 0.68572736 0.1317462176 -0.807133019 0.5754817128
-0.051187195 -0.085881054 0.64606249 -0.7070599198 0.3619020283 0.6075304151
-0.064582005 -0.092384532 0.69646162 0.1097720265 0.3927466869 0.9130718112
-0.078647524 -0.11348976 0.72000003 0.1690322757 0.6260808706 0.7612166405
0.02048244 -0.139653 0.708 -0.2863411903 -0.8788720369 0.3815660775
0.024747053 -0.046008546 0.736489 -0.2198102176 0.9228241444 0.3163528144
-0.16561213 -0.064462237 0.71306676 0.4125665724 -0.5946907401 0.690023005
-0.021713279 -0.05971152 0.68800002 0.2245867252 -0.6537672877 0.7225988507
0.064719692 -0.11399291 0.75469565 0.192490682 -0.616158247 0.7637383938
-0.019220697 -0.14384675 0.70725 0.3387940824 -0.1344083399 0.9312104583
0.059523914 -0.12818094 0.71850008 0.4257750213 -0.7089694738 0.5622080564
-0.15517516 -0.11432221 0.71614575 -0.08506003022 0.5288484097 0.8444430828
0.071171306 -0.05971152 0.68800002 -0.2614805102 -0.7489593029 0.6088414788
-0.055041287 -0.13440271 0.73445952 0.2092909813 0.753348887 0.6234282255
-0.1351245 -0.12396532 0.72573489 -0.1160076559 0.5282668471 0.8411161304
0.089426577 -0.060437839 0.70350003 -0.4803577363 -0.7134004831 0.510211885
-0.11136822 -0.080160648 0.69800001 0.08746261895 0.2175097615 0.9721315503
-0.18254584 -0.066274017 0.7269091 0.5970290303 -0.5293827057 0.6027522087
-0.0045324289 -0.10377977 0.69554776 -0.5133441687 0.5652959943 0.6456920505
0.0065876935 -0.14441709 0.70384002 -0.2699378729 0.8800196052 0.3907673061
0.11552069 -0.054755893 0.73319042 -0.685018599 -0.3479810059 0.6400458813
-0.018579524 -0.11821467 0.6836251 -0.6854564548 0.2516002953 0.6832618117
0.10801269 -0.11277181 0.6785714 0.2474232167 0.3698777854 0.8955289721
0.0039403895 -0.083816089 0.6667037 -0.4517686069 0.07095020264 0.8893094063
-0.17199852 -0.076636881 0.70759088 0.4394006431 -0.2677778602 0.8574509025
0.084826224 -0.03683757 0.72513032 -0.1970317215 -0.7165974379 0.6690789461
-0.021225708 -0.077760778 0.67883331 0.2384201884 -0.5336619616 0.8113942742
-0.0090472 -0.12485136 0.68800002 -0.3867223263 -0.09203027189 0.9175926447
-0.074982628 -0.065306634 0.69554931 0.08327500522 -0.4932464063 0.8658944964
-0.15622693 -0.061214324 0.71084619 0.3128578365 -0.6489574909 0.6935229897
0.0053866301 -0.10970997 0.70000005 0.2156155258 0.4561056793 0.8634104133
0.095655508 -0.033674065 0.73231709 -0.3644818068 -0.6125934124 0.7013432384
0.014424468 -0.13327217 0.72274417 -0.1702403724 -0.9117246866 0.3738667369
-0.081731923 -0.12039176 0.71900004 0.169779405 0.6245577931 0.7623007894
-0.0046951631 -0.11360584 0.70445007 -0.2575932443 0.4601514935 0.849650681
-0.028273376 -0.061900012 0.69069231 0.2507371604 -0.6001419425 0.7595791817
-0.044486497 -0.076644249 0.64143264 -0.6074483395 0.4485930502 0.6555690765
0.028545801 -0.11866208 0.75724995 0.2888496518 -0.4058943093 0.8670730591
0.085939847 -0.031533651 0.73264998 -0.2184168696 -0.7053217292 0.674399972
0.061777472 -0.11061237 0.76100004 0.1307465285 -0.4789873362 0.8680302501
-0.13602871 -0.092434473 0.70763648 -0.01665673964 0.4230509996 0.9059527516
0.026628694 -0.061497107 0.68106675 -0.03145331889 -0.5984421372 0.8005483747
-0.071998879 -0.11110172 0.708 0.216368556 0.60591501 0.7655400634
-0.027485251 -0.11213911 0.67683333 -0.2819615602 0.5761406422 0.7671763897
-0.17604497 -0.10573751 0.71215379 0.3604023457 0.3432503343 0.8673461676
0.075065456 -0.050417103 0.71000004 -0.2175294161 -0.7963008285 0.5644341707
-0.12392488 -0.048062757 0.71755546 0.08268112689 -0.7825879455 0.6170250773
-0.12553485 -0.075093597 0.7008307 0.1798815876 0.09106229246 0.9794642925
-0.13512358 -0.053812396 0.71386945 0.1823878139 -0.7092247605 0.6809808612
0.0561768 -0.14202 0.72000003 0.3362524807 -0.7340580225 0.5899941921
-0.03076048 -0.067552425 0.68800002 0.2436085641 -0.5628290772 0.7898597121
-0.15062886 -0.098966897 0.71000004 -0.1100309119 0.3633910418 0.9251163006
0.038832281 -0.12534854 0.74762505 0.3102790117 -0.8638375998 0.396877259
-0.08576294 -0.11528847 0.71892297 0.1767879426 0.6056179404 0.7758691311
-0.10519298 -0.094057776 0.70583361 0.1173648238 0.5051954389 0.8549872041
0.0039549223 -0.13400818 0.73175609 -0.4164000452 -0.8710022569 0.2607030272
0.065074734 -0.086157516 0.76106662 0.05121441931 0.04278754443 0.9977706671
-0.16439795 -0.12284732 0.72125 -0.01047759596 0.5652919412 0.8248243928
-0.055267062 -0.11584211 0.71157151 0.1563846767 0.6920409203 0.7047150135
-0.035370559 -0.074735343 0.64042598 -0.5381343365 0.5346261263 0.6516029239
0.044307083 -0.043751415 0.72295648 0.3347353041 -0.7641215324 0.5514259338
0.064639114 -0.10468154 0.76180828 0.1384103596 -0.2709855139 0.9525803924
-0.025358932 -0.12256468 0.68729162 -0.5971421003 0.463303417 0.6548063159
-0.13497382 -0.045554351 0.72346503 0.1494662613 -0.7843765616 0.6020076871
0.062054217 -0.12168539 0.74227273 0.2899777591 -0.910515964 0.2947432697
-0.065529138 -0.055780575 0.70279551 0.1111834943 -0.7968470454 0.593862772
0.084477141 -0.10692874 0.75443894 0.2528067529 -0.5065889955 0.8242914081
