# .PCD v0.7 - Point Cloud Data file format
VERSION 0.7
FIELDS x y z normal_x normal_y normal_z
SIZE 4 4 4 4 4 4
TYPE F F F F F F
COUNT 1 1 1 1 1 1
WIDTH 512
HEIGHT 1
VIEWPOINT 0 0 0 1 0 0 0
POINTS 512
DATA ascii
-0.12434868 -0.088700257 0.78800005 0.1507615447 -0.3894393146 0.9086297154
-0.31133533 -0.14248785 0.81266671 0.2031992525 0.1430909038 0.9686253667
0.0010294988 -0.1150774 0.88100004 -0.4317803979 0.4405530393 0.7870696783
-0.19598396 -0.17175944 0.83288246 -0.05351821333 0.6035852432 0.7955002785
-0.23568521 -0.076124214 0.84542859 0.002223163843 -0.9513157606 0.3082100153
-0.10365932 -0.14318304 0.8734287 -0.121198453 -0.2404439449 0.9630668163
-0.028646836 -0.088035747 0.79700005 -0.2055887878 -0.3902048767 0.8974816799
-0.074959762 -0.058178034 0.86566663 0.2345564514 0.1161461249 0.9651390314
-0.12533143 -0.16133022 0.80537504 -0.3360292315 0.315200299 0.8875433207
-0.049362909 -0.15169095 0.82200003 0.4641623199 -0.03748894855 0.8849564791
-0.18522564 -0.1148953 0.80156785 0.07744077593 0.2097594738 0.974681437
-0.2451212 -0.13499498 0.81268442 -0.1082376763 0.3283759058 0.9383250475
-0.28511849 -0.093685165 0.82353842 0.2762721479 -0.7683123946 0.5773818493
-0.054585502 -0.11459106 0.87799978 0.04888639972 -0.1134170964 0.9923440218
-0.02349586 -0.074388467 0.85367996 -0.7098561525 -0.5060656071 0.4898998439
-0.084462456 -0.068246745 0.81457138 -0.2097532004 -0.6089393497 0.7649813294
-0.15235941 -0.13011223 0.76900005 -0.5823241472 0.4377599359 0.6850290895
-0.10440265 -0.095966905 0.8677578 -0.1246584952 0.2118415236 0.9693211317
-0.27056125 -0.17099471 0.82300001 -0.1050808728 0.471322 0.8756789565
-0.22513202 -0.095371708 0.80656576 0.07422816008 -0.4582024217 0.885743022
-0.17345814 -0.077012539 0.82099998 0.1380616575 -0.5906195045 0.7950519323
-0.099556893 -0.12820636 0.81700003 0.06847987324 0.5664032698 0.8212782145
-0.019101691 -0.13088195 0.80700004 0.08266495913 0.2451990545 0.9659419656
-0.16506822 -0.15315959 0.81652015 0.4759934247 0.5709117651 0.6689469218
-0.14113544 -0.1156034 0.80900002 0.06743948162 0.4819399118 0.8736050725
-0.2348948 -0.17359471 0.82706058 -0.1667728424 0.4228975773 0.8906988502
-0.054605421 -0.069009833 0.83663648 -0.1875687093 -0.9389465451 0.2884394526
-0.083012991 -0.16341703 0.82162505 -0.07081785053 -0.8087084293 0.5839310884
-0.28546637 -0.12480271 0.80092162 0.09611476958 -0.05691028386 0.9937419891
-0.20289896 -0.081015393 0.84266663 0.06842618436 -0.9508228898 0.3020822108
-0.065066554 -0.14351679 0.86541188 0.07351271063 -0.4767347574 0.8759679794
-0.20534217 -0.1452453 0.81614298 0.06154851988 0.4495750964 0.8911195397
-0.25471941 -0.087348081 0.8161667 0.1492803246 -0.8481186032 0.5083406568
-0.13721851 -0.071808644 0.81100005 0.2377803475 -0.7160667181 0.6562842131
-0.11441574 -0.15461846 0.83378953 0.001348345191 -0.9736277461 0.2281386554
-0.013927822 -0.1036917 0.85324991 -0.9001252651 -0.1247602999 0.4173840284
-0.045040753 -0.053815577 0.86232257 -0.1619861424 -0.8831136823 0.4403074682
-0.12679246 -0.13647051 0.78860009 -0.6017343402 -0.09692893922 0.7927928567
-0.057589106 -0.083184272 0.81099993 -0.05782681704 -0.8191156387 0.5707063079
-0.075110175 -0.095010333 0.87299973 -0.1224444732 0.2611650527 0.9574968219
-0.028284896 -0.083403692 0.82728577 -0.6450371146 -0.7418906689 0.1830993891
-0.15281895 -0.1061468 0.7852 0.6233713031 -0.4485234022 0.6404958963
-0.28495991 -0.15215643 0.80805272 0.02145635337 0.3875789642 0.9215867519
-0.0061170673 -0.10747064 0.80050009 -0.06621611863 0.01102622971 0.9977443814
-0.098790817 -0.082241856 0.796 -0.1415155977 -0.6586796641 0.7389955521
-0.19929175 -0.088652916 0.80900002 0.03606785461 -0.5221006274 0.8521208763
-0.15171658 -0.14450367 0.79418182 0.5402444601 0.4029092789 0.7387828231
-0.1648733 -0.173052 0.83399987 0.2536423802 0.729943037 0.6347036362
-0.085306898 -0.12479502 0.87742853 -0.1338314712 -0.09546117485 0.9863955975
-0.0065140985 -0.086128213 0.87123549 -0.9121037722 -0.1574758589 0.3785076439
-0.30525535 -0.1131157 0.81205255 0.3800579309 -0.3068066239 0.8725970984
-0.11532836 -0.11483821 0.80295342 -0.1587617844 0.5553008914 0.8163551092
-0.03885299 -0.13179544 0.86900002 0.0481890142 -0.301923573 0.9521134496
-0.26534963 -0.084043056 0.838 0.1897648126 -0.9065356255 0.3770709336
-0.12438454 -0.13612437 0.81293356 -0.7595738769 -0.4239582121 0.4932615459
-0.10589345 -0.071763761 0.86900008 -0.02643935196 0.27804178 0.9602050185
-0.13550548 -0.11123585 0.76900005 -0.5380526781 0.05034161359 0.8414065838
-0.25495967 -0.11499294 0.80492187 -0.03173916414 8.836527559e-05 0.9994961619
-0.16309199 -0.12292995 0.81299996 -0.09639313072 0.3201789856 0.942440331
-0.21458958 -0.12535706 0.80785668 0.01650249213 0.3445167243 0.9386351109
-0.16492487 -0.096572168 0.80225003 0.237642169 -0.4397334754 0.8661181331
-0.11446724 -0.068964735 0.81100005 0.02420379966 -0.7563682199 0.6536981463
-0.031014714 -0.11356515 0.79799998 -0.007292426191 0.1864884794 0.9824301004
-0.25505289 -0.15516576 0.81465232 -0.1737597287 0.370675534 0.9123635292
-0.041099269 -0.13534205 0.80828577 0.4606228173 0.2299225032 0.8572993875
-0.086241208 -0.15151453 0.86200017 0.08565889299 -0.8843771219 0.458845973
-0.27458179 -0.10460883 0.80556625 0.1367298663 -0.5294839144 0.8372285962
-0.11384026 -0.11548274 0.87151861 -0.1512203962 0.08583983034 0.9847659469
-0.21676219 -0.084283389 0.82350004 0.0166645851 -0.938580513 0.3446576893
-0.071922742 -0.14624669 0.82869244 0.1132604405 -0.3409608006 0.9332297444
-0.18609816 -0.13704073 0.81099993 0.1003819183 0.3946276903 0.9133413434
-0.10184915 -0.1556583 0.81554562 -0.4101129174 -0.8333386183 0.3706131876
-0.21478666 -0.1636824 0.82716012 -0.06970758736 0.4877867699 0.8701752424
-0.26529515 -0.13488612 0.80716997 -0.1641554087 0.2173392326 0.9621936679
-0.14498305 -0.16404831 0.80057877 0.2885076404 0.6705507636 0.6834654212
-0.18533298 -0.1575924 0.82284606 0.03115399554 0.6181606054 0.7854342461
-0.15570389 -0.080340363 0.81100005 0.2585473359 -0.5465864539 0.7964901328
-0.22562519 -0.14480792 0.81704658 -0.04543150589 0.4299414754 0.9017130136
-0.10955878 -0.15282404 0.79600006 -0.4791032374 -0.02212643251 0.8774796128
-0.081127606 -0.06773039 0.84900004 0.4979611337 -0.8618019223 0.09660285711
-0.23484787 -0.11495773 0.80446959 0.01210212894 0.06395189464 0.9978796244
-0.14208838 -0.08776544 0.79666668 0.3185057342 -0.4863750041 0.813629806
-0.30219752 -0.16036426 0.81300002 0.1022700742 0.3846511841 0.9173790216
-0.038130179 -0.076261237 0.81300002 -0.2997344434 -0.8853106499 0.3555057645
-0.23516347 -0.081804737 0.82442868 -0.01400657371 -0.9199624062 0.3917562664
-0.065321557 -0.068193182 0.81880969 -0.1589915305 -0.8770906925 0.4532478452
-0.20467465 -0.1047982 0.80230641 0.06577254832 -0.1160002872 0.9910690784
-0.027879169 -0.058533277 0.86466664 -0.5336719751 -0.7065873742 0.4646810889
-0.14119768 -0.13226226 0.81550002 -0.1769079417 -0.427015841 0.88677001
-0.13863157 -0.12561111 0.78187501 -0.6328964829 0.3191023469 0.7054188251
-0.17877738 -0.088324688 0.80860007 0.08081270009 -0.5891133547 0.8039991856
-0.066335544 -0.1623559 0.82592303 0.1814273596 -0.4941115081 0.8502575755
-0.12727885 -0.1751156 0.81530774 0.06236082315 -0.9873813987 0.1455648392
-0.13273449 -0.10339504 0.78594112 -0.6030814648 -0.2055154443 0.7707504034
-0.16461796 -0.11427477 0.79440016 0.5783078671 0.0598648116 0.8136191964
-0.25435683 -0.17392492 0.82574087 -0.1649331301 0.4225003719 0.8912297487
-0.036892511 -0.067534395 0.84657151 -0.4050034583 -0.7635317445 0.5029826164
-0.057914793 -0.098570205 0.87500006 -0.06756397337 0.1029212475 0.992392242
-0.11543071 -0.07905253 0.79799998 0.04399436712 -0.6231056452 0.7808994055
-0.0070685633 -0.10234369 0.86842859 -0.9068096876 -0.102051422 0.4090008438
-0.19073199 -0.081331 0.82100004 0.15915595 -0.8844890594 0.438575536
-0.16455708 -0.13824512 0.80723536 0.5327444673 0.191443786 0.8243377209
-0.23909067 -0.16011177 0.81900007 -0.1679445803 0.366397649 0.9151761532
-0.16165049 -0.11738119 0.76511109 0.7547585964 -0.175153926 0.6321871281
-0.076832525 -0.081403084 0.80900002 -0.2039536983 -0.6478361487 0.7339695096
-0.24484575 -0.095115282 0.8060587 0.06872934848 -0.4948028326 0.8662831187
-0.14957073 -0.10111912 0.801 0.2378532737 -0.2902923822 0.9269067645
-0.090296663 -0.14880979 0.824 -0.3354794383 -0.3897518218 0.8576403856
-0.054781299 -0.061134059 0.85216659 -0.006228812505 -0.8760076165 0.4822570086
-0.055611465 -0.13410726 0.87388235 0.08523263782 -0.3297404945 0.9402162433
-0.043493796 -0.09264446 0.79513055 0.07939366251 -0.3006988466 0.9504087567
-0.21853563 -0.079212971 0.83819997 -0.009154040366 -0.9535027742 0.3012452126
-0.039255381 -0.11930557 0.87800002 -0.005200765561 -0.2116383761 0.9773342013
-0.018529812 -0.0987489 0.80266666 -0.1387957633 -0.0925534144 0.9859865904
-0.018585334 -0.08772102 0.84800005 -0.8228372335 -0.3528988361 0.44542256
-0.10514351 -0.15412726 0.86315787 -0.2469953001 -0.8740538955 0.4183576107
-0.17624944 -0.17743191 0.84260005 -0.01456432417 0.65670228 0.7540093064
-0.09158843 -0.088548154 0.86700004 -0.0791785568 0.3138817251 0.9461548924
-0.31134903 -0.12624174 0.80900002 0.3042798638 -0.07328270376 0.9497596622
-0.2893675 -0.10024771 0.81100005 0.2543758452 -0.6798853874 0.6877854466
-0.14396882 -0.099358767 0.77100009 0.2914831638 -0.704431653 0.6471580863
-0.25148147 -0.079426877 0.83633345 0.1032105833 -0.926754117 0.3612123132
-0.1088706 -0.091535397 0.79100001 -0.2396379113 -0.2308958769 0.9430062175
-0.015073022 -0.074881263 0.8655625 -0.7613760233 -0.4253719449 0.4892497063
-0.074695967 -0.11495853 0.87720001 -0.09009097517 0.06901948899 0.9935390949
-0.11927138 -0.10193617 0.79100001 -0.2668481469 0.3234585226 0.9078362584
-0.085303277 -0.14204711 0.87284005 0.01360260695 -0.3799529076 0.9249058366
-0.094732597 -0.10540149 0.87240529 -0.1465658695 0.2148295641 0.9655913711
-0.12315221 -0.14454882 0.82440007 -0.6043611169 0.0501748994 0.7951290011
-0.11265029 -0.13213761 0.87414294 -0.1768610179 -0.09709981829 0.9794344306
-0.053272404 -0.13853192 0.82560003 0.3887771368 0.1892929375 0.9016765356
-0.13642162 -0.15338871 0.79685724 -0.08351772279 0.519949913 0.8501040339
-0.10698051 -0.14000805 0.81900007 0.3558293581 0.5806465149 0.7322807312
-0.13361979 -0.11123322 0.79800004 -0.4266991317 0.5689260364 0.7030299306
-0.028393188 -0.14055802 0.80300003 0.3921877146 0.2050730437 0.8967351317
-0.1590659 -0.1631725 0.82600003 0.4201341569 0.655651629 0.62738204
-0.12484355 -0.12485246 0.80457133 -0.4050924778 0.2165422589 0.8882620931
-0.28418723 -0.1638348 0.81542432 -0.0463985987 0.4587314129 0.8873627782
-0.17610097 -0.12490845 0.8042565 0.05431996658 0.3378963768 0.9396144748
-0.1944547 -0.12484238 0.80411124 0.06912698597 0.3320609331 0.9407215118
-0.026230743 -0.087440267 0.81424999 -0.508760035 -0.7543798089 0.4148184955
-0.088964134 -0.070115797 0.86000001 0.1904657483 0.2482993901 0.9497737885
-0.29439062 -0.13506572 0.80120832 0.1633074433 0.1410453767 0.9764409065
-0.29460686 -0.11502538 0.8038637 0.26078704 -0.2468304485 0.9333085418
-0.074833535 -0.13426527 0.87650007 -0.001731385128 -0.3680593073 0.9298006892
-0.28416324 -0.087468684 0.83552629 0.2553612292 -0.8642818332 0.4333676994
-0.064655922 -0.12491994 0.8780002 0.04492082819 -0.2384269238 0.9701209664
-0.22649685 -0.13167533 0.80840003 -0.02419860289 0.3619558513 0.9318811297
-0.26609579 -0.086343721 0.82307386 0.1917409003 -0.8589147925 0.4748692513
-0.27407587 -0.095333435 0.81507146 0.2273840755 -0.7258980274 0.6491290331
-0.033742286 -0.12559503 0.80260003 0.2057986706 0.2001236975 0.9579130411
-0.034778666 -0.075502641 0.83556008 -0.5287694931 -0.794021368 0.2998881638
-0.17606816 -0.14674288 0.81364012 0.1177034155 0.5336950421 0.8374458551
-0.1048917 -0.073578186 0.80348873 -0.1221375167 -0.6786105037 0.7242721915
-0.053293005 -0.071657851 0.82150006 -0.2108780742 -0.8884865642 0.4075807929
-0.27464685 -0.14499615 0.80601966 -0.154935807 0.3339366019 0.9297748208
-0.15032817 -0.12081168 0.78300005 0.896758914 0.3329028487 0.2915462255
-0.12388033 -0.1515677 0.79672736 -0.1877848059 0.3865232766 0.9029599428
-0.26382047 -0.09790393 0.8081001 0.1206010953 -0.5360034704 0.8355571032
-0.1251716 -0.075896874 0.80523676 0.152974084 -0.7071628571 0.6903040409
-0.010006273 -0.11006901 0.87800002 -0.4317803979 0.4405530393 0.7870696783
-0.108188 -0.12624088 0.80826318 -0.6586403251 0.06133861095 0.7499536872
-0.01888866 -0.11123322 0.79800004 -0.05873876065 0.03543357551 0.9976443648
-0.19547923 -0.15246567 0.81777793 0.03063192964 0.5385203362 0.8420555592
-0.18453439 -0.16739535 0.83200008 0.001112337108 0.6603258252 0.7509784102
-0.15142576 -0.13511769 0.78633338 0.4948982894 0.5241205692 0.693089664
-0.22493364 -0.15526307 0.82325011 -0.1040071622 0.4242360294 0.8995589614
-0.10437311 -0.161672 0.80531603 -0.1683238596 -0.8603705764 0.4810712934
-0.095040619 -0.13489811 0.87524331 -0.09549821913 -0.2487046868 0.9638599753
-0.21134855 -0.088652916 0.80900002 0.04104251042 -0.5418417454 0.8394778371
-0.039151933 -0.14664266 0.81200004 0.4664572775 0.1904214472 0.8638039827
-0.22592951 -0.086958185 0.81515396 0.04801611602 -0.8516380787 0.5219262242
-0.20592278 -0.15725304 0.82249981 0.02158525027 0.5084239841 0.8608363271
-0.17502953 -0.1624275 0.82684624 0.0318043679 0.6617298126 0.7490674853
-0.047920059 -0.14072107 0.86766672 0.06501279771 -0.3656852841 0.9284651875
-0.21483117 -0.13650209 0.81174082 0.02898952179 0.4222705066 0.906006217
-0.27455422 -0.15614046 0.81187499 -0.1114246845 0.4167517126 0.9021654725
-0.14935945 -0.11988942 0.76400006 -0.8447062373 0.263373673 0.4659459889
-0.094752237 -0.068085432 0.80900002 -0.149346903 -0.7165502906 0.6813598275
-0.066111192 -0.063710555 0.85142851 0.1215624958 -0.9099850059 0.3964212537
-0.21394813 -0.17399496 0.83190912 -0.08672328293 0.4956595898 0.8641762733
-0.081838146 -0.14906183 0.83350009 -0.06118716672 -0.9816898108 0.1803919375
-0.24506412 -0.12492865 0.80747604 -0.05950267613 0.2523951828 0.9657930136
-0.26521701 -0.16352846 0.81646168 -0.1527521014 0.4064986706 0.9007916451
-0.045559824 -0.084603168 0.80257493 -0.1399252415 -0.7750396132 0.6162260175
-0.26462302 -0.14500889 0.81172746 -0.1962561607 0.3233118951 0.9257175326
-0.21465671 -0.11483981 0.80425555 0.04359418154 0.07877977192 0.9959384203
-0.27538693 -0.11509852 0.80246174 0.01057919953 -0.2149687409 0.9765636325
-0.11391874 -0.10488801 0.86878556 -0.1200760603 0.1558052748 0.9804623723
-0.012218834 -0.095105328 0.8621667 -0.9122992754 -0.1139549688 0.3933500648
-0.17605659 -0.13579446 0.80712116 0.06231394038 0.324293226 0.9439019561
-0.19673029 -0.13760103 0.81172729 0.07590598613 0.4185060263 0.9050364494
-0.17227344 -0.1041401 0.80118185 0.2325169891 -0.151444152 0.9607291818
-0.22525379 -0.16525719 0.82718617 -0.1400964409 0.4463319778 0.8838329911
-0.08624503 -0.076980822 0.80742425 -0.210381493 -0.6293868423 0.7480720878
-0.23404077 -0.078614153 0.83535296 -0.009405238554 -0.944023788 0.3297432363
-0.30521274 -0.13445148 0.80672216 0.22673814 0.1187422797 0.9666903019
-0.095245562 -0.14724752 0.86527991 -0.1047848165 -0.6909869909 0.7152321935
-0.10486446 -0.12515856 0.87448931 -0.1827798933 0.002542096423 0.9831506014
-0.24516466 -0.14509922 0.81532663 -0.1465920508 0.3460716903 0.9266850352
-0.075201862 -0.14597327 0.86594117 0.05477804318 -0.5139000416 0.8560993671
-0.035767999 -0.10449867 0.80000001 -0.07267473638 -0.003965448588 0.9973478317
-0.13419294 -0.17188786 0.80820006 0.1078620777 0.7577831149 0.6435297728
-0.14237192 -0.13861229 0.79000002 -0.09398511797 0.5170229077 0.8507961631
-0.2944586 -0.14472942 0.80490017 0.1449885219 0.2521029711 0.9567770958
-0.064828627 -0.056139689 0.86544448 0.1306166351 -0.8830351233 0.4507640898
-0.18609819 -0.10463581 0.8010571 0.1449244171 -0.215744555 0.9656351209
-0.26504159 -0.12478748 0.80523086 -0.10916318 0.08793435991 0.990126729
-0.11460708 -0.16204022 0.80449998 -0.1168726906 -0.6480286717 0.7525952458
-0.17484152 -0.11505903 0.80170596 0.07516961545 0.2699889541 0.9599247575
-0.19487232 -0.16356069 0.82683992 -0.03518616408 0.5993940234 0.7996804118
-0.12206589 -0.10743812 0.80100006 0.02001201175 0.4752015769 0.8796493411
-0.23514618 -0.13706219 0.81236362 -0.04776587337 0.3754740059 0.925601244
-0.24504754 -0.1050026 0.80384642 0.03627081215 -0.209054336 0.9772311449
-0.15727597 -0.14430484 0.80260885 0.6300660372 0.2529006302 0.7342057228
-0.11981842 -0.10064747 0.78100002 -0.7161540985 0.3787805438 0.5862154961
-0.26504129 -0.11484585 0.80351883 -0.01464129146 -0.08348231018 0.9964016676
-0.23473623 -0.10492797 0.80370009 0.01118064672 -0.1234361082 0.9922895432
-0.044851139 -0.061714467 0.8536666 -0.2287136167 -0.8475590348 0.478888005
-0.13455594 -0.12485047 0.80719048 -0.7951020002 0.1714538038 0.5817356706
-0.15212402 -0.15704124 0.80150002 0.5339925885 0.5763210654 0.6186323762
-0.044866923 -0.069690831 0.83900011 -0.3285254836 -0.8709323406 0.3654420376
-0.085043602 -0.11491782 0.87574983 -0.1571700573 0.1672793776 0.9733011723
-0.095118329 -0.11506246 0.87500006 -0.135040462 0.1558395475 0.9785081148
-0.094294325 -0.16192096 0.81366664 -0.2567145824 -0.8614068627 0.4382645786
-0.14146836 -0.11320988 0.77675009 -0.7934590578 0.5797289014 0.1853026599
-0.22476481 -0.10498543 0.80371445 0.03379686177 -0.1157283336 0.9927057624
-0.2549918 -0.12528937 0.80707508 -0.09165558219 0.1748822033 0.9803139567
-0.01395776 -0.084214769 0.86233348 -0.8408596516 -0.2775562108 0.464669317
-0.074552156 -0.15522608 0.82534629 0.04932228848 -0.607360065 0.7928940654
-0.026981754 -0.081774987 0.83700013 -0.7059561014 -0.6319239736 0.3198406398
-0.25540233 -0.10508317 0.80446953 0.01411476824 -0.2880878747 0.9574999213
-0.22501032 -0.11530728 0.80576909 -0.001546693034 0.0791759342 0.9968594313
-0.23495668 -0.094781205 0.80555558 0.06083818898 -0.5287775993 0.8465772271
-0.28481662 -0.13470104 0.80366683 0.03887799382 0.1645773202 0.9855976701
-0.094993927 -0.12501356 0.87534893 -0.1334109753 -0.04624257237 0.9899813533
-0.20482837 -0.11469943 0.80325007 0.04707159102 0.07285863906 0.9962308407
-0.064860888 -0.11447039 0.87784624 -0.02790210769 -0.02672208101 0.9992534518
-0.054659538 -0.12502792 0.87759984 0.08031863719 -0.2415405959 0.9670610428
-0.20488824 -0.16770196 0.83171445 -0.02347102761 0.5390540957 0.8419440389
-0.24469776 -0.11494637 0.80438799 -0.001688358141 0.04769122601 0.9988607168
-0.24487084 -0.08730793 0.81611115 0.05887109414 -0.8378314972 0.5427454114
-0.1043961 -0.15478134 0.82500005 -0.1797622293 -0.8779000044 0.443821013
-0.21276437 -0.15101723 0.81900007 0.01095945202 0.4838478863 0.8750835061
-0.21447469 -0.10477635 0.80212277 0.02049442381 -0.09976478666 0.9947999716
-0.075074926 -0.10468303 0.87453842 -0.1213481277 0.1932899803 0.9736085534
-0.23532821 -0.12504566 0.80641651 0.003945367876 0.2814034224 0.9595814347
-0.11472297 -0.13473816 0.81341183 -0.666857183 0.1719955057 0.7250648737
-0.048749901 -0.10709952 0.87575001 0.01993858628 -0.149063006 0.9886266589
-0.065383658 -0.10463171 0.87653494 -0.07536723465 0.1184762791 0.9900925159
-0.20498963 -0.1241371 0.80854833 0.05132157356 0.3145423532 0.9478550553
-0.074643955 -0.12466335 0.87778574 -0.01049562823 -0.2023529261 0.9792563915
-0.08521869 -0.10478841 0.87408507 -0.1509390324 0.2203018069 0.9636827707
-0.054629367 -0.054205362 0.86341399 -0.003882345976 -0.9034347534 0.4287080765
-0.27456897 -0.13456951 0.80449039 -0.1339056343 0.1827539951 0.9739970565
-0.15960068 -0.11741547 0.80200005 0.3726115227 0.2938167453 0.880245626
-0.17188331 -0.12830701 0.81220007 0.06257730722 0.3261435926 0.9432467818
-0.27478176 -0.12467987 0.80248159 -0.1124601513 0.02862031013 0.9932439923
-0.2543104 -0.095619068 0.80741847 0.08289905638 -0.5714492798 0.8164395094
-0.14577664 -0.076042481 0.81166667 0.2713481188 -0.6005524993 0.7521348596
-0.13625751 -0.081706643 0.80116677 0.3036185205 -0.6394087076 0.7063797116
-0.29399055 -0.096957825 0.8224737 0.3040999174 -0.7440629601 0.5948895216
-0.18203413 -0.079191931 0.81750005 0.1448466182 -0.6809718013 0.7178418636
-0.14936821 -0.13027091 0.77800006 -0.6714748144 0.308667779 0.6736807227
-0.20483847 -0.09500698 0.80468631 0.03027480654 -0.4617909193 0.8864719868
-0.064957403 -0.13503069 0.87501985 0.07165022194 -0.4102404118 0.9091584086
-0.28483129 -0.11476392 0.80255127 0.1317548752 -0.2789816558 0.9512149692
-0.13505571 -0.14470267 0.79344195 -0.2126842886 0.3488104045 0.9127413034
-0.19464794 -0.1145399 0.80155122 0.1009209231 0.0957153216 0.9902795553
-0.26511395 -0.15428963 0.81267989 -0.1739487648 0.3853221536 0.9062387347
-0.17478016 -0.1726709 0.83470368 0.008266873658 0.677180469 0.7357705235
-0.25541481 -0.14454745 0.81291491 -0.1842048466 0.3106107414 0.9325178266
-0.18513702 -0.094521634 0.80589086 0.002572454279 -0.4933046997 0.8698527813
-0.22485034 -0.075218007 0.84370005 -0.02594640851 -0.9464957714 0.3216715157
-0.13687396 -0.092719309 0.79084206 0.2852087319 -0.6749160886 0.680546999
-0.18549418 -0.12511808 0.80628562 0.03625782952 0.3233373761 0.9455888867
-0.10753632 -0.14868459 0.83220005 0.1942434758 0.5744483471 0.7951594591
-0.29467502 -0.12466462 0.8009147 0.2181699723 -0.05851937458 0.9741547108
-0.24498753 -0.16623245 0.822487 -0.1551570147 0.4031778872 0.9018724561
-0.03474072 -0.064375833 0.85490328 -0.418115437 -0.7697663903 0.4823268354
-0.10474125 -0.115125 0.87242854 -0.1292915195 0.1521952003 0.9798573256
-0.20529629 -0.13467656 0.81300008 0.05680909008 0.4036000967 0.9131701589
-0.024764368 -0.12533595 0.80108869 0.08046384156 0.1984670013 0.9767990708
-0.27483374 -0.16440818 0.81563431 -0.09241827577 0.4735741019 0.8758918047
-0.03449532 -0.082787924 0.8015455 -0.3888245225 -0.7633005381 0.5159339309
-0.076114394 -0.068494074 0.81812513 -0.1531220526 -0.9223924279 0.354606539
-0.034993198 -0.095272407 0.79366672 -0.1610004604 -0.3248198628 0.9319714904
-0.16822593 -0.081813917 0.81557143 0.1828560829 -0.5323514938 0.8265382648
-0.19490065 -0.10483631 0.80259204 0.06875827909 -0.1538362354 0.9857011437
-0.27405456 -0.087181218 0.82700002 0.2281477451 -0.8544049859 0.4668412507
-0.095173471 -0.066516034 0.86526924 0.09318701923 0.2691783905 0.958571434
-0.30268818 -0.14326431 0.80790907 0.1785820723 0.2193810195 0.959156096
-0.23475268 -0.086230561 0.81542438 0.03938683495 -0.8404843211 0.540402472
-0.24540929 -0.1739796 0.82664299 -0.1627307236 0.410541296 0.8972037435
-0.13176768 -0.16328764 0.81100005 0.4194137752 -0.8558712006 -0.3026161194
-0.23557769 -0.14496456 0.81613016 -0.09792397916 0.3837864101 0.9182150364
-0.055537798 -0.075076155 0.81375015 -0.1107040644 -0.8746269941 0.4719875157
-0.10421961 -0.13427794 0.87493753 -0.1539756954 -0.1638028026 0.9744024277
-0.29420266 -0.16182208 0.81592315 0.05376433209 0.4408406913 0.8959736824
-0.026323145 -0.076748841 0.84590018 -0.6943466663 -0.5845144987 0.4197923243
-0.15833867 -0.10650701 0.79177785 0.5004171133 -0.4842401147 0.7177006602
-0.12322931 -0.14893295 0.83175004 -0.572953999 -0.08772166818 0.8148795366
-0.24484117 -0.082341604 0.82307988 0.07487639785 -0.9144414663 0.3977314234
-0.025633439 -0.087748788 0.80500007 -0.5044723153 -0.6464987993 0.572317183
-0.071457103 -0.059422221 0.85800004 0.3218056262 -0.7933017015 0.5168302655
-0.054687001 -0.06515979 0.84469235 -0.05233953521 -0.9285951257 0.3673848808
-0.24345823 -0.08017204 0.83900005 0.04400049895 -0.9464652538 0.3197928071
-0.17557423 -0.095262006 0.80500007 0.1133696735 -0.4923520982 0.8629813194
-0.13569456 -0.13420945 0.7873199 -0.5275710821 0.3246451914 0.7850313783
-0.25761726 -0.080458716 0.84200001 0.1565282643 -0.9309538603 0.3298845589
-0.044813443 -0.12542064 0.87649989 0.08031863719 -0.2415405959 0.9670610428
-0.25712949 -0.13338791 0.80839133 -0.1528657973 0.2409513295 0.9584228992
-0.034524377 -0.13483232 0.80291522 0.4555328488 0.2173284888 0.8632833362
-0.016214728 -0.066725634 0.86711115 -0.7047282457 -0.5016020536 0.5017504692
-0.17415607 -0.15323171 0.81857908 0.05925293639 0.5839465261 0.8096268177
-0.22457539 -0.081739888 0.83300012 -0.03355571628 -0.94140625 0.3356013894
-0.083251506 -0.095649391 0.87123102 -0.1529031396 0.2549842894 0.9547793865
-0.0092747584 -0.076710217 0.87128586 -0.7979089022 -0.3508079052 0.4901787341
-0.10574416 -0.13380457 0.81359279 0.2047318369 0.693364501 0.6908911467
-0.11610457 -0.088460922 0.78833342 0.007454025559 -0.366111666 0.9305410981
-0.18516277 -0.14478 0.81366682 0.07592464983 0.4661056995 0.8814651966
-0.24531728 -0.15518603 0.81680006 -0.163340196 0.351485312 0.9218340516
-0.084248357 -0.15437521 0.8239544 -0.160525322 -0.7647559643 0.6240031719
-0.024937302 -0.10572515 0.79722744 -0.1102847978 -0.02805615589 0.9935039878
-0.28469959 -0.10528495 0.8064999 0.1731445938 -0.5184929371 0.8373685479
-0.11021015 -0.14897372 0.86700004 -0.4915023148 -0.6395784616 0.59107095
-0.0039196932 -0.095243461 0.87100023 -0.9087842703 -0.1268121004 0.3975296617
-0.11703237 -0.14024737 0.81900007 0.08804119378 0.6499012113 0.7549021244
-0.14446051 -0.15457675 0.79624391 0.145435214 0.5155540109 0.8444244862
-0.15679534 -0.096788675 0.80200005 0.3907062411 -0.4952875376 0.7759116292
-0.26513395 -0.10530313 0.80500013 0.03946755826 -0.3581407368 0.9328330755
-0.14593606 -0.084162153 0.80285364 0.3317968845 -0.5833681226 0.741345048
-0.22503157 -0.17328991 0.82837516 -0.1402864158 0.45055902 0.881655395
-0.16504648 -0.15850911 0.82260007 0.2980407178 0.6207762361 0.7251266241
-0.06564749 -0.096231833 0.87500006 -0.08295655996 0.2103443891 0.9741013646
-0.13444835 -0.11618946 0.80430543 -0.04880743474 0.5223897099 0.8513088822
-0.25677001 -0.16251208 0.81747073 -0.1634324342 0.3980110586 0.9027053714
-0.075363964 -0.14135265 0.87275016 0.03807498515 -0.4301371872 0.9019602537
-0.28486374 -0.14458174 0.80538458 0.02248862199 0.314247787 0.949074626
-0.20439464 -0.084083885 0.81319058 0.1262083799 -0.8240407705 0.5522936583
-0.055833075 -0.14197274 0.86735708 0.09059346467 -0.4398803413 0.8934752941
-0.094791062 -0.14274338 0.87361526 -0.0416235365 -0.3227369487 0.9455730319
-0.19542584 -0.095192917 0.8064422 0.01044618525 -0.4453605711 0.8952903748
-0.095106684 -0.074686386 0.80447376 -0.1656518281 -0.6588516235 0.7338078618
-0.027157631 -0.06816408 0.85714281 -0.6006838679 -0.6525097489 0.4619631767
-0.12382565 -0.079052538 0.79800004 0.1174211204 -0.6765065789 0.7270151973
-0.28381637 -0.097852208 0.81625021 0.2572158277 -0.7169860601 0.6478973627
-0.10280541 -0.10739244 0.87170607 -0.1483745426 0.2097328305 0.9664352536
-0.085058048 -0.13450198 0.87544662 -0.02762580663 -0.3513414264 0.9358397126
-0.25394991 -0.083823241 0.8232857 0.1470629722 -0.8769145608 0.4575951397
-0.11497667 -0.074311644 0.80439126 0.05297137797 -0.721064806 0.6908397079
-0.075129576 -0.16314578 0.8257857 0.06709972769 -0.7201684713 0.6905468702
-0.29315242 -0.10823614 0.80771434 0.2404065132 -0.433732152 0.8683784604
-0.064124167 -0.14577419 0.82729274 0.2019573599 -0.0003845671017 0.9793942571
-0.13634823 -0.16486049 0.80471408 0.04641346261 0.5781986713 0.8145747781
-0.035524152 -0.14218587 0.80605274 0.4907517135 0.1489221603 0.8584783077
-0.21520057 -0.077206388 0.84508699 0.005610763095 -0.9579378963 0.2869207263
-0.034346573 -0.078407839 0.82660007 -0.4683869779 -0.8472723961 0.2504858375
-0.19540602 -0.14517993 0.81486666 0.08840955049 0.4675007463 0.8795605898
-0.051439118 -0.079211913 0.80820006 -0.07234813273 -0.8268976808 0.5576791167
-0.035318423 -0.056243025 0.86375016 -0.3594402075 -0.8057522178 0.470708102
-0.022880998 -0.11782401 0.80000013 0.003825695952 0.1725120991 0.9849999547
-0.064755023 -0.15474817 0.8254084 0.203861177 -0.2937549055 0.9338890314
-0.045529835 -0.13388444 0.87241191 0.06334595382 -0.3007453382 0.9515984058
-0.23511064 -0.16506352 0.82348001 -0.1581626385 0.4164512157 0.8952949047
-0.074775726 -0.074903809 0.81272751 -0.1794830114 -0.7168095112 0.6737729311
-0.21445099 -0.094751142 0.80535305 0.07980908453 -0.4256094396 0.9013806581
-0.086261198 -0.063203335 0.8621875 0.1710398197 0.3110290468 0.9348830581
-0.22441033 -0.08415468 0.82464713 -0.01338544115 -0.928358078 0.3714460135
-0.13476157 -0.086206935 0.79490483 0.3557170033 -0.4311142564 0.8292200565
-0.020968813 -0.071354702 0.86040002 -0.6849266291 -0.5218811035 0.5084442496
-0.19514318 -0.084872343 0.81421745 0.1284655929 -0.7958621383 0.5916925073
-0.025151588 -0.13366297 0.80220586 0.1770246774 0.2372289896 0.9551882744
-0.12157701 -0.071808644 0.81100005 0.09939453751 -0.7455349565 0.6590131521
-0.1173254 -0.14848387 0.79425007 -0.5991317034 -0.09910865128 0.7944927216
-0.07468123 -0.063566081 0.85243326 0.3141500056 -0.916033268 0.2493847907
-0.22042292 -0.15005991 0.81900007 -0.03362965584 0.4622767568 0.8860977888
-0.2357218 -0.15326399 0.81865525 -0.1484650522 0.3884377778 0.9094362259
-0.30205923 -0.10676579 0.81484634 0.4279352427 -0.5248498917 0.7358016372
-0.095264316 -0.095075108 0.86845827 -0.1377970278 0.2128037959 0.9673295617
-0.31211877 -0.13508557 0.81100005 0.2296611071 0.08685902506 0.9693870544
-0.014990936 -0.095197424 0.85507143 -0.8885036111 -0.1536299884 0.4323877096
-0.10527324 -0.078483932 0.79769236 -0.08298663795 -0.652253449 0.7534445524
-0.29251397 -0.1519687 0.80877781 0.07308151573 0.3529023826 0.9328017235
-0.015227271 -0.10556957 0.80297554 -0.06621611863 0.01102622971 0.9977443814
-0.12515102 -0.14515716 0.79290909 -0.4542367756 -0.06000951305 0.8888576031
-0.017069286 -0.10168866 0.84666675 -0.879001677 -0.2036098391 0.431160152
-0.064822868 -0.074850775 0.81526095 -0.1625810266 -0.8216818571 0.5462658405
-0.20716073 -0.08194796 0.83650011 0.04840197414 -0.9517655373 0.3029845059
-0.11506525 -0.14415601 0.82513785 0.1798669696 0.624753654 0.7598228455
-0.018138295 -0.12385241 0.80464298 0.1013045013 0.149122104 0.983615756
-0.21517825 -0.14462309 0.81597584 -0.003355029738 0.4380644858 0.8989372849
-0.11391058 -0.12481934 0.87348467 -0.1977926791 -0.02967594191 0.9797945619
-0.14679919 -0.10591216 0.78081822 0.4267453551 -0.7509149909 0.5039990544
-0.027645005 -0.095344193 0.79607689 -0.1720163524 -0.272785604 0.9465718865
-0.048981708 -0.091166906 0.80200005 0.05707548931 -0.5151669979 0.8551872969
-0.12459173 -0.11439944 0.80152953 -0.4166138172 0.5385180712 0.7324146628
-0.15865299 -0.1520994 0.81300002 0.6336517334 0.4877911508 0.6004542112
-0.21826982 -0.090294033 0.81100005 0.1071740836 -0.687740624 0.7180017829
-0.13470101 -0.13512379 0.81347048 -0.651036799 -0.4189515412 0.6329539418
-0.10378301 -0.06879466 0.80900002 -0.1261088401 -0.7100167871 0.6928006411
-0.11532828 -0.1252405 0.80708128 -0.4280995727 0.2233446091 0.8756985664
-0.093912676 -0.08151263 0.80218184 -0.1656518281 -0.6588516235 0.7338078618
-0.011309 -0.10291189 0.86000001 -0.9068096876 -0.102051422 0.4090008438
-0.17509 -0.083832353 0.81427783 0.1124708951 -0.5756390095 0.8099321127
-0.15247245 -0.11329371 0.78392851 0.7839184403 -0.4234207571 0.4540778995
-0.038737267 -0.059046131 0.85800004 -0.29006809 -0.8315709233 0.4736563265
-0.16817991 -0.14824522 0.81220007 0.5169999003 0.5072414875 0.6895050406
-0.02014317 -0.081318721 0.85100001 -0.7633780837 -0.4088377357 0.5001055598
-0.08204022 -0.059249077 0.86650002 0.05724814907 0.3545152247 0.9332960844
-0.27739489 -0.086010203 0.83325005 0.2300207615 -0.8783294559 0.4190796614
-0.14094667 -0.12599979 0.8120001 -0.06288388371 -0.4002046585 0.9142657518
-0.29553106 -0.10422721 0.8131429 0.3201023936 -0.6031197309 0.7306032181
-0.045189042 -0.11533556 0.87791449 0.06382780522 -0.1640838236 0.9843792319
-0.045152664 -0.075100571 0.81349993 -0.2586608231 -0.8906922936 0.3738473058
-0.14304301 -0.095004901 0.79356515 0.3319073021 -0.5987394452 0.7289366126
-0.17316021 -0.1422004 0.80823082 0.1573322713 0.4029246271 0.9016087055
-0.1844012 -0.15236837 0.81811124 0.03899900615 0.5648664236 0.8242602944
-0.055083442 -0.14539813 0.8259303 0.3632829487 0.08660433441 0.927644968
-0.13731115 -0.12097006 0.7766667 -0.7029570937 0.2532120943 0.6646314859
-0.10541139 -0.083953999 0.79319173 -0.09022597969 -0.6029142141 0.7926876545
-0.25445884 -0.16715872 0.82225907 -0.1551390737 0.4141171277 0.8969051838
-0.13781726 -0.16020381 0.79800004 -0.06933481246 0.5360010266 0.8413652778
-0.024441557 -0.064466938 0.863069 -0.6198354959 -0.6153554916 0.4869718552
-0.017769156 -0.094679937 0.84730774 -0.8414089084 -0.3158605397 0.4384782016
-0.097787969 -0.16308738 0.80766678 -0.4052225649 -0.7470206022 0.5270245671
-0.055483323 -0.10490886 0.87685305 -0.01660724543 -0.002447823063 0.9998590946
-0.064284138 -0.082686953 0.81309092 -0.09742063284 -0.8204869032 0.5633031726
-0.035449721 -0.087092586 0.7955001 -0.03550925106 -0.3437018394 0.9384072423
-0.055456076 -0.15357584 0.82491994 0.3412151039 -0.162524581 0.9258282781
-0.11651841 -0.094620228 0.78502291 -0.4180681109 0.1918151677 0.8879335523
-0.12479076 -0.094683781 0.78442317 -0.2595128119 -0.291824311 0.9205930829
-0.13306935 -0.15651233 0.80208343 -0.07134639472 0.5342279077 0.8423243165
-0.11562527 -0.10490628 0.80157143 -0.2007423788 0.3758796751 0.9046640396
-0.16362762 -0.10624123 0.79626673 0.44773525 -0.2080086619 0.8696352839
-0.08773838 -0.15767059 0.81900012 -0.1558859944 -0.7874701619 0.5963139534
-0.14500204 -0.1454522 0.79292005 0.1786765754 0.4507958293 0.8745614886
-0.018782582 -0.078134671 0.85700005 -0.7577080131 -0.4427035153 0.4794707298
-0.12473953 -0.14155048 0.81842864 -0.6733410358 0.1312648207 0.7275859714
-0.044602919 -0.0792915 0.80757147 -0.2546555996 -0.8683517575 0.4255769849
-0.10843332 -0.14439034 0.82679999 0.2305727452 0.6022179127 0.7643100023
-0.14252892 -0.10476353 0.77493328 0.3517898321 -0.7355303764 0.578998208
-0.15338044 -0.084321387 0.80599993 0.30032897 -0.5431962609 0.7840538025
-0.11182827 -0.098515205 0.86775005 -0.1176063344 0.200940311 0.9725182652
-0.11441202 -0.083904922 0.79304361 0.007786556147 -0.6169601679 0.7869558334
-0.15454367 -0.12369291 0.76611131 -0.7085958719 0.3699764907 0.6008404493
-0.26557019 -0.093507506 0.81292868 0.1686905622 -0.702150166 0.6917576194
-0.045406561 -0.13596632 0.81344444 0.4572345018 0.2303009182 0.8590099216
-0.18511346 -0.084085971 0.81405568 0.08422295749 -0.666575253 0.7406644821
-0.12556529 -0.10234497 0.78405261 -0.7374487519 0.2837029397 0.6129290462
-0.0795312 -0.15073057 0.86400002 0.1554169804 -0.8697366714 0.468405515
-0.26450723 -0.16848159 0.82153332 -0.1356704533 0.4420592189 0.8866662979
-0.2404267 -0.13191554 0.80900002 -0.05221754685 0.3292323351 0.9428040385
-0.30528557 -0.12522076 0.80631703 0.2715818882 -0.05269716308 0.9609715343
-0.12491459 -0.083965391 0.79357433 0.1657113731 -0.6029498577 0.7803788781
-0.049254641 -0.1450268 0.82140005 0.4412832558 0.1536544412 0.8841150403
-0.10894074 -0.1112262 0.86900002 -0.1084045246 0.1581407636 0.9814478755
-0.099798858 -0.10208432 0.86900002 -0.1351124644 0.1952205747 0.9714080095
-0.095454045 -0.15531771 0.81741673 -0.2979215086 -0.7599358559 0.5777025819
-0.15992767 -0.16869083 0.83300006 0.3061234653 0.7138559818 0.6298397183
-0.00077146664 -0.1087768 0.88000005 -0.6936038733 0.3359140158 0.6372404695
-0.29568702 -0.15594921 0.81300008 0.06274563819 0.379745394 0.9229606986
-0.21542256 -0.1557769 0.82272983 -0.01383983251 0.4860232472 0.8738362789
-0.20922089 -0.13120632 0.80900002 0.03802841157 0.3842148185 0.9224601984
-0.005533041 -0.11352275 0.79800016 -0.03057419322 0.02756196074 0.999152422
-0.15155141 -0.16347817 0.80033332 0.4785879552 0.6607869267 0.5781990886
-0.13191554 -0.13120632 0.80900002 -0.8006834388 -0.09437218308 0.5916078687
-0.22513235 -0.12531373 0.80757111 -0.001930424129 0.3361585736 0.9418034554
-0.13521546 -0.076339185 0.80671418 0.2696406245 -0.6648670435 0.6965958476
-0.14868881 -0.12554364 0.7735334 -0.6278603673 0.3839489222 0.6770336628
-0.023255508 -0.094270326 0.80213338 -0.1645949781 -0.2564033568 0.9524525404
-0.19508496 -0.1573216 0.82211995 0.01501896884 0.5755827427 0.8176056147
-0.27666515 -0.091627374 0.82299995 0.2439638227 -0.8452342153 0.475458473
-0.18543309 -0.16295137 0.82733339 0.01003855374 0.6413134933 0.767213285
-0.20525874 -0.17329529 0.83499998 -0.07953950018 0.5513872504 0.8304490447
-0.1674113 -0.13498947 0.81207693 0.3499576151 0.3295873106 0.876870513
-0.064642765 -0.05879119 0.85540009 0.1030725315 -0.8710067272 0.4803367257
-0.031659212 -0.11819234 0.80250001 0.06309528649 0.1943043023 0.9789100289
-0.13352354 -0.096612334 0.78688884 0.176141426 -0.8308451176 0.52789253
-0.1752249 -0.16696383 0.83166677 0.01808545366 0.6692048311 0.7428578734
-0.032042168 -0.061445564 0.86000001 -0.4867223203 -0.7266261578 0.4848874509
-0.20500824 -0.16309461 0.82719994 -0.01419190783 0.5316374898 0.8468530774
-0.03793785 -0.12472733 0.8747648 -0.01133207791 -0.2661113739 0.9638756514
-0.20407905 -0.15271236 0.81833351 0.04975548014 0.5156117082 0.855376482
-0.083777584 -0.065559253 0.85442102 0.683149755 -0.673158586 0.2831323445
-0.06170769 -0.13941367 0.86900002 0.06142547727 -0.4330253303 0.8992863894
-0.033219624 -0.072171308 0.84415799 -0.5065310597 -0.7388396859 0.444457233
-0.044206694 -0.14496869 0.81552953 0.4414159358 0.1759512424 0.8798824549
-0.28429154 -0.15708177 0.81204355 -0.04999027774 0.4341332018 0.8994605541
-0.045369968 -0.065948017 0.84412509 -0.2618210316 -0.8454384208 0.4654928744
-0.15777306 -0.11282396 0.79218179 0.7081413269 -0.2332327366 0.6664370298
-0.040425729 -0.12907864 0.80900002 0.4555328488 0.2173284888 0.8632833362
-0.15196183 -0.1387759 0.79149997 0.4497847855 0.4704743028 0.7591755986
-0.26304913 -0.089197032 0.81833345 0.1687635779 -0.837631464 0.5195116401
-0.057859998 -0.11957733 0.88000005 0.06382780522 -0.1640838236 0.9843792319
-0.11389039 -0.14902078 0.83099997 0.08831512183 -0.1582664102 0.9834389687
-0.14525498 -0.13407187 0.78663635 0.08148905635 0.5926985145 0.8012914658
-0.27599883 -0.099083997 0.80814284 0.165010646 -0.5803410411 0.7974808812
-0.095440686 -0.15207019 0.86130011 -0.04684879258 -0.9163887501 0.3975385129
-0.16501409 -0.11446373 0.801 0.2447305769 0.306599319 0.9198390245
-0.14611852 -0.11514985 0.78036618 -0.8460162878 0.2670673728 0.4614450037
-0.22479829 -0.13597238 0.81252968 -0.02837313339 0.4078034759 0.9126287699
-0.15797918 -0.13877599 0.8052001 0.5153926015 -0.185094282 0.8367261291
-0.14470315 -0.12475275 0.78228599 -0.4007281065 0.4347971976 0.8064541817
-0.25322407 -0.13597338 0.81235713 -0.1435296983 0.2823444009 0.9485150576
-0.14611112 -0.090939552 0.80000001 0.3122176826 -0.5165393949 0.7973124981
-0.093147762 -0.14855064 0.81860006 -0.3583365679 -0.4843381643 0.7981299758
-0.059234176 -0.067850053 0.81900007 -0.1418085843 -0.9028220177 0.4059589803
-0.275509 -0.15131561 0.80827278 -0.1294413954 0.3815576434 0.9152369499
-0.03659505 -0.078975573 0.80580008 -0.3516002297 -0.7860996127 0.5083549023
-0.25786379 -0.092449233 0.81119996 0.1260698736 -0.6400209665 0.7579442859
-0.26867884 -0.14276657 0.80780011 -0.1899416596 0.291876018 0.9374063015
