# .PCD v0.7 - Point Cloud Data file format
VERSION 0.7
FIELDS x y z normal_x normal_y normal_z
SIZE 4 4 4 4 4 4
TYPE F F F F F F
COUNT 1 1 1 1 1 1
WIDTH 512
HEIGHT 1
VIEWPOINT 0 0 0 1 0 0 0
POINTS 512
DATA ascii
0.026694806 -0.084953956 0.98588246 -0.7847133875 -0.155468151 0.6000454426
-0.27418903 -0.066028401 0.93511546 0.3564327955 0.03665759042 0.9336015582
-0.10964207 -0.059875455 0.88700002 0.1358888447 0.9104239345 0.390720427
-0.1548018 -0.13502157 0.98100007 0.1562947184 0.7064076662 0.6903333664
-0.074032143 -0.045001261 0.9872309 0.2678866088 0.4928728342 0.8278363943
-0.17529161 -0.024845785 0.96410006 -0.2508501112 -0.8802561164 0.402769655
-0.053468604 -0.14471945 0.96200001 -0.04649046436 -0.6317737699 0.7737573981
-0.0050969394 -0.092147298 0.91800016 -0.2934081256 -0.2731789649 0.9161249399
-0.22436826 -0.11407331 0.96336687 -0.07316680998 0.503063798 0.8611465693
-0.082290359 -0.12597933 1.024 0.1772838235 -0.3913399875 0.9030079842
-0.15481113 -0.084857136 0.93435311 0.2228829116 0.4415274262 0.8691241145
-0.09415926 -0.1166931 0.91800004 -0.5904937983 0.1389897764 0.7949836254
-0.055535667 -0.055482909 0.92624223 -0.3082120121 -0.6268112063 0.7156207561
-0.024792135 -0.11067916 1.01 0.04741665348 -0.4854981601 0.8729508519
-0.23481581 -0.024883179 0.9538573 0.07444865257 -0.763214469 0.641841948
-0.01498033 -0.043821879 0.97368944 -0.2094633877 -0.7793776393 0.5905044675
-0.11619623 -0.04500683 0.9412275 0.05844465643 -0.6422970295 0.7642242908
-0.2048092 -0.065581918 0.93215638 0.09924995154 0.3136586249 0.9443345666
-0.00740082 -0.14102674 0.93800002 0.6739297509 -0.3256118 0.6631708741
-0.093622938 -0.12185453 0.96600002 0.7421898842 0.6699956059 0.01612802595
0.030101227 -0.11796427 0.92800003 0.1445424557 0.1714578867 0.9745304585
-0.13144477 -0.13640495 0.94300002 0.6381357312 0.5091551542 0.5775325298
-0.065640241 -0.08635027 1.001 0.04105183482 0.332862854 0.9420812726
-0.18243696 -0.11069524 0.95900005 0.1174499989 0.6035943627 0.7885932922
-0.13077477 -0.093971871 0.89325005 0.8995960951 -0.196552217 0.3899924755
0.0077340631 -0.072503731 0.95337504 -0.6787398458 -0.636382401 0.366510123
-0.13932425 -0.036754251 0.97500002 -0.1480563581 -0.9402182698 0.3067066073
-0.23929317 -0.083875962 0.93800002 -0.2540534139 0.4666170776 0.8471867442
-0.15535852 -0.046098407 0.93482852 -0.08641853184 -0.639318347 0.7640705705
-0.084488913 -0.074751049 0.91154546 -0.3737092018 -0.1931973994 0.9072024226
0.021598876 -0.048382796 0.98550004 -0.5542165637 -0.5364661813 0.6364338398
-0.054803677 -0.12178802 0.99229991 0.1181048378 -0.8529993892 0.5083732009
-0.24162336 -0.047999252 0.92800003 0.007734688465 -0.3580620289 0.9336657524
-0.023925286 -0.060233664 0.94120008 -0.3020712435 -0.7799192071 0.5481596589
-0.027292166 -0.1253583 0.97275007 0.269331485 -0.9171664119 0.2937113345
-0.12502161 -0.074606508 0.92264879 0.4146840274 -0.3410958946 0.8436176181
-0.18790698 -0.037627283 0.93600005 -0.1053283066 -0.6948424578 0.7114070058
-0.26559845 -0.035183389 0.95228583 0.249043256 -0.609644413 0.7525364757
-0.076185368 -0.10619643 0.94358629 -0.1683726758 0.5903747082 0.7893721461
-0.084599793 -0.14210112 0.94299996 -0.7075470686 -0.2612710595 0.6565932035
-0.044930045 -0.050016463 0.96700007 0.1275169104 -0.9102195501 0.394004792
-0.10630461 -0.099712066 0.94000006 0.02609283477 -0.4959091544 0.8679823279
-0.08460629 -0.048801873 0.93138474 0.09283690155 -0.6523433328 0.7522163987
-0.036480725 -0.079354994 1.001 -0.06616427004 0.3580598831 0.9313513637
-0.20361462 -0.090920165 0.94800007 0.09374846518 0.5729486942 0.814211905
-0.20537426 -0.023545582 0.95528007 -0.07902624458 -0.8406326771 0.5358092785
-0.15042548 -0.11053364 0.94800007 0.2583073378 0.6408384442 0.722913146
-0.10600654 -0.09250696 0.90575004 -0.2468342781 0.2711705565 0.9303436875
-0.17771365 -0.066207863 0.93027288 0.1333025694 0.2514209747 0.9586542249
-0.2509467 -0.10421374 0.95100003 -0.1465238333 0.6091541052 0.7793985605
-0.0019106463 -0.11608557 0.93322223 0.5046097636 0.1534368992 0.8496034741
-0.21575864 -0.037929066 0.93650007 0.01035302784 -0.5679117441 0.8230243325
-0.0075597889 -0.12211967 0.99500006 -0.03454133123 -0.6851473451 0.7275850773
-0.12117725 -0.10825299 0.92150003 0.3964116275 0.6955161095 0.5992622375
-0.081438199 -0.10246041 1.0112858 0.184275195 0.01916399971 0.9826878309
-0.1284481 -0.088798225 0.94225007 0.08759206533 0.4431663752 0.8921497464
-0.026277596 -0.14213865 0.95311123 0.4993979335 -0.5798492432 0.6437208652
0.01181922 -0.087400161 0.93428576 -0.7147791982 -0.4394997656 0.5439950824
-0.15548734 -0.036213931 0.95700002 -0.1795889437 -0.9243767262 0.3365642428
-0.078101359 -0.13075395 1.001 0.07484509796 -0.8586404324 0.5070846081
-0.13533068 -0.13160238 0.96600008 0.5805765986 0.5474989414 0.6026406288
-0.26555547 -0.087557077 0.9400003 0.1069792658 0.5191745162 0.847946465
-0.054404959 -0.10644876 1.0100001 0.02303251438 -0.1390993446 0.9900105596
-0.034037147 -0.036378469 0.98478585 0.0929762125 -0.8640781045 0.4946963787
-0.013396343 -0.11972198 0.95500004 0.6745851636 -0.4177820086 0.6085993052
-0.1041061 -0.13129175 0.93666673 0.07110139728 0.4671544433 0.8813122511
-0.084179729 -0.088460058 0.93000019 0.05361418054 0.69174999 0.720144093
-0.1048203 -0.057893526 0.92687517 0.1362753063 -0.5673923492 0.8120929599
-0.13515164 -0.054186102 0.93000025 -0.006351726595 -0.485943228 0.8739672899
-0.12827678 -0.11286352 0.94199997 0.717926085 0.2848738134 0.635160625
-0.072988637 -0.12947987 0.95700002 -0.4815788567 -0.6574786305 0.5794857144
-0.039863788 -0.070778556 0.92800003 -0.382671982 -0.5826161504 0.7170220017
-0.17497258 -0.094589084 0.94664848 0.1447206736 0.5471717119 0.8244143724
-0.22463474 -0.095847271 0.95182782 -0.1361310035 0.5670208335 0.8123766184
0.0026004855 -0.038989753 0.9883334 -0.3487013578 -0.6864667535 0.6380993724
-0.20425127 -0.12124147 0.96375006 0.02721626684 0.5381171107 0.8424305916
-0.1659828 -0.12223127 0.96600002 0.116391696 0.7187063098 0.6855029464
-0.25127548 -0.068322137 0.93000013 -0.04856333509 0.2154628634 0.9753037095
-0.0051281778 -0.075015932 0.93356687 -0.3770994842 -0.7053679228 0.600210011
0.015006447 -0.065097906 0.97486222 -0.6844308972 -0.3805142939 0.6219028831
-0.0070785829 -0.058917385 0.95814288 -0.4339322746 -0.7671480179 0.4724264443
-0.22513174 -0.065271221 0.93492109 -0.08857027441 0.3148296177 0.9450066686
-0.15366054 -0.065768994 0.92703563 0.04610726982 -0.01289369632 0.9988532662
-0.18871127 -0.079934463 0.94000006 0.1181451976 0.4852853119 0.8663370609
-0.062918074 -0.12897898 0.97433335 -0.03224683926 -0.9417076707 0.3348831832
-0.072793573 -0.1481238 0.96550006 -0.1838485748 -0.8813316226 0.4352634251
-0.26362312 -0.047007572 0.93640006 0.2938567102 -0.4738393426 0.8301352262
-0.035449948 -0.12276383 0.99600005 0.007644940633 -0.8129757047 0.5822473764
-0.044259571 -0.051861316 0.94200003 -0.4065773189 -0.8070734739 0.4281674027
-0.13662288 -0.038367566 0.95442867 -0.09772752225 -0.9205134511 0.3782912791
0.015955132 -0.084327444 0.96561539 -0.8604797721 -0.2487044632 0.444657892
-0.09518189 -0.11363748 0.94616657 -0.8898988962 0.1555813104 0.4288058579
-0.055770595 -0.042664513 0.98325014 0.2607718706 -0.8894538879 -0.375326246
-0.06704209 -0.066104941 0.9158752 -0.1512524784 -0.34401685 0.9267011881
0.030290585 -0.064905599 0.98719996 -0.7397903204 -0.2865335047 0.6087764502
0.01971974 -0.10031346 0.97800004 -0.6789469719 0.5970205665 0.4273142517
-0.24541324 -0.033768464 0.94150025 0.1295709014 -0.6788681149 0.7227374911
-0.10686409 -0.07767985 0.89499998 -0.2659445405 0.6679614782 0.6950546503
0.015124852 -0.10513775 0.93140012 -0.4068787396 -0.1105814278 0.9067642689
-0.18691331 -0.12375931 0.97090006 0.05131454393 0.6252474785 0.7787377238
-0.10216169 -0.076203063 0.91505885 0.08830384165 -0.7509041429 0.6544809937
-0.044930041 -0.12970372 0.96700013 0.08713495731 -0.8355099559 0.5425224304
-0.0079688998 -0.10536657 1.01 -0.006976304576 -0.4351568818 0.9003276229
-0.024902098 -0.094326027 1.0048999 -0.02287979051 0.1064193025 0.9940580726
-0.1152764 -0.14098553 0.94600004 0.4461413026 0.5264353156 0.7237567306
-0.12019801 -0.083581403 0.90800005 0.601103127 -0.4843236804 0.6356930137
-0.17762434 -0.049626347 0.92800003 -0.05420179665 -0.3416226804 0.938272953
-0.18508361 -0.030847268 0.95100003 -0.1916956007 -0.8328529 0.5192387104
0.014140853 -0.12184856 0.93075019 0.3009496927 0.1869844496 0.9351289272
-0.12152178 -0.10245954 0.90600002 0.9337025285 -0.09738232195 0.3445522487
-0.023740634 -0.051941749 0.9622857 -0.1979423612 -0.8511610031 0.4861520231
-0.088336438 -0.128415 0.93300003 -0.5990876555 0.1231497303 0.7911562324
-0.2403557 -0.11047929 0.96200007 -0.1569254398 0.5890969634 0.7926784754
-0.085548297 -0.061174683 0.92060006 0.1125411913 -0.5360797644 0.8366318941
-0.20504059 -0.10451604 0.95691657 0.05784060061 0.5282323956 0.8471274972
-0.16498967 -0.03724416 0.94416672 -0.1765730083 -0.8283004165 0.5317333937
-0.1724117 -0.081409022 0.93800002 0.1430076212 0.4693714082 0.8713433743
-0.044902075 -0.095091589 1.0042998 -0.03497588634 0.2729777992 0.9613842964
-0.023810426 -0.07440643 0.93418533 -0.3328257799 -0.6575442553 0.6759160757
-0.14660896 -0.09701512 0.94000018 0.1718390137 0.4604940116 0.8708711863
-0.13433464 -0.11854411 0.95514292 0.608129859 0.5363276005 0.5852613449
-0.1647846 -0.10711445 0.95276207 0.198611185 0.6050339937 0.771030128
-0.10521928 -0.11718018 0.93040013 -0.3616267741 0.06709670275 0.9299054146
0.00081529998 -0.1312633 0.93000007 0.4091491997 0.08255589753 0.9087252021
-0.21554615 -0.074905999 0.94122261 0.01380550675 0.482953608 0.8755370975
-0.037830941 -0.14372614 0.96250004 0.231427744 -0.6947061419 0.6810467243
-0.10885727 -0.10459062 0.91377777 -0.4655330479 0.5672934651 0.6793063283
-0.069949232 -0.1115646 1.01 0.0865278095 -0.240737319 0.9667256474
-0.12338263 -0.12528589 0.93599993 0.5135723352 0.4821313918 0.7097836137
0.0055952827 -0.054058034 0.97387099 -0.4409298301 -0.6172719002 0.6515798569
-0.10676559 -0.10801614 0.95266682 -0.1613731682 0.85206002 0.4979481995
-0.0058007776 -0.06714239 0.94557154 -0.4610863924 -0.7229992747 0.5144622326
-0.044812299 -0.11560337 1.0039999 -0.01041895244 -0.6396960616 0.7685573697
-0.15229279 -0.031536918 0.97233337 -0.1961927414 -0.9243162274 0.3273346424
-0.015669582 -0.035487764 0.98519045 -0.1586070806 -0.7977054715 0.581815958
-0.21464054 -0.05549942 0.93093765 -0.03159176558 -0.003290247871 0.9994954467
-0.024658807 -0.12388667 0.98708344 0.05076191202 -0.9538938403 0.2958204448
-0.093754493 -0.13164504 0.97600001 -0.446590662 -0.8803209066 0.1599746197
-0.055096049 -0.077836424 0.99760002 -0.0001091737286 0.363212496 0.9317063093
-0.14502171 -0.041451056 0.94300014 -0.009904167615 -0.8072857261 0.5900776386
-0.080095775 -0.090657853 1.0040001 0.1321837306 0.1634986848 0.9776480198
-0.068356328 -0.13065577 0.98700005 0.1330454499 -0.9532824755 0.2712037265
-0.20484756 -0.044869091 0.93147629 0.0511212647 -0.3928984106 0.9181598425
-0.25418499 -0.027432278 0.95242876 0.1653096974 -0.6846945882 0.7098351717
-0.19559203 -0.055519894 0.93017167 0.09405197203 -0.0567256473 0.9939498901
0.0053998274 -0.063918814 0.96426934 -0.5971116424 -0.5874451995 0.5462287068
-0.14397638 -0.081087291 0.92680007 0.1074348167 0.3787784278 0.9192304611
-0.25080556 -0.09127678 0.93800002 -0.07462098449 0.5286249518 0.845569253
-0.034628071 -0.051689584 0.95410013 -0.2144907862 -0.9086147547 0.3583475053
-0.0078542763 -0.12317452 0.94300008 0.7342225909 -0.2294526696 0.6389590502
-0.066039294 -0.048102695 0.93000007 -0.117890723 -0.661986053 0.7401866317
-0.22512494 -0.084589757 0.94474363 -0.1622258574 0.4921529293 0.8552591801
-0.011291662 -0.084997706 0.92733341 -0.2749890089 -0.5383629799 0.7965841889
-0.26477841 -0.075170822 0.93325007 0.1467524469 0.3237252533 0.9347008467
-0.16677706 -0.057170141 0.92800009 0.02075449564 -0.18641451 0.9822519422
-0.01917533 -0.13089247 0.95100003 0.612377882 -0.4917636812 0.6190006733
-0.14695837 -0.12739204 0.97037506 0.1942384094 0.7117794752 0.6750121713
-0.18663193 -0.098735087 0.95100009 0.1489644349 0.5721741319 0.8064901829
-0.08515282 -0.11787791 0.95700008 0.5069791079 0.6724020839 0.5393028855
-0.205346 -0.032190736 0.94158846 -0.04041192308 -0.7572456598 0.6518787742
-0.19494788 -0.021801239 0.96266669 -0.1572443843 -0.8516014218 0.5000492334
-0.09487544 -0.094878942 0.93294472 -0.5541439056 0.6234872937 0.5515325069
-0.10478432 -0.046758249 0.93577254 0.09378262609 -0.6153774858 0.7826336026
-0.045000974 -0.12603892 0.98536378 0.07088565826 -0.9412866831 0.3300827444
0.003717701 -0.085317902 0.92389661 -0.5039306283 -0.4244765639 0.7522456646
-0.035087354 -0.04328208 0.97431993 0.1064373702 -0.8769233227 0.4686966538
-0.069325924 -0.12022343 1.001 0.1719926 -0.5499541759 0.8172937036
-0.065218434 -0.14410989 0.95643467 -0.2497578561 -0.7197065353 0.6477989554
-0.0016244636 -0.10559406 0.92650008 0.004565018695 0.2830334008 0.9590991735
-0.085388213 -0.13103683 0.96433336 -0.5243930221 -0.7297810912 0.4386701584
-0.036015477 -0.058001455 0.93499994 -0.4110230207 -0.7155923247 0.5647899508
0.021423541 -0.075409554 0.97750014 -0.8042933941 -0.1627061367 0.5715233088
-0.22483373 -0.044877939 0.93165118 -0.03870017454 -0.4154929221 0.9087727666
-0.12697642 -0.03900582 0.94666672 -0.03194061667 -0.8487218022 0.5278741717
-0.13472833 -0.072357863 0.93000019 0.142889455 0.1106987894 0.9835285544
-0.085724749 -0.10246194 0.93687499 -0.5992023945 0.5581572652 0.5739485621
-0.23513924 -0.092862844 0.94635725 -0.2599236965 0.5451372862 0.7970351577
-0.014581177 -0.11369018 1.0039998 0.02893741429 -0.5858842134 0.8098779321
-0.25528482 -0.053186327 0.93000025 0.178951174 -0.3059824705 0.9350674748
-0.074598849 -0.055132322 0.92491651 -0.004384357017 -0.5583665967 0.8295827508
-0.22503513 -0.033154439 0.94275987 0.01454446372 -0.7102195621 0.7038299441
-0.099475361 -0.087286189 0.89700001 -0.4514903724 0.5991501808 0.6611924767
-0.11900136 -0.096223809 0.89600003 -0.8212245107 0.5272237062 0.218232587
-0.036466565 -0.10315216 1.0070001 -0.04032470658 -0.00218513445 0.9991842508
-0.061637994 -0.050507836 0.97650003 0.3843202293 0.4940900207 0.7798544765
-0.16333145 -0.072597079 0.92800021 0.1786385775 0.2716174126 0.9456808567
-0.1165536 -0.056550153 0.92650014 0.08626537025 -0.534029305 0.8410534859
-0.12574214 -0.048264418 0.93317652 0.04392099753 -0.6139281392 0.7881390452
0.013252241 -0.094874293 0.92562491 -0.495020628 -0.1769164503 0.8506792188
-0.23565964 -0.03839612 0.93757147 0.03776798025 -0.6410685778 0.7665537596
-0.27274501 -0.054713521 0.93428564 0.429915309 -0.2454864234 0.8688551188
-0.21420595 -0.028583014 0.94780004 -0.02143403701 -0.7802919745 0.6250480413
-0.19524233 -0.11441173 0.9643873 0.07375746965 0.5653749108 0.8215296865
-0.14587261 -0.036785923 0.96462506 -0.1575796902 -0.9294344783 0.3336468041
-0.024006641 -0.038582101 0.97800004 -0.07438190281 -0.8230079412 0.563138783
-0.11478315 -0.09500736 0.91359401 0.7271896005 -0.1513257772 0.6695489287
-0.15602037 -0.11891282 0.96200007 0.187005505 0.7167477608 0.671789825
-0.2341211 -0.055951253 0.93051744 -0.1421632767 0.05932683498 0.9880637527
-0.015511811 -0.066973895 0.93549985 -0.3290069699 -0.7004228234 0.6333737373
-0.095967576 -0.052026335 0.93127275 0.1546350271 -0.5951309204 0.7886109352
-0.19437179 -0.031842723 0.9435001 -0.13750422 -0.8021576405 0.5810642838
-0.26187164 -0.065535702 0.92800003 0.2846065462 0.04261315241 0.9576968551
-0.11197488 -0.070761904 0.88700002 -0.4909434617 0.5902289152 0.6407841444
-0.062146027 -0.13165668 0.96357143 -0.1728900075 -0.8593493104 0.4812772572
-0.11564943 -0.057728499 0.87800014 -0.6539161205 0.562871635 0.5055385828
-0.16599345 -0.032956533 0.95699996 -0.2237082422 -0.8855686784 0.4070906341
-0.024130721 -0.1186204 0.99661541 0.03199531883 -0.7277942896 0.6850486994
-0.093687169 -0.066958003 0.9162274 0.1121380255 -0.4992771745 0.8591550589
-0.20601666 -0.079522431 0.94000006 0.1008826792 0.4924896359 0.8644516468
-0.084532119 -0.11350813 0.94588232 -0.9934695363 0.005399893969 0.1139698625
-0.23499851 -0.10459051 0.95496297 -0.1945666373 0.6002886295 0.7757560015
-0.1647612 -0.094878525 0.94380003 0.2106181681 0.5387189388 0.8157339692
-0.1757741 -0.10596304 0.95225942 0.157800734 0.5842157602 0.7961098552
0.031443842 -0.075580209 0.98716682 -0.7642480135 -0.1662169844 0.6231347322
-0.14569806 -0.11667704 0.95516676 0.2536298037 0.7207800746 0.6450953484
-0.21577798 -0.10831068 0.96200001 -0.0137897497 0.5106240511 0.8596934676
-0.14552484 -0.054452267 0.93107164 0.01191539597 -0.4299032986 0.9027963281
-0.0039920029 -0.051515702 0.9706924 -0.3588938117 -0.7051003575 0.6115788817
-0.21342975 -0.089206971 0.95100003 0.01793272421 0.5666749477 0.823746264
-0.23583174 -0.074216507 0.93646652 -0.2545619309 0.3499544263 0.9015154839
-0.21472634 -0.065218978 0.9351818 0.01548730861 0.3129118979 0.9496558905
-0.12767895 -0.065216817 0.92606682 0.1031370834 -0.3483868837 0.9316594601
-0.17387806 -0.040379267 0.94000006 -0.1632349789 -0.7376857996 0.6551136971
-0.1361445 -0.10647044 0.94025034 0.5118297935 0.4019524455 0.7592526078
-0.035065204 -0.048442408 0.96383327 0.01095473953 -0.9040722251 0.4272392988
-0.095078968 -0.08325471 0.91273916 -0.4519251585 -0.3470172584 0.8217923641
-0.078179382 -0.081711993 0.9156 -0.5506237745 0.4459745288 0.705634594
-0.01586682 -0.13520932 0.94236678 0.6753582954 -0.3771850765 0.633736968
-0.18545359 -0.056364417 0.93000025 0.07048536837 -0.04651162773 0.996427834
0.011785248 -0.083120272 0.94349998 -0.7244672775 -0.5483585 0.4176722467
-0.019397127 -0.12397294 0.96200007 0.5103741884 -0.7621097565 0.3983803988
-0.17525697 -0.1168398 0.96266675 0.1090676934 0.6573127508 0.7456837296
-0.13860977 -0.1403105 0.97000003 0.523024559 0.6502215266 0.5510510802
-0.12903306 -0.12481629 0.96200007 0.5634760857 0.5446826816 0.62114048
-0.094088472 -0.088413805 0.92525005 -0.3834672272 0.6972610354 0.6056235433
-0.1343631 -0.081893921 0.92388904 0.4829887152 0.3305313885 0.8108457923
-0.19506741 -0.10418954 0.9556402 0.1240948141 0.5581803322 0.8203871846
-0.034594223 -0.12874234 0.96672732 0.3371863961 -0.8144078255 0.4722765982
-0.044608448 -0.085267954 1.0009999 -0.04581683129 0.3477731347 0.9364585876
0.0059451484 -0.11270751 0.92800015 0.0966026932 0.364997685 0.9259830713
-0.095474005 -0.12215523 0.9262858 -0.4913605452 0.1825944781 0.8516008854
-0.16154775 -0.13077675 0.97500002 0.1522795409 0.6962077022 0.701502502
0.021767296 -0.11297771 0.93023098 0.1427665502 0.1835794896 0.9725822806
-0.0036550425 -0.04149548 0.98100001 -0.2894704342 -0.7345488071 0.6137140393
-0.054990482 -0.064695776 0.92250007 -0.2762888074 -0.4142546058 0.867212534
-0.045371592 -0.12303082 0.99533337 0.01780625805 -0.861061573 0.5081889033
-0.1138904 -0.13074782 0.93800002 0.269389689 0.455008477 0.8487617373
0.025732446 -0.094671756 0.9847334 -0.7515435815 0.3861557245 0.5348514318
-0.24480353 -0.075341545 0.93197393 -0.1948323697 0.3322254717 0.922857821
-0.18480487 -0.022722859 0.96405548 -0.2130614072 -0.8598031998 0.4640509486
-0.035134416 -0.11455135 1.0040855 0.0971961543 -0.5593509674 0.823212862
-0.046328887 -0.058449518 0.92718196 -0.4000084698 -0.6130916476 0.6812575459
-0.05444482 -0.1143073 1.0042902 0.0626956895 -0.5565372109 0.8284537196
-0.054592296 -0.095104821 1.0044166 -0.01628491282 0.281945318 0.959292233
0.0050528431 -0.074585833 0.94430017 -0.5421614051 -0.7036675215 0.4592526853
-0.27206045 -0.046406679 0.94112504 0.3529626131 -0.4293798804 0.8312943578
-0.19516228 -0.044907443 0.93146336 -0.01087777875 -0.4739209116 0.8805001974
-0.25478023 -0.034549382 0.94376498 0.1830243617 -0.6463701725 0.7407480478
-0.078544155 -0.09557078 0.93330002 -0.3569505811 0.6711727977 0.6497024894
-0.1551223 -0.055357661 0.93060029 -0.03806364909 -0.4125078917 0.9101584554
-0.19518545 -0.065338194 0.93157917 0.1011217609 0.2848234773 0.9532313347
-0.13530692 -0.088570952 0.93550003 0.1518687159 0.4432366788 0.883446157
-0.033924717 -0.054769635 0.94380003 -0.3635747135 -0.8007854223 0.4759791791
-0.27367374 -0.075143777 0.9379999 0.2702928483 0.2200026959 0.9373049736
-0.22540665 -0.10439409 0.95606452 -0.1129427105 0.5386552215 0.8349218369
-0.21381196 -0.12127281 0.96400011 0.001175092999 0.5289236903 0.8486685753
-0.24492599 -0.025353028 0.95353341 0.1002833843 -0.7435621619 0.6611040831
-0.11472484 -0.11748676 0.93115383 0.1555189937 0.5798623562 0.7997333407
-0.22462475 -0.055617128 0.9312439 -0.09479056299 0.01090312377 0.9954375029
-0.13518234 -0.042163614 0.94312495 0.0231077224 -0.7614045739 0.647865057
-0.16477926 -0.04523617 0.93424392 -0.1117843315 -0.5233238339 0.8447700143
0.021434499 -0.084880628 0.97800004 -0.8092560172 -0.1332815886 0.5721369386
0.013210962 -0.075285569 0.96492302 -0.8091525435 -0.3997450173 0.4306693673
-0.14439914 -0.064895697 0.92536092 0.06028680876 -0.1607506275 0.9851521254
-0.073051974 -0.10306729 1.0070001 0.1057313606 -0.03002748638 0.9939412475
-0.17472586 -0.03176846 0.95364302 -0.2238963246 -0.8627228141 0.4534090459
-0.044432167 -0.044427175 0.97469246 0.145625785 -0.8735447526 0.4644488692
-0.20525718 -0.055279825 0.93033344 0.1368761063 -0.009888140485 0.9905388355
-0.15566912 -0.038297024 0.94409102 -0.1094256938 -0.8333145976 0.5418604612
-0.23507984 -0.065614782 0.93284595 -0.2093462646 0.2356707007 0.9490171075
-0.24496454 -0.095248133 0.94413781 -0.1809708774 0.5870586634 0.7890574932
-0.092990816 -0.13839075 0.94150001 -0.5040672421 0.04179095477 0.862652719
-0.033741198 -0.13650462 0.9583683 0.3649054766 -0.6922909021 0.622557044
-0.22558273 -0.025321919 0.95431828 0.001671874197 -0.7873892784 0.6164538264
-0.14585191 -0.038761232 0.95433342 -0.124553889 -0.9093171954 0.3970246017
-0.2247362 -0.0753645 0.94090939 -0.1266864985 0.4676425755 0.8747919202
-0.014848145 -0.053405531 0.96409541 -0.3013733029 -0.7826875448 0.5445864201
-0.15508972 -0.094875693 0.94278586 0.1819667518 0.5180281401 0.835784018
-0.11138383 -0.06422653 0.92739999 0.1529056281 -0.5273052454 0.8358044028
-0.03373472 -0.12455592 0.98666668 0.02561670728 -0.9444665909 0.3276075125
-0.064823821 -0.055097647 0.92430526 -0.1799084246 -0.5512821078 0.8146907687
-0.16386183 -0.083646208 0.93594122 0.2187332213 0.4515810311 0.865003109
-0.16572741 -0.027572669 0.96428591 -0.2436963171 -0.8979129195 0.3665576279
-0.065291867 -0.044229899 0.98496157 0.2137487382 0.5155780315 0.8297534585
-0.19520083 -0.075461358 0.93555546 0.121363312 0.4560707808 0.8816294074
-0.070867978 -0.079617113 0.99800003 0.03195092082 0.3219973445 0.9462012649
-0.12553243 -0.056260597 0.92740011 0.0181507729 -0.464286238 0.8854991794
-0.24572363 -0.056004543 0.92800003 -0.03108108975 -0.1432566345 0.9891973734
-0.01828376 -0.05900668 0.94800007 -0.3329488635 -0.79496032 0.5071322918
-0.045489132 -0.10658404 1.0100001 -0.02450404502 -0.2007048428 0.9793452621
-0.10426839 -0.079454638 0.90333337 -0.2353796959 0.9280578494 0.288626045
0.023317121 -0.12345932 0.92623818 0.1604315937 0.1818931848 0.9701425433
-0.19498789 -0.026238099 0.95495647 -0.1481762081 -0.8298794031 0.537907064
-0.0132815 -0.098283097 1.01 -0.03886085004 -0.2312705368 0.9721130729
-0.09376739 -0.11804755 0.95500004 -0.8998105526 -0.3764338791 0.2205414772
-0.21470614 -0.044934683 0.93123263 -0.04429500178 -0.4181306958 0.9073062539
-0.054255147 -0.12970372 0.96700007 -0.07847840339 -0.881477654 0.4656589627
-0.11824954 -0.076325223 0.91260004 0.4020682871 -0.5845325589 0.7047430873
-0.10462978 -0.071398653 0.92199993 0.1311660558 -0.5785034895 0.8050647378
0.0051418561 -0.095312595 0.92229414 -0.4835890532 -0.2100560963 0.8497164845
-0.078897081 -0.1370306 0.94733334 -0.639038682 -0.5283577442 0.5589880347
-0.053404782 -0.087127507 1.0010002 -0.01999495178 0.3480481505 0.9372634292
-0.025968516 -0.08647944 1.0011766 -0.05578612164 0.2453554273 0.9678267241
0.016093761 -0.053954184 0.98160017 -0.571282506 -0.5183212161 0.6363799572
-0.065039672 -0.09492863 1.0025833 0.06504621357 0.3256867528 0.9432376027
-0.047015458 -0.040813919 0.98220003 0.14976044 -0.8866526484 0.4375143945
-0.083664455 -0.13254447 0.95591682 -0.5735644102 -0.7675924301 0.286051929
-0.12329721 -0.11730219 0.93277782 0.4405393302 0.5968161225 0.6706233621
-0.014728975 -0.075279422 0.93338901 -0.2905524075 -0.6927801371 0.6600264907
-0.1950969 -0.091461755 0.94700003 0.1376281977 0.562308073 0.8153944612
-0.21186228 -0.019336637 0.95900005 -0.03378632292 -0.8258628845 0.5628578663
-0.0040465677 -0.12532118 0.93564278 0.664978981 -0.1425028294 0.7331411242
-0.2409422 -0.098377779 0.95100003 -0.2058987767 0.607434392 0.7672217488
-0.02128605 -0.14070909 0.94600004 0.5834020376 -0.4828771651 0.6530480385
-0.051176824 -0.051830817 0.93260002 -0.3696965575 -0.6625028253 0.6514709592
-0.14493752 -0.046820495 0.93479311 -0.02570133284 -0.6416779757 0.766543448
-0.065806963 -0.13562533 0.95675671 -0.293969363 -0.6594688296 0.6918691397
-0.18511158 -0.04435591 0.93160981 -0.0531106554 -0.4849680066 0.8729177117
-0.094796255 -0.1023517 0.93699992 -0.6267896891 0.6937333345 0.3547798097
-0.15430556 -0.074235581 0.92668736 0.1586282104 0.1915955842 0.9685701728
-0.064746261 -0.10458798 1.0064231 0.02673077397 -0.04483329877 0.9986367822
-0.2322078 -0.11147992 0.95899999 -0.1136359945 0.5335425138 0.8381045461
-0.056945026 -0.13808472 0.95809996 -0.130564183 -0.6728739738 0.7281439304
-0.2545346 -0.045750085 0.93391675 0.2185320407 -0.4707457125 0.854776144
-0.14474106 -0.10512884 0.94135511 0.2243083566 0.4466257393 0.8661473393
0.0028380395 -0.07746233 0.93469232 -0.5056421161 -0.6895793676 0.5184653997
-0.086983301 -0.081678599 0.90750009 -0.6331728101 0.02761763334 0.7735176086
-0.015795702 -0.11820264 0.99609095 -0.03454133123 -0.6851473451 0.7275850773
-0.042316411 -0.13759838 0.95900005 0.186219871 -0.7294715643 0.6581742764
-0.035243969 -0.095164701 1.0050832 -0.06826253235 0.26393646 0.9621214867
-0.15485431 -0.11420273 0.95527273 0.1902524978 0.6918134689 0.6965616345
-0.042562168 -0.050909787 0.95200008 -0.1664093435 -0.9532120824 0.2523780763
-0.024696713 -0.065403864 0.93483776 -0.3382281363 -0.7026581764 0.6259977818
-0.19487318 -0.085155331 0.94175893 0.1198801175 0.5363713503 0.8354247212
-0.26491827 -0.055223815 0.93194991 0.344605267 -0.2617262602 0.9015246034
-0.075177819 -0.065810412 0.915528 -0.01528745238 -0.4285542369 0.9033867121
-0.084069856 -0.086231999 0.92216676 -0.09975634515 0.6113411188 0.7850545645
-0.065570615 -0.12378386 0.99471438 0.1944604516 -0.7649886608 0.6139849424
-0.12632754 -0.082947686 0.92371446 0.7556275129 0.007230600342 0.6549616456
-0.27243644 -0.082901105 0.94000006 0.1675663292 0.4325381815 0.8859075904
-0.073262513 -0.14317912 0.95619994 -0.3385668099 -0.753816843 0.5631453991
0.0095661869 -0.040873706 0.99200004 -0.3989659846 -0.6711364388 0.6248216033
-0.14548272 -0.086309776 0.93277282 0.1143634841 0.4845039845 0.8672813177
-0.047006711 -0.078185432 0.99800009 -0.03057242185 0.3513142169 0.9357583523
-0.034362331 -0.065333903 0.93221062 -0.4096069932 -0.6759292483 0.6126514077
-0.13316894 -0.095124148 0.9435454 0.3246103525 0.43836236 0.8381327987
-0.17480375 -0.075091615 0.93372726 0.139159143 0.3582951427 0.9231789112
-0.11464521 -0.077641807 0.90559995 0.5702885985 -0.6822326183 0.4575254619
-0.15852675 -0.029670782 0.96700007 -0.2075052112 -0.9137915969 0.3491797149
-0.073535673 -0.085936278 1.002059 0.04620427638 0.299475193 0.9529846907
-0.076714203 -0.047822081 0.9309001 0.03656669334 -0.614870131 0.7877801657
-0.09640158 -0.062619038 0.92233342 0.1740928143 -0.5520560741 0.8154298067
-0.2437143 -0.065858118 0.93000025 -0.1510189176 0.1871132851 0.9706605673
-0.25765815 -0.040928647 0.94000006 0.2066728622 -0.5919907093 0.7789950967
-0.16435952 -0.11313176 0.95792854 0.1450611949 0.6750557423 0.7233650684
-0.011405434 -0.06148063 0.95200008 -0.4002107978 -0.7886769176 0.4667119384
-0.13617712 -0.064888351 0.9277392 0.09088072926 -0.2121295333 0.9730065465
0.0061016004 -0.12569296 0.92800003 0.3362253606 0.07709797472 0.9386205077
-0.14451021 -0.13440226 0.97315377 0.340128541 0.740567565 0.5795448422
-0.072541349 -0.12684861 0.99692863 0.3593155444 -0.7236660719 0.5892366171
-0.1349723 -0.047360063 0.93396157 -0.01876767538 -0.6743801832 0.7381457686
-0.024552584 -0.054122403 0.95475012 -0.2506837249 -0.8755373955 0.4130277336
0.024691069 -0.055561379 0.98471987 -0.6622766256 -0.4015926719 0.6325448155
-0.18480322 -0.035041403 0.94437039 -0.1650383025 -0.7785699964 0.6054676771
-0.23461497 -0.044403601 0.93265796 -0.01001353003 -0.4380721748 0.898884058
0.019436225 -0.063124731 0.98100007 -0.678254962 -0.3522261083 0.6449084878
-0.25461227 -0.084979504 0.93537498 -0.006235496141 0.4524164796 0.891784966
-0.084537715 -0.055406868 0.92574978 0.1294410527 -0.5731785893 0.8091422915
-0.026219584 -0.12648682 0.96481818 0.4502261281 -0.8022426367 0.3920499682
-0.065000243 -0.11459029 1.0048182 0.05486486107 -0.4661396742 0.8830083013
-0.0068280641 -0.11380729 1.0034285 0.02893741429 -0.5858842134 0.8098779321
-0.098514758 -0.08580222 0.90625 -0.3792006075 0.3686328828 0.8487147689
-0.054081671 -0.04722593 0.97725004 0.2821511626 -0.9560858607 0.07931331545
-0.035792347 -0.12629308 0.97392315 0.1508015245 -0.9118648171 0.3817871213
-0.25489262 -0.095267631 0.94314295 -0.01760457084 0.6032924652 0.7973257303
0.0035065077 -0.047596302 0.9774546 -0.3945195973 -0.6606808901 0.6386352777
-0.19542056 -0.036293436 0.93518162 -0.06341631711 -0.678162396 0.7321708202
-0.21553461 -0.023927938 0.95407706 -0.02047278732 -0.7966945767 0.6040353179
-0.026001429 -0.13464512 0.95469701 0.5223855376 -0.5721770525 0.6322394609
-0.16522211 -0.10201257 0.94706666 0.2219874114 0.5617501736 0.7969682217
-0.038073633 -0.11067916 1.01 0.001041105716 -0.4238016307 0.905754447
-0.10396244 -0.10429464 0.94566661 -0.2177376896 0.8161265254 0.5352829695
-0.02493961 -0.035198651 0.98477787 -0.04840305448 -0.8395853043 0.5410671234
-0.01118013 -0.040420469 0.98100007 -0.2381100208 -0.7636085749 0.6001713276
-0.23558195 -0.028697975 0.94733334 0.0598953031 -0.7374197841 0.672773838
-0.094807602 -0.074882179 0.91372991 -0.1275806725 -0.6049966812 0.7859403491
-0.094405137 -0.13257594 0.93485725 -0.2114893496 0.4441455305 0.8706359863
-0.15584376 -0.12677926 0.972 0.1693640798 0.7032483816 0.6904763579
-0.0052495589 -0.13418426 0.93554544 0.6745129228 -0.2597756982 0.6910491586
-0.0078119766 -0.069485471 0.93800002 -0.3624215126 -0.715500176 0.5972521305
-0.085069418 -0.066430904 0.91516143 0.07162859291 -0.4433000386 0.893506825
-0.12143879 -0.1043584 0.91333336 0.8796536922 0.365942359 0.3038018942
-0.076316461 -0.12812863 0.9636668 -0.3467058241 -0.8400730491 0.4172197878
0.021995127 -0.093120843 0.97750014 -0.8409808278 -0.1501927376 0.519801259
-0.013313293 -0.12795547 0.94493335 0.7152827978 -0.325034529 0.6186462045
-0.014380198 -0.062642336 0.94273353 -0.3515101075 -0.7694624066 0.5332618952
0.01261085 -0.083231613 0.95900005 -0.8511735797 -0.4252566695 0.3076691926
-0.11456352 -0.064069167 0.8832258 -0.6539161205 0.562871635 0.5055385828
-0.18493511 -0.065187722 0.93189478 0.09908912331 0.2178934366 0.9709293246
-0.023207778 -0.12804717 0.95675009 0.5516735315 -0.5256064534 0.647606492
-0.18518245 -0.11554219 0.96393114 0.07083779573 0.6036012769 0.7941331863
-0.25425714 -0.075124085 0.93000019 -0.006139459554 0.3539565504 0.9352416992
0.0056260293 -0.043549381 0.98333341 -0.410503149 -0.6424926519 0.6470628977
-0.19269308 -0.1192214 0.97000009 0.06858503073 0.5833441615 0.8093242049
-0.045210049 -0.1441438 0.96287996 0.1295388043 -0.6406532526 0.7568243742
0.0030776847 -0.067790441 0.95666665 -0.6248395443 -0.6613575816 0.414947778
-0.062736645 -0.062735893 0.92085725 -0.1707059145 -0.4703906775 0.8657898903
0.011020577 -0.067818932 0.96700007 -0.6957169175 -0.4497162402 0.5601190329
-0.011905134 -0.050171632 0.97000003 -0.3045496643 -0.7470926046 0.5908486247
-0.075774208 -0.074976489 0.91406274 -0.3656886816 0.2021754533 0.908513546
-0.11405266 -0.053430289 0.93260711 0.07400846481 -0.5518218875 0.8306716084
-0.1536524 -0.10408274 0.94690466 0.2572213113 0.5488228202 0.7953808904
0.0087871216 -0.060942944 0.97000003 -0.5614370108 -0.5209302902 0.6429775357
-0.16201174 -0.062312219 0.93000019 0.07329930365 0.015980158 0.997181952
-0.10771297 -0.043331884 0.94150007 0.08289148659 -0.6653382182 0.7419258952
-0.0052760723 -0.055619113 0.9648096 -0.4259722531 -0.71236974 0.5577427745
-0.20445335 -0.074478395 0.935 0.0978686735 0.4617403746 0.8815994263
0.0022035895 -0.057779349 0.96640003 -0.505907774 -0.6272939444 0.5920807123
-0.17481837 -0.045298867 0.93305564 -0.1128769368 -0.4460188448 0.8878772259
-0.09430252 -0.056482658 0.92585176 0.1631910354 -0.5779638886 0.7995789051
-0.014526129 -0.10537462 1.0070001 -0.006976304576 -0.4351568818 0.9003276229
-0.22513525 -0.037795514 0.93724996 0.02115762979 -0.63307482 0.7738013864
-0.21456467 -0.033506483 0.94255584 -0.004905812908 -0.7101305127 0.7040529847
-0.18464604 -0.093690529 0.94632143 0.1455284953 0.5494055748 0.8227849007
-0.084600441 -0.10779695 0.94150019 -0.5256391168 0.6094070077 0.5935710669
-0.12152178 -0.079673223 0.91800004 0.3923201859 -0.4826410413 0.7830341458
-0.17240417 -0.10157301 0.94775003 0.1729659289 0.5658576488 0.8061562777
-0.14414462 -0.12348602 0.96510535 0.3359462917 0.6997250915 0.6304957271
-0.12217168 -0.1126917 0.92700005 0.4398166239 0.721034646 0.5354161263
-0.094394378 -0.10761493 0.94243753 -0.6829007268 0.5740688443 0.4517650008
-0.14382255 -0.11279882 0.94661546 0.2683211267 0.6505436897 0.7104904056
-0.10490506 -0.052822966 0.93183333 0.1252542585 -0.5860276222 0.8005516529
-0.063960426 -0.078070082 0.99760014 0.01273015235 0.3748331964 0.9270048738
-0.020364966 -0.098283097 1.01 0.02606012858 -0.03433271125 0.9990706444
-0.24309967 -0.089823268 0.94000006 -0.2094388753 0.5238804221 0.8256419301
-0.13941848 -0.094322756 0.93550003 0.2349257171 0.4388773441 0.8672926426
-0.20497893 -0.084929071 0.94442844 0.1009655967 0.5342670083 0.8392643929
-0.19537733 -0.096873544 0.95152193 0.1430311501 0.5670856833 0.8111448288
-0.0049627665 -0.084948756 0.92421943 -0.4160307646 -0.5152143836 0.7493147254
-0.044923984 -0.055185925 0.93327272 -0.4338154197 -0.6747975349 0.5970364213
-0.20432675 -0.036943279 0.93650007 -0.006523581222 -0.6329188347 0.7741906643
-0.21536455 -0.084162727 0.9465149 0.02091098018 0.5285117626 0.8486683965
-0.24528465 -0.044598881 0.93291432 0.08201070875 -0.4739693403 0.8767139316
-0.14608653 -0.0339556 0.9745 -0.1982200295 -0.9295516014 0.3108740449
-0.077342711 -0.087547764 0.93112504 -0.2428341806 0.6430892348 0.7262697816
-0.11526731 -0.11283465 0.92594463 0.1188226193 0.7423536181 0.6593877673
-0.1147456 -0.12458428 0.93491673 0.2352618128 0.4909698367 0.8388089538
-0.1229525 -0.1019118 0.89560002 -0.8259501457 0.5224009752 0.2119046897
-0.24444863 -0.10459086 0.95332158 -0.1845106781 0.618021667 0.7642022371
-0.10529893 -0.064793967 0.9239167 0.1300115138 -0.5741509795 0.8083611131
-0.076329067 -0.12383756 1.0018572 0.3313987255 -0.4959769547 0.8026093245
-0.07473442 -0.094957858 1.0045171 0.1321837306 0.1634986848 0.9776480198
-0.017986132 -0.1237358 0.98874998 0.128332153 -0.9303982258 0.3433511555
-0.24379399 -0.028449146 0.94749999 0.1047270074 -0.7365599275 0.6682153344
-0.095772669 -0.12669937 0.93159992 -0.3755141199 0.1963644326 0.9057760239
-0.10503518 -0.1250001 0.93418777 0.01619543508 0.4376456141 0.899001658
-0.054242074 -0.12810874 0.97363627 -0.00970020052 -0.9079248309 0.4190208018
0.00160956 -0.09094014 0.91800004 -0.5005224943 -0.2688680887 0.8229138255
-0.075612493 -0.06069164 0.92000002 0.0172590781 -0.5342898369 0.8451251388
-0.14431222 -0.07459081 0.92480534 0.1043450534 0.1278995275 0.9862828255
-0.00488128 -0.078914024 0.92800003 -0.3988821507 -0.6192793846 0.6763032675
-0.235477 -0.033711031 0.94248408 0.04738339037 -0.6776422262 0.7338635921
0.015100206 -0.046445888 0.98552394 -0.504024744 -0.5482213497 0.6673922539
-0.20560892 -0.095934764 0.95210016 0.08511471748 0.5629532337 0.8220943809
0.015313836 -0.11498838 0.93025017 0.1445424557 0.1714578867 0.9745304585
-0.25903162 -0.089273892 0.94000006 -0.001372033963 0.5181564093 0.8552848101
-0.2663196 -0.042901877 0.94116688 0.2789543271 -0.536067009 0.7967538238
-0.20458722 -0.028148018 0.94690913 -0.0506875515 -0.7930437326 0.607052207
-0.17479631 -0.055727936 0.92799997 0.009532407857 -0.1235496625 0.992292583
-0.055595983 -0.12562318 0.98684222 0.107013315 -0.9409768581 0.32110852
-0.12654166 -0.094357528 0.9454999 0.02058798447 0.4797205627 0.8771797419
-0.15816246 -0.10673258 0.95181829 0.2360051572 0.6120458245 0.7547857165
-0.20156145 -0.021083834 0.96200007 -0.1047754362 -0.8483312726 0.5189953446
-0.20577821 -0.10879258 0.96200007 0.01641898975 0.5394386053 0.8418648243
-0.045448832 -0.064931683 0.92583317 -0.3800685704 -0.5712370872 0.7274861336
-0.21088392 -0.073031597 0.93600005 0.03833424672 0.4518181682 0.8912860751
-0.15050614 -0.059388906 0.92800003 0.03448273987 -0.2275803834 0.9731485844
-0.22522268 -0.029087801 0.94800007 0.0189902503 -0.7637306452 0.6452556252
0.025976345 -0.075330928 0.98343766 -0.7642480135 -0.1662169844 0.6231347322
0.0049864319 -0.10547487 0.92681062 -0.0622212477 0.224330008 0.9725248218
-0.18514496 -0.10452912 0.95382768 0.1503577083 0.5843290687 0.7974660397
-0.0057357047 -0.04560988 0.97625923 -0.311545223 -0.7203171253 0.6197441816
-0.18218336 -0.12214146 0.96657151 0.08175136149 0.6488842964 0.7564826012
-0.098651297 -0.1165879 0.93000007 -0.3453581929 -0.06941652298 0.9359001517
-0.084994674 -0.094805881 0.93222213 -0.3449204564 0.6837711334 0.6430294514
-0.21548676 -0.095219083 0.95272231 -0.0400024727 0.5341873765 0.8444191217
-0.18505244 -0.075633623 0.93663168 0.1176449358 0.4127489328 0.9032153487
-0.14878173 -0.1376016 0.98100007 0.223615095 0.7453529835 0.6280487776
-0.23441146 -0.098238826 0.95100015 -0.2190121114 0.5978370905 0.7711189985
-0.12505354 -0.13535669 0.94220024 0.6202887893 0.507390976 0.5981606841
-0.10875086 -0.13317584 0.94120008 0.002297435654 0.3411963284 0.9399892688
-0.10858491 -0.096707053 0.90999997 -0.7340527177 0.599494338 0.3190190792
-0.076954179 -0.11265255 0.94385713 -0.9069726467 0.02535480633 0.4204256237
-0.10152784 -0.11441387 0.94499993 -0.8047424555 0.03213653341 0.5927535892
-0.19679107 -0.12146217 0.96550006 0.06771304458 0.5603682995 0.825470984
-0.032580439 -0.038582101 0.97800004 0.0463383086 -0.8677275777 0.4948753417
-0.18478853 -0.084971793 0.94100028 0.1299749017 0.5205152035 0.8439019322
-0.13452071 -0.11343228 0.94356257 0.6122684479 0.4059472382 0.6784793139
-0.1024257 -0.096547365 0.93591666 -0.4182617962 0.8122445345 0.4065905213
-0.19734468 -0.10879258 0.96200007 0.08038555831 0.565171957 0.8210474253
-0.12467436 -0.095918611 0.89251751 -0.8212245107 0.5272237062 0.218232587
-0.1743724 -0.11238384 0.95809996 0.1422175467 0.6396099925 0.7554291487
