# .PCD v0.7 - Point Cloud Data file format
VERSION 0.7
FIELDS x y z normal_x normal_y normal_z
SIZE 4 4 4 4 4 4
TYPE F F F F F F
COUNT 1 1 1 1 1 1
WIDTH 512
HEIGHT 1
VIEWPOINT 0 0 0 1 0 0 0
POINTS 512
DATA ascii
0.03363065049 0.01422508433 0.7201202512 0.1685412824 -0.4610802531 0.8171627522
-0.1362589896 -0.05229952559 0.7372207642 -0.1654501408 -0.04853935167 0.9799247384
-0.1320002079 -0.05196040496 0.7299732566 -0.1634803712 -0.2246028483 0.8486590981
0.02711487375 0.02210494131 0.7350986004 0.3515470624 -0.6362495422 0.6865162849
0.0296887327 0.01647098735 0.744979322 0.2911012769 -0.5256497264 0.7520054579
0.02731135674 0.01253431104 0.755226016 0.2403676063 -0.4221113622 0.8024689555
0.02400431782 0.02306082845 0.7429952621 0.3209027648 -0.6078954339 0.6971032619
0.03309834376 -0.008350873366 0.7759792805 0.1001221836 -0.09476912022 0.9904515743
0.02716657147 -0.01950558089 0.7764334679 0.1166494712 -0.112195909 0.9864330292
0.03388581052 0.003736703424 0.75871104 0.2995115519 -0.361353159 0.8076997399
0.03378812224 0.009330079891 0.7490914464 0.4232400954 -0.5157066584 0.6980611086
0.03930627182 -0.008704960346 0.7681433558 0.580176115 -0.3615247905 0.6780259013
0.03435857967 -0.001572183683 0.7669674754 0.2226786315 -0.2399408817 0.8844771981
0.01777732931 0.02369117923 0.7368031144 0.3530449867 -0.6602856517 0.6627050042
0.02064976841 0.020600738 0.7287682295 0.3500351608 -0.6462114453 0.6777939796
0.02411873825 -0.001690037898 0.7145575285 0.2889820337 0.1342222393 0.9332822561
0.02975171059 0.005590580404 0.7131827474 0.1405775845 -0.3149830103 0.9241011739
-0.08796210587 -0.0710708648 0.7374666929 0.2800161839 0.1078197956 0.8896886706
-0.08493834734 -0.05570448563 0.7321078777 -0.06816718727 -0.4038289189 0.8321243525
-0.08771323413 -0.06333050132 0.7357655764 0.1808029115 -0.127310887 0.8587247133
-0.1178782955 -0.04023455083 0.7322752476 0.1649825126 -0.458548516 0.7727616429
-0.116286777 -0.04271882027 0.7232555151 0.09171298146 -0.6262815595 0.6240965128
0.0285473261 -0.03966868669 0.7603358626 0.4972246289 -0.4569762647 0.5925622582
0.02759400569 -0.03826859221 0.7707324028 0.3586453199 -0.3573243618 0.8184832335
0.01505453698 0.02427184209 0.7443876863 0.3058838248 -0.6294105649 0.6887907982
0.02602105215 -0.004635184072 0.774782896 0.1179178879 -0.1411989033 0.9638421535
0.01718671806 -0.004091315437 0.7749004364 0.09766232967 -0.1474538147 0.9643228054
0.02089881524 0.0006283316179 0.7696486115 0.1431129575 -0.2257192582 0.9166947603
0.02080618776 0.01944813877 0.749868989 0.2833529413 -0.5333613753 0.7363749743
0.01817393675 0.009089369327 0.7609654665 0.1987769008 -0.3632287085 0.8373555541
0.005381576251 0.01748996973 0.7523928881 0.205918014 -0.5308963656 0.7650020123
-0.0009293620824 0.02299946547 0.7463833094 0.2494499981 -0.6122034192 0.7376897931
0.007685907651 0.009480611421 0.7625815868 0.1364265233 -0.3714843094 0.8472446203
0.009167579934 -0.001486672321 0.7754350901 0.04873209447 -0.1687189639 0.9578528404
0.01302362792 0.003820024664 0.7670555711 0.1373575479 -0.279848814 0.8916157484
0.01160317846 0.01422072668 0.7565108538 0.201145649 -0.4525576532 0.7939585447
-0.1207321435 -0.1579836309 0.7426815033 -0.5360611081 0.04486276954 0.8417432904
-0.1121873036 -0.1540569812 0.7475426793 -0.4353529513 0.07983125001 0.8914500475
0.02473266795 -0.02908459306 0.7309248447 0.6461239457 -0.5424977541 0.3192229271
0.01712738536 -0.0223148521 0.7259787917 0.4940572083 -0.4764764011 0.5627535582
0.01942512579 -0.04202536494 0.7409154177 0.6628218293 -0.5841796398 0.2428344041
0.01544792391 -0.03894803673 0.7489558458 0.4974885285 -0.485740006 0.4109258056
0.0249049589 -0.02950720116 0.7751869559 0.1334720403 -0.144235 0.9802902937
0.01641795225 -0.03154651076 0.7760256529 0.04638355225 -0.1414140761 0.9879886508
0.02253710851 -0.03398909047 0.7460026145 0.5757110715 -0.4976105392 0.3220275342
0.01593961567 -0.03111733869 0.7577012777 0.3303296864 -0.3584520519 0.5700272322
0.007861436345 -0.02578068152 0.7718983889 0.03842103481 -0.1883708984 0.8726146221
-0.00342121534 -0.006563138682 0.7521383762 0.09714071453 -0.325889349 0.8676380515
-0.002575455233 -0.003564717714 0.7336951494 0.2686062157 -0.5511739254 0.7512243986
0.001967183314 0.003596134018 0.73696208 0.3030343652 -0.5735293627 0.7319827676
-0.0009706586134 -0.004934200086 0.7414603233 0.2180413753 -0.4786267877 0.7911552191
0.0387022607 -0.002437245799 0.7102352977 0.3427374363 0.2610928416 0.8925103545
0.04092738032 0.003542090533 0.7159381509 0.3893704712 0.1206778362 0.8405194283
0.04150781408 -0.003952548839 0.7195696831 0.4079777598 0.211456269 0.7933867574
0.035016004 0.007268550806 0.7306351066 0.3284163475 -0.2320740521 0.7526046038
-0.0971011892 -0.0513417311 0.7380647063 0.2552398741 -0.320751071 0.8415337205
-0.09682612866 -0.0664812699 0.7396323681 0.2840767503 0.03961551562 0.8707849979
-0.128572166 -0.05950600654 0.7175781727 -0.1732148975 -0.5116066337 0.6075803041
-0.1149569154 -0.0521219112 0.7027893662 -0.1606109589 -0.9008350968 0.3177038729
-0.1216769516 -0.05465651676 0.7098433375 -0.1641369015 -0.707698822 0.4770022333
-0.141602844 -0.06021651253 0.733607173 -0.1729840189 -0.09036624432 0.9564487934
-0.1129967123 -0.07371755689 0.7410409451 -0.0851104781 -0.009238258936 0.9949423671
-0.1134798452 -0.08279462904 0.7414582372 -0.08161374927 0.03938414529 0.9903849959
-0.1072731242 -0.04905338958 0.7072529197 -0.2338071018 -0.8802219629 0.3813925385
-0.08691018075 -0.0228469111 0.7416037917 0.2556712925 -0.3643285632 0.8941139579
-0.09425456077 -0.02628728189 0.7420099378 0.2397961915 -0.4101547301 0.8789712191
0.004843798 -0.007058094721 0.7605369687 0.1230885535 -0.3174131215 0.8620355129
0.01426260732 -0.01264375169 0.7367532253 0.5198462009 -0.6038128138 0.456101805
0.007572978735 -0.002217645524 0.7409780622 0.3591762185 -0.5510696769 0.6509274244
0.02584369853 -0.03516294435 0.7382047772 0.7141820788 -0.5908600092 0.183510229
0.01271672454 -0.02288796194 0.7625458241 0.2454272062 -0.2964513004 0.6842679977
0.01768828556 -0.02567269094 0.7496711612 0.4579164386 -0.4514381886 0.4676352739
0.007077322807 -0.007497803774 0.7531616688 0.233766824 -0.4059693813 0.7529675961
0.01174320746 -0.01344191935 0.7476106286 0.3707327545 -0.4737327695 0.597860992
0.0163771566 -0.0193347577 0.7420768142 0.506959796 -0.5412794352 0.4436626732
0.008081690408 -0.01799907722 0.7700526118 0.0903153792 -0.2054371387 0.853053391
0.01009245776 -0.01503773779 0.7568286657 0.2529123724 -0.3634757102 0.7062718868
0.01575876772 -0.01118223276 0.780000031 0.06221846864 -0.100249581 0.9927738309
0.01321161445 -0.01963193342 0.780000031 0.02851300128 -0.1133973897 0.9930656552
0.03842310235 -0.02238971181 0.7634187937 0.7191566229 -0.3148552179 0.5022184849
0.03444157541 -0.03010241501 0.7610221505 0.5795193911 -0.3644014895 0.5431165099
0.03326430544 -0.03006504849 0.7718282342 0.4224963188 -0.3192670643 0.8027018905
0.03381319717 -0.03300113231 0.7522906661 0.6414397955 -0.4155908823 0.3700306714
0.04192683101 -0.01691421308 0.7236115932 0.2869251966 0.4202021062 0.8482311964
0.03770561144 -0.005655551795 0.7281927466 0.3030999303 0.1014128253 0.802418232
0.03193622082 0.0145231979 0.7371397614 0.3628197312 -0.4893573821 0.7047227025
0.03868957236 -0.008400077 0.7540768981 0.602758348 -0.1998571306 0.6367866993
0.03675198928 -0.003980897367 0.7444140911 0.4764932394 -0.162607342 0.6956456304
0.03738399968 -0.01121386979 0.7346727252 0.3635412157 0.1481713653 0.7821155787
0.03833376244 -0.01187900547 0.7427509427 0.4653832912 0.04621508345 0.7258768082
0.0351036042 -0.001113816747 0.7342065573 0.3453204632 -0.08115194738 0.7620037198
0.04061891884 -0.01404395886 0.760930419 0.6953921318 -0.167613104 0.6008658409
0.03605034575 0.001731298515 0.7500689626 0.5402059555 -0.3783946037 0.6419360638
-0.03626355901 0.01016646251 0.7434843779 0.2147274911 -0.5539832711 0.8038140535
-0.02731612325 -0.01039049961 0.7610247135 0.005017082207 -0.2764679492 0.9110448956
-0.037009608 -0.00289649656 0.7501440048 0.1337925047 -0.4061100185 0.8627682924
-0.02943829261 0.0004160261014 0.7536417842 0.0939861685 -0.4106531739 0.8584835529
-0.1715600938 -0.1563491672 0.718767345 0.1682145894 -0.06797138602 0.9829425216
-0.1527975798 -0.1009408087 0.7343319654 -0.1421880871 -0.06774391234 0.9433993697
-0.1519537419 -0.1591258198 0.7203743458 -0.3223414719 0.05003134534 0.9452123642
-0.01035866886 -0.016780518 0.7243275642 0.3579203188 -0.5035007596 0.7350895405
0.006303468253 -0.02316068113 0.7271610498 0.4970624745 -0.5776495337 0.5360022783
0.0006851964281 -0.0146723073 0.7237536311 0.4035616517 -0.5429253578 0.6738509536
0.007047154009 -0.03620709479 0.7322254181 0.5970837474 -0.6005374789 0.384701997
-0.003272770206 -0.02195973322 0.7264867425 0.4352202713 -0.5388171077 0.6229051352
0.009475227445 -0.01366415527 0.7235559225 0.4448122978 -0.5753317475 0.6176350713
0.0007036237512 -0.006527231541 0.7206023932 0.3437891603 -0.5305006504 0.7646049857
0.01657635532 -0.03214652464 0.7332305312 0.6498355269 -0.6299445629 0.2810061574
0.0189194046 -0.02212039568 0.7338289618 0.6174556017 -0.6200345159 0.332215935
0.007806712762 -0.005563616287 0.7272846103 0.4313379526 -0.6232353449 0.5961062908
-0.01362461224 0.005713373888 0.7328571081 0.2499034852 -0.6047876477 0.7524087429
-0.02199358493 0.006751330104 0.7365481257 0.209284991 -0.5888638496 0.7797535062
-0.01063001528 0.01245141774 0.7395396233 0.2126639336 -0.6091361046 0.7636720538
-0.001314700698 -0.01164453849 0.7767565846 -0.07207531482 -0.08976068348 0.9922943115
0.0068139215 -0.01059078984 0.7795904875 -0.01167535409 -0.1105774865 0.9933108091
0.0315666236 -0.005491131917 0.7116684318 0.2982015014 0.2776323259 0.9051945806
0.04100240767 -0.02741652168 0.7243004441 0.08268880099 0.4214452505 0.8605214953
0.03590492532 -0.01572155952 0.7159999609 0.4128433764 0.1990534961 0.7044989467
0.03043499216 -0.02551642247 0.7256724238 0.5768111348 -0.2399392575 0.4355468154
0.01906776428 -0.009440567344 0.7200307846 0.3746095896 -0.3439482749 0.7523201108
0.02780006267 -0.01183890179 0.717333138 0.3816338778 -0.04326736927 0.7481709719
-0.09318050742 -0.03842993826 0.7385179996 0.2532600164 -0.5168497562 0.8147189617
-0.1306799054 -0.09869045019 0.739618659 -0.3321200609 0.07319096476 0.9357454181
-0.1043429077 -0.1503553241 0.7531699538 -0.3815617561 0.2042052895 0.8928780556
-0.1139031425 -0.1465946585 0.7483732104 -0.4646922946 0.04559839144 0.883497715
-0.09405232221 -0.08577894419 0.7399525642 0.2307195216 0.1989741325 0.938387692
-0.101040341 -0.1240456775 0.7484317422 -0.0217778571 0.2755609751 0.9559498429
-0.06112582982 -0.006676288787 0.7407438755 0.2779356837 -0.3945409656 0.8756970167
-0.02795302495 -0.02275198326 0.7681746483 -0.07603809983 -0.1253981739 0.9712787271
-0.03350726888 -0.01881612837 0.7627065778 -0.006991044618 -0.1877557337 0.9488415718
-0.04501863942 -0.006678456906 0.7488061786 0.1588561535 -0.3652508557 0.8847029805
-0.127315253 -0.04918058962 0.7395851612 -0.08915377408 -0.04443318397 0.9867593646
-0.1244651452 -0.04753911123 0.7261870503 -0.1195644513 -0.3564285338 0.7614369988
-0.1210962161 -0.04844017327 0.7176827192 -0.1381851286 -0.5486234426 0.6119312048
-0.05326537415 -0.01075357199 0.7474712729 0.1925698817 -0.3275585473 0.8996168375
-0.04898130894 -0.01712184027 0.7421122193 0.2012245804 -0.3075760603 0.9073066711
-0.04219415411 -0.01761175133 0.7532638311 0.09497255087 -0.2442495823 0.929374516
-0.1306411475 -0.05878213048 0.7378060222 -0.1854836494 -0.0383179076 0.9818773866
-0.1189313158 -0.06317102909 0.7394578457 -0.1318367273 -0.04000559822 0.9895646572
-0.1213641316 -0.05595579743 0.7392926216 -0.0988182798 -0.04193354025 0.9872097969
-0.1096628085 -0.06520096213 0.7420898676 -0.004773719236 -0.02485259064 0.9970945716
-0.1058076471 -0.05349129438 0.7413306832 0.1574631333 -0.1966075003 0.9436661601
0.02136547118 -0.04598140344 0.7653414607 0.3991985321 -0.41460976 0.7127733827
0.0182069391 -0.05181109905 0.7519379258 0.5502793193 -0.5504360795 0.4374492764
0.02412404679 -0.04580977187 0.7552235723 0.5517058372 -0.5125302076 0.4831859171
0.02195852809 -0.05023336411 0.7442773581 0.6839794517 -0.6293010116 0.2551092505
0.01935965195 -0.04170140252 0.7742197514 0.1639853716 -0.2464205921 0.9404782653
-0.04913493246 -0.02278876863 0.7299484611 0.3054325879 -0.2925195992 0.9058962464
-0.03947781026 -0.02057371475 0.7269487381 0.2882070839 -0.3185780048 0.9021738768
-0.11849536 -0.03833414242 0.7406208515 0.1864784509 -0.2588284016 0.9267765284
-0.01492668409 -0.05183342099 0.7263727188 0.3990809023 -0.448014468 0.5448712111
-0.0002797956695 -0.0565574728 0.732360065 0.5476585627 -0.6525569558 0.2853450477
-0.009475434199 -0.05967174843 0.7296161652 0.4347096682 -0.643645525 0.291025579
-0.01945864409 -0.04452040419 0.7239890099 0.3631470799 -0.307966888 0.7382832766
-0.02561544441 -0.0380442217 0.7217585444 0.2945585847 -0.2226152718 0.8746778965
-0.007138522342 -0.04953541234 0.7291935682 0.484863013 -0.500012815 0.4935219884
-0.01275704615 -0.07792384923 0.7681291103 0.04643979669 -0.4550670683 0.8354409337
-0.0806106627 -0.02742664889 0.7385806441 0.2520430088 -0.3283649683 0.9097305536
0.03919748217 -0.01894367486 0.7353810072 0.3642925322 0.318909198 0.7950968742
0.04031185061 -0.01749502309 0.7498552799 0.5452928543 0.07446870208 0.688190043
0.05018976703 -0.01675921306 0.7167739868 0.3390100002 0.4048521221 0.8458624482
0.04108184204 -0.02488744259 0.746838212 0.621568501 -0.3034287989 0.06566992402
0.04081132263 -0.02926985547 0.7369906902 0.5502514243 -0.3389647305 -0.1665240973
0.008307757787 -0.001655951841 0.7197641134 0.3609551191 -0.5726026297 0.7349972725
-0.02314513363 -0.001087387325 0.7317466736 0.234284088 -0.5340358615 0.8100299835
-0.02653783374 0.01867010258 0.7484974265 0.1909926832 -0.576679945 0.7942804694
-0.02311845869 0.0135755511 0.7421446443 0.186149776 -0.5934892297 0.7829886079
-0.1814946979 -0.1297771782 0.7309954762 0.4422737062 -0.2096611857 0.8719319701
-0.008471940644 0.006942069158 0.7604485154 0.06240563467 -0.3382246494 0.8868256211
-0.01512214821 0.0105142761 0.7582954764 0.09263623506 -0.4023908079 0.8636189699
-0.01659114286 0.01789662614 0.7444332242 0.1948434711 -0.5911667943 0.7826203108
0.002157605253 0.00162908691 0.7722725272 0.04758828506 -0.2187986076 0.9452100396
-0.01118944027 0.01576020755 0.7528968453 0.1482564956 -0.4835706651 0.826973021
-0.00175127096 0.007299539167 0.7652897835 0.09338561445 -0.3213189542 0.8989063501
-0.001636008034 0.01275400631 0.7590796947 0.1492730528 -0.4157526493 0.8476096988
-0.01035268046 0.02201063931 0.7472405434 0.2166813761 -0.5861147046 0.7752747536
-0.166893959 -0.09667448699 0.7323141098 0.0932219103 -0.1386882812 0.9823422432
-0.1203535274 -0.1501173377 0.7427826524 -0.5299503803 0.005534128286 0.847009778
-0.1257340163 -0.1456123143 0.7378556132 -0.5727562904 -0.03253442794 0.8183879256
-0.127972573 -0.1610160917 0.7379149199 -0.5695713162 0.0315846689 0.8213111162
-0.1785764396 -0.1540437937 0.7253750563 0.2401684523 -0.1027918011 0.9530009031
-0.1628385037 -0.1584373415 0.7280085683 -0.06893587857 -0.0138517227 0.9133492112
-0.1517647952 -0.168387264 0.7233953476 -0.3458556533 0.04268638417 0.9342138767
-0.1459051669 -0.1659163833 0.728474915 -0.4223955572 0.07630757242 0.8903713226
-0.1650341451 -0.1650571823 0.7211109996 -0.08029183 -0.04435444623 0.9741551876
-0.1790508479 -0.146226868 0.725260675 0.3574752212 -0.1539566219 0.9183950424
-0.1534278542 -0.1508950442 0.7197511792 -0.2618879378 0.01685594022 0.9612981081
-0.1465163678 -0.1458420604 0.7235203981 -0.4103783965 -0.00382337044 0.9093888998
-0.1404370964 -0.1592883766 0.7295847535 -0.4973329306 0.06164956465 0.8625255227
-0.1523508132 -0.1588262767 0.7281063795 -0.2810014188 0.02946465276 0.8947101831
-0.1614711285 -0.1353602111 0.727268517 -0.02957516909 -0.1320563853 0.8895062804
-0.1473758966 -0.1353318989 0.7237294316 -0.3840700984 -0.09032674879 0.9147005677
-0.1522178054 -0.1279594004 0.722322762 -0.2491996288 -0.1614789367 0.9442873597
-0.1710197181 -0.1334191561 0.7287662625 0.2061553746 -0.176914528 0.8856886029
0.01492694952 -0.05883995816 0.7357991934 0.6667999625 -0.7291326523 0.1457310319
-0.03960112855 0.003000000725 0.7391520739 0.236425668 -0.5299788117 0.8142377734
-0.03842811659 -0.009779438376 0.7542074919 0.08774459362 -0.312017411 0.9032849669
-0.04995943606 0.0008109841147 0.7407141328 0.2478215992 -0.472918123 0.8454551101
-0.03277530521 -0.001303165685 0.7349364758 0.242187947 -0.5119381547 0.8233215213
-0.04148747027 -0.004906457849 0.7351880074 0.259960264 -0.4587741792 0.8494057059
-0.1630491763 -0.09002650529 0.7326088548 0.004471742082 -0.1330676675 0.9903683662
-0.1484038681 -0.09222977608 0.7351669669 -0.1670980901 -0.0322262682 0.9678811431
-0.1553461403 -0.0962055102 0.7277654409 -0.1099255458 -0.1215076521 0.9825671911
-0.1426763386 -0.08413699269 0.7355085611 -0.2087687999 -0.03856342286 0.9712678194
-0.1580380797 -0.08159731328 0.7327489257 -0.08768088371 -0.1107520461 0.9897774458
-0.140017733 -0.09257984906 0.736297369 -0.2600004375 0.01253461186 0.9559141994
-0.1525680274 -0.07254871726 0.733297348 -0.1410258263 -0.0907298103 0.985583365
-0.1070165783 -0.1065772101 0.7450991869 0.02315465361 0.1797003597 0.9816507697
-0.0969337821 -0.07451412827 0.7218632698 -0.4078889191 0.02259412222 0.8447874784
-0.09917400777 -0.08156540245 0.727895081 -0.2299652994 0.05486952886 0.9136109352
-0.0990974009 -0.07644221187 0.7411453724 0.2507479191 0.2287840843 0.9257363677
-0.1040117294 -0.08907724917 0.7421937585 0.05418756977 0.08432096243 0.9880795479
-0.11517784 -0.1023695841 0.7431759834 -0.0933952257 0.1453564465 0.9839133024
-0.1229706705 -0.09135968983 0.7413593531 -0.1897890568 0.1015680283 0.9754683971
-0.08813656121 -0.1131382659 0.7386497855 0.1250085831 0.2612416148 0.956592381
-0.1028373837 -0.119380407 0.7418919802 -0.06290221959 0.1678576916 0.9544785619
-0.08349702507 -0.1225958318 0.7403401732 0.02476505376 0.3435306847 0.935992837
-0.08143773675 -0.1333417892 0.7545502186 -0.1127835587 0.4084258378 0.9037801027
-0.07181462646 -0.1263471693 0.7497981787 -0.1027467996 0.4545703828 0.88326931
-0.08051811159 -0.131268695 0.746720612 -0.08088611066 0.4061911702 0.9091435671
-0.1358117312 -0.1530660391 0.7310870886 -0.5518189073 0.02351764962 0.8308181763
-0.07371002436 -0.1181460544 0.7426265478 -0.03211732954 0.3816516399 0.9165564179
-0.08384503424 -0.1061467007 0.7376487255 0.1122424528 0.2561720908 0.9591397047
-0.0945687294 -0.1321928501 0.7527250051 -0.08512115479 0.3506164551 0.9309921265
-0.09966015071 -0.137324214 0.7486747503 -0.1956993192 0.2462625057 0.9372900128
-0.06491496414 -0.1196431071 0.7451127172 -0.09810679406 0.4746788442 0.8717671037
-0.05912937596 -0.1139668226 0.7437281609 -0.151784271 0.4708327353 0.8682025075
-0.0692088753 -0.111133419 0.7385847569 -0.03693116084 0.3739020526 0.9160722494
-0.08700258285 -0.08318655193 0.7274315953 -0.1008081138 0.1226670742 0.9377679229
-0.07605641335 -0.1092349589 0.7417212129 0.04359109327 0.3346246183 0.925945878
-0.08416931331 -0.0962401703 0.7370637655 0.2290435433 0.1882656962 0.9506454468
-0.08513396978 -0.03364257514 0.7363625169 0.2085131705 -0.3832538426 0.8820698857
-0.09026887268 -0.03601298109 0.7291858792 -0.07115705311 -0.465338707 0.7718032002
-0.09308432043 -0.04150869325 0.7230805755 -0.2490451187 -0.5418557525 0.6989539266
-0.06745152175 -0.01143593714 0.7402806878 0.2883503139 -0.3668100238 0.8842577934
-0.05680991337 -0.01440263167 0.7352705598 0.2832096219 -0.3624343872 0.8879017234
-0.04908997938 -0.03354899585 0.7532759309 0.1253866702 -0.2212949544 0.9453797936
-0.04920485616 -0.02648076415 0.7448306084 0.1881018281 -0.2830775976 0.9205223322
-0.03950603679 -0.0450364016 0.7629488111 0.02574189939 -0.1493810266 0.975338161
-0.04578849301 -0.0151779484 0.7321343422 0.2871057689 -0.3695678115 0.8837098479
-0.1337960511 -0.08526991308 0.7366483808 -0.2596222758 0.001830850379 0.9649765491
-0.1277181804 -0.08012088388 0.7374994159 -0.1972108036 0.009442460723 0.9784672856
-0.09920975566 -0.05578209087 0.7117640376 -0.4107702374 -0.65664047 0.4708961546
0.0005472472985 -0.05619937181 0.7719045877 -0.04949806631 -0.1458640546 0.9880583882
0.01396195311 -0.05388424173 0.7595636249 0.3819210231 -0.4418624938 0.630181849
0.008850834332 -0.05613129213 0.7702999711 0.133289367 -0.2717255652 0.9034195542
0.01198567357 -0.04896290228 0.7732757926 0.1049656197 -0.2461629361 0.9556971788
-0.01836794615 -0.03546530381 0.7441967726 0.1667992771 -0.1944350004 0.8861699104
-0.004646071699 -0.04078640789 0.7335785031 0.4692414403 -0.414339751 0.5643082261
0.003948456142 -0.04291306064 0.7474768758 0.4505080581 -0.4507709444 0.4805468321
-0.005882489495 -0.03979830444 0.7432008982 0.3542054892 -0.3518047929 0.6430006027
-0.009143831208 -0.03813349456 0.752541244 0.2132687718 -0.2659338415 0.7585873008
-0.008447296917 -0.03772193938 0.763615489 0.1109771654 -0.2198448926 0.808842361
-0.01568224281 -0.03695737198 0.7344417572 0.3037612736 -0.2753209472 0.7791534066
0.01014110353 -0.05067988113 0.7353079319 0.6647430658 -0.6563804746 0.2333657593
-0.01037221309 -0.04079503566 0.7275447845 0.4500283003 -0.3970810175 0.6190928221
0.002706619911 -0.04592879489 0.7323459983 0.5877095461 -0.5464280248 0.3865425587
-0.114138037 -0.04531969503 0.7417951822 0.1430665851 -0.1320548654 0.9799766541
-0.1007057726 -0.04369932786 0.7391678691 0.283044219 -0.3463421762 0.8941983581
-0.1101868525 -0.03498258069 0.7415120006 0.195109129 -0.2775630057 0.9323150516
-0.1041680351 -0.04319239035 0.7193582654 -0.113670975 -0.7685024142 0.5170427561
-0.1068212688 -0.04005641863 0.7266464829 0.03879845515 -0.6764841676 0.6161610484
-0.1024380401 -0.02971394174 0.7410508394 0.2367485017 -0.4504737258 0.8542238474
0.008106655441 -0.06419447809 0.7348872423 0.5956280231 -0.7899710536 0.08904867619
0.002708381508 -0.06373943388 0.7591351867 0.2956151962 -0.462942183 0.6781895161
0.0085549457 -0.06055661291 0.7531211972 0.4272758365 -0.5166708827 0.5439828038
-0.05659784749 -0.04096151143 0.7378274798 0.1871975213 -0.1398554444 0.9652059674
-0.07847780734 -0.01846192591 0.7410000563 0.2698756754 -0.3336606026 0.903054595
0.0370969139 -0.035227485 0.731084764 0.3205580413 0.002122691832 0.5542528629
0.02724620514 -0.04714418203 0.7374117374 0.7487316132 -0.6502014995 0.1180122122
0.02919884957 -0.04172522202 0.7494485378 0.6283111572 -0.5465137959 0.3602321148
0.03150285035 -0.04116025195 0.7421508431 0.7014029026 -0.5841407776 0.2120691091
0.01502023544 0.002949011745 0.7184126973 0.3209701478 -0.5961557031 0.734667182
-0.0131886946 -0.008944687434 0.7702188492 -0.06866180152 -0.1609231383 0.957948029
-0.00596745871 -0.00510445796 0.7711266875 -0.05023027584 -0.1452192962 0.9683933854
-0.0198410023 0.001080792048 0.7622859478 0.02122365125 -0.3190324008 0.8977795243
-0.01146983262 -0.0004280928115 0.7664571404 -0.004373979289 -0.2377006859 0.9321018457
-0.02086280286 -0.02405451424 0.7729895115 -0.1348286867 -0.08017276973 0.9871113896
-0.0224047713 -0.0161455702 0.7675899863 -0.06865033507 -0.1749858707 0.9500793219
-0.02038515545 -0.008533093147 0.764824748 -0.02696200833 -0.2316339016 0.9275525212
0.005883375648 0.007558422629 0.724627614 0.3541523218 -0.6350077391 0.6848263144
-0.003429472912 0.006832363084 0.7315491438 0.2847490311 -0.6146466732 0.7326849103
0.01360937115 0.01537688728 0.7260913253 0.3669751287 -0.651529789 0.6616020799
-0.002982098144 0.01389822084 0.7381864786 0.2566199303 -0.6149511337 0.7429280877
0.007174921222 0.02318296768 0.7400034666 0.2935549021 -0.6696882844 0.6807223558
0.02031587809 0.0135441348 0.7199800611 0.3369835317 -0.6322444081 0.6944899559
-0.1563754529 -0.1195269078 0.7224192023 -0.05285457149 -0.2269448936 0.968750596
-0.1767028123 -0.1187519357 0.7313802242 0.3906242847 -0.2302835137 0.8904162049
-0.1153653339 -0.1393811256 0.7436330318 -0.4113440812 0.09731513262 0.878749311
-0.1136512309 -0.131497696 0.7433511615 -0.2954660952 0.1442113072 0.8942962289
-0.09507361054 -0.124187097 0.742642045 -0.01874190196 0.3039706647 0.9481878281
-0.1074250266 -0.1350869089 0.7472972274 -0.2722328007 0.2190430909 0.9296758771
-0.09555901587 -0.142608285 0.7546234727 -0.1993126571 0.3337349892 0.920715034
-0.1704191417 -0.1479554623 0.7189711928 0.2797719538 -0.08369106799 0.9560320973
-0.1340445876 -0.1071366742 0.7334578633 -0.3406153917 -0.03474048898 0.9191567898
-0.10147506 -0.1055661142 0.7387375832 0.04185804352 0.1914363503 0.968534112
-0.115817599 -0.1103859171 0.7420727611 -0.1352545768 0.1338981688 0.9812024832
-0.1586240381 -0.1490479261 0.7259268761 -0.1235807985 -0.05828477442 0.8996762037
-0.1691554934 -0.1421799809 0.7254816294 0.1174259707 -0.1313932687 0.9162119031
-0.1832480133 -0.1397096217 0.7298922539 0.4204007983 -0.1948949248 0.8858806491
-0.1452992707 -0.09830447286 0.7286702991 -0.273031354 -0.1146070063 0.9522406459
-0.1320742965 -0.08153854311 0.7183710933 -0.234851554 -0.3980720639 0.4113586247
-0.1258995384 -0.07272982597 0.7125239968 -0.2098205388 -0.5460906625 0.1258580685
-0.1269431561 -0.1314717531 0.741466403 -0.5317541957 -0.05136214569 0.844244957
-0.1232949495 -0.1396443546 0.7426607609 -0.5316181779 -0.02862390503 0.8461633921
-0.123739101 -0.1149889305 0.7418026328 -0.354357481 0.04355078936 0.9299688339
-0.1303576231 -0.1101210639 0.7410548329 -0.4425096214 0.02676542103 0.8959853649
-0.1305974871 -0.1220364198 0.7410025001 -0.4939925969 -0.02983607911 0.8685338497
-0.1228284836 -0.1067792103 0.7371438742 -0.2532090247 0.09394396842 0.9423743486
-0.1305812001 -0.1144719049 0.7331374288 -0.3871243596 -0.004323027097 0.8881955147
-0.1223548502 -0.1245523095 0.7434868217 -0.4079313576 0.01526690926 0.9073973298
-0.09963455796 -0.1141015366 0.7486563325 0.01513939071 0.2478738576 0.9619250894
-0.0859458223 -0.1199807525 0.7471955419 0.01111390255 0.3225164711 0.9398876429
-0.09305799752 -0.0945109576 0.7387895584 0.1631472111 0.113586925 0.97961092
-0.09279192984 -0.105569303 0.7388598919 0.1389888823 0.2106680423 0.9647464752
-0.1383050531 -0.1354207098 0.7283037305 -0.5637879968 -0.09696827084 0.8200688958
-0.134401232 -0.1439462304 0.7313123941 -0.5864029527 -0.03112553991 0.809122026
-0.01343209855 -0.05486370996 0.7719228268 -0.03037174046 -0.1203249469 0.9922360778
-0.07867788523 -0.06846654415 0.7337130308 0.07905094326 0.05142934248 0.9477247
-0.07628329098 -0.05361432955 0.7309756875 -0.06828517467 -0.3048483729 0.9407997727
-0.09171376377 -0.04630650952 0.7350296974 0.1445903033 -0.5577532649 0.7988179326
-0.08183827996 -0.04529538006 0.7334055305 0.02316828072 -0.4130435288 0.894269526
-0.08995819837 -0.05828276277 0.7164340019 -0.5157178044 -0.4038516581 0.7220831513
-0.08835418522 -0.06780750304 0.7152602673 -0.5288383961 0.03083497286 0.8317403793
-0.07771246135 -0.03604229912 0.7313774824 0.1722322851 -0.3028335571 0.8997594118
-0.03900650516 -0.03540799767 0.7235277295 0.2722840905 -0.1398125738 0.9518190622
-0.03620580584 -0.04361496866 0.7215639949 0.2668001354 -0.1005363986 0.9582499266
-0.0418241322 -0.02805721201 0.7516888976 0.1180332601 -0.2349824607 0.9385248423
-0.03020351566 -0.04547801986 0.7698575258 -0.04971935973 -0.101499483 0.9928743839
-0.03275365755 -0.03837166727 0.7644026875 -0.001364151249 -0.1424292922 0.9756171703
-0.03114511818 -0.02955874056 0.7625102401 0.004160395823 -0.1581700593 0.9660999775
-0.02463884465 -0.03263173625 0.7701705694 -0.07460496575 -0.1027870029 0.9866025448
-0.02316405065 -0.04176266491 0.771957159 -0.05888530985 -0.09638592601 0.9934592843
-0.06605030596 -0.0187637955 0.7366267443 0.2799835503 -0.3160310686 0.9060816169
-0.05883073434 -0.02229906805 0.7438912988 0.2231791914 -0.2907757461 0.9163865447
-0.05447156727 -0.03276084736 0.7464516163 0.1682391763 -0.2283252925 0.9424403906
-0.07163950801 -0.02981898189 0.7345951796 0.2646442652 -0.2603378594 0.927303791
-0.05442573503 -0.0299264621 0.728676796 0.2802683711 -0.2224266529 0.9330452681
-0.06263315678 -0.03418917954 0.7347710133 0.2351997197 -0.2053403854 0.9452354312
-0.04503712058 -0.04396348819 0.7564041615 0.06956548989 -0.1533517092 0.9722473025
-0.03563701361 -0.009318048134 0.7313656807 0.2697959244 -0.4305152595 0.8602201343
-0.02632051893 -0.007864659652 0.7285229564 0.2567355335 -0.4707429111 0.8438705206
-0.1344950497 -0.06837431341 0.7358890772 -0.189487204 -0.0338624008 0.9805527329
-0.1356045306 -0.07619346678 0.7343069911 -0.2103147954 -0.04169442505 0.9763465524
-0.1362918764 -0.06530621648 0.7254466414 -0.1849566102 -0.2614541054 0.6238197088
-0.1224852726 -0.06357963383 0.7113296986 -0.1884108633 -0.607096374 0.006954498589
-0.1428056359 -0.07117950916 0.7306152582 -0.1932076365 -0.1027447805 0.8850718141
-0.1270527244 -0.07125283033 0.7368825674 -0.1669011414 -0.01899034344 0.9856479764
-0.136024192 -0.07457148284 0.7229678035 -0.2169979513 -0.2777161002 0.5734660029
-0.1418381631 -0.08000613004 0.7279660106 -0.2361035943 -0.1374955177 0.8189646602
-0.1099798605 -0.0947490111 0.7422914505 -0.02752849087 0.09630186111 0.9893481135
-0.1121635288 -0.07187710702 0.7174770832 -0.08866624534 -0.4714715779 0.1912157238
-0.1097212806 -0.06346058846 0.7063119411 -0.0507282652 -0.8172559142 -0.3129824698
-0.1190375164 -0.08387548476 0.7313976884 -0.1309840381 -0.0653494373 0.8288233876
-0.1176438779 -0.06926243752 0.7095795274 -0.1950010061 -0.6404440403 -0.06574107707
-0.1371479183 -0.08918110281 0.7278355956 -0.2541715503 -0.1614150703 0.8050940633
-0.1247594804 -0.07969026268 0.7211560011 -0.2002329826 -0.3360615969 0.4514351785
-0.1263016462 -0.08794690669 0.7329913378 -0.1703399271 -0.02419256046 0.9419391155
-0.115677543 -0.07709796727 0.7230485678 -0.1381037235 -0.2850842476 0.4676480293
-0.1067951992 -0.08622356504 0.7321591377 0.03067561984 -0.1046870053 0.7446317673
-0.1061674431 -0.0769668594 0.7223438025 0.06904833019 -0.4249972403 0.2980603278
-0.09758747369 -0.06401430815 0.7127815485 -0.3694945574 -0.3256851137 0.293869257
0.01112256851 -0.04020047188 0.7747115493 -0.006052215584 -0.1535477191 0.9872440696
-0.006696800701 -0.04930448905 0.7730725408 -0.06132346392 -0.1358773708 0.9885797501
0.004011887126 -0.04684662446 0.7733902931 -0.05333543569 -0.1496261805 0.9872708917
0.001433758298 -0.03940584511 0.7611216307 0.193204686 -0.3060531318 0.6983118653
-0.007265401073 -0.04175709561 0.7740914226 -0.08325104415 -0.1255106181 0.9881846905
-0.02547872812 0.01145311818 0.7534864545 0.1239169016 -0.4770978093 0.8375781178
-0.03099171631 0.00563871162 0.7385225296 0.2182020843 -0.555343926 0.8022215962
-0.1624178737 -0.1140935123 0.7238992453 0.1564839482 -0.236795634 0.9490031004
-0.1739663333 -0.109424524 0.7322505713 0.3104575574 -0.2325739861 0.9208210111
-0.1502761543 -0.1149193048 0.7257505655 -0.2824191749 -0.1954776794 0.9187504053
-0.155242011 -0.1058033779 0.7262715101 -0.08964080364 -0.2127079964 0.9726139903
-0.1413500011 -0.1183682829 0.7298089862 -0.5117082 -0.1390597224 0.847001791
-0.1461517811 -0.1083332598 0.7279310822 -0.3463797569 -0.1634625345 0.9182423353
-0.1731452048 -0.1258031726 0.7249910831 0.4058678746 -0.2046604306 0.8899154663
-0.1656675786 -0.123145394 0.7214376926 0.2627273202 -0.2311819643 0.9352974296
-0.1585710198 -0.1445514113 0.7186536193 -0.08651899546 -0.04826009274 0.9848753214
-0.1602020562 -0.1298255324 0.7190000415 0.0114791505 -0.2034438848 0.9780031443
-0.1550412476 -0.1361469179 0.720046699 -0.1956226975 -0.1201354489 0.9688642621
-0.1152786687 -0.08979553729 0.7371760607 -0.08400789648 0.08581317216 0.9923315048
-0.1398971379 -0.1116917133 0.7361765504 -0.3913942277 -0.04018054903 0.88147825
-0.1647556573 -0.1076722518 0.7339348793 0.1026480496 -0.1781303287 0.9178386927
-0.1554029733 -0.1119917259 0.7347869873 -0.08275216818 -0.1312621683 0.8932788968
-0.165529713 -0.1153692827 0.7331376076 0.1223221868 -0.198081702 0.8849157691
-0.1324496418 -0.1308934093 0.7356667519 -0.5579838157 -0.07306998223 0.8247543573
-0.1149350032 -0.1189076751 0.7440136671 -0.1911024451 0.09896404296 0.9720708728
-0.1348297894 -0.123644501 0.7329421043 -0.5236873031 -0.08243609965 0.8416640162
-0.1421768963 -0.1286181957 0.7307807207 -0.4260033369 -0.1092442721 0.8550169468
-0.1502450854 -0.1255847663 0.7323901057 -0.214687705 -0.1421160847 0.8492347598
-0.1682912409 -0.1231310666 0.730710566 0.1791029721 -0.1919271946 0.865799129
-0.0342832841 -0.07388152182 0.7590802908 -0.008751149289 0.1078158915 0.9357506037
-0.04277343303 -0.06919020414 0.7474395633 0.05985917151 0.02491447516 0.9482784271
-0.04035009444 -0.07810953259 0.7459629178 0.01198435668 0.2982698083 0.8839047551
-0.04327000305 -0.08267097175 0.7371873856 0.02371720038 0.4264369309 0.8493019938
-0.04581224918 -0.07395984232 0.738291204 0.07200249285 0.1589715928 0.9121021628
-0.05001290515 -0.06781580299 0.7344270945 0.1270226389 -0.03640613332 0.955422461
-0.03029041737 -0.08004101366 0.7624179721 -0.04645239934 0.03281026334 0.92661798
-0.02574728057 -0.07524263114 0.7688835859 -0.07955279946 -0.2046788037 0.9518322945
-0.03031425551 -0.09065578133 0.7544310093 -0.1068377942 0.07306706905 0.8462275863
-0.04039943591 -0.09990303218 0.7433381081 -0.03937400877 0.5065591335 0.8100565672
-0.003019245109 -0.07111273706 0.7564177513 0.195505172 -0.422943145 0.6034875512
0.002311947756 -0.06633538008 0.7478003502 0.4073686004 -0.6555292606 0.3447468579
-0.001781379106 -0.06395161152 0.7708646655 -0.03466187045 -0.1366915554 0.9898976088
-0.01714388095 -0.07120338827 0.7694826722 -0.02787440829 -0.1221297979 0.9921001196
-0.007722900715 -0.07119699568 0.7693229318 -0.02895100787 -0.1255687028 0.9916568398
-0.03175526485 -0.05357924104 0.7718574405 -0.02647197805 -0.1088015214 0.9936859608
-0.02313586697 -0.05032039061 0.7720516324 -0.03606905788 -0.111518085 0.993005991
-0.0724356994 -0.05007244647 0.7240498662 -0.09363990277 -0.2728887796 0.8748036027
-0.08214259893 -0.06006808579 0.720593214 -0.3887734711 -0.1518873125 0.8601616621
-0.05792020634 -0.04100703821 0.7281707525 0.2152405828 -0.1341947466 0.9646930099
-0.0692006126 -0.03633700684 0.7294629216 0.1756485552 -0.2473182827 0.9089239836
-0.08157168329 -0.04190315306 0.7230907679 -0.1164332777 -0.4243621826 0.7729783058
-0.093916215 -0.04964007065 0.7162430286 -0.446094811 -0.599886477 0.6395260096
-0.08368850499 -0.05212178826 0.7202543616 -0.3183563054 -0.4418576956 0.7651795149
-0.06180888042 -0.07914646715 0.7303617597 0.09920895845 0.2171302736 0.9203910232
-0.05468125269 -0.06636118144 0.7273774743 0.1638252437 -0.09122218937 0.9639185667
-0.04836567119 -0.07991428673 0.7293409705 0.07567887753 0.3299399614 0.8674179316
-0.07651180774 -0.1024374366 0.7362390161 0.08375188708 0.3240674138 0.9392145872
-0.03523327038 -0.08206488937 0.7551534772 -0.01031123474 0.2015553266 0.9127981663
-0.03792469203 -0.0879869014 0.7490105033 -0.01135939732 0.3484876454 0.8726091981
-0.04545017332 -0.08926825225 0.7313293815 0.02164223604 0.5787967443 0.813393712
-0.04993903264 -0.04178421944 0.7263705134 0.2726477981 -0.1122419238 0.9547945261
-0.01339152735 -0.08035930246 0.73576653 -0.1872692257 0.191118136 0.8128957152
-0.003779391525 -0.07390927523 0.7424621582 0.3531422019 -0.7136993408 0.2208544463
-0.01207070705 -0.07913608104 0.7451120019 -0.009295049123 -0.1985562891 0.6777541637
-0.01490032487 -0.08042258024 0.7584519386 0.02009359747 -0.4143842161 0.7542935014
-0.02442805283 -0.02365501225 0.7214363217 0.270140022 -0.3078096211 0.9022239447
-0.02003109455 -0.03399048001 0.7538666129 0.04369094223 -0.1286365539 0.9745087624
-0.01809789054 -0.02600136586 0.7454762459 0.1147055253 -0.2526452541 0.9236867428
-0.02569708414 -0.03130045533 0.7279757261 0.2152148336 -0.2017440498 0.9422597289
-0.02136963792 -0.02740442753 0.73624295 0.1707536876 -0.2454200238 0.9255859256
-0.01924076676 -0.01669901796 0.7233142853 0.2767002583 -0.4138827622 0.8563783169
-0.01828113198 -0.01962394081 0.7324745059 0.2117372602 -0.3602057695 0.8789803982
-0.0324061662 -0.02476433292 0.7228938937 0.2693673074 -0.2670533955 0.9245212674
-0.02802530676 -0.01694445126 0.7241645455 0.279374063 -0.3782959282 0.8804727197
-0.01537012681 -0.03079826199 0.7668553591 -0.04014671221 -0.1392518878 0.9708127379
-0.01591985673 -0.02141335979 0.7531832457 0.04459182918 -0.2395093888 0.9264219999
-0.02487219498 -0.05846932158 0.7718083858 -0.02389304154 -0.1147617251 0.9930963516
-0.01628552191 -0.06356585771 0.7710025907 -0.02788345143 -0.1221466362 0.9920978546
-0.0265674144 -0.06757799536 0.7713150382 -0.02178121731 -0.1107820719 0.9936006665
-0.0416389741 -0.0623431839 0.7602313161 0.007921975106 -0.131897226 0.9893810153
-0.04008169472 -0.05476659909 0.7619338632 -0.01090908609 -0.1204394028 0.9910578728
-0.0483295843 -0.06353147328 0.7493458986 0.04980609566 -0.1440216154 0.984969914
-0.05765284598 -0.06355029345 0.7356359363 0.09389874339 -0.1618058383 0.9798233509
-0.03524115682 -0.06378015131 0.7660835385 0.007144352887 -0.1150170714 0.9908509254
-0.05532956868 -0.0561934337 0.7429932356 0.04093226045 -0.1464583129 0.9864192605
-0.06480874866 -0.05573713034 0.7312783003 0.0715643838 -0.1550201774 0.9851000309
-0.04805734381 -0.05407755449 0.7520359159 0.01404410228 -0.1291535199 0.9895787239
-0.06174022332 -0.04679650068 0.7349972129 0.1102364287 -0.1349060833 0.9828754067
-0.05125328153 -0.04833744094 0.748026073 0.0575507842 -0.1225863174 0.9869307876
-0.07561586052 -0.09278465062 0.7343136072 0.191626668 0.3174467385 0.9277594686
-0.08404626697 -0.07882950455 0.7370300889 0.2825061083 0.275703311 0.9178011417
-0.07727452368 -0.08280276507 0.7271206975 0.1087602749 0.257299006 0.9260957837
-0.08377146721 -0.07681360096 0.7212082148 -0.2487120181 0.129151091 0.9154815674
-0.06111911312 -0.1047806367 0.740101099 -0.08956506848 0.4596799314 0.8773472905
-0.06792863458 -0.1030565575 0.7361083627 -0.002655775519 0.4176118076 0.9070384502
-0.06927018613 -0.06687170267 0.7313994169 0.1255775988 -0.07462859899 0.9646899104
-0.07465416938 -0.07746128738 0.7334583998 0.197679922 0.19482629 0.9343098998
-0.0597143434 -0.09317422658 0.7335653305 0.04728108644 0.4275671542 0.8897584081
-0.04679027945 -0.09910114855 0.7380208969 -0.03829284385 0.5610440373 0.8245024085
-0.03072069399 -0.04924610257 0.7198418379 0.1527507901 -0.08024498075 0.9687287807
-0.02861147001 -0.0578330867 0.7211419344 0.05783727765 -0.07050277293 0.9313254952
-0.01808619685 -0.05964101851 0.7259199023 0.2605847418 -0.3968499303 0.5633528829
-0.02271353267 -0.05225249752 0.7233575583 0.2711856067 -0.3054967523 0.7036179304
-0.003340122523 -0.06856425852 0.7330865264 0.4661279619 -0.818893671 0.04846065864
-0.01573391072 -0.06898920983 0.7276569605 0.2016894668 -0.425352782 0.475695461
-0.01243183948 -0.01802851819 0.7450917959 0.1205465868 -0.3124993145 0.8997046947
-0.006715248805 -0.02237793989 0.7666425109 -0.0375344865 -0.1704733968 0.9594404101
-0.01251308247 -0.01142852567 0.7374029756 0.1856248379 -0.4152101874 0.8532523513
-0.005283799954 -0.01196088828 0.743894875 0.1550499052 -0.424944073 0.8183143139
-0.009694356471 -0.007444649003 0.7303629518 0.2528119981 -0.5195878744 0.7861791849
-0.01178048458 -0.02082657069 0.7745889425 -0.1265237778 -0.0822885409 0.9884265065
0.007858720608 -0.03335087746 0.7626051307 0.2105916291 -0.3122054338 0.6987318397
-0.0002824806434 -0.02689185552 0.7732644677 -0.03434916958 -0.1495254487 0.9282110929
-0.003150663571 -0.03430619091 0.7753425241 -0.1082206815 -0.1170106754 0.9869621992
-0.0005472426419 -0.033624731 0.7676830292 0.05664067343 -0.217461735 0.8273912668
-0.003436344909 -0.00923021324 0.7610250115 0.02228433825 -0.2307392359 0.9168930054
-0.00487847859 -0.01781905442 0.7596026659 0.02681696229 -0.2638923228 0.9028380513
0.00269524008 -0.01837508567 0.7780445814 -0.05034697801 -0.1080873609 0.9915617704
-0.01026142482 -0.02849851921 0.774602592 -0.1031080708 -0.09345385432 0.9901062846
-0.06754036248 -0.08756841719 0.7277552485 0.1109602973 0.4100207984 0.8946533799
-0.06990084797 -0.06480834633 0.7205563784 -0.2097850591 -0.004135728814 0.9366034269
-0.05976912379 -0.05712858588 0.7251414657 0.0873317644 -0.09106612206 0.9745767713
-0.05246623605 -0.06853447109 0.719404459 0.08367495984 -0.002907305956 0.9765840769
-0.07424639165 -0.05882250518 0.7235425711 -0.2179098427 -0.04946188256 0.9342095256
-0.04812450334 -0.05742393062 0.7223126292 0.2098497152 -0.05437760055 0.9725371003
-0.05272679776 -0.0516804494 0.7253511548 0.1996895075 -0.1004030257 0.9710330963
-0.03939544782 -0.05836153403 0.7223985195 0.1971798241 -0.06724338979 0.9745913744
-0.0328534022 -0.06775398552 0.7211521268 -0.05346566066 0.02442114614 0.9910049438
-0.02563925646 -0.08491825312 0.7218019366 -0.1629460752 0.4567465782 0.872995615
-0.01006588433 -0.07539337873 0.7309711576 0.09778993577 -0.2237906307 0.4475625753
-0.02305357531 -0.08743815869 0.7387651801 -0.1723574847 0.3517751396 0.8280015588
-0.0246145837 -0.0881619826 0.7484136224 -0.08092141896 0.1131329909 0.8000326753
-0.03278369457 -0.09441716224 0.7469650507 -0.06800801307 0.3246228397 0.7799381614
-0.02233345062 -0.08591689169 0.7593104839 0.00952488184 -0.2409236878 0.7801359892
-0.02082618326 -0.08491519094 0.7298031449 -0.2199108601 0.4617602825 0.8540279269
-0.03621106222 -0.09602861851 0.7353615165 -0.1095100939 0.5910797715 0.7961710691
-0.02983384579 -0.08998396993 0.7281771302 -0.142483905 0.5299840569 0.8298383951
-0.03788647801 -0.09173127264 0.7237539887 -0.08959270269 0.545308888 0.8330342174
-0.0487431474 -0.09861606359 0.7301675677 -0.09269052744 0.5355519652 0.8380759954
-0.05282853916 -0.1049514487 0.7351132631 -0.1136964262 0.5308429599 0.8384101987
-0.02613945119 -0.07440737635 0.7234341502 -0.1688397974 0.1598557085 0.9633055925
-0.01812284812 -0.07723152637 0.7276648879 -0.2394516021 0.3420111239 0.8957250714
-0.06156301126 -0.06886352599 0.7187771201 -0.06521142274 0.02353971824 0.9552515745
-0.03644606471 -0.08321280032 0.7195212841 -0.01439585164 0.3395633399 0.8969687819
-0.04306079447 -0.07297997922 0.7199276686 0.09509523958 0.06935530156 0.9863188863
-0.05763204396 -0.08636832982 0.7253015041 0.09573250264 0.4004042149 0.9067096114
-0.0480213277 -0.08586548269 0.7229773998 0.04053970426 0.4133166671 0.895095706
-0.05133696273 -0.078160882 0.7202066779 0.1143781394 0.1624566019 0.9616305232
-0.05960440636 -0.07852503657 0.7205729485 0.0116195092 0.2121499181 0.940084219
-0.07448560745 -0.076630041 0.7201339602 -0.1779205501 0.2173778713 0.9103472829
