# .PCD v0.7 - Point Cloud Data file format
VERSION 0.7
FIELDS x y z normal_x normal_y normal_z
SIZE 4 4 4 4 4 4
TYPE F F F F F F
COUNT 1 1 1 1 1 1
WIDTH 512
HEIGHT 1
VIEWPOINT 0 0 0 1 0 0 0
POINTS 512
DATA ascii
-0.05768780038 -0.1045924649 0.7977476716 -0.1325263977 -0.5557454824 0.7350759506
0.01221372094 -0.08628789335 0.7567656636 0.4268221557 -0.2686029375 0.6824170351
0.01251372974 -0.07054483891 0.7648379803 -0.01581179164 -0.5713323951 0.5820406675
0.01368469838 -0.07970141619 0.7489951849 0.3737924397 -0.1261663139 0.8721084595
0.01330881752 -0.07396952063 0.756249249 0.1660806686 -0.3387210667 0.7444032431
-0.05831567571 -0.08925078809 0.8014800549 -0.2107711881 -0.1558907032 0.9649863839
0.01262960676 -0.09319651127 0.7502022386 0.6167616844 -0.0722547248 0.7673382163
0.006069537252 -0.09751167893 0.7551786304 0.4614167511 0.01598128676 0.8710715175
-0.1457298845 -0.02653410845 0.7297610044 -0.5997614861 -0.5673499703 0.2461835444
-0.149158746 -0.02013955079 0.7517642975 -0.2315704972 -0.4978339374 0.7191784382
-0.001817768207 -0.09095442295 0.8058766723 0.1356845945 -0.47797212 0.6877697706
-0.06460544467 -0.0933233425 0.7993246913 -0.2094251513 -0.160691008 0.9645276666
-0.1287013888 -0.05576071143 0.7313070297 -0.844498992 -0.1284898221 0.5089349151
-0.01247418299 -0.09397651255 0.809465766 -0.07913889736 -0.2027533799 0.9759078622
-0.0201678779 -0.08507054299 0.8107269406 -0.08200890571 -0.1626098007 0.982945919
0.002075623488 -0.09312339127 0.7802405357 0.2833813429 -0.3868349493 0.6838064194
0.006357375998 -0.07976836711 0.7777454257 0.02840504982 -0.5841032267 0.5948562026
0.007554322481 -0.07533170283 0.7703768611 -0.04392166436 -0.505797863 0.6414538026
0.0008557963301 -0.09500822425 0.7627411485 0.3531576395 0.03365096077 0.9042234421
0.004815697204 -0.08520931751 0.7846419215 0.1211545765 -0.633063674 0.5626293421
0.003834446892 -0.08902184665 0.7923460603 0.1807092428 -0.7305346727 0.5066092014
0.01068835147 -0.06554485112 0.776653707 -0.2240990549 -0.6637878418 0.5537418723
0.008070584387 -0.07392991334 0.785261333 -0.06394983828 -0.5945584178 0.5712951422
-0.2464210391 -0.09993900359 0.7268288732 0.003907257225 0.1778769791 0.9801931977
-0.238436088 -0.09464130551 0.7244514823 -0.03322407603 0.1724935919 0.9808411002
-0.24954319 -0.08816776425 0.7248122692 0.09192416817 0.04217753932 0.9939128757
-0.1357889473 -0.04005974531 0.7248054147 -0.7941897511 -0.509350121 0.1243258044
-0.1113292649 -0.0888864696 0.7381728888 0.05042558163 0.02795322984 0.9965719581
-0.1183129922 -0.08467893302 0.7377929688 0.1115207151 0.02977481857 0.9812754989
-0.1230791137 -0.07449889183 0.7332550883 -0.3096229732 -0.03146746755 0.8059814572
-0.2209773511 -0.093303442 0.7327933311 -0.4949171841 0.2388350815 0.8294110298
-0.2137733996 -0.09203338623 0.7355968356 -0.6143901348 0.2210836858 0.7556775808
0.003692169208 -0.08370003104 0.8008421063 0.2192014307 0.1454267651 0.8679804802
0.009710266255 -0.06427826732 0.7849484086 -0.2023885399 -0.5299771428 0.5959744453
0.006878626067 -0.07188362628 0.7945397496 -0.02211178467 -0.2224593014 0.7149404883
-0.01164097898 -0.08286257088 0.8118350506 -0.0764836818 -0.1537905186 0.9851389527
-0.1985241473 -0.02660927922 0.7547951341 -0.1531575322 -0.4015883803 0.9024112821
-0.02750603855 -0.07720310241 0.8091425896 -0.148477003 -0.1065483764 0.9810618758
-0.05686416849 -0.08072540164 0.8022557497 -0.2155451477 -0.1337950081 0.9671145678
-0.1224822924 -0.03010674566 0.7425152063 -0.5104762316 -0.4341278076 0.5763261914
-0.1282739937 -0.03475186229 0.733825624 -0.7102656364 -0.419591397 0.4195676744
-0.1424531639 -0.02437054552 0.7387171984 -0.478302598 -0.5604875684 0.4634957612
-0.1396662146 -0.02019898221 0.7548859119 -0.2402921319 -0.4539673626 0.7578591704
-0.1397818625 -0.02254020795 0.746456027 -0.3739661574 -0.4961102009 0.6025092006
-0.02782583237 -0.08978479356 0.8077535033 -0.170612663 -0.1748657376 0.9683705568
-0.2454648167 -0.07628954947 0.7303333879 -0.01923874207 -0.04447733238 0.9496000409
-0.2331012934 -0.08105322719 0.7301962972 -0.2570849359 0.05635269731 0.906206429
0.01132167783 -0.05154557154 0.7858188152 -0.3975447714 -0.7749251127 0.4910114706
0.00304880063 -0.04186351225 0.7878928185 -0.3863475025 -0.7278641462 0.5657348037
-0.004098967649 -0.04396224022 0.782566607 -0.3840987086 -0.7184720039 0.5796703696
-0.02418376878 -0.06150598451 0.8036070466 -0.2054939568 -0.2073407918 0.9068621993
0.008548780344 -0.07368886471 0.7477195263 0.1025783718 -0.1759265214 0.941514194
0.008073710836 -0.06477665156 0.7521201372 -0.4458269775 -0.6153518558 0.6406578422
-0.01703569293 -0.05570985377 0.8003876209 -0.2353294194 -0.3445189297 0.8278336525
-0.01101019792 -0.04726671055 0.7960202694 -0.2878446877 -0.5046197772 0.730432272
-0.01474037487 -0.06956426799 0.8069905043 -0.1214152798 -0.1980268657 0.9389529824
-0.01262907218 -0.06132226437 0.8028950095 -0.1809403151 -0.3185614944 0.8588536978
-0.003989385441 -0.05529884622 0.7993963361 -0.2412618548 -0.4626895785 0.7682626247
-0.003784422763 -0.06344198436 0.8032696247 -0.1880134642 -0.3617576063 0.8368966579
-0.001968401019 -0.04817043617 0.7953490615 -0.2998251319 -0.5717843771 0.690282464
0.00220282143 -0.09933274984 0.7728933096 0.2765735984 -0.2067528814 0.7690503597
0.002708151238 -0.09380219877 0.7994214892 0.2458420545 -0.8047680855 0.4612404704
0.002588979434 -0.0960469991 0.7885785699 0.2592187524 -0.5621742606 0.5865699053
-0.2316931784 -0.1085664555 0.731046319 -0.3149053156 0.3890380561 0.8571052551
-0.237634927 -0.1035960168 0.7270591259 -0.1336208582 0.3011384606 0.9421293139
-0.231267482 -0.09955159575 0.7311924696 -0.3305634856 0.2797605991 0.8810070753
-0.1026309431 -0.09822707623 0.7551956773 0.01194276754 0.3042293191 0.8959738612
-0.1094623655 -0.09576360881 0.751732111 0.03170821443 0.2017810792 0.8864033818
-0.09789998084 -0.08962663263 0.7547131777 -0.08961568028 0.02476397529 0.9497616291
-0.2273356616 -0.09080645442 0.7268679738 -0.3505507708 0.1912154704 0.9137837291
-0.2347362489 -0.08737932146 0.7228053808 -0.07326968014 0.06098577008 0.9909949899
-0.1784078479 -0.04259548336 0.7353569865 -0.3459196091 -0.3738983572 0.5810189247
-0.1823115498 -0.03980068117 0.7437962294 -0.2606897354 -0.2628316879 0.8635574579
-0.1542216539 -0.04080008343 0.7248811126 -0.520039618 -0.6226007938 -0.02298463881
-0.1659978479 -0.03868025169 0.7365319729 -0.3798119724 -0.4326652884 0.4507203996
-0.1740820706 -0.03882531822 0.7410290837 -0.3131850362 -0.3390735984 0.6799073219
-0.1414305568 -0.03282700107 0.7197169662 -0.7502018213 -0.6444020867 0.002575909253
-0.15942128 -0.03562705591 0.7320818901 -0.4850031137 -0.4892350733 0.3511544466
-0.2086620331 -0.05941347033 0.74467206 -0.3761622608 -0.05849878117 0.833883822
-0.202922374 -0.06706500053 0.7462826967 -0.490693152 0.09174771607 0.8067410588
-0.1312296987 -0.06322684139 0.7277678251 -0.7056331038 -0.01918692142 0.59718436
-0.1251413971 -0.06340631098 0.7368325591 -0.6499855518 0.09302570671 0.7401796579
-0.1487959027 -0.06271680444 0.7376264334 -0.4394312799 0.006735285278 0.7486821413
-0.1555668414 -0.06506388634 0.7425965667 -0.2571069002 0.06313227117 0.863941431
-0.1420494765 -0.0639795512 0.7336970568 -0.5189327002 0.0534058474 0.727083683
-0.1502914727 -0.04884426296 0.7279692292 -0.4447142184 -0.4702588916 0.09904830903
-0.1487822086 -0.05539272726 0.7328333259 -0.4776536822 -0.2297042906 0.4435323477
-0.141798988 -0.05279428512 0.7275850177 -0.674428761 -0.3016873896 0.3172297478
-0.1708044261 -0.1066430435 0.7568368912 0.009289587848 0.2724928558 0.9447794557
-0.1791806668 -0.1078298613 0.7581812739 -0.0887112096 0.2445163131 0.9530118108
-0.1318329722 -0.1116058081 0.7568225861 0.1278820336 0.4787998199 0.8675958514
-0.006376674864 -0.07761858404 0.8099533916 0.0139392009 -0.04076933488 0.9712483287
9.218294872e-05 -0.07611382753 0.8027346134 0.1562286466 0.08798640966 0.8559930325
0.001678481232 -0.06840053946 0.7994707227 0.01488292404 -0.1197533384 0.7720779181
0.00756091252 -0.05841362476 0.7911559939 -0.2342056036 -0.5171755552 0.6009757519
-0.134146899 -0.01846557297 0.7635638714 -0.1354721487 -0.3734922707 0.9095225334
-0.1333374679 -0.02499740012 0.740580976 -0.4978344738 -0.5062954426 0.4832431674
-0.1356778145 -0.02781608328 0.7293583751 -0.6627708673 -0.5656857491 0.2829628289
-0.1217689887 -0.02156441659 0.7571538091 -0.2190524191 -0.4398300052 0.8046556711
-0.1280444562 -0.0238397643 0.7466588616 -0.3923593163 -0.4845752418 0.6035226583
-0.120482482 -0.02380222082 0.7491590977 -0.3168858588 -0.4903596044 0.6760535836
-0.1183031946 -0.02260848321 0.7646340132 -0.1365812868 -0.4172493219 0.8974459767
-0.1433935314 -0.01983286254 0.7620671988 -0.1049331427 -0.327487886 0.9389591217
-0.1585011631 -0.01848696545 0.7603628635 -0.1181762442 -0.4062337279 0.899369657
-0.03870426118 -0.08490808308 0.8066680431 -0.2284025997 -0.1407420635 0.9633135796
-0.0500921309 -0.07621631026 0.8034470081 -0.2213705331 -0.1117325351 0.9687281251
-0.06670872867 -0.08354962617 0.7997869849 -0.2490165234 -0.1282039732 0.9567298889
-0.07749403268 -0.07859619707 0.7968509793 -0.3809709847 -0.09896330535 0.9161438346
-0.06431672722 -0.07049336284 0.7986742854 -0.2216459811 -0.1918543577 0.9330497384
-0.06667611748 -0.06391359866 0.7944943309 -0.2207212001 -0.2786928117 0.8873968124
-0.06907904148 -0.05577566847 0.7896295786 -0.2193747908 -0.384755075 0.8317667842
-0.07201258838 -0.07274933159 0.7950716615 -0.2253078371 -0.18421112 0.9349343181
-0.06012355164 -0.05723905191 0.7949938178 -0.2209839076 -0.3033797741 0.8656858802
-0.0566723682 -0.06785813719 0.8008294106 -0.228538096 -0.1138122156 0.9514828324
-0.06060145423 -0.04970323667 0.7916485667 -0.2179914415 -0.4060481489 0.8147310019
-0.1000083014 -0.06409139931 0.7474816442 -0.153467223 -0.1980389059 0.9005291462
-0.103626661 -0.07782167196 0.7414633036 -0.2093952596 -0.1611354947 0.9176581502
-0.1079187468 -0.07072406262 0.7432004213 -0.3312620223 -0.135807246 0.8714642525
-0.1155875474 -0.06669830531 0.7423396111 -0.52266258 -0.09292323142 0.8031881452
-0.1152005941 -0.07448574901 0.7399746776 -0.2996738255 -0.08575753868 0.8911053538
-0.09897906333 -0.08344329894 0.7596099973 -0.2151351124 -0.1862374693 0.9292728901
-0.09317904711 -0.08566182852 0.7677485347 -0.2887459397 -0.09334513545 0.9035718441
-0.08517677337 -0.09090080857 0.7737861276 -0.3066722751 0.1070807204 0.8954973221
-0.09214451909 -0.08976650983 0.7603604198 -0.159457162 0.04627714679 0.9456210136
-0.0290807765 -0.1088983491 0.7666281462 0.2106538564 -0.966494143 0.1436057836
-0.03716550395 -0.1054128557 0.7949491143 -0.05212109908 -0.6840440631 0.6755703092
-0.03100986779 -0.1063689664 0.7886087894 0.01417619921 -0.6635584235 0.5869809389
-0.02865609154 -0.1040131226 0.7990406752 -0.06767401844 -0.445207715 0.8274585009
-0.03026789986 -0.1090790033 0.7755865455 0.1243793815 -0.8618097305 0.3147181571
-0.2563351691 -0.09812648594 0.7310768366 0.03541926667 0.1370648444 0.9887114763
-0.242772162 -0.08897815645 0.7306842208 -0.1343760937 0.1205120906 0.9263809919
-0.2566439211 -0.08271948248 0.72903651 0.1410098821 -0.01537084393 0.9893737435
-0.250831306 -0.06815056503 0.7298765182 0.1511648744 -0.1996914893 0.9672282338
-0.007173839025 -0.03770223632 0.7865349054 -0.3662700653 -0.706987977 0.6046926379
0.003490331583 -0.08170549572 0.7506201267 0.2575488985 -0.02822148241 0.9451178908
-0.008012163453 -0.09234579653 0.760910213 0.1296803653 0.2509191334 0.9260850549
-0.0001926432888 -0.1027089134 0.7579109669 0.2941907942 0.1595423073 0.93780303
-0.006079010665 -0.09951425344 0.8016428947 0.0131466575 -0.3257498145 0.8608958125
-0.007591185626 -0.101599291 0.7894484997 0.03745260835 -0.07548246533 0.9530194998
-0.007352673914 -0.1023367271 0.7786169052 0.1005352437 0.05140763894 0.9579495192
-0.005048526917 -0.1015038192 0.7691578865 0.2106055021 0.03579539061 0.8603590727
-0.01390478946 -0.100522548 0.7651239038 0.165318802 0.129397586 0.7493832111
-0.02028783038 -0.1080050468 0.7646538615 0.2072324306 -0.5300945044 0.4331454933
-0.01626806334 -0.1033206806 0.7907193303 0.0920150727 -0.5251819491 0.5759342909
-0.02127680182 -0.1065502688 0.7796182036 0.1497306824 -0.7268161774 0.3668429554
-0.01688641123 -0.104916364 0.7717502713 0.2936311662 -0.8371400833 0.09057027102
-0.01966697723 -0.1030504331 0.8014695644 -0.05092755705 -0.3444218636 0.8818574548
-0.1044389531 -0.09272687882 0.7388591766 -0.01876136102 0.06039303541 0.9957674146
-0.2235984951 -0.1113069281 0.7364640832 -0.4537988305 0.3980902135 0.7922555804
-0.2244342417 -0.1034546643 0.7324430346 -0.4535700083 0.3436964154 0.8215697408
-0.2402964383 -0.1104397625 0.7385491729 -0.2238558233 0.2688322961 0.8917965293
-0.2244345546 -0.1158081517 0.7432723641 -0.4561953247 0.3642124534 0.7922788858
-0.2456163019 -0.1094419584 0.7305886149 -0.09287578613 0.3055290878 0.9451465607
-0.2316232175 -0.1153978109 0.7370361686 -0.340785563 0.4033404887 0.8343500495
-0.2237323076 -0.0452135466 0.7409704924 -0.1224263832 -0.4294042587 0.8786235452
-0.1915587336 -0.03751856089 0.7451100945 -0.240068838 -0.2889091074 0.9258530736
-0.1692857891 -0.02902656049 0.7444320321 -0.3067011833 -0.3185835183 0.7591776252
-0.1558292806 -0.02821977437 0.7318936586 -0.5385441184 -0.473878175 0.3776800931
-0.1787631214 -0.03400091454 0.7492027283 -0.2241703868 -0.2470347136 0.9419275522
-0.2069058418 -0.05217751861 0.7351657748 -0.2856598794 -0.23331213 0.9247586131
-0.1884261519 -0.06550166756 0.7436817884 -0.3707183599 0.09667926282 0.8797766566
-0.1976533532 -0.06225596368 0.7412455678 -0.5003581047 0.08361903578 0.8410871625
-0.1723097116 -0.06910651922 0.74747473 -0.1288328022 0.08902193606 0.9600870013
-0.2104352564 -0.0877250731 0.7424692512 -0.5873926878 0.1957324147 0.7767330408
-0.206412524 -0.07394560426 0.737470746 -0.6315052509 0.1328094751 0.7633528709
-0.1892579794 -0.07358455658 0.7458667159 -0.4149280787 0.1662693471 0.8369834423
-0.1805091053 -0.07248757035 0.7474717498 -0.2629809678 0.1415564418 0.9001936913
-0.2020470947 -0.07599309832 0.7437860966 -0.6318349242 0.2050112635 0.7474099994
-0.2218716443 -0.05416667089 0.7391058803 -0.2039454877 -0.3087001443 0.8548485041
-0.2329446822 -0.04990335554 0.7374031544 -0.03909675032 -0.4418628216 0.8900263906
-0.1639229357 -0.04755986109 0.7353374362 -0.3750358522 -0.3034948409 0.4243661165
-0.1630846262 -0.0553396754 0.7403200269 -0.2383965552 -0.1452864856 0.6315526366
-0.1750961244 -0.05131969228 0.7448823452 -0.2431931943 -0.05039196089 0.8509330153
-0.1564596742 -0.05485355109 0.7358927727 -0.28488639 -0.2570444345 0.430346638
-0.1292491257 -0.06983946264 0.7332052588 -0.1954044253 0.2498679161 0.8949468136
-0.1311876029 -0.07812672108 0.7387906313 0.02711691335 0.1585172415 0.9339148402
-0.1927287728 -0.1206176728 0.7630527616 -0.3597616851 0.2327089459 0.8975613713
-0.1670216322 -0.09804410487 0.7559919357 0.1316740811 0.2240604907 0.9632735848
-0.07162185013 -0.09687063098 0.7960122824 -0.2083147913 -0.209182471 0.9384525418
-0.07034344971 -0.1065165997 0.7947508097 -0.2542189956 -0.5363283753 0.7509700656
-0.07905180007 -0.1038357988 0.7929749489 -0.482845366 -0.4049690068 0.7200108171
-0.1382006258 -0.09309114516 0.7477597594 0.2336705923 0.2209007293 0.9449958205
-0.1297277063 -0.08776717633 0.7429609895 0.2185918838 0.1506554335 0.9603226781
-0.1235908791 -0.05859385803 0.7525021434 -0.06841250509 -0.2571757436 0.8939890862
-0.1351312399 -0.06910074502 0.7535464168 0.3517537415 -0.1012881696 0.9196808934
-0.1456062347 -0.1116562039 0.7587026954 0.1607026458 0.4180860817 0.8939861655
-0.003089370904 -0.04962945729 0.7760891318 -0.3784231544 -0.757502377 0.5315885544
0.003751231125 -0.05273782834 0.7776140571 -0.3696724176 -0.7807675004 0.5025750399
0.005134196486 -0.08732204139 0.7594542503 0.3846020997 -0.1119025573 0.7962235808
0.008656349964 -0.07764989138 0.7616509199 0.2186966389 -0.3537971377 0.6733705997
-0.001100518275 -0.05428192019 0.7674171925 -0.3438279927 -0.7805805206 0.520170629
0.0004650731862 -0.05922588333 0.7549908161 -0.3120350242 -0.757278502 0.5599997044
-0.04964260384 -0.09468203783 0.8020751476 -0.2126701027 -0.1624162048 0.9635035396
-0.05050477758 -0.08614259213 0.803217411 -0.2171137333 -0.1461203992 0.9650834203
-0.03790184855 -0.05796882138 0.7541308403 -0.1081382483 -0.6355620027 0.7632167339
-0.02874796651 -0.05570910126 0.7549099922 -0.1567959785 -0.6936492324 0.7006620765
-0.02690613642 -0.06723471731 0.7551509142 -0.116757527 -0.7515005469 0.6120073795
-0.03306825459 -0.08227050304 0.7600262165 0.01783439331 -0.8112435341 0.4683319032
-0.02604498342 -0.07976869494 0.7588486671 -0.005586343817 -0.8277083635 0.4489601851
-0.02747011557 -0.1007818654 0.7653566599 0.1933263093 -0.9356064796 0.1968383342
-0.01654969342 -0.08917529136 0.7621506453 0.06063786149 -0.02693284117 0.7553035021
-0.02127653547 -0.0959213078 0.7640583515 0.1485669911 -0.540643692 0.4276156127
-0.03524347022 -0.09023092687 0.7623420954 0.07118276507 -0.8565062284 0.3799102604
-0.03744151816 -0.1056698635 0.7664773464 0.1535063535 -0.9640564322 0.1895599216
-0.03991209716 -0.09729892015 0.7639417052 0.06392744184 -0.9081369042 0.298810631
-0.03520194441 -0.07119205594 0.7570286393 -0.0630902797 -0.7256227732 0.6190494895
-0.1104578152 -0.052004572 0.7439284921 -0.402438432 -0.2784596384 0.7286555767
-0.1180983782 -0.05437665805 0.739629209 -0.623185873 -0.1854692698 0.6337660551
-0.103686519 -0.04968759045 0.74860847 -0.2424308807 -0.3234065473 0.8146398664
-0.1005097106 -0.05948096886 0.7603308558 -0.1666075438 -0.2519240081 0.9436151981
-0.103022337 -0.06558802724 0.7551603317 -0.1547310352 -0.2182885408 0.959767282
-0.0967336297 -0.065551579 0.7669225931 -0.2195788175 -0.2067080885 0.9396242499
-0.09082759172 -0.07277626544 0.7770193815 -0.2930005193 -0.150640741 0.9311650395
-0.0894735381 -0.0399751924 0.7583884001 -0.08997263014 -0.4643028975 0.8802657127
-0.1093212664 -0.02382729575 0.758954525 -0.134187296 -0.4559392929 0.8798130751
-0.1041477174 -0.0334998779 0.7626761198 -0.1255806983 -0.4324117601 0.8928170204
-0.04035335407 -0.09976664931 0.8022734523 -0.2037233561 -0.2106865793 0.95582515
-0.03263903037 -0.0979013443 0.8035308719 -0.1924546957 -0.2138277292 0.9569172263
-0.05029638112 -0.106501922 0.7974512577 -0.1129215807 -0.6017485857 0.7412712574
-0.04354635999 -0.1104638502 0.7814602256 0.05960142612 -0.8702740073 0.3871228695
-0.0516525805 -0.1108197272 0.7888255715 0.001821425045 -0.8439365625 0.4852237701
-0.04342270643 -0.1125942245 0.7667854428 0.1073366925 -0.9791759849 0.1572106183
-0.1588153988 -0.1213147491 0.7659429312 0.05982714891 0.4699156582 0.8785643578
-0.1694876254 -0.1162403151 0.7667070031 0.02621101588 0.3992206752 0.9134445786
-0.03153419867 -0.04408732057 0.7938142419 -0.194781661 -0.5012851357 0.7463943958
-0.03268340975 -0.03526694328 0.7889846563 -0.2049532682 -0.6549992561 0.6598377824
-0.0331562832 -0.05844043568 0.8009742498 -0.1879461408 -0.2320779413 0.8849190474
-0.03050653264 -0.06729702652 0.8060725331 -0.1747083515 -0.08502307534 0.9725984931
-0.02159781195 -0.04915324226 0.7974437475 -0.2450330108 -0.4283292294 0.7802283764
-0.01440395694 -0.03574259579 0.7911865115 -0.3194469213 -0.6781074405 0.6313278079
-0.02121823654 -0.04186530411 0.7932938337 -0.256198287 -0.5561349988 0.708588779
-0.01782982796 -0.03381391987 0.7825136781 -0.2944365144 -0.7299158573 0.6167766452
-0.01197646465 -0.0430386886 0.7773807645 -0.3493686616 -0.726054132 0.5896246433
-0.07406838983 -0.1054137871 0.7479572892 -0.2538218498 0.2880902588 0.914765954
-0.06706994027 -0.1073971465 0.7530511618 -0.2732338607 0.3216494918 0.9040816426
-0.07543862611 -0.1164514199 0.7588516474 -0.09749159217 0.09395548701 0.389439851
-0.06164448336 -0.1114431247 0.7929436564 -0.1274008453 -0.7787106037 0.5757043958
-0.06663718075 -0.1133352742 0.7779883146 -0.187203154 -0.828987956 0.3042863309
-0.06841877103 -0.1122210771 0.7858214974 -0.2432363033 -0.7551708817 0.4800060391
-0.09872756153 -0.1190638095 0.7609316111 0.02462606505 0.5878458023 0.8077886701
-0.2041657567 -0.0834903717 0.7449125051 -0.6535741687 0.2082672864 0.7266988158
-0.2240221649 -0.06208591163 0.7367350459 -0.2172054052 -0.1896755993 0.8649842143
-0.2194301188 -0.07369336486 0.7278024554 -0.4075274765 -0.01495562028 0.9056397676
-0.2164602876 -0.08465765417 0.7311933637 -0.5617010593 0.1368772984 0.8092044592
-0.2248291075 -0.07915508747 0.7300658226 -0.3697054684 0.02677856386 0.8991628289
-0.2315762639 -0.06805492193 0.7319197655 -0.1699226946 -0.1848652363 0.9136587381
-0.2437618375 -0.06109223887 0.7321849465 0.09359511733 -0.3377097547 0.9302928448
-0.1660762429 -0.02292202786 0.7492610216 -0.2363454401 -0.3399501443 0.8065750003
-0.1741411239 -0.02475268766 0.751526475 -0.1701275706 -0.2538461983 0.9387406707
-0.1604441404 -0.02449502051 0.7419862747 -0.3676282167 -0.409522444 0.6115460396
-0.1645143777 -0.02528148144 0.7590044141 -0.1259584129 -0.2762596905 0.9503158927
-0.1583431661 -0.03042334877 0.7564910054 -0.1363384277 -0.2204497755 0.9641835093
-0.1586257666 -0.02088663355 0.7489656806 -0.2669586241 -0.404120326 0.7298295498
-0.175965935 -0.07476169616 0.7550805807 -0.08658821136 0.2338307947 0.967811048
-0.2330886871 -0.05997229367 0.7293232679 -0.05870701745 -0.3160548806 0.9456880689
-0.1903170049 -0.08191303164 0.7548404336 -0.3545313776 0.2417436689 0.8901672959
-0.1971605569 -0.08223393559 0.749376893 -0.5538710356 0.2126226127 0.7824889421
-0.1754955202 -0.01973905414 0.7619796395 -0.1313110739 -0.3455505669 0.9280828238
-0.1780996621 -0.03143049777 0.7571710944 -0.1828611642 -0.2469130903 0.938520968
-0.1689225733 -0.08687572181 0.7536653876 0.05293837935 0.1538091302 0.9819799066
-0.1821486801 -0.08189930767 0.7563145161 -0.1496658623 0.2490763515 0.9553467631
-0.1592163444 -0.08405718952 0.7503859997 0.1036720052 0.1499606222 0.9745880961
-0.1525303572 -0.08915694058 0.7503535151 0.1863097996 0.1439566016 0.9649468064
-0.1393564194 -0.02781013399 0.7590216398 -0.102913104 -0.2746289968 0.9558521509
-0.1210908592 -0.04193616658 0.73816365 -0.5834406614 -0.3894462585 0.5464634299
-0.1076453105 -0.04353827983 0.7464563251 -0.3115449548 -0.3940664232 0.7311810255
-0.1149184331 -0.04551656544 0.7416024804 -0.5146512985 -0.3444826901 0.6306008101
-0.1276554614 -0.0458021462 0.7330619097 -0.8169877529 -0.3103327453 0.4466088712
-0.1034297347 -0.04059450328 0.7582577467 -0.1134808362 -0.3972083032 0.9101160765
-0.1954912245 -0.1140999943 0.7561041713 -0.3964803219 0.2651261985 0.8653834462
-0.07813515514 -0.09084897488 0.7951104045 -0.4014187157 -0.1681822985 0.8801838756
-0.08342305571 -0.09887222946 0.7844389081 -0.5068567991 -0.1733241081 0.7467249036
-0.08570767939 -0.09546084702 0.7623003125 -0.1279834062 0.2434515357 0.9521770477
-0.08290763944 -0.09107465297 0.7857188582 -0.4891597033 -0.03226948157 0.8121817112
-0.08442843705 -0.1136152074 0.780800581 -0.3734828532 -0.04169037193 0.6437844038
-0.07638385892 -0.1111501828 0.7910797 -0.3856612444 -0.5680859089 0.6519380808
-0.08043531328 -0.1155606806 0.7729468942 -0.2121863067 0.06476417929 0.509157002
-0.0760313794 -0.1131764501 0.7815351486 -0.2870096862 -0.404125303 0.5200155973
-0.06842752546 -0.1154752746 0.7663272023 -0.119445689 -0.6496222019 0.1401604116
-0.08572625369 -0.1176394969 0.7663071752 -0.158632949 0.5590157509 0.5449242592
-0.09567691386 -0.102376394 0.7587302923 -0.03165923059 0.3991203606 0.8932837844
-0.1033358723 -0.1084580272 0.7568627 0.02787306905 0.5187736154 0.8370956182
-0.1151077449 -0.1087066755 0.7536444664 0.1460016668 0.5585001111 0.8161838055
-0.129246816 -0.1023675278 0.7522336841 0.1898163408 0.4052740335 0.8889186382
-0.1365346313 -0.05882728845 0.7543772459 0.09075292945 -0.2616906464 0.8234491348
-0.1357314587 -0.04886943474 0.7544451356 -0.2582666874 -0.458634764 0.7076990604
-0.1422490776 -0.06404179335 0.7550604939 0.2526344061 -0.07909619063 0.9553962946
-0.1530901194 -0.05011780933 0.7547920942 -0.02061129175 -0.08648426831 0.9920315742
-0.1505969763 -0.06214493141 0.7549120188 0.1089043021 -0.01282871328 0.9898360372
-0.1458488405 -0.03591965884 0.7577373385 -0.04914456978 -0.229794994 0.962733984
-0.1531652212 -0.04104101285 0.7558992505 -0.06446427852 -0.1642724276 0.9782313108
-0.1191195324 -0.06671131402 0.7517283559 -0.0648259297 -0.1686600596 0.9334390759
-0.126777932 -0.06655654311 0.7528389096 0.1319003701 -0.1358406693 0.9244294167
0.01126709394 -0.05978332832 0.7708623409 -0.3406267762 -0.7972596884 0.4982515275
0.008849999867 -0.0620046854 0.7592989802 -0.3901401162 -0.7141575813 0.5586678982
-0.1997680366 -0.04034809023 0.7421867847 -0.2444480062 -0.2779526412 0.9273310304
-0.08427526057 -0.02775766142 0.770216167 -0.1885284632 -0.5921385884 0.7807104588
-0.0937396884 -0.02787931263 0.7665019035 -0.1516240239 -0.5036028028 0.8502251506
-0.09089247137 -0.04169896618 0.7690714002 -0.1846773624 -0.4064770043 0.8755898476
-0.08873152733 -0.04905819148 0.7744067311 -0.2300536931 -0.3448638618 0.8813271523
-0.08739752322 -0.03554444388 0.7647765875 -0.1687418669 -0.5067536235 0.8396418691
-0.01118199434 -0.0510760881 0.7652403712 -0.2992574275 -0.7617928386 0.5708329678
-0.005885020364 -0.05587276444 0.7602545023 -0.3040626049 -0.7931265235 0.5262784958
-0.09366945922 -0.07927282155 0.7437784076 -0.01799594611 -0.2094204277 0.9769240022
-0.09368494153 -0.09585813433 0.7395632267 -0.1390778422 0.05054306611 0.9761157036
-0.09431038052 -0.1024767384 0.743660748 -0.06709171087 0.3633878827 0.9105138779
-0.08960112184 -0.06841696054 0.7485707402 0.01574111357 -0.2093304545 0.9769554138
-0.08712919801 -0.06010591239 0.7508381605 0.02505990677 -0.2771381438 0.9572868347
-0.1444590241 -0.1183576882 0.7637143135 0.1281472296 0.4919859171 0.861117959
-0.1535629928 -0.1142514274 0.7607181668 0.1213744953 0.4535199106 0.8822058439
-0.1622241586 -0.1104897186 0.762799561 0.09942253679 0.3733174801 0.9185732007
-0.03764637932 -0.05068761483 0.7960701585 -0.2078700215 -0.3595205247 0.8095953465
-0.03832536563 -0.06576560438 0.8034747839 -0.2058722824 -0.08063613623 0.9554075003
-0.04378234968 -0.04554691911 0.7930653691 -0.2175654173 -0.4504837096 0.7634510994
-0.04143230617 -0.03784321249 0.789603889 -0.2125239968 -0.5942693949 0.6877194643
-0.04341137782 -0.02786304429 0.7848986387 -0.2019828409 -0.7804222703 0.5916296244
-0.02565428987 -0.03143621236 0.7827905416 -0.2398210913 -0.7624284625 0.600712359
-0.06020881236 -0.1154803932 0.7615872025 -0.03674644977 -0.9940679073 -0.05477500334
-0.05872629955 -0.1125849113 0.7827221155 -0.04475697502 -0.8821849227 0.3409012258
-0.05910388753 -0.1142260954 0.7702245116 -0.03563744947 -0.9488316774 0.1108831391
-0.050684385 -0.113084361 0.7697839141 0.0387394987 -0.9594162107 0.1696172804
-0.1135065854 -0.07704664022 0.7502083182 -0.154777348 -0.2079271823 0.9344040155
-0.1167082489 -0.08523730934 0.7501200438 -0.01813067682 -0.002092597075 0.9229000807
-0.1063162908 -0.08538902551 0.750310719 -0.07255350053 -0.1355056316 0.9465197921
-0.1193280965 -0.09404072165 0.7501425147 0.1186847389 0.2148681134 0.9081563354
-0.1212966219 -0.104537271 0.7520983219 0.176197201 0.4899714887 0.8512098789
-0.08339767158 -0.1137180477 0.7536179423 -0.06869434565 0.5718530416 0.8163362145
-0.08187248558 -0.1083895713 0.7475494146 -0.09788241982 0.4982631207 0.8602751493
-0.08303872496 -0.102065511 0.7409029007 -0.2183425426 0.2344061136 0.9305191636
-0.09100753069 -0.1111121625 0.7520417571 -0.02461447008 0.6032773256 0.7963837385
-0.1212039813 -0.1177958027 0.7594830394 0.1070161983 0.540628612 0.8339025974
-0.1308051795 -0.1188477725 0.7625123262 0.1157147437 0.5166777372 0.8479822278
-0.2136014849 -0.06913468242 0.7321776152 -0.4716945887 -0.0242812857 0.8690037131
-0.2077468783 -0.06511288881 0.7363041639 -0.5326374769 0.03491333872 0.8390070796
-0.2397144139 -0.07397185266 0.7237790227 0.02324641682 -0.1513040662 0.9849718213
-0.2121438086 -0.04176059738 0.7475473285 -0.2251099497 -0.3066888452 0.8767032027
-0.2060658038 -0.04726918414 0.7482532263 -0.3207860589 -0.1495405734 0.8645221591
-0.208996743 -0.04434930906 0.7386842966 -0.2165769041 -0.3349080086 0.9146869779
-0.201792255 -0.0396111384 0.7496395111 -0.2643529177 -0.232154578 0.8959829807
-0.1845497489 -0.05658285692 0.7433102131 -0.2730673254 0.003974452615 0.9394924641
-0.1950273067 -0.05221839622 0.7402099371 -0.3972069025 -0.05176624656 0.9108860493
-0.1951201856 -0.04384854436 0.749758184 -0.310472697 -0.1115489453 0.8993520737
-0.1906855851 -0.06761153787 0.7513821125 -0.3988619447 0.2282362282 0.8823521733
-0.1953973472 -0.06137055159 0.7506127357 -0.4115347862 0.1257765293 0.8677036166
-0.1989192814 -0.05214604363 0.7503731251 -0.3418513834 -0.03268567473 0.880186677
-0.2241306752 -0.05520948023 0.731461823 -0.1444070488 -0.3635308444 0.9196541309
-0.2151110023 -0.05093582347 0.7339338064 -0.2069493532 -0.3503634632 0.9118557572
-0.1904298365 -0.0893054083 0.7584722638 -0.3261623681 0.2184296548 0.9105260968
-0.1984853745 -0.08923995495 0.7547612786 -0.5438154936 0.2006217688 0.7979419231
-0.180136323 -0.09470817447 0.7539000511 -0.07904719561 0.1806498319 0.9419249296
-0.1872191876 -0.09404274821 0.7501992583 -0.2267958075 0.1879066825 0.8861287236
-0.2035038173 -0.09395746142 0.7439150214 -0.5798504949 0.2214652151 0.7435899973
-0.1645548046 -0.03473412246 0.7560652494 -0.1594335437 -0.2001039237 0.961696744
-0.1734791249 -0.03871237114 0.7541199923 -0.2136794478 -0.1519865245 0.9588882923
-0.1675078124 -0.08075419813 0.7583668828 0.09657863528 0.1518329531 0.9773033261
-0.1606635749 -0.07353101671 0.7560658455 0.1076937318 0.090640001 0.9883146286
-0.1529263854 -0.07840482146 0.7479946613 0.09153052419 0.0868043974 0.9729716182
-0.1482183486 -0.07035779208 0.7414472103 -0.1249555573 0.1790707409 0.9341121316
-0.162393108 -0.069763273 0.7473682165 -0.05344990641 0.1019730121 0.9839933515
-0.1386016756 -0.07119248062 0.7376698852 -0.1633838415 0.2278891504 0.901437223
-0.139924705 -0.07733195275 0.7416645885 -0.01188661996 0.170605123 0.9228432178
-0.1501677483 -0.07107466459 0.7563346028 0.1976796985 0.01044451911 0.9769841433
-0.1566628069 -0.08153936267 0.7577964664 0.1768244654 0.08244308084 0.9785637259
-0.165083006 -0.09083925188 0.7610993385 0.153043732 0.1892880499 0.9662784338
-0.1478740573 -0.09947223216 0.7558020353 0.1630533636 0.2969224155 0.9298622608
-0.1453681588 -0.07678426057 0.7551400065 0.2787924707 -0.006925943773 0.9497289062
-0.1436637789 -0.08548820019 0.751505971 0.2268842608 0.05847043544 0.9692127705
-0.140977934 -0.1006447449 0.753298223 0.1972116828 0.3279670179 0.9201425314
-0.1573853493 -0.09055199474 0.7580667138 0.1527059227 0.13983275 0.9719247818
-0.157130152 -0.1008551195 0.7603103518 0.1292905062 0.2728836238 0.9345965385
-0.1091592088 -0.04733677581 0.7546854615 -0.1905175745 -0.3751342893 0.9014559984
-0.1175390556 -0.05126551911 0.7521359921 -0.2977730036 -0.3800962865 0.8733014464
-0.1150823385 -0.03058278747 0.7504895329 -0.326390326 -0.4278621078 0.7358355522
-0.1869819462 -0.1122052521 0.7585637569 -0.2587586641 0.2707028687 0.9230411649
-0.210325107 -0.09857159108 0.7409187555 -0.631911993 0.2622091174 0.7269353867
-0.1974300891 -0.09945265204 0.7490537167 -0.44792974 0.2420471758 0.7889124155
-0.1877153665 -0.1042269766 0.7549190521 -0.2159747928 0.2392753661 0.8980700374
-0.2075021118 -0.1216432005 0.7553490996 -0.5161859393 0.2679228187 0.812990427
-0.1995221227 -0.1227602735 0.7608397603 -0.4437201023 0.2283956707 0.8648219705
-0.08443496376 -0.1097510904 0.7885137796 -0.5014088154 -0.371013701 0.6837012768
-0.09840589017 -0.1164619625 0.7699022889 -0.1111805439 0.2627467811 0.7796376944
-0.09269373119 -0.1152232885 0.7774607539 -0.2584139407 -0.004194097593 0.7451567054
-0.09486979246 -0.108801119 0.7667638659 -0.1238268912 0.2999104261 0.8270791769
-0.08742534369 -0.1053564548 0.780107379 -0.4171256721 -0.09633521736 0.7315372825
-0.08603130281 -0.09938783944 0.7698946595 -0.2561158538 0.08699873835 0.8592203259
-0.1085631102 -0.1183557585 0.7611503005 0.06611896306 0.5642179251 0.8225490451
-0.1365385801 -0.07656382024 0.7513790727 0.3180550635 -0.02952921949 0.9462130666
-0.1286072433 -0.09304323047 0.7500120401 0.2280701399 0.2632060051 0.9102954865
-0.1269569844 -0.07510401309 0.7509510517 0.1354501694 -0.1265734136 0.9414064884
-0.1434527487 -0.05111058801 0.7566578388 -0.001514080097 -0.2395563275 0.9232109785
-0.1344318688 -0.04103867337 0.7556920052 -0.2808532119 -0.5600727797 0.7121548653
-0.00461618742 -0.06703768671 0.7502328157 -0.2856743336 -0.571269393 0.7571547627
-0.01130939741 -0.08319655806 0.7586849332 -0.0008241175674 -0.007120459341 0.8684744239
-0.005522175226 -0.07406516373 0.7532981038 -0.08412696421 -0.209732905 0.9224531651
-0.01548078936 -0.07477127016 0.7563263774 -0.06790498644 -0.2892327309 0.7951074839
-0.210843876 -0.03368169814 0.748984158 -0.1772558838 -0.4125416875 0.8932752609
-0.2026069164 -0.02990117483 0.7492418289 -0.1674793065 -0.3797134161 0.9096733928
-0.03811661154 -0.03238175437 0.7794163227 -0.1907291561 -0.7731648088 0.604342103
-0.0464889966 -0.06249414012 0.8005089164 -0.2291292399 -0.1315296888 0.9339361787
-0.05024796352 -0.0320340842 0.7865680456 -0.2017112821 -0.673155427 0.6632866263
-0.05388734117 -0.05198239908 0.7950143218 -0.2169216722 -0.3270399272 0.8414700031
-0.05446443334 -0.04353748262 0.7912157774 -0.2088343054 -0.4672615528 0.7744637728
-0.06016999856 -0.03461053967 0.7854741216 -0.2119404376 -0.5989239812 0.7159661055
-0.06181505695 -0.02793220244 0.7772096395 -0.1969560981 -0.7230150104 0.6619026065
-0.03578107804 -0.03823205829 0.7728670835 -0.180053398 -0.7611750364 0.6223227978
-0.06617420912 -0.03146640211 0.7699266672 -0.1941727698 -0.693629086 0.6929858327
-0.04815683886 -0.05886265635 0.7524473071 -0.08052778989 -0.5585149527 0.8224055171
-0.04879061878 -0.09912636876 0.7624794245 0.02289758064 -0.8794952631 0.3012875021
-0.05301295221 -0.1072791368 0.7632148862 -0.08136339486 -0.9806293845 0.1132507101
-0.05001651496 -0.06731417775 0.7522418499 -0.05764156953 -0.5585770011 0.7801420689
-0.0502063185 -0.08512963355 0.7578579187 0.0101672085 -0.7202811837 0.5336924791
-0.05181453377 -0.07488072664 0.7541871667 -0.0241296012 -0.6103525758 0.688865006
-0.04170541093 -0.08247564733 0.7591915727 -0.02318220958 -0.7795816064 0.5043256879
-0.04070029408 -0.06506343931 0.7539125085 -0.0917051062 -0.62960428 0.738804698
-0.04392772913 -0.07415442914 0.7559764385 -0.04851321876 -0.6813079119 0.6374610066
-0.07279719412 -0.09233948588 0.7462209463 -0.1827729791 0.08311026543 0.9507805705
-0.06574416161 -0.08197806776 0.7499713302 -0.0830097124 -0.149770841 0.8800251484
-0.0602719076 -0.1077050492 0.758358717 -0.1947517395 -0.2781800032 0.5253930688
-0.06561025232 -0.09338936955 0.7519471645 -0.166833818 0.06982852519 0.891055882
-0.06056234613 -0.09893159568 0.7566969991 -0.1331053078 -0.4244080186 0.5306732059
-0.05810445175 -0.08920370787 0.7560706735 -0.07544627786 -0.6817435026 0.4779458046
-0.05810720474 -0.07976029813 0.7534639835 -0.06571533531 -0.5949712992 0.6314966679
-0.061016839 -0.06830013543 0.7490129471 -0.04367345944 -0.3857881129 0.8817225695
-0.08442196995 -0.07792706043 0.788634181 -0.4021342695 -0.106532149 0.8962076306
-0.08260442317 -0.08485022932 0.7924649715 -0.5789506435 -0.0599559173 0.8065642118
-0.08916989714 -0.08049591631 0.7804013491 -0.463093549 -0.1229989305 0.8447508216
-0.1014698818 -0.07552804798 0.7576149106 -0.273149848 -0.2803612351 0.9005780816
-0.09733063728 -0.07636968791 0.7653238773 -0.3291214108 -0.2181132734 0.8863537312
-0.09326646477 -0.07899228483 0.7728047967 -0.4012772143 -0.1770986766 0.8625147343
-0.0966283232 -0.08787319809 0.7391517162 -0.04734590277 -0.1882628947 0.9786555171
-0.106893532 -0.1048866734 0.7492567897 0.1143012419 0.5403729081 0.8297034502
-0.1139425859 -0.09638883173 0.7430180311 0.1333263814 0.3240694702 0.9275328517
-0.1050593853 -0.09866490215 0.7442452908 0.1321357489 0.2970244586 0.9377174973
-0.2196969837 -0.06311561167 0.7285566926 -0.2543106973 -0.2398211062 0.9319150448
-0.1882745475 -0.02241426148 0.7606912851 -0.1389991194 -0.3991093636 0.9016588926
-0.1858713478 -0.04738736153 0.7520092726 -0.2415313125 -0.04108341038 0.944414258
-0.1894265562 -0.0291106645 0.7565898895 -0.172838062 -0.3172898293 0.9118462801
-0.1894555539 -0.03670679405 0.7531988025 -0.206709981 -0.2143884301 0.9243109822
-0.2277942449 -0.07275015116 0.7243748903 -0.1942689717 -0.1272929013 0.964856267
-0.1833347082 -0.1235771924 0.7662120461 -0.1532713771 0.2680209875 0.948739171
-0.1755793691 -0.1235342026 0.7677105069 -0.07989720255 0.3353817463 0.9300730228
-0.1659265459 -0.1231833845 0.7691742778 0.01021049079 0.4210529327 0.9049437046
-0.1786777675 -0.1140432507 0.7649253607 -0.08863034099 0.2799488902 0.9531438351
-0.1748094708 -0.08867030591 0.7606527209 0.03680121154 0.1779451072 0.9725158811
-0.1774158329 -0.1004986838 0.761521399 -0.0322868377 0.2375529408 0.9637489915
-0.1664182693 -0.06721046567 0.7540279627 -0.01998356916 0.0940726772 0.9904565811
-0.1661913246 -0.05672417581 0.7531960607 -0.1068947539 0.07733019441 0.9903467894
-0.1155668125 -0.03000692651 0.7627208233 -0.1124683022 -0.4091576934 0.905302465
-0.2125301063 -0.1155692488 0.7488368154 -0.5502241254 0.330460757 0.7661749125
-0.2200197577 -0.1207158417 0.7490496039 -0.5334026217 0.3595302403 0.7651802897
-0.2151873261 -0.1048416123 0.7419532537 -0.5794131756 0.318636775 0.7419226766
-0.2052130848 -0.1138192415 0.7548417449 -0.5304042697 0.2567187548 0.8027169704
-0.2063408196 -0.1020260975 0.7479667068 -0.6268256903 0.2608558536 0.7326110005
-0.200926736 -0.1047878489 0.7549697757 -0.5386411548 0.2319105268 0.8028537035
-0.1305931509 -0.02601812221 0.7624048591 -0.1301576942 -0.3545382321 0.9255375266
-0.1312365681 -0.03400474414 0.7588463426 -0.2286574543 -0.4351620078 0.8244170547
-0.1091649756 -0.06155285612 0.7514894605 -0.2226335257 -0.2251931876 0.9441409707
-0.01238012686 -0.05601379648 0.7560124993 -0.2206826508 -0.7711652517 0.5935018063
-0.02004006878 -0.05215597525 0.7603205442 -0.2092622817 -0.7390866876 0.6395420432
-0.02679772489 -0.04025473446 0.7727298737 -0.2488323897 -0.7370842695 0.6270956993
-0.05386540666 -0.05384007096 0.7543447018 -0.08124329895 -0.5341761112 0.8394234776
-0.08430022746 -0.08273424953 0.7444419265 -0.06231969222 -0.119732812 0.9690454006
-0.07290112227 -0.07755143195 0.7450832725 -0.0670741573 -0.1181686446 0.9777313471
-0.07956638932 -0.08882620931 0.7418556213 -0.1577027589 -0.005102700088 0.9698831439
-0.08149186522 -0.07332131267 0.7474966049 0.03416513279 -0.2262762785 0.9733759761
-0.08942098916 -0.04776602983 0.7548881769 -0.04182589427 -0.4127579331 0.9077107906
-0.09362456203 -0.05520735681 0.7527757287 -0.01389784273 -0.2988189459 0.9535928965
-0.09238667041 -0.05959114432 0.7604560256 -0.08813051134 -0.2514544427 0.948841095
-0.08656937629 -0.06327885389 0.772157371 -0.2009221315 -0.2436388135 0.9181534648
-0.08251851797 -0.06394847482 0.7791563869 -0.2708380222 -0.2594520152 0.8924504519
-0.08568104357 -0.04768883809 0.7624576688 -0.1295820475 -0.4285535514 0.8787003756
-0.08395761251 -0.06659052521 0.7866228819 -0.3319630325 -0.1964041442 0.8980109096
-0.08420170844 -0.05499769002 0.7698233724 -0.1919490695 -0.3535927534 0.8847827911
-0.07375513017 -0.02868681401 0.7683398724 -0.1957691759 -0.6561489105 0.728692174
-0.07606052607 -0.06260319054 0.7888934612 -0.2189924121 -0.2869353294 0.8924363852
-0.07939779758 -0.07149801403 0.7927149534 -0.3471458554 -0.1754552573 0.8948913813
-0.08265765011 -0.03515194356 0.7738280296 -0.2257409096 -0.5516341925 0.7779234648
-0.08171037585 -0.05506330729 0.7832389474 -0.3073493838 -0.3414994478 0.8396728039
-0.190711394 -0.09665612131 0.7619683743 -0.3040970266 0.1910752207 0.9297869802
-0.192060858 -0.1065950468 0.7613537312 -0.3486082256 0.2088770866 0.9117044806
-0.1584019959 -0.05598069355 0.7536928058 -0.04471235722 0.0538097471 0.9962345362
-0.1579388529 -0.06576211005 0.7538207173 0.06315811723 0.06307502091 0.9941645861
-0.1817168146 -0.06242199242 0.7528356314 -0.2333861291 0.1740921587 0.9538834095
-0.1729333699 -0.06147238985 0.7526912093 -0.1647779793 0.125868693 0.9764468074
-0.1775500476 -0.05492406338 0.7524657249 -0.227654472 0.06895459443 0.9707311988
-0.1760650873 -0.04534580931 0.7513151169 -0.2481980622 -0.08548764139 0.964395225
-0.1676038951 -0.04505508021 0.7525697947 -0.2104520649 -0.1107817739 0.9707611799
-0.1145274714 -0.03865252435 0.7587356567 -0.1581060737 -0.4250233769 0.8879452348
-0.1218554527 -0.04271412268 0.7544549108 -0.2384765148 -0.5043966174 0.8228177428
-0.05629159883 -0.027273966 0.7826296687 -0.1935974211 -0.7375345826 0.64685601
-0.048740495 -0.03218375146 0.7787402272 -0.1773436666 -0.7561433911 0.6295822859
-0.04321355 -0.03870953992 0.7697644234 -0.1614803523 -0.7433354259 0.6489107013
-0.05120794848 -0.03823522851 0.7681885958 -0.1724240035 -0.7286475897 0.6622934937
-0.02853109688 -0.04878741875 0.7623682618 -0.2055250406 -0.697352767 0.684487164
-0.03629162535 -0.04815068841 0.7608886361 -0.1570101082 -0.6840596795 0.7116259933
-0.0214276202 -0.04754928499 0.7670497298 -0.2361013293 -0.7387818694 0.6301687956
-0.06058606878 -0.03757459298 0.7658758759 -0.180202052 -0.6880470514 0.7019584179
-0.04872760922 -0.04757358879 0.7589942813 -0.1111603603 -0.6286465526 0.7693140507
-0.08009125292 -0.04741102085 0.7563175559 -0.0772222206 -0.4792809784 0.8730273247
-0.0651788339 -0.04792155698 0.7583166957 -0.1034761742 -0.5493985415 0.8289142251
-0.07236043364 -0.06623458862 0.7477396727 0.01657972112 -0.2723841667 0.9608514905
-0.07140014321 -0.04168869182 0.7607933283 -0.1486114115 -0.5740329623 0.8047257662
-0.07911726087 -0.0400195457 0.7603321671 -0.1303379834 -0.5351085067 0.8318861127
-0.07521692663 -0.0464996323 0.7820951939 -0.2049380094 -0.471942842 0.8026467562
-0.06837378442 -0.04715190828 0.7864032984 -0.2144741118 -0.4821281135 0.784214139
-0.07196247578 -0.0385854505 0.7806708813 -0.2038536221 -0.5677835941 0.7508237362
-0.07423348725 -0.03024274483 0.7758095264 -0.1951364279 -0.65431422 0.7143979073
-0.05547651649 -0.03379119188 0.7743124962 -0.1898096651 -0.7392190695 0.6461165547
-0.06782369316 -0.0566377081 0.7512325644 -0.04434463754 -0.4671523273 0.8820999861
-0.07218879461 -0.05028393492 0.7549430728 -0.07800203562 -0.4973644018 0.8626420498
-0.06066407263 -0.05986751989 0.7497897744 -0.0459628813 -0.4693114758 0.8813880086
-0.07678001374 -0.05982052162 0.7506056428 0.01220149919 -0.3502448499 0.9365414381
