# .PCD v0.7 - Point Cloud Data file format
VERSION 0.7
FIELDS x y z normal_x normal_y normal_z
SIZE 4 4 4 4 4 4
TYPE F F F F F F
COUNT 1 1 1 1 1 1
WIDTH 512
HEIGHT 1
VIEWPOINT 0 0 0 1 0 0 0
POINTS 512
DATA ascii
-0.085081778 -0.01731948 0.92535311 0.02069058456 -0.9432764649 0.3313629627
0.11111892 -0.061816946 0.85212493 0.09326275438 0.2584275603 0.9615182281
0.025077567 -0.084632926 0.9443531 0.0348257497 -0.6768243909 0.7353202701
-0.18242447 -0.092828259 0.92075002 0.2422286719 0.4138982296 0.8775041699
0.075085968 0.014499141 0.92427796 0.008769238368 -0.8182164431 0.5748434067
-0.022351751 -0.062329501 0.84817648 -0.5582013726 0.1860318184 0.8085811138
-0.085825033 -0.11369562 0.93500018 0.06780090183 0.6599056125 0.7482831478
0.035280816 -0.023061913 0.87108022 -0.04041014239 -0.6872157454 0.7253285646
0.12313135 -0.038146574 0.91800004 -0.7718597651 -0.1182341278 0.6247024536
-0.1541736 -0.027156876 0.93471438 0.3615013659 -0.7851053476 0.5029178858
-0.016494993 -0.11351555 0.89608335 0.1120260581 0.7643409967 0.635006249
0.071200676 -0.095457166 0.89250004 0.7171385884 -0.1010887548 0.6895602345
0.014097928 -0.010836726 0.93042862 0.1147028953 0.4131103158 0.9034285545
-0.06514623 -0.066306792 0.89476323 0.2524196506 0.4810374081 0.8395757079
-0.12505943 -0.071482524 0.90766668 0.0180711057 0.4677432477 0.8836796284
-0.027930599 -0.019396249 0.88500005 0.3199108541 -0.6411374211 0.6975670457
0.06430459 -0.044520866 0.94041699 0.13110286 0.1479272842 0.9802701473
0.08734376 -0.020869048 0.88166672 -0.5160720944 -0.7453597784 0.4220288694
0.013573159 -0.074920483 0.88787484 -0.5955048203 0.3341876566 0.7305427194
-0.13300484 -0.1142931 0.93181825 -0.09259702265 0.4990624785 0.8616045713
-0.04275072 -0.11349773 0.93475008 0.3226147294 0.7388272882 0.5916535854
-0.10467553 -0.038170725 0.89775014 0.1844057739 -0.4332431257 0.8822102547
-0.17523918 -0.054536778 0.91325003 0.4141646326 -0.3185413778 0.8526423573
0.075686589 -0.044264521 0.85227269 -0.3378730714 -0.3767999709 0.862475276
0.046231851 -0.007056382 0.90521061 0.1734871864 -0.9237365723 0.3414863646
0.063071199 -0.082129933 0.93166667 0.293908149 -0.7650015354 0.5730538368
0.024918698 -0.044766333 0.94300002 0.03403249756 0.3222318888 0.9460488558
0.036314622 -0.10488902 0.90134794 0.0001274098031 -0.8100615144 0.5863448977
-0.064352907 -0.027139209 0.89618182 0.2925119698 -0.6565724611 0.6952332854
0.10471896 -0.004314444 0.91451639 -0.5464791059 -0.4836181402 0.6837207675
-0.02123199 -0.075493276 0.89700001 0.04059886187 -0.7038654685 0.7091721296
0.0036273233 -0.043320209 0.86363173 -0.1055318713 0.1704093218 0.9797059298
-0.064712517 -0.094990112 0.91365534 0.1797340661 0.7224593759 0.6676437259
0.079991452 -0.073135041 0.86900002 0.6548957825 0.2838783562 0.7003746033
0.0066737714 -0.095344327 0.91388893 -0.3397410214 -0.7166057825 0.6091405749
-0.041661654 -0.048731446 0.87680006 0.5598740578 -0.3161417842 0.7658951879
-0.12284555 -0.018711573 0.92800003 0.1804053187 -0.8349227905 0.5199595094
-0.14444172 -0.045611627 0.90457153 0.2606317103 -0.3772380948 0.8886858225
-0.054920662 -0.021314895 0.93514293 0.1130749732 -0.9563230872 0.2695556581
0.0031748968 -0.014854629 0.88155568 0.1906893104 -0.6556026936 0.7306317091
-0.094660707 -0.085620835 0.91213799 0.1627243459 0.5665364265 0.8078101873
-0.15497823 -0.084682725 0.91125 -0.04319213331 0.411476016 0.9103965759
0.044803806 -0.064719222 0.94644421 0.249093309 -0.0388151519 0.9677013755
-0.038703956 -0.097154826 0.90100002 0.6473991871 0.4855100811 0.5874983072
-0.022077098 -0.081452556 0.86833334 -0.4440160692 0.2170560807 0.8693310022
0.084488869 -0.065096639 0.93569684 0.2373131961 -0.2248866558 0.9450441599
0.01134319 -0.11227866 0.89250004 0.1076175123 -0.9662504792 0.2340480685
0.10509743 -0.040543206 0.89800006 -0.8226339221 -0.256408155 0.5074723959
0.075059921 -0.0023732753 0.90326321 -0.1054406166 -0.7688466907 0.6306798458
-0.094030596 -0.062839381 0.89691669 0.2178385556 0.4326221347 0.8748625517
0.062766008 -0.022958208 0.87100023 -0.05970635265 -0.809120357 0.5846019387
-0.11520926 -0.095824838 0.9238438 -0.02012048289 0.5185486674 0.8548113704
-0.0051590144 -0.09527161 0.88119346 -0.3544592857 -0.01334510185 0.9349762201
-0.014116438 -0.058632873 0.87540019 -0.268114537 0.5131646991 0.8153383136
0.039734915 -0.090011753 0.92500007 0.1801337302 -0.9382482171 0.2953677773
-0.035791669 -0.10487345 0.87800014 0.5223947167 0.5136743188 0.6806191802
0.038152885 0.0024367827 0.92600012 0.5248194933 -0.7838948965 0.3317729533
-0.15572229 -0.1084349 0.93000013 -0.0127220368 0.5391018391 0.8421444893
-0.021657551 -0.037547003 0.86900002 0.3318972588 -0.4893059134 0.8064886332
0.09351337 -0.036149822 0.86615384 -0.6376936436 -0.5154292583 0.5724329352
-0.042635806 -0.067786932 0.89649999 0.03917682171 0.5693721175 0.8211458921
-0.033764157 -0.11646582 0.91150004 0.5753706098 0.6854913235 0.4461505413
-0.085820623 -0.027380271 0.90537506 0.1628885716 -0.8352724314 0.5251544714
0.05495391 -0.086904846 0.90519369 0.4500672221 -0.8473868966 0.2817355096
-0.064812548 -0.11416771 0.92800003 0.09983935207 0.7180802822 0.6887618303
0.044404931 -0.035359468 0.93799984 0.0236981567 0.339864552 0.9401757717
-0.07456056 -0.045000441 0.8886469 0.241215542 -0.1784862429 0.9539170265
-0.12497617 -0.035627231 0.90456671 0.2177785337 -0.5579649806 0.8007794023
-0.17542458 -0.075543396 0.91024989 0.368411094 0.1228389442 0.9215117097
-0.1703977 -0.0399497 0.93000007 0.4637536407 -0.6694399714 0.5803297758
-0.1053367 -0.025797157 0.91491669 0.119829908 -0.8152047396 0.5666410327
0.01511485 -0.025824262 0.8658787 0.09495784342 -0.5208721757 0.8483367562
-0.13665162 -0.092066824 0.9180001 -0.1209324002 0.4390901029 0.8902669549
0.12135212 -0.015333033 0.9204616 -0.6922212839 -0.2757606506 0.6669226289
0.016481806 -0.06714572 0.95100015 -0.02188581601 -0.006408582907 0.9997399449
0.09873458 -0.02132667 0.90100002 -0.6870579123 -0.4110939503 0.5991270542
0.010006273 -0.057728499 0.87800002 -0.1244315282 0.5756994486 0.8081379533
-0.15506381 -0.065253884 0.90639019 0.1044972688 0.05824045837 0.9928184152
0.06458053 -0.064584173 0.94449997 0.2457029372 -0.2334481627 0.9408145547
-0.045931194 -0.027245045 0.88800001 0.3840694726 -0.4502059817 0.8061049581
0.023915466 -0.010029066 0.88000005 0.005186534952 -0.7197270393 0.6942377687
-0.033710927 -0.064799443 0.86371434 0.7448583245 0.2533381283 0.6172567606
0.065815046 -0.077640228 0.88740003 0.7314670086 -0.02223397605 0.6815142035
0.055152737 -0.011419108 0.88440007 -0.07886190712 -0.8710682988 0.4847894311
0.08279635 -0.09123075 0.87450004 0.761079967 -0.01908876002 0.6483771205
-0.10485902 -0.11387249 0.93446666 -0.04150116816 0.567958653 0.8220100999
-0.050031368 -0.065425634 0.87800002 0.5155869126 0.5622803569 0.6465376616
0.09366098 0.01245842 0.92400008 -0.2537085712 -0.6821389794 0.6857976317
0.092917643 -0.052743021 0.85771418 -0.2006212324 0.04809315875 0.9784876704
-0.053111721 -0.083092712 0.89657146 0.1686757058 0.4331750274 0.8853857517
-0.087194391 -0.098973036 0.92214286 0.1233576611 0.6525046825 0.7476767898
-0.005112282 -0.084080555 0.89692867 -0.287446171 -0.8792256713 0.379916966
-0.12344027 -0.05243063 0.89800006 0.167173326 0.0315566957 0.9854223728
-0.069634512 -0.023211503 0.91300005 0.03046826087 -0.9368098378 0.3485096395
0.10073952 -0.070441917 0.86400002 0.3104091585 0.3279237747 0.8922511935
-0.031909291 -0.087774493 0.88157141 0.8833996058 -0.1745862961 0.434884727
0.02372355 -0.091169171 0.91224998 -0.09079598635 -0.9561433792 0.278470695
0.054648824 0.0074916105 0.92356265 0.2767674327 -0.8434175253 0.4604852796
-0.076916859 -0.07691811 0.90185708 0.2243824601 0.5180123448 0.8254185319
-0.0043931114 -0.028859122 0.86807704 0.2204371989 -0.4973694682 0.8390656114
-0.18792228 -0.063716136 0.92000002 0.5415642262 -0.1469068825 0.8277237415
-0.13438685 -0.028805515 0.91700006 0.264424324 -0.7784865499 0.5692437887
0.041588042 -0.081246689 0.94250005 0.2352064103 -0.5812456012 0.7789939046
-0.044740807 -0.10175683 0.91600001 0.3629499972 0.7446975112 0.560082972
-0.055262867 -0.044510555 0.88566679 0.3015613258 -0.240729928 0.9225561619
-0.10462095 -0.073545583 0.90637064 0.1302661896 0.4932416379 0.8600834012
0.081235439 -0.02933502 0.85800004 -0.2975917757 -0.6710381508 0.6790779829
-0.15324725 -0.036740225 0.9146471 0.3694293201 -0.7242150903 0.5822666883
0.053939309 -0.10278317 0.90338898 0.3934704661 -0.8445849419 0.3631215096
-0.012470709 -0.018869875 0.88114291 0.3068769872 -0.6381375194 0.7061211467
-0.024061743 -0.05232764 0.86152387 0.4600125253 -0.4986853004 0.7346437573
-0.16159071 -0.048556812 0.90800005 0.3692693114 -0.4135946631 0.8322136998
-0.16372627 -0.099203609 0.92000002 0.05076059699 0.5081335902 0.859781146
0.11257496 -0.050519232 0.90750003 -0.7924933434 -0.1143952906 0.5990559459
0.11064585 -0.028656479 0.90800005 -0.7602534294 -0.1789548546 0.6244916916
0.091541536 0.00079601334 0.90800005 -0.345631063 -0.6433323622 0.6831271052
0.074768923 -0.01327319 0.88643479 -0.1998353153 -0.8261853456 0.5267671347
-0.0025762729 -0.10695571 0.8961429 -0.3600246906 0.9237141013 0.1308987737
-0.031349599 -0.11050734 0.89400005 0.620649159 0.604161799 0.4997830689
-0.10979286 -0.058450874 0.90100002 0.1421772838 0.2293667942 0.9629000425
0.03084727 -0.07169906 0.95100003 0.1379804015 -0.2399110347 0.9609391689
0.09159077 -0.082232065 0.86583328 0.6657897234 0.1366695613 0.733515799
0.040686101 -0.090147629 0.91000003 0.1081127822 -0.9200432301 0.3766059875
0.080093145 -0.073872313 0.88700002 0.7491495013 0.1006235033 0.6547136307
-0.067524374 -0.018711573 0.92800003 0.05215248466 -0.9522383809 0.3008690774
0.010905296 -0.098143265 0.88849998 -0.5917173028 -0.3171480298 0.7411395311
0.074894674 -0.054648854 0.94090015 0.2139205039 -0.09447222948 0.9722720981
0.066420436 -0.033276357 0.86158836 -0.06523790956 -0.6844388247 0.7261456251
-0.0043459288 -0.073209696 0.8875832 0.1921416223 0.5631279349 0.8037216663
-0.10486204 -0.018493064 0.92725009 0.08762606233 -0.8727375865 0.4802611768
-0.034205001 -0.035792869 0.87570369 0.4467582405 -0.4836227596 0.7526726127
0.064886838 0.0061896523 0.9138 0.15010418 -0.8210938573 0.5507028103
0.098866954 -0.032695282 0.88800001 -0.7989321351 -0.4647302032 0.3817503154
-0.11519115 -0.084603935 0.91525018 0.06940846145 0.5246010423 0.8485141397
-0.065040715 -0.054875202 0.88532478 0.362429291 0.1044049114 0.9261450171
0.034833521 -0.054739013 0.94605517 0.05570344999 0.2892876267 0.95562011
0.054629043 -0.054634899 0.94416648 0.1435720325 0.08185786754 0.9862486124
-0.13630325 -0.021310888 0.93100005 0.2682545185 -0.8360652924 0.4785752892
-0.14480418 -0.075509086 0.90865225 -0.07464656979 0.3824400902 0.9209600687
-0.084384501 -0.054693986 0.89125031 0.2646870911 0.1851052344 0.9464020133
-0.084413253 -0.035740666 0.89460552 0.2135932744 -0.5564296246 0.8029720187
-0.078392759 -0.087334059 0.91060001 0.2012794912 0.6197693944 0.7585330606
0.1185604 -0.0508116 0.92000002 -0.6877720952 0.4439631999 0.574339807
-0.0066962722 -0.052062474 0.86233336 -0.5093892217 0.2332373559 0.8283253908
-0.074784473 -0.10364077 0.92444009 0.1124673486 0.7080045938 0.6971948147
-0.12538691 -0.1045797 0.92470962 -0.1098933518 0.4861732423 0.8669250607
0.054284267 -0.074047461 0.94446874 0.2466869205 -0.4509317577 0.8577914238
0.01545673 -0.054566037 0.94662476 0.05059881881 0.1939698458 0.9797016978
-0.053546451 -0.092314579 0.90620005 0.2323272973 0.6863048077 0.6892094612
-0.016933694 -0.090056457 0.87800002 -0.3225978911 0.2746852338 0.9058027267
0.065178879 -0.0070651406 0.89576197 -0.01803406142 -0.8589001894 0.5118253827
-0.014986617 -0.10335586 0.88770956 -0.09184806049 0.653105855 0.7516759038
0.075027749 -0.073955126 0.93338478 0.2401344776 -0.3463764489 0.9068400264
0.036964163 -0.010891318 0.88044453 -0.06426797807 -0.8189834952 0.5702067018
0.074337006 -0.017815016 0.87418765 -0.1910888255 -0.8223645687 0.5359119177
0.051253438 -0.085422397 0.92800003 0.3092967868 -0.882106483 0.3552796245
-0.055711377 -0.10582691 0.92480969 0.1311826855 0.7628405094 0.6331393123
-0.14535239 -0.10502803 0.92345452 -0.09790412337 0.4820220768 0.8706718683
0.085451491 -0.01184174 0.89318746 -0.4313457906 -0.6921330094 0.5786991715
0.037728995 -0.0050134379 0.91575009 0.3542276025 -0.8895774484 0.2884003818
0.025641564 -0.006451332 0.92760015 0.2337649912 0.4270573854 0.8734849095
-0.14775018 -0.030519983 0.92433339 0.3555926085 -0.773874104 0.5240923166
-0.032725845 -0.045988806 0.86814296 0.5445669889 -0.4339843094 0.7177077532
0.025080832 -0.10472002 0.89562511 -0.1694229692 -0.7240152955 0.668653667
-0.10527202 -0.1025189 0.92753863 0.03400358558 0.598364532 0.8005021214
-0.065155305 -0.085615754 0.90540028 0.2462761253 0.5861421824 0.7718713284
-0.095061027 -0.045099217 0.89417833 0.257024765 -0.1571822464 0.9535365701
0.086153671 -0.064993575 0.86205554 0.2522509396 0.3647452891 0.8962869644
-0.043266419 -0.019666556 0.89733338 0.3643214703 -0.6694402099 0.6473945379
0.011916769 -0.087317273 0.90618187 0.4559653401 0.8867096901 0.07642990351
-0.1044922 -0.091231078 0.91687512 0.1092509776 0.5879061818 0.8015176654
-0.036578041 -0.088029101 0.89314282 0.6575478911 -0.174828425 0.7328476906
-0.13477136 -0.065012068 0.9043057 0.07362027466 0.3202435076 0.9444702864
0.10455829 0.0057880455 0.92100006 -0.4402229488 -0.5742793679 0.6902223825
-0.031222485 -0.054270923 0.84800005 0.5774577856 -0.4500880539 0.6811484694
-0.038783297 -0.062206071 0.87600005 0.7356020808 0.2557424009 0.6272841692
0.084838413 -0.073929422 0.92671436 0.6530687809 -0.6833552122 0.3263845146
0.034564089 -0.091274656 0.93557149 0.1411125958 -0.8956798911 0.4217164218
0.0046232175 -0.02207599 0.87152654 0.1721874923 -0.5293753147 0.8307305574
0.074324563 -0.085377365 0.88559991 0.7657412887 0.01522036921 0.642968595
-0.00079426001 -0.091339901 0.90600002 -0.4424352348 -0.5130596161 0.7355412245
0.016894368 -0.097742692 0.90542859 -0.174260512 -0.6996657848 0.6928932667
-0.11430951 -0.04542521 0.89683342 0.1690071374 -0.143617332 0.9750952125
-0.016022837 -0.084523261 0.90194744 -0.113977544 -0.4175319672 0.9014855623
-0.095470794 -0.032682829 0.90236843 0.1803008765 -0.724514246 0.6652598381
-0.094514161 -0.10710474 0.93176472 0.05839519575 0.6497855783 0.757871151
-0.022732493 -0.02871995 0.87600005 0.3663990796 -0.5785574317 0.728713274
0.015618839 -0.016763911 0.87258333 0.09229198098 -0.6498747468 0.7544169426
-0.015123668 -0.044605128 0.86247617 -0.01724605076 -0.5166838765 0.8560025096
-0.00076971331 -0.060807355 0.87800002 -0.06738638878 0.6020119786 0.7956385016
0.047844958 -0.010196217 0.89466667 -0.06305081397 -0.9142944217 0.4001128972
-0.17193885 -0.065273091 0.90800005 0.3425859213 -0.06415034086 0.9372937679
0.053898897 -0.041040912 0.93799996 0.08207141608 0.2396908253 0.9673740864
-0.12389565 -0.088249721 0.92092311 -0.06018614396 0.4834922552 0.8732770681
-0.084829189 -0.078447051 0.91000003 0.2129225433 0.5440533757 0.8115848303
0.044984505 -0.016349176 0.87531251 -0.07925897837 -0.7597936392 0.6453151107
0.057312958 0.00079601334 0.90800005 0.2101357728 -0.8385443091 0.5026791692
0.10198439 -0.048239708 0.86171436 -0.4224185944 -0.239989996 0.8740522265
0.065699697 -0.085145563 0.89528227 0.7254199982 -0.4791694283 0.4941280186
-0.094518557 -0.024967333 0.91430765 0.1096932441 -0.873196125 0.4748641253
-0.16513771 -0.078978896 0.91000003 0.1660131365 0.2921856642 0.9418424368
-0.075530298 -0.11137369 0.93253839 0.09044023603 0.6832735538 0.7245396972
-0.11427712 -0.10734212 0.93112504 -0.07398650795 0.5386366844 0.8392833471
0.034336109 -0.038731132 0.94000006 0.02166080661 0.3386243284 0.9406722784
-0.02744069 -0.11687472 0.90283328 0.4078133404 0.8372163773 0.3643583655
-0.062986679 -0.037695382 0.88869232 0.2616272271 -0.3393777907 0.9035341144
0.046121079 0.0016078067 0.91660011 0.3593145013 -0.8159504533 0.4528995454
0.074272037 -0.025714466 0.86530322 -0.1852556467 -0.7825353742 0.5944062471
0.044250842 -0.045083452 0.94243765 0.02440674417 0.3053280413 0.9519343972
-0.013642396 -0.065207511 0.88378769 -0.4479216933 0.7025615573 0.5529677868
-0.031947486 -0.074546464 0.86766666 0.5606076717 0.4751060307 0.6782280803
-0.038270257 -0.1062525 0.92314285 0.4497537613 0.7055339813 0.5476707816
0.091728963 -0.028634911 0.87340003 -0.5931898952 -0.6819725633 0.4278307557
-0.13469312 -0.076510929 0.91137934 -0.06078771874 0.4363266826 0.8977326155
-0.074792869 -0.027612522 0.89694113 0.2638409138 -0.7420087457 0.6162880659
0.018090893 -0.038648728 0.93800002 0.02347712964 0.3531999588 0.9352532625
-0.18438277 -0.075071976 0.91558832 0.4100688696 0.1148917153 0.9047891498
-0.13440129 -0.045061417 0.90180981 0.2350858599 -0.306905359 0.9222492576
0.11579514 -0.0065674856 0.92000002 -0.6200767159 -0.3981819749 0.6759851575
0.082489952 0.01086453 0.91800004 -0.08815354109 -0.7888471484 0.6082344651
0.1078742 -0.013675638 0.91147059 -0.6129439473 -0.3875113428 0.6885743737
0.0047427667 -0.048642553 0.8724001 -0.09052551538 0.3706861138 0.9243359566
-0.054899871 -0.055154141 0.88351059 0.3715253472 0.2146512121 0.9032683969
-0.075334124 -0.065131247 0.89386511 0.2615353167 0.440995574 0.8585581779
0.074822418 0.0078098867 0.91169226 -0.006461335812 -0.8084614277 0.588513732
-0.086322241 -0.068267904 0.90100002 0.2046161145 0.4999858141 0.841514349
-0.034022119 -0.054435302 0.86250001 0.7294365764 -0.2589776218 0.6331294179
-0.11541722 -0.026924264 0.91400015 0.1261907518 -0.788528204 0.6019129157
0.018913206 -0.089632154 0.93800002 -0.1819988489 -0.8161113858 0.5484876037
0.0045639775 -0.082263358 0.89464706 0.2936094999 0.8239195347 0.4847165048
-0.025064399 -0.10325936 0.88749987 0.2387205362 0.626614213 0.7418673635
-0.13436171 -0.055327523 0.9015559 0.209764868 0.0202616863 0.9775419235
-0.14478689 -0.084795594 0.91247594 -0.1069843397 0.4333746135 0.8948411942
0.065546907 0.011489739 0.92500013 0.1431688666 -0.8296858668 0.5395590663
-0.092295468 -0.11948966 0.94000006 0.04805533588 0.6239661574 0.7799723744
-0.11488117 -0.021840246 0.92283344 0.1329817921 -0.8331243992 0.5368608832
-0.13538738 -0.10520432 0.92310011 -0.09734979272 0.4886385798 0.86703825
0.054805487 -0.016238801 0.87375873 -0.07013107091 -0.8116950989 0.5798557997
0.044742003 -0.054689236 0.94516647 0.09699104726 0.1671686471 0.981145978
-0.14486828 -0.055414103 0.903 0.1888050884 -0.04210326076 0.9811115861
0.064468175 -0.054554537 0.9428336 0.1618275195 0.05748286098 0.9851434231
0.024577189 -0.026329143 0.86863631 0.01767040417 -0.4619756341 0.8867165446
0.07483051 -0.045227233 0.93800002 0.1333620995 0.03001006134 0.9906129241
-0.11516606 -0.034711272 0.90434223 0.2040117383 -0.4987100959 0.8424175978
0.065115198 -0.012179617 0.88529998 -0.08575535566 -0.8576232791 0.5070782304
-0.15505058 -0.093510203 0.91541392 -0.02067453414 0.4928732514 0.8698554635
0.1222579 -0.024969338 0.92143488 -0.7443830967 -0.1665839106 0.6466402411
-0.037363969 -0.11533689 0.92650008 0.4526724219 0.7372282147 0.5015797019
0.058413707 -0.096044093 0.89800006 0.551555872 -0.6703367233 0.4964219928
-0.024770757 -0.09466999 0.88297063 0.2256812304 0.5873731971 0.7772134542
0.034874629 -0.095105387 0.90411121 -0.129985705 -0.8769285679 0.4627094269
-0.18200769 -0.053500041 0.92000002 0.5043129325 -0.3675912023 0.7813739181
-0.17501046 -0.084914915 0.91235495 0.2772352099 0.3019719124 0.9121149182
-0.11416537 -0.072816938 0.90704775 0.1292510033 0.4948786795 0.8592957854
0.025172345 -0.064617395 0.94782346 0.02779186517 -0.02317406796 0.9993450642
-0.12500365 -0.027626943 0.9154287 0.1947797686 -0.7766072154 0.5991177559
-0.14505012 -0.024077233 0.93368429 0.3338451087 -0.8093327284 0.4832473397
0.085114412 -0.045155369 0.85343266 -0.3750365973 -0.2289256155 0.8982987404
-0.064972818 -0.10368115 0.9248696 0.1112346351 0.7485260963 0.6537091136
0.054741599 -0.064695559 0.94611084 0.2242308706 -0.0983068496 0.9695649743
-0.09524975 -0.074617393 0.90541691 0.1795539409 0.5097167492 0.8413971663
-0.14433023 -0.064855859 0.90364856 0.08930762112 0.1398561746 0.9861360788
0.0248798 -0.05473556 0.94599956 0.05045060813 0.2544544935 0.96576792
-0.047949284 -0.11214846 0.92700005 0.2645584643 0.7545006871 0.6006142497
-0.075143889 -0.021200955 0.92306674 0.01004005875 -0.9337256551 0.357848525
0.0040645553 -0.09715078 0.88212502 -0.4365364909 -0.02716077119 0.899276495
0.10459425 -0.05571834 0.85670286 -0.1595207751 0.1009833664 0.982016027
-0.084392332 -0.045321323 0.8913337 0.2570240498 -0.1672985405 0.9518139958
-0.18358421 -0.084362835 0.91645843 0.3726781011 0.21104002 0.903644383
-0.17407912 -0.09350571 0.91659093 0.1575972289 0.4474182129 0.8803295493
0.01649799 -0.099735387 0.89579999 -0.2392625958 -0.6695424914 0.7031829357
0.079639032 -0.036470208 0.84900004 -0.4012290835 -0.5224092007 0.7523987293
0.075212918 -0.0068950295 0.89515787 -0.1307097524 -0.7995792627 0.5861637592
0.063524067 -0.03564081 0.93786943 0.1164051741 0.1818640381 0.9764093757
0.11482007 -0.035252985 0.91511774 -0.777141273 -0.1096544117 0.6196993589
-0.056143258 -0.11190532 0.93173331 0.1677154452 0.7339809537 0.6581363678
-0.053863272 -0.10102444 0.91700011 0.1689752787 0.7574819326 0.6306096315
-0.15532346 -0.074355453 0.90736872 0.02491849102 0.2532067597 0.9670912027
0.064956374 -0.0023737699 0.90361106 0.09336767346 -0.8329395652 0.5454301834
0.091013782 -0.039865538 0.85800004 -0.4650888741 -0.47242558 0.7486697435
-0.084736839 -0.02354306 0.91359997 0.09534617513 -0.9016231894 0.421882391
0.011275881 -0.067219876 0.88355565 -0.05500739813 0.4366222024 0.8979617357
0.084602527 -0.027488409 0.86626667 -0.3344604373 -0.7481873631 0.5730199814
0.05609848 -0.078815401 0.93650001 0.272334516 -0.6316283941 0.7258646488
-0.017965529 -0.06951879 0.89100003 0.3175366521 0.2802903354 0.9058740735
-0.094066851 -0.017165426 0.92660028 0.0260837879 -0.9073281884 0.4196131825
0.015720058 -0.045929551 0.94387501 0.02193644457 0.3233957887 0.9460094571
-0.084682524 -0.09381438 0.91513813 0.1688695848 0.6343845725 0.7543469071
-0.038292799 -0.099720836 0.91000003 0.6436781883 0.5732776523 0.5069823861
-0.14482947 -0.095852308 0.91812015 -0.0930679068 0.4691845775 0.8781823516
-0.16602986 -0.041776091 0.9223333 0.4353262186 -0.6778559685 0.592454493
-0.056261055 -0.025388166 0.89266658 0.3041752875 -0.6394550204 0.7060981989
0.044868115 -0.10363524 0.90363634 0.1629474014 -0.8810881972 0.4439951479
-0.16418011 -0.034642711 0.93360001 0.4122782052 -0.7375910878 0.5347766876
-0.0035038416 -0.018536726 0.87700009 0.2051933706 -0.6113107204 0.7643264532
-0.15569916 -0.034092341 0.92600012 0.3862288296 -0.7506093979 0.5361089706
-0.074482128 -0.024933277 0.90580004 0.1590130329 -0.8617085814 0.4818435311
0.04466876 -0.084713317 0.9349643 0.268676877 -0.8055045605 0.5281808972
-0.064725891 -0.07473892 0.89739418 0.1678836644 0.5055754781 0.8462910652
0.11434715 -0.045056965 0.9142223 -0.7877267599 -0.1101148576 0.6061033607
0.025715517 -0.09551464 0.90483898 -0.1739139557 -0.7949174047 0.5812574625
-0.15580286 -0.054930285 0.90617073 0.2005426139 -0.145575881 0.9688087106
0.044908371 -0.024148101 0.87125653 -0.03538182005 -0.7254399061 0.6873754859
0.074384741 -0.063398078 0.94150031 0.2373131961 -0.2248866558 0.9450441599
0.0051827366 -0.035076048 0.8611111 0.03403376043 -0.1723082066 0.9844549894
0.0048792348 -0.074305132 0.88706034 0.2137030512 0.3843311071 0.8981205821
0.078624725 -0.083611429 0.875 0.7461314201 0.07362550497 0.6617153287
-0.095739141 -0.097358719 0.92214286 0.1101730689 0.6286398768 0.7698531151
-0.054693799 -0.035441522 0.88741851 0.2719494998 -0.4289069474 0.8614419699
0.093691118 -0.025231928 0.88566667 -0.6635955572 -0.625395 0.4105142951
-0.065963998 -0.024040053 0.90411115 0.2309540957 -0.8686259389 0.4383482933
-0.033905115 -0.025580287 0.88606447 0.3707858324 -0.552675724 0.7463694811
-0.073162749 -0.054134592 0.88821727 0.252862215 0.1402218938 0.9572870731
-0.015341969 -0.053174373 0.86173081 -0.2776575089 -0.3637512326 0.88915205
-0.12448891 -0.11380333 0.93292856 -0.08924871683 0.5095580816 0.8557950854
-0.13412815 -0.037205629 0.90529412 0.2479062527 -0.609292388 0.7531967163
-0.14499971 -0.03523159 0.91283876 0.333235085 -0.6960098147 0.6360225677
-0.045154199 -0.086241968 0.89678258 0.4031223357 0.3475834429 0.8465684652
0.0052159089 -0.10441908 0.88729388 -0.4325838685 0.1513748914 0.8887951374
0.034903068 -0.064820707 0.94794452 0.1726157516 -0.003401796101 0.9849833846
0.092468031 -0.015452955 0.89638889 -0.5547898412 -0.5580009222 0.6171249747
0.055896506 -0.0077793007 0.89572734 0.02329715714 -0.9045607448 0.4257077277
0.084492691 -0.056945201 0.93800008 0.220896244 -0.1460075676 0.9643062949
-0.0057126693 -0.10244231 0.88564706 -0.006862164475 0.6223777533 0.7826868892
0.045059845 -0.095203988 0.9040975 0.1629474014 -0.8810881972 0.4439951479
0.032888986 -0.0038863947 0.92414999 0.4040299058 0.3718583584 0.8357518911
-0.1151214 -0.065128155 0.90374994 0.149940148 0.3730618954 0.9156106114
-0.1717916 -0.10162321 0.92000002 0.1510817856 0.4989295006 0.8533719182
0.013800987 -0.032450192 0.86085731 0.001240551588 -0.2434777766 0.9699056745
-0.01187445 -0.11478635 0.90300006 0.1853247434 -0.9826296568 0.009679432027
-0.037124202 -0.072273716 0.90100002 -0.05161889642 0.5659381747 0.8228301406
0.10188971 -0.0087561468 0.90800005 -0.550006032 -0.4847720563 0.6800657511
-0.0051396354 -0.03535267 0.86287236 0.206253469 -0.3921215832 0.8964932561
-0.10234207 -0.060617995 0.89800006 0.1481328905 0.3216259778 0.935207665
0.012609096 -0.081988893 0.89255553 -0.8701124191 -0.3183037043 0.3762806952
0.084993422 -0.023295956 0.8734287 -0.4118618369 -0.7775551677 0.4751608074
-0.12515722 -0.043278262 0.90138495 0.2282090038 -0.3247893751 0.9178412557
-0.014895868 -0.026368305 0.87475765 0.305971235 -0.5962836146 0.7421774864
-0.075141773 -0.035130668 0.89353693 0.2432004064 -0.5339477658 0.8097859621
-0.024689328 -0.045257159 0.86640912 0.324731797 -0.5325230956 0.781644702
-0.075771466 -0.094584115 0.91351622 0.1947237402 0.6607195735 0.7249360681
-0.094931707 -0.054918546 0.89490497 0.2338740677 0.2123812586 0.9487872124
-0.025362644 -0.084759749 0.87503231 -0.3507449925 0.4075793326 0.8431233764
0.10288104 -0.027213136 0.89719999 -0.7594240904 -0.4018390179 0.511664331
-0.065258056 -0.045055956 0.88616657 0.2368635833 -0.1026375145 0.9661061764
-0.025309369 -0.05556085 0.85420001 0.5472202301 -0.4674589336 0.6942853928
-0.10473332 -0.028502479 0.90733337 0.1507266909 -0.7932456136 0.5899515152
0.085696533 -0.0035081063 0.90450013 -0.3000189662 -0.6826636791 0.6663024426
0.094358213 0.0045109335 0.91451722 -0.3496602774 -0.6615261436 0.6634160876
0.069896631 -0.069896631 0.93800002 0.2779420912 -0.3432916999 0.8971616626
0.045488834 0.0054369112 0.92490005 0.3798404038 -0.8069930077 0.4521986246
0.095223472 -0.064994365 0.86205548 0.2783214748 0.2479014695 0.9279450774
-0.032281168 -0.095061094 0.88566661 0.629316628 0.3579857051 0.6897875071
-0.030803436 -0.061607748 0.85700005 0.7288168073 -0.01099010743 0.6846205592
-0.15479438 -0.10407376 0.9234075 0.000265620125 0.5118815303 0.8590559959
-0.13470392 -0.024651285 0.923778 0.2562793791 -0.7930007577 0.5526940227
0.1077399 -0.033980284 0.90144444 -0.7701830864 -0.2096982896 0.6023658514
-0.094022118 -0.037530784 0.89599997 0.2297706306 -0.469466269 0.8525297046
0.013284081 -0.10562028 0.88817626 -0.4196636677 -0.02640312165 0.9072955847
0.11332889 -0.024682987 0.91420001 -0.7338078022 -0.1917283237 0.6517410278
-0.15412526 -0.046487994 0.9068262 0.3094379306 -0.4117825031 0.8571367264
-0.0047497801 -0.11003657 0.90300006 0.240767315 -0.8228130937 0.5147909522
0.027136341 -0.091276787 0.93800002 -0.005025870632 -0.8535094261 0.5210531354
0.055147871 -0.02435568 0.87197143 -0.04138519615 -0.7927607894 0.6081262827
-0.04795951 -0.054516982 0.88000005 0.547647059 0.04318292066 0.8355943561
-0.084505841 -0.063511252 0.89510369 0.234066397 0.4095926583 0.881729424
-0.038057774 -0.054477584 0.87300009 0.5490735173 -0.2013162971 0.8111658096
0.093977973 -0.074174792 0.86311436 0.4012332559 0.3113490343 0.8614369631
0.097044818 -0.013977907 0.90276194 -0.5926281214 -0.475378722 0.6502360702
0.044844061 -0.074899197 0.9454999 0.2511658967 -0.4255542159 0.869378686
-0.13480236 -0.085058957 0.91530579 -0.09293648601 0.4568494558 0.8846758604
0.11333001 -0.014701184 0.91682363 -0.6514656544 -0.3605677187 0.6675203443
-0.04475965 -0.093773611 0.90436381 0.5588376522 0.4679439366 0.684637785
-0.024419207 -0.11321593 0.89600015 0.3465440273 0.7770431042 0.5254629254
-0.056217 -0.076074533 0.89607996 0.1420378536 0.5280596614 0.837244451
0.085235588 0.014244373 0.92433339 -0.1149737686 -0.7749977708 0.6214173436
-0.082660891 -0.029128127 0.89800006 0.1956089884 -0.6904891133 0.6963920593
0.084924012 -0.05752451 0.86110002 -0.09220285714 0.2763949633 0.956610918
-0.05438897 -0.062825486 0.88365 0.191956833 0.6060721278 0.7718997002
0.11030464 -0.043650288 0.9052 -0.7940541506 -0.1612500697 0.5860685706
0.025405152 -0.036657862 0.9379999 0.0283193849 0.3567901552 0.933755219
0.063150935 -0.07177069 0.94257152 0.2527252138 -0.4173717201 0.8728864789
0.023462983 -0.073366471 0.95100015 0.1079969183 -0.1881158501 0.9761911035
0.065831169 -0.075971454 0.93503141 0.2744775116 -0.5206573009 0.8084417582
0.070045665 -0.038731132 0.94000006 0.1092323884 0.1437088698 0.9835730791
0.016837552 -0.088973783 0.91433334 -0.2029680014 -0.9658167362 0.1612514704
-0.056602586 -0.086593486 0.90240914 0.2352078408 0.5303396583 0.8145042062
-0.14450291 -0.11202731 0.926 -0.09715677053 0.5035666823 0.8584760427
-0.010029066 -0.087947205 0.88000005 -0.3239715993 -0.1809474975 0.9286013246
-0.037797194 -0.023198353 0.89199996 0.36330989 -0.5378856063 0.7607134581
-0.0055596568 -0.044925179 0.8604188 -0.3236359656 0.03112123907 0.9456697106
0.097248487 -0.0033249042 0.91049999 -0.4278398156 -0.5896880627 0.6849971414
-0.11186442 -0.09094014 0.91800004 0.04742920399 0.5539393425 0.8312049508
-0.094378598 -0.092128716 0.91700006 0.1420984119 0.6104671359 0.7791905403
0.034465823 -0.083176218 0.94359261 0.2142623514 -0.532699883 0.8187322617
0.10592709 -0.024169244 0.90328562 -0.7250520587 -0.306012392 0.6169732213
-0.035969306 -0.031613804 0.88225007 0.4092565179 -0.4855353832 0.772505343
0.080819897 -0.019242832 0.87800002 -0.3846411109 -0.7893382907 0.4785355926
-0.10528669 -0.096657962 0.92303705 0.05837665871 0.5925078392 0.8034467101
-0.058018681 -0.068211392 0.89433336 0.1354369372 0.543941617 0.8281210065
-0.11423372 -0.052738402 0.89787495 0.1566800028 0.1314242333 0.9788662195
0.025235398 -0.014937797 0.8746444 -0.007007881068 -0.6973903775 0.7166571617
0.061347086 -0.083463632 0.90100002 0.4894346893 -0.8296286464 0.2686447203
-0.085683256 -0.10764088 0.93081832 0.07580463588 0.646438241 0.7591911554
-0.12486262 -0.076533593 0.91300005 0.01660021767 0.4845329523 0.8746154904
0.071902007 -0.07737416 0.8915 0.7314670086 -0.02223397605 0.6815142035
-0.070974931 -0.099203601 0.92000002 0.1315875053 0.7191412449 0.6822906733
-0.076720461 -0.023789957 0.91483337 0.05766348913 -0.9186984897 0.39072752
0.08812926 -0.033990998 0.86166668 -0.4171735644 -0.5907241702 0.6906599998
-0.12526605 -0.095368564 0.92190462 -0.08406672627 0.481693387 0.8722982407
0.085742347 -0.07479538 0.86482495 0.5646625757 0.2892326117 0.7729817033
0.072405651 -0.07810048 0.92800003 0.4003543556 -0.7701548934 0.496566087
-0.011294974 -0.071271248 0.88850009 -0.1877637208 0.6939682961 0.6950919628
-0.16490918 -0.045523122 0.9136799 0.4190732837 -0.5996953845 0.6817206144
-0.095200658 -0.11408161 0.93616652 0.0399716273 0.6265649796 0.7783434987
-0.064793497 -0.016377447 0.93427783 0.06648591906 -0.9607642889 0.269279778
0.084398925 -0.016512493 0.88662499 -0.4623476863 -0.7502916455 0.47254318
0.10327847 -0.016112993 0.90648019 -0.6065561175 -0.4111159146 0.6804949641
-0.032097448 -0.10445784 0.88654995 0.5381333828 0.5455306172 0.6425020099
0.044148933 -0.011268673 0.88040006 -0.09624890983 -0.8380493522 0.537037611
0.032277111 -0.099980325 0.89800006 -0.1118639112 -0.711692512 0.6935273409
0.0044943453 -0.06603498 0.88151854 0.003976718988 0.4356684089 0.900098443
-0.12529194 -0.065029107 0.90455556 0.08832167834 0.4006508589 0.9119639397
0.0057711843 -0.027038181 0.86650014 0.1698577106 -0.5089871883 0.8438485861
0.030166101 -0.00081529998 0.93000007 0.1908974946 0.4036200345 0.8947899342
-0.16591102 -0.05421748 0.90853578 0.3764026463 -0.3384299576 0.8624303937
-0.072437212 -0.091541536 0.90800005 0.2108014077 0.645178616 0.7343754768
-0.073952653 -0.084785931 0.90564305 0.2226414979 0.5740988851 0.7879347801
-0.066841103 -0.060917985 0.88860005 0.286295563 0.343267113 0.8945404291
0.091184728 -0.019483916 0.88900006 -0.6125222445 -0.62685287 0.481530875
0.083942942 0.0026264931 0.9076001 -0.2173965871 -0.7183337212 0.6608595848
0.085631721 0.0071115717 0.91288233 -0.1601313353 -0.7504120469 0.641279757
-0.17409478 -0.048102774 0.91590917 0.4666783214 -0.5118049979 0.7212953568
-0.028557768 -0.041080426 0.87100011 0.4314648509 -0.4490417838 0.7824318409
0.065007806 -0.09482456 0.89588892 0.6266105175 -0.2397939116 0.7415242195
-0.11821821 -0.041336879 0.90100002 0.1769788265 -0.3729760051 0.910805881
-0.1483846 -0.040686101 0.91000003 0.3481292725 -0.5785350204 0.7376335263
0.069626622 -0.041177034 0.85400003 -0.2071485221 -0.4966481626 0.8428701162
-0.014999397 -0.035567123 0.86803216 0.2197623551 -0.4119473994 0.8843098283
0.096225865 -0.04426381 0.86125946 -0.4406270683 -0.344992727 0.8287507296
-0.16521627 -0.065133579 0.90605569 0.2553145587 -0.03528124094 0.9662141204
-0.10516745 -0.085065715 0.91364992 0.123471804 0.5573241115 0.8210630417
-0.14169037 -0.039004654 0.90800005 0.2722600102 -0.5524964333 0.7877957821
-0.17268385 -0.043773524 0.92288899 0.4453061819 -0.6011847258 0.6635354757
0.048516486 -0.079764396 0.93800002 0.2838641405 -0.6967747808 0.6587306857
0.085630983 -0.052604519 0.85623074 -0.2061172128 0.110692881 0.9722462296
-0.014587249 -0.094607979 0.88269985 -0.1242753044 0.4752697945 0.8710190654
-0.025847388 -0.034593668 0.87365711 0.4057278037 -0.5304786563 0.7442965508
-0.1360752 -0.11155 0.92577785 -0.1061089858 0.4806605279 0.8704633117
-0.10522372 -0.044758342 0.89571428 0.1743646115 -0.2010027766 0.9639475346
0.034739818 -0.044671278 0.94349986 0.04336460307 0.3223789036 0.9456169009
-0.1649653 -0.094311796 0.91529417 0.09326540679 0.4971400797 0.8626431823
0.074453838 -0.092183076 0.88659996 0.7314670086 -0.02223397605 0.6815142035
-0.0053525618 -0.07819435 0.89341664 0.252170682 0.6772332788 0.691205442
-0.055342715 -0.09617576 0.91238093 0.2067644894 0.7670040131 0.6074152589
-0.0047488529 -0.065038607 0.88162851 -0.1104666516 0.607472837 0.786621809
-0.0254186 -0.06485983 0.85433328 0.6585665941 0.03968721628 0.751475215
-0.11144187 -0.029452493 0.90800005 0.1543080062 -0.7732695341 0.6150148511
0.078610696 -0.050161112 0.85400003 -0.2932143509 -0.191009298 0.9367714524
-0.13560824 -0.033110499 0.91189474 0.2754192054 -0.6975674629 0.6614710093
-0.084627271 -0.085066266 0.912 0.1876131147 0.5881953239 0.7866559625
-0.11553467 -0.077823639 0.91139996 0.1096253544 0.5215738416 0.8461341858
0.1053339 -0.063215397 0.85534781 0.1321844012 0.2703310847 0.9536500573
0.004886956 -0.087881356 0.90478957 -0.138072148 0.4398350418 0.887401402
0.076516122 -0.06819611 0.9372499 0.2605404854 -0.2485974878 0.9329083562
-0.11475187 -0.11364912 0.93348402 -0.08563440293 0.5209816694 0.8492613435
-0.04541989 -0.033809256 0.88656223 0.382632941 -0.4549038112 0.8041483164
-0.046046875 -0.10695896 0.92315805 0.3597790003 0.7333263159 0.5768808722
0.0012828555 -0.092622168 0.87800002 -0.3507781625 0.0387860164 0.9356549978
-0.10493163 -0.033805646 0.90285736 0.1853622943 -0.6364504099 0.7487133145
-0.0053559821 -0.024131848 0.87275761 0.2225491107 -0.5247026682 0.8216806054
0.021152213 -0.011389653 0.92800003 0.2859547138 0.4232215583 0.8597170711
-0.15587239 -0.042363603 0.91178566 0.3995741606 -0.6309132576 0.6650480628
0.097512513 -0.024204707 0.89459991 -0.7202065587 -0.4762865603 0.5044339895
-0.095851026 -0.06752754 0.9013077 0.1936576068 0.4784163535 0.8565130234
0.03464742 -0.015332648 0.87605721 -0.0406184867 -0.7307367325 0.6814499497
-0.094892152 -0.10243489 0.92628592 0.08125492185 0.6358625293 0.7675132155
-0.061691031 -0.020926034 0.93000007 0.08909755945 -0.9548050761 0.283564657
0.083292536 -0.072932087 0.93299991 0.2410119027 -0.3060277402 0.9210104942
-0.040644605 -0.09099099 0.89733338 0.6808806658 0.2251680195 0.6969224215
-0.02795532 -0.067241915 0.86180007 0.479440093 0.4615899622 0.7463725209
0.02052189 -0.031162869 0.86700004 0.02959150448 -0.4727905095 0.8806778789
-0.122295 -0.1084349 0.93000007 -0.1112290323 0.4888498783 0.8652479053
0.098665915 0.0083341775 0.92000002 -0.375557065 -0.6777850986 0.6321109533
-0.10490181 -0.065004505 0.90202874 0.1589842439 0.4345801175 0.886489749
-0.084167607 -0.10347298 0.92611134 0.1113394946 0.6653916836 0.7381445765
-0.10515705 -0.054870099 0.89711785 0.1925258487 0.1812031716 0.9644165039
0.043919601 -0.0029585748 0.91260004 0.3391694129 -0.8546342254 0.3931468427
0.074940979 0.0030793108 0.90730435 -0.005948988255 -0.8035548925 0.5952008963
-0.038629442 -0.10220706 0.91800004 0.5688943863 0.6658502817 0.4827034175
-0.1835957 -0.06530866 0.9155001 0.4737525284 -0.08713904768 0.8763363361
-0.17114286 -0.058904987 0.90800005 0.3535961211 -0.15045017 0.9232196808
0.031558245 -0.0084668463 0.87800002 -0.02797807567 -0.8024956584 0.5960016251
-0.021870203 -0.081944071 0.9016667 0.05056020245 -0.6318652034 0.7734274268
-0.10458282 -0.10703576 0.93199992 -0.004203049 0.5804345012 0.8142960668
0.035133757 -0.074958771 0.94758809 0.1903408617 -0.332637161 0.9236465096
0.10358877 -0.034613479 0.89621049 -0.7969787121 -0.3390090168 0.499897778
0.06447684 -0.017272696 0.87330443 -0.07476940751 -0.8320493102 0.5496394634
-0.095407881 -0.080852211 0.90800005 0.1549585909 0.5458328128 0.8234406114
-0.046581972 -0.04760943 0.88066667 0.4951985776 -0.1741688997 0.8511425257
-0.15050614 -0.1114559 0.92800003 -0.05872862414 0.5209822059 0.8515447974
-0.11100178 -0.038575087 0.89800006 0.1514664888 -0.3720194697 0.9157835245
-0.11775386 -0.0895252 0.92000002 0.01888493635 0.5305049419 0.8474714756
-0.015173833 -0.075516693 0.89516681 -0.1663847864 -0.9729645252 0.1601751596
-0.15404786 -0.098800331 0.92000002 -0.01546415966 0.4915374815 0.8707191348
-0.09590558 -0.021507788 0.92240018 0.05911718681 -0.8951597214 0.4418079555
-0.064874582 -0.10820197 0.93000019 0.1127999052 0.7404145002 0.6626179218
0.075260386 -0.035285603 0.85334802 -0.3297371268 -0.5915775895 0.7357372642
-0.085498609 -0.074484229 0.90517151 0.2126950622 0.5213311315 0.8264228106
-0.066043839 -0.033883248 0.89263666 0.303907603 -0.5066937804 0.806784749
-0.10610297 -0.078447051 0.90999997 0.1391981244 0.5338228941 0.8340605497
-0.045289848 -0.098217726 0.91085714 0.4439390302 0.7050067782 0.5530673862
