# .PCD v0.7 - Point Cloud Data file format
VERSION 0.7
FIELDS x y z normal_x normal_y normal_z
SIZE 4 4 4 4 4 4
TYPE F F F F F F
COUNT 1 1 1 1 1 1
WIDTH 512
HEIGHT 1
VIEWPOINT 0 0 0 1 0 0 0
POINTS 512
DATA ascii
-0.11920913 -0.11806947 0.78000003 -0.6640634537 0.4988264441 0.556948781
-0.30101871 -0.12483236 0.81366682 0.2185425758 0.1703009754 0.9608520865
0.0011685966 -0.1421515 0.88850009 -0.1049267724 0.3169098794 0.9426338077
-0.20428568 -0.073307499 0.85427773 -0.1743672341 -0.9375389814 0.3010261953
-0.17442493 -0.1839743 0.85100001 0.1114636511 0.617530942 0.7786086202
-0.093149267 -0.088210382 0.87607151 0.07518517971 0.3068314791 0.948789537
-0.075670384 -0.18334465 0.83493561 -0.1577546895 -0.6651309729 0.7298727632
-0.024745144 -0.11612602 0.80649996 -0.141928643 -0.510584414 0.8480328918
-0.22460873 -0.13612242 0.82249975 0.02213796601 0.3830527365 0.9234611392
-0.025677025 -0.07833571 0.87538469 -0.371257633 -0.7373855114 0.5642963648
-0.065131955 -0.14520523 0.889 -0.1022714898 -0.1645549238 0.9810515642
-0.26729408 -0.075078614 0.84460002 0.1162354499 -0.8636367917 0.4905311763
-0.15564449 -0.091767274 0.82100004 0.05632140487 -0.5920413733 0.8039371371
-0.076182462 -0.088179387 0.81871444 -0.2996432781 -0.5517550111 0.778318882
-0.14402382 -0.16528164 0.80511111 0.4228096902 0.4269503355 0.7993406057
-0.032450695 -0.16377129 0.81800014 0.4066389501 0.1506203711 0.9010872841
-0.097133793 -0.14287999 0.81900012 0.03416028246 0.3237050772 0.9455411434
-0.25337881 -0.17167282 0.83775008 -0.1185826585 0.4343758523 0.8928918242
-0.25498447 -0.10238945 0.80900002 -0.01201859117 -0.08328478038 0.9964532852
-0.10168558 -0.17083882 0.87650007 -0.3881262541 -0.7105640173 0.5869044065
-0.20490551 -0.09481398 0.81402224 -0.07478242368 -0.4170333743 0.9058094621
-0.17488548 -0.13474213 0.81566668 0.005713955034 0.4060981274 0.9138116241
-0.12612534 -0.19430351 0.8326 0.19125925 -0.9809218049 0.03481792659
-0.15311743 -0.096860416 0.76323998 -0.7633389831 0.4869996905 0.4244348109
-0.017459694 -0.11181708 0.84750003 -0.7439063191 -0.6443443894 0.1772672683
-0.21276854 -0.17311229 0.84162492 -0.03842454404 0.5089454651 0.8599407077
-0.10388036 -0.12557679 0.88603324 -0.1557261199 0.1598017514 0.9747886062
0.0023574489 -0.14485215 0.81099993 0.001421156339 0.09992033988 0.9949944019
-0.11513814 -0.0911543 0.81142861 0.1140869334 -0.5335938931 0.8380105495
-0.23486553 -0.078398876 0.82746154 -0.07414764166 -0.8491644263 0.5228975415
-0.26447928 -0.14366525 0.81773341 -0.1390908509 0.4029506147 0.9045907855
-0.2905364 -0.089488089 0.82100004 0.1605394185 -0.6418575048 0.7498306632
-0.035998899 -0.16224416 0.87646163 0.08824852854 -0.3248103261 0.9416530132
0.0011653091 -0.10643983 0.88625008 -0.861305058 -0.2505206764 0.4420328438
-0.054660168 -0.091414407 0.86000007 -0.01577307284 -0.9048106074 0.4255220294
-0.1059129 -0.16640384 0.84147596 -0.6258309484 -0.6384735107 0.4479812086
-0.1319281 -0.13913606 0.82233334 0.04159868136 0.2212828547 0.974322021
-0.14359801 -0.14017899 0.78000003 -0.6795557141 0.3337065578 0.6533329487
-0.045107897 -0.095282733 0.82679492 -0.2943755984 -0.8963542581 0.3314997256
-0.10922039 -0.17092282 0.80900002 -0.5345896482 -0.2030671686 0.8203521371
-0.038909975 -0.1276222 0.8876667 0.067423217 -0.03502167761 0.997109592
-0.14762688 -0.11540421 0.80187494 0.665499568 0.1105174869 0.7381708622
-0.16450796 -0.16169831 0.82860017 0.1561323702 0.5368750691 0.8290885687
-0.075122319 -0.11462492 0.88342845 -0.08086600155 0.2670984268 0.9602703452
-0.19506948 -0.15498112 0.82576936 0.09676451236 0.4947943687 0.8636059165
-0.1773712 -0.082377151 0.84655565 -0.1082462966 -0.9522131085 0.2856097519
-0.074786238 -0.16954952 0.86825001 0.08054281026 -0.9712970853 0.2238188088
-0.11162334 -0.1187331 0.81100005 0.03717514127 0.422280401 0.9057026505
-0.053789254 -0.16743484 0.83847827 0.2983222902 -0.8953564167 0.3306670785
-0.1776616 -0.10333162 0.81158823 -0.0187815465 -0.3112515807 0.9501419663
-0.0057386602 -0.13185968 0.86514282 -0.8860118389 -0.1122889742 0.449860245
-0.24592477 -0.12480602 0.81731838 -0.1672290117 0.3081664741 0.9365190268
-0.29331434 -0.14686552 0.82100004 0.1008893102 0.4176645279 0.9029826522
-0.12662397 -0.1504097 0.79800004 -0.7181281447 0.1837220043 0.6712214351
-0.2281335 -0.096927188 0.80900002 -0.09023457766 -0.2368999869 0.9673345685
-0.27493098 -0.11527437 0.80745238 -0.04212548956 -0.001741840621 0.9991108179
-0.095904902 -0.10334378 0.80193549 -0.2883902192 -0.1069795266 0.9515179992
-0.1529094 -0.12251154 0.76758832 -0.6269981265 0.262398988 0.7334985733
-0.15322837 -0.12778342 0.82144451 -0.1537570208 0.3584493697 0.9208000898
-0.20520107 -0.12512429 0.81557137 0.1162134632 0.3428162038 0.9321864247
-0.24496801 -0.15464456 0.82428598 -0.152088806 0.3718594313 0.9157453775
-0.18476458 -0.085160919 0.82327276 -0.07443636656 -0.8625349402 0.5004924536
-0.034328513 -0.096661419 0.8481667 -0.4156261683 -0.879660666 0.2311968356
-0.039186999 -0.1489106 0.89400005 0.09836680442 -0.2299254984 0.968224287
-0.20603207 -0.081100561 0.83128566 -0.119180426 -0.9047124386 0.4090127051
-0.08477357 -0.15477097 0.88716322 -0.03953072801 -0.4351547956 0.8994874358
-0.11537325 -0.15353964 0.82655561 -0.4893746972 0.2900585234 0.8224223256
-0.017238976 -0.096491262 0.8666923 -0.6485745311 -0.5421955585 0.5342050791
-0.025245488 -0.10398105 0.8243103 -0.4379171133 -0.8214587569 0.3652863503
-0.09497951 -0.17610505 0.82571441 -0.6074388027 -0.6331886649 0.4796771705
-0.22497401 -0.15639037 0.83181065 -0.1120670214 0.4309900701 0.8953706026
-0.023510735 -0.14522165 0.81263638 0.07907628268 0.2020685822 0.9761737585
-0.13546614 -0.085804425 0.82349998 0.1400188208 -0.6465126872 0.7499440312
-0.26481983 -0.082293712 0.82492006 0.1014742851 -0.7864231467 0.6092959642
-0.2450874 -0.071727991 0.84462506 -0.008456341922 -0.9285176992 0.371191889
-0.12742017 -0.10333691 0.76740009 -0.5322424173 0.3446965814 0.7732414007
-0.15873891 -0.18319674 0.83700007 0.4770902693 0.5857155919 0.6552267671
-0.13484274 -0.18287115 0.81762516 0.2996367812 0.6286884546 0.7176131606
-0.12403271 -0.10864516 0.79783338 -0.1608807296 -0.737965107 0.6553815007
-0.054373421 -0.078383721 0.87581825 0.1028719768 -0.8233530521 0.5581282377
-0.18486153 -0.17137693 0.83900005 0.08628379554 0.6344071031 0.7681684494
-0.0089685917 -0.12563053 0.81477779 -0.1718634963 -0.1736732721 0.9696909189
-0.1561676 -0.1474155 0.81742859 0.2620539963 -0.01787074283 0.9648877382
-0.054967195 -0.16339219 0.88233316 0.004916445352 -0.5737817883 0.8189934492
-0.084597826 -0.13504872 0.8853333 -0.1000380367 0.1319498718 0.9861955047
-0.0085343495 -0.089222752 0.88500005 -0.6705113649 -0.5593168139 0.4874209762
-0.22504443 -0.073473476 0.84388006 -0.1203492284 -0.9277592897 0.3532404602
-0.05596076 -0.11681215 0.88600004 -0.009594528936 0.2988526523 0.9542510509
-0.22472784 -0.11507418 0.81482214 0.01342782844 0.2682445645 0.9632572532
-0.10329685 -0.14470492 0.88635468 -0.1192428172 -0.1010201424 0.9877125621
-0.070849568 -0.086847857 0.86900002 0.1864904016 0.2491033375 0.9503519535
-0.28358042 -0.13216336 0.80884618 0.08997118473 0.3477277458 0.9332687855
-0.13585369 -0.12506475 0.78820002 0.6137219667 -0.09419251978 0.7838833928
-0.094556481 -0.087285422 0.81166661 -0.1553783566 -0.5855579972 0.795599997
-0.30005932 -0.10619677 0.81300002 0.1069923267 -0.2083489895 0.9721848369
-0.13403361 -0.096801952 0.80856514 0.1412462294 -0.7326658964 0.6657704115
-0.27493638 -0.094946168 0.81295466 0.08576049656 -0.4650725722 0.8811087608
-0.082890965 -0.1677831 0.84100002 -0.1874017715 -0.9523265362 0.2407378554
-0.0923656 -0.11314785 0.8780002 -0.06934327632 0.2544656098 0.9645925164
-0.14017579 -0.10703194 0.78766674 0.7090851665 -0.4012735188 0.579808414
-0.13667805 -0.087880462 0.76599991 -0.5168370008 0.5627253056 0.6451509595
-0.23434958 -0.17174602 0.83330011 -0.1338114589 0.448934108 0.8834888935
-0.064431101 -0.10122316 0.82277775 -0.3171893358 -0.6678251624 0.673350215
-0.14458096 -0.14797306 0.80058336 0.7027244568 0.2756123543 0.6559086442
-0.19366479 -0.11317829 0.80890006 0.1226164624 0.09657088667 0.9877445102
-0.0081342617 -0.11432227 0.86362511 -0.8267825842 -0.2839592695 0.4855900705
-0.10751022 -0.11274353 0.79276931 -0.7414135933 0.4610065818 0.4876257181
-0.12566376 -0.16782521 0.81407696 -0.3360405862 0.2868981659 0.8970876336
-0.26140797 -0.16220525 0.82600003 -0.08199648559 0.4328793585 0.8977149129
-0.042464416 -0.17469396 0.82800001 0.42281124 0.04575618356 0.9050619006
-0.11491413 -0.13489419 0.81504339 -0.264949441 0.3945246637 0.8798591495
-0.2447502 -0.085335985 0.8157621 0.001737525105 -0.6739655733 0.7387607098
-0.19352768 -0.081356712 0.84366661 -0.1556299925 -0.9425832033 0.2954932153
-0.039585885 -0.11084047 0.82100004 -0.1137029603 -0.6487070322 0.7524964213
0.0012822711 -0.123828 0.8773334 -0.8961267471 -0.1578079015 0.4147933125
-0.26323521 -0.12562524 0.8112964 -0.247043699 0.247115463 0.9369649887
-0.083184272 -0.10024771 0.81100005 -0.3774948418 -0.1695224494 0.9103624225
-0.15765907 -0.10717973 0.81099999 0.130976975 -0.2822766006 0.9503499269
-0.19624917 -0.13601533 0.82224995 0.1290664971 0.3912139237 0.9112043977
-0.035116784 -0.085944586 0.86580491 -0.1807975024 -0.7998372912 0.5723395348
-0.16762316 -0.12408198 0.80762506 0.01140746474 0.2964546382 0.9549788237
-0.27375782 -0.15323365 0.82444447 -0.05252680928 0.4551698267 0.8888539672
-0.018435925 -0.16184758 0.81328577 0.2049732804 0.2521236241 0.9457376003
-0.18405235 -0.14496502 0.821235 0.1053339913 0.4084926546 0.9066634178
-0.0086158803 -0.15005991 0.81900007 0.1267342716 0.1029099822 0.9865840077
-0.055714641 -0.18138048 0.83518183 0.2390564084 -0.5633072257 0.7909089923
-0.25530303 -0.076228097 0.83388001 0.05945191532 -0.8732700944 0.4835956693
-0.12972854 -0.13805453 0.79133338 -0.689630568 0.4353086948 0.5787193179
-0.054777045 -0.13528617 0.88794726 -0.02950922772 0.01382778678 0.999468863
-0.21511236 -0.10457157 0.81234699 -0.00121307245 0.01278501097 0.9999175072
-0.020567477 -0.13120632 0.80900002 -0.09681248665 -0.04092328623 0.994461
-0.18465801 -0.12531789 0.81194758 0.1467089206 0.3154056966 0.9375477433
-0.23517795 -0.14472787 0.82542872 -0.1162549332 0.3181936443 0.9408706427
-0.28453502 -0.10553229 0.80741847 0.1086790934 -0.2538214922 0.9611261487
-0.21467674 -0.14494823 0.82558554 0.04861479253 0.4233464003 0.9046626091
-0.028401896 -0.15504551 0.88520002 0.1221756786 -0.2799557745 0.9522068501
-0.0062536332 -0.10453996 0.87510538 -0.7935353518 -0.3627381623 0.4885925353
-0.11655851 -0.1567505 0.80430782 -0.6346852183 -0.3065203726 0.709379971
-0.074974559 -0.16267726 0.88293117 -0.05958931521 -0.5778309107 0.8139782548
-0.20476779 -0.16469489 0.8356452 0.03193168715 0.5367385745 0.8431441784
-0.2258206 -0.08718051 0.81737047 -0.08359932154 -0.6728829145 0.7350100279
-0.035256974 -0.076066248 0.88391668 -0.240249455 -0.7734320164 0.5865859985
-0.17511727 -0.15485974 0.82542115 0.1211946905 0.4891651869 0.8637298346
-0.087099016 -0.17113981 0.87150007 -0.03651347011 -0.936003983 0.3500904739
-0.10487604 -0.094828434 0.80492461 -0.04056999087 -0.5173243284 0.8548272252
-0.17484239 -0.08377865 0.83100003 -0.05812442675 -0.9236081839 0.3789055943
-0.16343328 -0.17167115 0.83900005 0.1616640091 0.6360521913 0.7545213103
-0.06531135 -0.12518121 0.8869046 -0.08563000709 0.1641963869 0.9827039242
-0.25513256 -0.13531852 0.81687236 -0.22703363 0.3066380322 0.9243531823
-0.23509267 -0.10702752 0.81157142 -0.08081799746 0.1494391561 0.9854625463
-0.29369718 -0.11612657 0.80846149 0.1565389335 -0.0401362367 0.9868559241
-0.095131792 -0.16791154 0.83511764 -0.4324311614 -0.7649284601 0.477375865
-0.10528842 -0.15751146 0.83269238 0.5846847892 0.5884350538 0.5584692359
-0.25486359 -0.11456843 0.81131399 -0.1845898032 0.2052554637 0.9611434937
-0.18708251 -0.078870587 0.85390908 -0.1418714374 -0.9571431875 0.2524865568
-0.21607783 -0.083337516 0.82379997 -0.09741465002 -0.7892850637 0.6062503457
-0.015842827 -0.11544669 0.81492591 -0.2982372046 -0.5639903545 0.770045042
-0.18504155 -0.15954369 0.83100003 0.08940643072 0.5835114121 0.8071684241
-0.095129952 -0.16241907 0.88224983 -0.05712293833 -0.4464965761 0.8929601312
-0.19501713 -0.088984832 0.81807703 -0.0304709468 -0.6721352339 0.7398011684
-0.065874793 -0.1678068 0.87685013 -0.04809540138 -0.610455811 0.7905887365
-0.16729169 -0.089748748 0.81900007 0.01133860927 -0.5621491671 0.8269581199
-0.13676 -0.12694134 0.80000001 -0.01227696054 -0.09619355947 0.9952869415
-0.065089032 -0.16678153 0.84233338 0.06879751384 -0.9673708677 0.243845284
-0.065599531 -0.087815545 0.8242631 -0.3090028465 -0.8808437586 0.3586522937
-0.17543963 -0.16589592 0.83406258 0.1318117231 0.6195842624 0.7737835646
-0.065617621 -0.18505645 0.84100002 0.09044736624 -0.9450532198 0.3141554892
-0.14307287 -0.090850726 0.81600004 0.1409488916 -0.6261994243 0.7668166161
-0.12512401 -0.088017121 0.8169049 0.1627688855 -0.6614932418 0.7320744395
-0.18515188 -0.095016122 0.81570822 -0.01640465856 -0.5307511687 0.847368896
-0.02854865 -0.10028628 0.83500004 -0.3708980978 -0.8840729594 0.2843407094
-0.022236448 -0.10211441 0.85215378 -0.6650215983 -0.664963305 0.3399559855
-0.29406902 -0.13421045 0.81500006 0.1798313558 0.3138257861 0.9322950244
-0.044947576 -0.079991452 0.86900002 -0.05654129013 -0.8081099987 0.5863116384
-0.21389574 -0.13217542 0.81900018 0.05658419058 0.3760745227 0.9248601198
-0.099313185 -0.16933255 0.81500006 -0.6769877076 -0.3578009903 0.643168807
-0.16249761 -0.1387198 0.82200003 -0.1251653731 0.3116644621 0.941912353
-0.14862831 -0.14069185 0.82300001 0.0002859147789 0.1229530126 0.9924124479
-0.24476771 -0.13522846 0.82206386 -0.1692604572 0.3168669641 0.9332450032
-0.21599099 -0.078899018 0.83652937 -0.1576992571 -0.9098446369 0.3838146925
-0.25328586 -0.14574824 0.8211537 -0.175018698 0.3396842182 0.9241120815
-0.17499225 -0.11544967 0.80854148 0.05150309205 0.003911827691 0.998665154
-0.23632804 -0.16153818 0.82900012 -0.1157693043 0.3901260197 0.9134545326
-0.23473418 -0.12433897 0.81711441 -0.06301452965 0.3444150686 0.9367002845
-0.15451556 -0.12120223 0.80850005 0.3700125515 0.5400831699 0.755910635
-0.14117138 -0.13793473 0.79066664 0.913184464 0.2217793912 0.3419181108
-0.079009585 -0.091282919 0.87500006 0.1592047065 0.2943343818 0.9423487186
-0.1351041 -0.15530434 0.80291855 -0.709808588 0.2975201905 0.6384775043
-0.24536121 -0.09715122 0.80890006 -0.01984428987 -0.1927778125 0.9810417295
-0.1037599 -0.11482707 0.80445153 -0.3221898675 0.2762594521 0.9054691792
-0.055100251 -0.089175411 0.82700008 -0.2712037563 -0.9227190614 0.2739307582
-0.1927475 -0.10220861 0.81269234 -0.01129471045 -0.2610960007 0.965246737
-0.11495197 -0.10371081 0.80115366 0.07729993016 -0.2457607985 0.9662434459
-0.056708585 -0.15169156 0.89099997 -0.02503054403 -0.3309200406 0.9433267713
-0.044754807 -0.15564926 0.88762856 0.06256520748 -0.3531689346 0.9334651828
-0.005342274 -0.13574286 0.81378806 -0.05508289114 0.002096823417 0.9984796047
-0.017745968 -0.085503183 0.87635005 -0.5063605309 -0.6843913794 0.5246021748
-0.1216661 -0.12697759 0.81245458 -0.2517186701 0.5854899883 0.7706096172
-0.19980198 -0.17252274 0.84100002 0.02149816044 0.6156517863 0.7877250314
-0.14176874 -0.17817076 0.81100005 0.3931210935 0.5389986038 0.7449404597
-0.24515668 -0.16635978 0.83228582 -0.1229869798 0.4249278009 0.8968336582
-0.21472237 -0.071822777 0.85342854 -0.1688993573 -0.9354548454 0.3104791343
-0.27516487 -0.083873086 0.82339996 0.129093796 -0.7270413637 0.6743482947
-0.065217152 -0.17512913 0.83585691 0.03942201659 -0.5661382079 0.8233671784
-0.28411269 -0.14327747 0.81732023 0.03231290728 0.4276570678 0.9033633471
-0.16563037 -0.1830397 0.84530002 0.2489394397 0.6435585022 0.7237828374
-0.04446606 -0.092388868 0.85773319 -0.06504132599 -0.815051496 0.5757262111
-0.22520126 -0.16580129 0.83636588 -0.09703928232 0.463029474 0.8810148239
-0.26371029 -0.096782818 0.80891311 0.03900574893 -0.3598881662 0.932179749
-0.27432764 -0.1347215 0.81269568 -0.08361233026 0.3954645395 0.9146676064
-0.24472407 -0.11444425 0.81328577 -0.1233444959 0.2736510336 0.9538874626
-0.032704927 -0.12086603 0.81100005 -0.01721042953 -0.4270575643 0.9040606618
-0.1282309 -0.1870116 0.82433331 0.3025160432 -0.7936100364 -0.5278893709
-0.08471863 -0.17425722 0.83326679 -0.2997745574 -0.7499153018 0.5897136927
-0.26487041 -0.086787149 0.81578583 0.101514928 -0.6761408448 0.7297453284
-0.20130123 -0.1062653 0.80900002 0.06019679457 -0.0606578663 0.9963417649
-0.10598802 -0.087595239 0.81394124 0.02092748322 -0.6059951782 0.7951929569
-0.27180436 -0.079354286 0.83660001 0.1383010745 -0.8341822028 0.5338659883
-0.0036103639 -0.13627483 0.87400001 -0.4463809133 0.4342792332 0.7823973894
-0.20517519 -0.115205 0.81357157 0.09271346033 0.1901381761 0.9773697853
-0.074649148 -0.13530394 0.88699967 -0.1182956249 0.1075854152 0.9871329665
-0.15743254 -0.15791322 0.82249999 0.6144964695 0.3195900321 0.7212879658
-0.13061456 -0.1074881 0.77600002 0.1317495108 0.7138534784 0.6877901554
-0.094653711 -0.13499792 0.88500017 -0.121446155 0.08279702067 0.989138782
-0.05470401 -0.10250425 0.82499999 -0.2906575799 -0.7903807163 0.5392740369
-0.10123659 -0.18021549 0.81900007 -0.268422097 -0.9030757546 0.3352666795
-0.26306134 -0.10877943 0.81100005 -0.05243792012 -0.05030854419 0.9973561764
-0.24531819 -0.075401224 0.83329636 0.006682470441 -0.895760715 0.4444862604
-0.2545689 -0.086867914 0.81446677 0.06507281214 -0.6320851445 0.7721618414
-0.18484956 -0.13456318 0.81653875 0.1326018274 0.3940999806 0.9094514847
-0.12508051 -0.16327401 0.8052001 -0.1896888167 0.3852575719 0.9031028748
-0.28474441 -0.094885983 0.81495559 0.08334690332 -0.5111083388 0.8554657102
-0.16848873 -0.10560334 0.80845457 0.05887270719 -0.3125886321 0.9480624199
-0.19491386 -0.16532026 0.83475006 0.04727328569 0.5841782689 0.8102474809
-0.18621714 -0.083980285 0.83300006 -0.08752161264 -0.9336331487 0.3473745286
-0.12480937 -0.12617765 0.78033328 -0.5081743002 0.3818357289 0.7719846964
-0.082609467 -0.1088592 0.88066673 -0.0268141143 0.3094420433 0.950540185
-0.20488678 -0.1452785 0.82462543 0.09397947788 0.4207134843 0.9023125768
-0.045303758 -0.16454855 0.8344146 0.4107491672 0.1439191103 0.9003179669
-0.1052506 -0.13515845 0.81649995 0.01874781586 0.4560675621 0.8897476792
-0.07504379 -0.12486416 0.88608676 -0.08747466654 0.1774463356 0.9802351594
-0.12495933 -0.14594118 0.82294875 -0.3855871558 0.03661822155 0.921944499
-0.2250374 -0.14502455 0.82636392 -0.00346349366 0.3790529668 0.9253684878
-0.19552314 -0.12528098 0.81617415 0.1097586378 0.3133345246 0.9432786107
-0.08483284 -0.12536503 0.88513952 -0.09380219132 0.1650488526 0.9818146825
-0.17469384 -0.17602952 0.84548271 0.1152786016 0.6181865931 0.7775321007
-0.21510759 -0.11508198 0.81395459 0.05305024236 0.2410598397 0.9690592289
-0.035258073 -0.078182302 0.87433338 -0.2223729938 -0.7660142183 0.6031355262
-0.024762908 -0.15486573 0.8112967 0.1789404601 0.2608928084 0.948638618
-0.084805667 -0.14461991 0.8863169 -0.0921080038 -0.1640190184 0.9821475744
-0.23513031 -0.08531034 0.81566679 -0.05383621901 -0.6486028433 0.7592206597
-0.045179702 -0.13554162 0.88855541 0.04798315093 -0.03640363365 0.9981845617
-0.2154603 -0.15762357 0.83131999 -0.03222405165 0.4653124511 0.8845597506
-0.23551242 -0.072423302 0.84491313 -0.05613939837 -0.9322779179 0.3573601246
-0.27508286 -0.12485589 0.80799967 -0.05501168966 0.1832994223 0.9815167189
-0.25522557 -0.082199953 0.82473904 0.1004844308 -0.818508625 0.5656381845
-0.23518595 -0.13525504 0.82216257 -0.08208549768 0.3377594352 0.9376462698
-0.06537547 -0.11533214 0.88515633 -0.03883321956 0.3143798113 0.9485026598
-0.064872079 -0.13566674 0.88834971 -0.07651909441 0.07450627536 0.9942804575
-0.21503294 -0.095068254 0.81296015 -0.07474756986 -0.4011669159 0.9129500985
-0.094865866 -0.12524411 0.88310272 -0.1055774167 0.1987002194 0.9743570089
-0.11335387 -0.16148727 0.83824998 -0.6670185924 -0.3774035871 0.6423805356
-0.074882008 -0.14469874 0.88802701 -0.09154361486 -0.1680800021 0.9815135598
-0.035689715 -0.10258635 0.82344443 -0.2679306865 -0.8505408168 0.4525411725
-0.10545366 -0.12550838 0.81328577 -0.07612697035 0.5127967596 0.8551281691
-0.27513835 -0.1057276 0.80770558 0.02731460147 -0.1993522346 0.979547143
-0.21516377 -0.16560414 0.83626837 -0.03995732218 0.4803026021 0.8761922121
-0.1240401 -0.13525711 0.81720692 -0.03026348725 0.2719742656 0.9618285298
-0.17518236 -0.094919711 0.81491488 -0.01469337102 -0.5340771675 0.8453080654
-0.20562759 -0.076636046 0.84561551 -0.1773970872 -0.9356319308 0.3051608205
-0.22545521 -0.12540506 0.81684011 0.02550435066 0.3368462324 0.9412142038
-0.27482989 -0.14416525 0.81722224 -0.06426855922 0.432941258 0.899128139
-0.087406307 -0.18183362 0.82855558 -0.2769761682 -0.8288502693 0.4860981405
-0.064913675 -0.15470469 0.88795638 -0.09165692329 -0.4216766953 0.9021018744
-0.26478022 -0.13455549 0.81317008 -0.2133963257 0.3693650365 0.904450953
-0.13483623 -0.16474755 0.80468905 0.09134973586 0.4671463668 0.8794484138
-0.064362235 -0.090603203 0.86366671 0.2998833656 -0.4988192618 0.8131724
-0.22529672 -0.10512584 0.81204778 -0.05378586799 -0.003998869564 0.9985445142
-0.14702703 -0.10679359 0.80500013 0.4927620888 -0.5094707012 0.7054255009
-0.19513172 -0.14502573 0.82340932 0.1142707169 0.4298296869 0.8956498504
-0.14375405 -0.10955879 0.796 0.5321230292 -0.5601392984 0.6348929405
-0.15681575 -0.16739944 0.83438462 0.3517335355 0.5349205732 0.7682079673
-0.074698687 -0.15483901 0.88757122 -0.1062863544 -0.4628993273 0.8800156116
-0.013661842 -0.11344904 0.85644996 -0.7904607058 -0.392252475 0.4704357982
-0.045200251 -0.10444161 0.82415575 -0.261379838 -0.8249670863 0.5011086464
-0.064948104 -0.080446824 0.87157154 0.2513746917 -0.6319173574 0.7331379652
-0.0030698124 -0.11596936 0.87606263 -0.8897870779 -0.1854548305 0.4169957638
-0.2849099 -0.11523453 0.80642831 0.07408599555 -0.01843404211 0.9970814586
-0.1560104 -0.10523274 0.76511776 -0.6992721558 0.4479995668 0.5570591092
-0.25507641 -0.15445626 0.82287264 -0.1505677849 0.3907692432 0.9080907106
-0.098845042 -0.15079281 0.82300001 -0.946927309 -0.3169278502 0.0537157096
-0.095237441 -0.09518151 0.80564159 -0.2649429739 -0.3241663873 0.9081417322
-0.14513469 -0.093198083 0.76514292 -0.4391150177 0.5101718307 0.7395287156
-0.25399438 -0.072757721 0.84520006 0.02737678029 -0.9247193336 0.379663825
-0.18509091 -0.11162332 0.81100005 0.08924712986 -0.02236467227 0.9957584143
-0.17398132 -0.14315559 0.81861925 0.07287578285 0.4173605442 0.9058141708
-0.24502024 -0.080470771 0.82325006 0.0185091123 -0.8130712509 0.5818699002
-0.074036412 -0.16791883 0.84205878 -0.03169259429 -0.9691122174 0.2445753515
-0.22474802 -0.077355444 0.83585721 -0.1150021181 -0.9041832089 0.4113724232
-0.084761202 -0.088103056 0.81633353 -0.290501684 -0.5618200302 0.7745753527
-0.13441582 -0.11381169 0.78755987 0.520731926 -0.5703168511 0.6352770925
-0.10512707 -0.10586769 0.79788256 -0.2438569516 -0.04318525642 0.9688492417
-0.2144129 -0.075527392 0.84499997 -0.1645296812 -0.9309542775 0.325966388
-0.16396792 -0.15153211 0.81833345 0.1297785491 0.4073208869 0.9040172696
-0.1252517 -0.096742555 0.80743241 0.1010578424 -0.6416090131 0.7603453994
-0.10342603 -0.13499837 0.88616127 -0.1364450008 0.02430443466 0.9903494716
-0.28500971 -0.15078905 0.82185715 0.02801981382 0.4714337587 0.8814562559
-0.22358108 -0.071482517 0.85233331 -0.1247090772 -0.940348208 0.3165326118
-0.085163236 -0.16257945 0.88312507 -0.04192142934 -0.4695533812 0.8819082975
-0.20482042 -0.13360143 0.81786668 0.114558734 0.3792941272 0.9181569815
-0.20439623 -0.15370287 0.82700002 0.08943110704 0.5015410185 0.860499084
-0.013985611 -0.094158173 0.87441683 -0.6700053811 -0.5399779081 0.5094277859
-0.094914034 -0.15472408 0.88627881 -0.03433661535 -0.3544271588 0.9344530106
-0.29101798 -0.12435049 0.80900002 0.1529466957 0.215387553 0.9644768238
-0.044202462 -0.16490257 0.87729424 0.02663194761 -0.5150939822 0.8567198515
-0.19550529 -0.08170145 0.83528566 -0.1504319459 -0.9374169707 0.3140376508
-0.19511284 -0.076093085 0.85481817 -0.1554063559 -0.9511816502 0.2666502595
-0.13460992 -0.14413393 0.79466683 -0.7700462937 0.1484136879 0.6204853654
-0.025993783 -0.10783631 0.81680012 -0.1153521687 -0.5842396617 0.8033416867
-0.30116695 -0.11462554 0.81214285 0.1495566219 -0.04037548974 0.9879284501
-0.094856001 -0.1446166 0.8868885 -0.155238077 -0.1243124679 0.9800242782
-0.046657667 -0.14553836 0.89199996 0.09836680442 -0.2299254984 0.968224287
-0.055192787 -0.12515517 0.88671434 -0.0703330189 0.1411339939 0.9874889851
0.0016227103 -0.13430543 0.88554555 -0.1126289815 0.3654600084 0.9239879251
-0.26478267 -0.15505815 0.82319051 -0.1170659065 0.4170637727 0.90130651
-0.17629845 -0.12536807 0.81220013 0.08949442953 0.3011951745 0.9493535757
-0.24511616 -0.14488523 0.82267302 -0.1821249276 0.3101083934 0.933093369
-0.25521183 -0.12473416 0.81344438 -0.2337891459 0.2602123022 0.9368202686
-0.16658755 -0.13557751 0.81536388 -0.1223692223 0.3475491107 0.9296426177
-0.14843369 -0.12778601 0.77225 -0.6699923277 0.230975017 0.7055216432
-0.037519582 -0.15945077 0.82300007 0.4420812726 0.1383328736 0.8862438798
-0.23526354 -0.093927138 0.81205899 -0.04167659581 -0.3709154427 0.9277309775
-0.015252816 -0.14453405 0.8133502 0.06136691198 0.1521686763 0.9864475727
-0.11555292 -0.14229642 0.8186844 -0.2882356346 0.3751131594 0.8810279965
-0.014615371 -0.10361651 0.86342096 -0.7309933305 -0.4687997401 0.4958584011
-0.033654097 -0.11391259 0.81537032 -0.05373598635 -0.5774156451 0.8146800995
-0.25522628 -0.094473027 0.811364 0.03878968954 -0.3248378634 0.9449739456
-0.2347939 -0.11494794 0.81374985 -0.06466767937 0.2807106078 0.9576114416
-0.15477669 -0.11464991 0.76621079 -0.6861426234 0.3624440432 0.6307476759
-0.10176589 -0.11840326 0.88275003 -0.1147577763 0.2163529843 0.9695473313
-0.092180625 -0.092180625 0.86900002 0.07518517971 0.3068314791 0.948789537
-0.20544913 -0.087210245 0.81693566 -0.0852798149 -0.6907250881 0.7180711627
-0.22674496 -0.078899622 0.8278572 -0.09553591907 -0.8647460938 0.4930386245
-0.064951733 -0.16320078 0.88349992 -0.05693820864 -0.6053164601 0.7939458489
-0.11488004 -0.16468462 0.80481833 -0.4410102367 -0.01553504914 0.8973675966
-0.033385821 -0.15604031 0.81572008 0.2968650162 0.2705384493 0.9157947898
-0.17475805 -0.086099312 0.8232308 0.002534870524 -0.8383896947 0.5450653434
-0.075315572 -0.17535186 0.83619136 -0.1540849656 -0.6313007474 0.7600771189
-0.29356775 -0.095674902 0.81675005 0.2085065395 -0.4292652607 0.8787811995
-0.14415927 -0.15575315 0.8027631 0.6010224819 0.3108926117 0.7362864614
-0.015798081 -0.15439175 0.81487507 0.137225017 0.2365345061 0.9618839622
-0.14094695 -0.12011736 0.79200006 0.6495631933 -0.1913236231 0.7358416319
-0.011713143 -0.1212877 0.86200005 -0.8599011302 -0.2179912031 0.4615733325
-0.266233 -0.11572579 0.80862498 -0.1333279908 0.05241080746 0.9896851778
-0.26424113 -0.077631213 0.83472735 0.1024217755 -0.8584392667 0.502585113
-0.24528429 -0.10673554 0.81148291 -0.05500333384 0.08466216922 0.9948903918
-0.10066018 -0.090669692 0.87650001 0.04846173152 0.30123353 0.9523181319
-0.023466706 -0.092648633 0.86368418 -0.5002039671 -0.6654590368 0.5540399551
-0.034530148 -0.09122593 0.86000001 -0.2687576115 -0.7474409342 0.6075371504
-0.10466973 -0.17506321 0.81388235 -0.5914607048 -0.4828087986 0.6458094716
-0.1953451 -0.084654108 0.82461095 -0.06860942394 -0.8441191316 0.5317476988
-0.23554437 -0.075795136 0.8348096 -0.06011379883 -0.8937543631 0.4445103705
0.0017252124 -0.11412386 0.88192308 -0.8991072774 -0.1702534109 0.4032615125
-0.1151094 -0.11408443 0.79385388 -0.6821178198 0.5882709622 0.4343415201
-0.14401224 -0.086291589 0.82219988 0.1131651103 -0.6444226503 0.7562493682
-0.18498074 -0.15411061 0.82550001 0.1372341514 0.4998475909 0.8551720381
-0.014648141 -0.1348417 0.81238103 -0.07402941585 -0.01057705656 0.9971999526
-0.15802424 -0.17701063 0.84153324 0.4510811269 0.5617563128 0.6935096979
-0.11428372 -0.17358653 0.81411117 -0.3430298567 0.3853023052 0.8566637039
-0.024006618 -0.12461343 0.80725628 -0.1828899533 -0.3043214679 0.9348474145
-0.02764448 -0.086773433 0.86710531 -0.3845484853 -0.7328663468 0.5612747669
-0.13506129 -0.17595488 0.81384617 0.1907594502 0.4904746413 0.850320816
-0.0048084003 -0.14439802 0.81353354 0.001421156339 0.09992033988 0.9949944019
-0.15374705 -0.135581 0.82537043 -0.1503945887 0.3184497356 0.9359333515
-0.075762451 -0.095476106 0.81670594 -0.3478509486 -0.3383915424 0.8743516803
-0.2816914 -0.089270085 0.81900007 0.142618835 -0.6120347381 0.7778645754
-0.21480803 -0.087569654 0.81766677 -0.1031470448 -0.6895409822 0.7168639302
-0.025969554 -0.1640456 0.81417239 0.2643471658 0.2514845133 0.9310618043
-0.011962701 -0.1005376 0.87100005 -0.7631883621 -0.4245306849 0.487152189
-0.11499164 -0.096261606 0.80595005 0.09450286627 -0.5036801696 0.8587056994
-0.044947099 -0.085507713 0.8639347 -0.05362803861 -0.8097097278 0.5843750238
-0.018667739 -0.10985247 0.81900007 -0.1345199496 -0.5685886145 0.8115487099
-0.14969346 -0.15112594 0.81700003 0.6259717941 -0.1279105395 0.7692841887
-0.035266969 -0.14516611 0.88887095 0.06818784028 -0.2337909937 0.9698928595
-0.22532281 -0.17321338 0.83721417 -0.08117084205 0.4793710709 0.8738504648
-0.17652559 -0.17137693 0.83900005 0.1193155125 0.6261616349 0.7705098391
-0.12603942 -0.11515069 0.78043473 0.4995269179 0.02602666244 0.8659073114
-0.21546467 -0.12523612 0.81687498 0.05536602065 0.3362999856 0.9401260018
-0.17265663 -0.16123617 0.82900006 0.1202795431 0.6366323829 0.761729598
-0.15579523 -0.14253762 0.82345444 -0.02037240751 0.2538351417 0.9670329094
-0.27435008 -0.088432208 0.81762516 0.08804596215 -0.6564077139 0.7492508292
-0.12765801 -0.13109893 0.78500003 0.02329353988 0.217777878 0.975720346
-0.16579777 -0.15591072 0.82392311 0.05344573036 0.4964571595 0.8664143682
-0.16459021 -0.14458902 0.81606382 -0.08702810109 0.3150369227 0.9450808764
-0.094943732 -0.16739582 0.87691671 -0.05712293833 -0.4464965761 0.8929601312
-0.18462382 -0.082929648 0.84603727 -0.1344185621 -0.9517084956 0.2760119438
-0.0054645455 -0.095504999 0.88293558 -0.7494206429 -0.4515883327 0.4841865897
-0.02976108 -0.098718807 0.82800007 -0.3931208253 -0.8675675988 0.3046022356
-0.10126347 -0.17177932 0.83500004 -0.5192254782 -0.7384181023 0.4302831888
-0.2362701 -0.15435936 0.82802224 -0.1190530211 0.3935795426 0.9115489721
-0.10506622 -0.15292364 0.82709998 0.6553945541 0.4982463419 0.5676341653
-0.015990205 -0.10671136 0.85522217 -0.748704195 -0.4547753632 0.482308358
-0.10603599 -0.14193051 0.81888252 0.06588299572 0.3749665916 0.9246942401
-0.1017355 -0.1530519 0.88463646 -0.02400380746 -0.2758176923 0.9609102011
-0.0087303584 -0.10679764 0.86608338 -0.8111840487 -0.3316250741 0.4816692173
-0.048927642 -0.18037504 0.83300006 0.3283083141 -0.0841794163 0.9408121109
-0.053067099 -0.1446061 0.889 -0.006922098342 -0.1245236173 0.9921925068
-0.16540536 -0.16687503 0.83411998 0.1893393844 0.6267072558 0.7559024692
-0.12444021 -0.15240575 0.82587498 -0.5591451526 -0.3315978348 0.759868145
-0.14176239 -0.14402042 0.79538471 0.703306973 0.3079053462 0.6407445669
-0.28432685 -0.12505476 0.80669546 0.0974778533 0.1637088805 0.9816809297
-0.11528009 -0.086841106 0.81706053 0.1382440478 -0.6607525349 0.7377632856
-0.11835613 -0.12220471 0.80842865 -0.406393528 0.4941214323 0.7685624957
-0.18512131 -0.10476581 0.81270736 0.01110351179 -0.2648690343 0.9642204642
-0.071254589 -0.10076407 0.82100004 -0.3255285025 -0.4791817665 0.8151171803
-0.13794495 -0.17197908 0.80877781 0.2721765935 0.4805184901 0.8336797357
-0.075388789 -0.085239924 0.87465709 0.141528219 0.2610267103 0.9549004436
-0.14763549 -0.12613611 0.81750005 0.01287130825 0.4950088561 0.8687925935
-0.025363939 -0.096322224 0.85460716 -0.4753520191 -0.7190436125 0.5069682002
-0.084418096 -0.087171219 0.87675005 0.1797253489 0.2909661531 0.9397007227
-0.040935948 -0.094524831 0.84900004 -0.286701709 -0.9130627513 0.2900319397
-0.12438402 -0.15568952 0.80200011 -0.6061130762 0.03771831468 0.7944836617
-0.20419458 -0.083514318 0.82500005 -0.1141117439 -0.842500627 0.5264704823
-0.038238056 -0.13573165 0.88811111 0.1055071503 -0.1223974153 0.9868571758
-0.10383941 -0.16524816 0.88 -0.417453289 -0.6381735802 0.6468904018
-0.02860914 -0.076548778 0.88200003 -0.3448337018 -0.7150636911 0.6080901623
-0.18785301 -0.13891046 0.82100004 0.1171324104 0.4198741317 0.8999920487
-0.19508366 -0.094780751 0.81431824 -0.03065382317 -0.4409250915 0.8970202804
-0.18511964 -0.16558941 0.83529282 0.06658349931 0.6168681979 0.7842450142
-0.04533615 -0.12544999 0.88653827 0.02971795388 0.06708017737 0.9973049164
-0.018562714 -0.11860617 0.80820006 -0.1517760158 -0.3423523903 0.9272318482
0.0035430484 -0.13856681 0.80850005 -0.03754035383 0.02006248757 0.9990937114
-0.035155538 -0.15440713 0.88606369 0.08824852854 -0.3248103261 0.9416530132
-0.012968161 -0.085670874 0.88121051 -0.6261843443 -0.5905751586 0.5090326071
-0.29086882 -0.10759066 0.80875003 0.1468899101 -0.2016495764 0.9683805108
-0.036896132 -0.17210929 0.82515371 0.4506221712 -0.0002512462379 0.8927147388
-0.25512555 -0.1665761 0.83366662 -0.1322785467 0.4082587361 0.9032315016
-0.012955381 -0.11587868 0.82100004 -0.4920296073 -0.6498758793 0.5792824626
-0.064949624 -0.094541945 0.82325035 -0.3277010322 -0.679985702 0.6559203267
-0.15503499 -0.11485187 0.80641454 0.5361673236 0.2163762152 0.8159080744
-0.13507561 -0.092226364 0.81334788 0.1690853685 -0.6630203128 0.7292559147
-0.23852293 -0.12825826 0.82099998 -0.09975725412 0.3281027377 0.9393599629
-0.25513929 -0.16138156 0.82814276 -0.1364856064 0.3808394372 0.9145124555
-0.075220637 -0.16700312 0.87439138 -0.01936676167 -0.6034511328 0.7971647978
-0.24466302 -0.1611739 0.82814282 -0.1467280984 0.3930584788 0.9077311754
-0.20641117 -0.15857235 0.83100003 0.05378590524 0.4928246737 0.8684647083
-0.084607869 -0.11516155 0.88087481 -0.09663458169 0.2398016155 0.9660004973
-0.019242832 -0.079280473 0.87800002 -0.4902155995 -0.6721602678 0.5548776984
-0.13535734 -0.14938401 0.80000007 -0.9190761447 0.1633650213 0.358623594
-0.055050321 -0.085709035 0.86330432 0.1141104698 -0.8030885458 0.5848312974
-0.10283738 -0.12127719 0.80900002 -0.2965119481 0.4240201712 0.8557380438
-0.041788511 -0.16824417 0.82900006 0.4506221712 -0.0002512462379 0.8927147388
-0.11454052 -0.14747338 0.8225832 -0.3656143248 0.257330507 0.894487083
-0.034700226 -0.10727308 0.81850004 -0.1124942377 -0.6239554286 0.7733205557
-0.21915001 -0.10070971 0.80900002 -0.04888214543 -0.1792554855 0.9825873971
-0.12463796 -0.10398873 0.80232507 -0.1564654857 -0.5869818926 0.7943367362
-0.05490515 -0.1749592 0.83504051 0.2741520107 -0.1250615567 0.9535199404
-0.1040094 -0.14687717 0.82251728 0.3540156484 0.4715915322 0.8076350093
-0.14653051 -0.13459687 0.82263637 -0.03121403046 0.384285599 0.9226864576
-0.28545639 -0.10052591 0.81133336 0.10352166 -0.328386575 0.9388533235
-0.037138578 -0.16577135 0.8240667 0.4497945309 0.0924263224 0.8883367777
-0.0064834049 -0.12550145 0.86529642 -0.8860118389 -0.1122889742 0.449860245
-0.1688565 -0.11510547 0.80675012 0.05703531578 0.07183214277 0.9957846999
-0.046828642 -0.17422777 0.83261549 0.3699610531 0.1120958552 0.9222599268
-0.12571195 -0.085170008 0.8225556 0.162904501 -0.6679289341 0.7261769772
-0.072152995 -0.093178973 0.82140005 -0.33131212 -0.4519403577 0.8282403946
-0.22446194 -0.082657807 0.82329386 -0.1187567562 -0.7975724339 0.5914178491
-0.22526117 -0.1509012 0.82863641 -0.06584089249 0.3908204734 0.9181091189
-0.1493178 -0.11777534 0.76550001 -0.559207499 0.3432732522 0.7546194196
-0.12440671 -0.1721919 0.81840008 -0.3690463901 0.5499397516 0.7492470145
-0.12447581 -0.09166006 0.81184202 0.1620843112 -0.5906901956 0.7904515862
-0.20497429 -0.13845168 0.82183337 0.102162987 0.3800107837 0.9193228483
-0.11486887 -0.10875237 0.79712516 -0.583671391 -0.4400955737 0.6823808551
-0.26809168 -0.080864608 0.83100003 0.1200376749 -0.8126504421 0.5702545047
-0.13571554 -0.13590924 0.79290491 0.5647689104 0.2498248667 0.7865263224
-0.14392763 -0.17317507 0.80753857 0.4134940505 0.4886142612 0.7682960033
-0.16508351 -0.085667558 0.82313961 0.06496768445 -0.7576358914 0.6494359374
-0.18426107 -0.1752564 0.84381807 0.1006212756 0.6088088751 0.7869098186
-0.13049886 -0.19212589 0.82700002 0.06371343136 -0.963557303 -0.2598035038
-0.21448106 -0.15242691 0.8281579 0.009827774018 0.4666547179 0.8843849897
-0.23151571 -0.15645024 0.8313334 -0.1267530918 0.3795093298 0.9164640307
-0.1653771 -0.09509068 0.81665236 0.03618624061 -0.5273379087 0.8488847613
-0.028531114 -0.098494373 0.84900004 -0.5265763402 -0.8229758143 0.2131389827
-0.084128134 -0.094274655 0.81202596 -0.2946156859 -0.3341043293 0.8953077197
-0.08805678 -0.097719073 0.80827278 -0.3401590288 -0.2150379568 0.9154509902
-0.1326959 -0.10242307 0.80653346 0.1256650239 -0.6976110935 0.7053701878
-0.023877237 -0.083735973 0.87322581 -0.4478516281 -0.6948873401 0.5626370907
-0.16789262 -0.12876612 0.81150007 -0.1039632931 0.3723770082 0.9222401977
-0.2437221 -0.17168078 0.83485717 -0.144825533 0.433275044 0.8895494938
-0.11327881 -0.16581689 0.84250003 -0.5712726116 -0.5673471689 0.5930975676
-0.10000048 -0.087234467 0.80900002 -0.05757221952 -0.6225144863 0.7804877758
-0.044421401 -0.077954963 0.87466681 -0.05654129013 -0.8081099987 0.5863116384
-0.24902014 -0.13276398 0.81860006 -0.1723974794 0.3125406504 0.9341292381
-0.1132296 -0.15815045 0.83325011 -0.3200931251 0.1395063996 0.9370583296
-0.26654494 -0.14826711 0.82100004 -0.1309426576 0.4133639634 0.9011017084
-0.20579293 -0.10425258 0.81243747 0.001611805405 -0.03739375249 0.9992992878
-0.14721996 -0.12115782 0.8035 0.7244924903 0.2506737709 0.642085135
-0.026306136 -0.12868677 0.81100005 -0.02157426439 -0.1914146692 0.9812721014
-0.025106037 -0.11138955 0.81206667 -0.1345199496 -0.5685886145 0.8115487099
-0.20864929 -0.16883636 0.84100002 -0.02784829959 0.5112525821 0.8589792252
-0.13565521 -0.12462647 0.79414821 0.6480655074 -0.01929760911 0.7613400817
-0.2314321 -0.13187082 0.81900007 -0.03440673277 0.3433133066 0.9385905266
-0.092944629 -0.18167192 0.82616663 -0.4240342677 -0.8072929382 0.4104546309
-0.12252584 -0.11350272 0.79476196 0.07669507712 -0.9154853225 0.3949740827
-0.11382246 -0.12495661 0.81109798 -0.07935684919 0.5412601233 0.8371021152
-0.047201362 -0.15142374 0.89099991 0.09048319608 -0.2890933156 0.9530151486
-0.19424501 -0.1720456 0.83900011 0.04176266119 0.6341944337 0.7720448971
-0.036215842 -0.096914545 0.82499993 -0.2853764594 -0.8665895462 0.4093688428
-0.010914 -0.09183383 0.8802858 -0.6672798991 -0.5766632557 0.4713777602
-0.18513954 -0.088662952 0.81855577 0.0007763542817 -0.6480569243 0.7615914941
-0.23423916 -0.16587411 0.83311111 -0.1290069968 0.4497638643 0.8837814331
-0.14041308 -0.11274547 0.78900003 0.5838098526 -0.542963922 0.6036192775
