# .PCD v0.7 - Point Cloud Data file format
VERSION 0.7
FIELDS x y z normal_x normal_y normal_z
SIZE 4 4 4 4 4 4
TYPE F F F F F F
COUNT 1 1 1 1 1 1
WIDTH 512
HEIGHT 1
VIEWPOINT 0 0 0 1 0 0 0
POINTS 512
DATA ascii
-0.14169613 -0.025103623 0.76106244 -0.34184286 -0.04654066637 0.9386039972
-0.0043597985 -0.15223338 0.81761545 0.1183488071 -0.886343658 0.4476476908
-0.10840893 -0.133477 0.77287513 0.3093160093 0.5965950489 0.7405389547
-0.24193625 -0.054197848 0.7359286 0.09386814386 0.3872161806 0.9171981215
-0.041831464 -0.066133104 0.79200006 -0.52275455 -0.5951634049 0.6103345156
-0.18424819 -0.10443404 0.77543759 0.04698735103 0.50475806 0.8619811535
-0.049533419 -0.1526715 0.77400005 -0.2502313852 -0.9672448039 0.04268162698
-0.10625424 -0.074736714 0.75475007 -0.1350332499 -0.09686084092 0.9860953093
-0.20453872 -0.0077731996 0.74336666 -0.2365507334 -0.4434536397 0.864518702
-0.0047449269 -0.11526353 0.7734285 -0.5288345814 -0.5609628558 0.6369102597
-0.055232905 -0.11549336 0.81826544 -0.3583179712 -0.080026187 0.9301634431
-0.18565784 -0.054457888 0.75606674 -0.4990678132 0.4216731191 0.7570489645
-0.09276887 -0.032936368 0.78000003 -0.3555339277 -0.3357775509 0.8722666502
-0.065172873 -0.094395474 0.76322448 -0.1860097796 -0.2682459354 0.9452219009
-0.10797173 -0.02886425 0.73166662 0.9014254212 0.4329209328 0.003423759947
-0.006782989 -0.16076203 0.77375007 0.2782805562 0.08410002291 0.9568108916
-0.007888685 -0.087616406 0.80600005 -0.6759114861 -0.6056156754 0.4199682176
-0.15104353 -0.078516021 0.75900006 0.05724595487 0.01080576703 0.9983016253
-0.2135995 -0.083679199 0.75390017 -0.3732340634 0.5327388644 0.7595298886
-0.14411783 -0.11660536 0.77180946 0.2766294479 0.5060853362 0.8169172406
-0.084559985 -0.1334364 0.80362862 -0.5386801362 -0.5919956565 0.5994704962
-0.043025047 -0.15059292 0.81800008 -0.317714721 -0.3435799181 0.8837478161
-0.019575089 -0.11962555 0.82700002 -0.2216197699 -0.1919014454 0.9560640454
-0.20882569 -0.042551041 0.72776926 -0.387093097 0.1971144974 0.9007245898
0.011106598 -0.11616874 0.80437505 -0.9684368968 -0.1260285228 -0.2150506079
-0.073873118 -0.062482152 0.77191663 -0.3560811281 -0.4163340628 0.8365836143
-0.09127064 -0.11096934 0.74900001 -0.08593916893 0.1436786354 0.9858858585
-0.031714164 -0.095411889 0.77134997 -0.4507765174 -0.5585186481 0.6963170767
-0.17491838 -0.024887741 0.7449075 -0.4139156044 0.007846313529 0.9102814198
-0.079390056 -0.14210153 0.76100004 0.1006295681 0.6828840971 0.7235627174
-0.2339979 -0.025713759 0.73071408 0.1019008458 -0.2554641962 0.9614334106
-0.16485716 -0.0020023065 0.76133341 -0.373508364 -0.383133322 0.8448078632
-0.12496141 -0.055065323 0.76543528 -0.08359375596 -0.1625451148 0.9831537008
-0.11941866 -0.10874436 0.76100004 0.3007692993 0.4253638089 0.8535827398
-0.11525232 -0.017626673 0.77334392 -0.297360599 -0.1712467223 0.9392822981
-0.15503585 -0.049571559 0.75900006 -0.00623451313 0.05497320741 0.9984683394
0.01008605 -0.1412047 0.76700002 0.3666004837 -0.08496371657 0.9264908433
-0.080340363 -0.10877943 0.81100005 -0.1932126582 -0.2249302864 0.9550263286
-0.11261989 -0.052515838 0.73725003 0.9926761389 0.05884282663 0.1055062041
-0.17493701 -0.085126273 0.76455081 0.0661316514 0.3193485439 0.9453269839
-0.21568008 -0.063982621 0.7354418 -0.3082077801 0.5515066981 0.7751441002
-0.14450142 -0.00378488 0.773 -0.3719297647 -0.2052400261 0.9052871466
-0.025670843 -0.14922765 0.78083342 0.1237757728 0.1537569612 0.9803256392
-0.095187709 -0.055421527 0.76617223 -0.3767957091 -0.3935799599 0.8385223746
-0.05477386 -0.07458771 0.77351838 -0.4089613557 -0.4944662154 0.7669770122
-0.064108782 -0.13458596 0.81205583 -0.3868648708 -0.1571687758 0.9086437821
-0.18445639 -0.0042944388 0.7518 -0.2798323035 -0.4294520617 0.8586412668
-0.084919572 -0.084922165 0.76275486 -0.252270937 -0.2540216744 0.933719635
-0.0017724253 -0.10383669 0.79199994 -0.6690525413 -0.5985530019 0.4405712783
-0.19444752 -0.024702437 0.73427892 -0.3933295608 -0.183035627 0.9009937644
-0.12525925 -0.084864408 0.75552732 0.1726646125 -0.116313681 0.978088975
-0.16450313 -0.11286867 0.77738464 0.2550364137 0.516284585 0.817561388
-0.022326803 -0.081331722 0.7918334 -0.5713865757 -0.6458625793 0.5063386559
-0.065332815 -0.13952753 0.77637506 -0.3374285996 -0.9402944446 0.04459059611
-0.1958489 -0.074601628 0.75837511 -0.398175478 0.3709251583 0.8389700651
-0.025340876 -0.14355375 0.82458848 -0.1201596409 -0.406768769 0.9055941701
-0.10446123 -0.095984302 0.74860007 0.06126914546 -0.09003189206 0.9940524697
-0.16875315 -0.064645201 0.75899994 -0.02902723849 0.1377610415 0.9900400639
-0.14565125 -0.097426146 0.76157671 0.2168174535 0.25752455 0.9416322708
-0.21444751 -0.022710185 0.73053825 -0.1921151429 -0.3271024227 0.9252544641
-0.067301296 -0.048089866 0.7826364 -0.396815151 -0.4522803128 0.7987366915
-0.008215243 -0.13708131 0.82869244 -0.09469476342 -0.2896939814 0.9524233937
-0.1973334 -0.052531071 0.73862505 -0.5522723794 0.4243531525 0.7175789475
-0.12664174 -0.034551919 0.76641887 -0.3449406624 -0.06196596846 0.9365768433
-0.154709 -0.01517443 0.75272888 -0.4373131096 -0.1654781401 0.8839537501
-0.19539948 -0.093477122 0.76708144 -0.2370724827 0.4242480993 0.8739623427
-0.10147198 -0.12076829 0.75900006 0.3063056767 0.4777726233 0.8233529925
-0.16487749 -0.035062574 0.75455725 -0.3354369998 0.3073275089 0.8905233145
-0.015541077 -0.095184356 0.78419524 -0.5871873498 -0.6099506021 0.5321384072
-0.22509851 -0.045069255 0.72367281 0.04756135866 0.1277692467 0.9906628728
-0.044936683 -0.13431139 0.82216263 -0.3643990159 -0.1770387888 0.9142596126
-0.035633743 -0.11544798 0.82411653 -0.3166371584 -0.01953056455 0.9483456612
0.01018599 -0.12290674 0.77460003 -0.7462096214 -0.4281617105 0.5097535849
-0.13515913 -0.073015258 0.7614522 -0.04344477877 -0.1127860248 0.9926690459
-0.093760371 -0.14063925 0.77500004 0.2848274708 0.8479455709 0.4470587969
-0.083315976 -0.10385075 0.76123083 -0.2967848778 -0.1458322257 0.9437434673
-0.17925817 -0.040054023 0.74900001 -0.4903537333 0.4259690642 0.7603312135
-0.17221469 -0.047831107 0.76200002 -0.300896138 0.3142741621 0.9003850818
-0.045831878 -0.088457048 0.76817656 -0.3858059049 -0.5026977062 0.7735947371
-0.1390665 -0.049238861 0.75900006 -0.2168044597 -0.04092440009 0.9753568769
-0.11092883 -0.038806528 0.74520004 0.8691715598 0.4509079456 0.2030340731
-0.12283734 -0.12671296 0.7729286 0.2773941755 0.5515395403 0.7866743803
-0.033815019 -0.082435295 0.78111547 -0.4810367525 -0.6014122367 0.6378926039
-0.089967914 -0.11587868 0.82100004 -0.2075417936 -0.2180093974 0.9536237717
-0.10369539 -0.058218181 0.75342858 -0.7905204296 0.1606927663 0.5909782052
-0.11811841 -0.072427638 0.76436353 0.1236105487 -0.2182513624 0.9680324197
-0.087298073 -0.1256382 0.75674087 0.01140818 0.4073385894 0.9132059813
-0.086312003 -0.045855675 0.77554548 -0.3671407104 -0.4088136554 0.8355112672
-0.16209903 -0.10129996 0.76814288 0.2728033662 0.4920737147 0.8267053962
-0.061314065 -0.061314065 0.78000003 -0.4191040397 -0.4730927348 0.7749419808
-0.20682426 -0.073108636 0.74679178 -0.4415461719 0.5319960713 0.7225075364
-0.10260127 -0.044422746 0.77166671 -0.2413293123 -0.4484070539 0.8606342077
-0.15488432 -0.06502074 0.76257432 0.005570179783 0.02012258396 0.9997820258
-0.0019450312 -0.13354829 0.76766676 0.3475944996 -0.07564825565 0.9345883727
-0.24172206 -0.037533782 0.7306 0.09317809343 0.01447707228 0.9955441952
-0.22189498 -0.075143009 0.74630779 -0.334063679 0.5781903863 0.7443771362
-0.017216187 -0.077134602 0.80458838 -0.6017395258 -0.6515887976 0.461889118
-0.07517501 -0.075324029 0.76641244 -0.2504600585 -0.3071554303 0.9181096554
-0.13108183 -0.10180467 0.75900006 0.2333414108 0.3338412046 0.9132917523
-0.071162306 -0.1228697 0.81099993 -0.2075417936 -0.2180093974 0.9536237717
-0.094906069 -0.074855007 0.76239073 -0.392187506 -0.125433147 0.9112933278
-0.015209364 -0.10519233 0.77487469 -0.5141078234 -0.5690798163 0.6417486668
-0.002778359 -0.14810216 0.77630776 0.3246735334 9.286972636e-05 0.9458261132
-0.18401961 -0.014473231 0.7429319 -0.3399170041 -0.2679139972 0.901486814
-0.054580171 -0.14383107 0.81338716 -0.3973019123 -0.1779216826 0.900274992
-0.15355894 -0.036248293 0.76148623 -0.1537148803 0.1422991157 0.9778152704
-0.12646244 -0.015367489 0.76677299 -0.3589257598 -0.1321158707 0.9239684343
-0.043277171 -0.073407792 0.78113353 -0.4885997474 -0.5652783513 0.6646282077
-0.026122289 -0.13227661 0.83099997 -0.2118241787 -0.2263825685 0.9507268071
-0.10500333 -0.025498543 0.77435982 -0.3531984389 -0.3244419694 0.8774897456
-0.061581887 -0.15121667 0.78050005 -0.2890408933 -0.9490644932 0.1254272759
-0.019830199 -0.160693 0.78000003 0.1429131478 0.2546021938 0.9564275146
-0.074579187 -0.14138751 0.80546176 -0.534391284 -0.7283580303 0.4288595915
0.0037055821 -0.11280429 0.78270006 -0.6586071849 -0.577725172 0.4821516573
-0.18312687 -0.065249272 0.76231682 -0.3279455006 0.2794658244 0.9024137855
-0.19844876 -0.063025936 0.74564719 -0.5351732969 0.485779047 0.6910920739
-0.045579992 -0.1075252 0.81900018 -0.3393598795 0.001834772062 0.9406548142
-0.11168733 -0.040207438 0.72800004 0.7666296363 0.4182591736 0.4871737361
-0.16634233 -0.01631023 0.74762857 -0.3872041404 -0.1088170707 0.9155499935
-0.11139648 -0.06477233 0.74621439 0.3254351318 0.4509783387 0.8310899734
-0.084765904 -0.065263659 0.76663637 -0.366011709 -0.3084853888 0.8779932857
-0.063880526 -0.10734568 0.81489491 -0.2268860489 -0.1779048592 0.9575346112
-0.095588788 -0.0957646 0.75708121 -0.2358263582 -0.3121085167 0.9203119874
-0.21573627 -0.00971785 0.73900002 -0.1707681715 -0.4765800238 0.8623860478
-0.17526487 -0.096500374 0.77360713 0.1324014664 0.4988459051 0.8565177321
-0.18797882 -0.033829994 0.7388078 -0.5236237049 0.1237643138 0.8429120183
0.00070352503 -0.098493062 0.80250001 -0.6874366999 -0.6241673231 0.3712760806
-0.22516043 -0.058925029 0.73006654 -0.05964580178 0.4326405525 0.8995913267
-0.13413374 -0.11352941 0.76596886 0.2570182681 0.4895608425 0.8332297206
-0.14156173 -0.036762796 0.75900006 -0.2845815122 0.01254670136 0.9585697651
-0.14201221 -0.013417734 0.76159996 -0.3718737066 -0.183601141 0.9099453688
0.0055750157 -0.1125833 0.79433346 -0.6478438377 -0.6087436676 0.4579623938
-0.20487376 -0.015924821 0.73503941 -0.2492759377 -0.4184778333 0.8733485937
-0.15150827 -0.0055224523 0.76387507 -0.4247684479 -0.2106878906 0.8804444075
-0.093915388 -0.13344172 0.76590002 0.2837628126 0.6098608971 0.7399650812
-0.11519234 -0.094885774 0.75280792 0.183915019 0.07016209513 0.9804348946
-0.048985504 -0.058644615 0.78700006 -0.5095100999 -0.5408688188 0.6692237258
-0.014246156 -0.15246595 0.823421 -0.09643119574 -0.3666825891 0.9253350496
-0.10572968 -0.085912108 0.75693631 -0.1735206693 -0.1685187519 0.9703050852
-0.13355915 -0.12203111 0.77333337 0.2738127708 0.5395873785 0.7961608171
-0.16473483 -0.074649684 0.762034 0.105519332 0.05632120371 0.9928210378
-0.17521901 -0.0093043568 0.74746668 -0.3705891371 -0.2248718143 0.9011638761
-0.11481393 -0.12193443 0.76694125 0.3083418012 0.5541632771 0.7731935978
-0.20294151 -0.086951442 0.76240903 -0.3150845766 0.4298159778 0.8461560011
-0.18852839 -0.050632935 0.74620003 -0.5968378186 0.4645448923 0.6542038321
-0.088872083 -0.12015506 0.81100005 -0.3748987317 -0.3735528886 0.8484746218
-0.21732964 -0.052000206 0.72700006 -0.2342392504 0.3337600529 0.9130915403
-0.19457299 -0.011545361 0.74115396 -0.3153305054 -0.3700076044 0.8738770485
-0.22414997 -0.027674442 0.72658086 0.006833166815 -0.2653378844 0.9641312957
-0.23413156 -0.063054942 0.73454183 0.04991608858 0.4941959083 0.8679163456
-0.1767623 -0.11077559 0.78000009 0.1948110312 0.5402396321 0.8186511993
-0.032994613 -0.0719418 0.79333329 -0.5530084372 -0.6229876876 0.5532341003
-0.025076298 -0.15245712 0.81892872 -0.1201596409 -0.406768769 0.9055941701
-0.074472614 -0.14360628 0.77312011 -0.3916449845 -0.9200116992 -0.01387968473
-0.015217681 -0.14868844 0.78057152 0.2587606907 0.124485597 0.9578863382
-0.10115217 -0.064854309 0.76110011 -0.4592465758 -0.2203842402 0.8605366945
-0.22335334 -0.017529229 0.73204005 -0.02906647883 -0.4041524529 0.914229691
-0.034888998 -0.15381588 0.78174424 -0.1566568315 -0.9862203598 0.05317908898
-0.055697516 -0.085649282 0.76694113 -0.2603426874 -0.396592617 0.8803044558
-0.21552622 -0.035313364 0.72484833 -0.148720175 -0.0754814595 0.985994339
-0.15370511 -0.091657475 0.75900006 0.2313455939 0.2546325922 0.9389576316
-0.23204038 -0.051864479 0.72761542 0.03137283027 0.2774138153 0.9602381587
-0.045828 -0.14712629 0.78164726 -0.2486123294 -0.9657810926 0.07388330996
-0.048424438 -0.12293584 0.81900012 -0.3842563629 -0.08552262932 0.9192567468
-0.1447732 -0.065162517 0.76242208 -0.08090758324 -0.007639452349 0.9966923594
-0.10522282 -0.10528391 0.7525 0.1731282622 0.0985391289 0.9799574614
-0.03545377 -0.13531403 0.82540846 -0.2567008138 -0.1958310455 0.9464432597
-0.084931061 -0.074899003 0.7637015 -0.2813861072 -0.2313681245 0.9312844276
-0.16540444 -0.055178855 0.76171422 -0.04613852128 0.1194704771 0.9917651415
-0.15506156 -0.024999907 0.75461185 -0.3877233863 0.1036539227 0.9159292579
-0.075067632 -0.085116126 0.76453549 -0.1927661002 -0.2518447042 0.9483751655
-0.035471529 -0.12524657 0.82581633 -0.3134383261 -0.1038458347 0.9439134002
-0.18551283 -0.092818052 0.76662081 -0.07028768957 0.4643754959 0.8828448653
-0.12466531 -0.065014973 0.76455361 0.1671201885 -0.1679570973 0.9715252519
-0.20436804 -0.03413555 0.73037761 -0.3596675396 -0.03776562959 0.9323159456
-0.096501581 -0.10252032 0.74883336 -0.1670230627 -0.1309638321 0.977216363
-0.1846074 -0.074915901 0.76298445 -0.1914393455 0.2166342735 0.9572985768
-0.11480946 -0.085114278 0.75264293 0.1157076806 0.003788269591 0.9932760596
-0.16526578 -0.084975392 0.76320416 0.1777449399 0.2255963087 0.9578689933
-0.13480809 -0.085000612 0.75750005 0.1106258407 -0.08778136224 0.9899779558
-0.074699044 -0.09472204 0.76133358 -0.2155849338 -0.3341766 0.9175233841
-0.12508073 -0.024880441 0.76549047 -0.3004816771 -0.1636071354 0.9396507144
-0.12629904 -0.045608249 0.76702464 -0.2053625435 -0.0886144042 0.9746659398
-0.17436819 -0.074825205 0.76205355 -0.03383106366 0.1168724746 0.9925705194
-0.12505345 -0.094891384 0.7564801 0.2396573722 0.1335282177 0.9616311789
-0.19287333 -0.10193401 0.77238464 -0.07311302423 0.48331815 0.8723863959
-0.19448829 -0.065509811 0.7561053 -0.4930972457 0.4011574686 0.7719635963
-0.15713626 -0.10824222 0.77222228 0.3046131134 0.4874865115 0.8182712197
-0.23327915 -0.034922592 0.72734612 0.08063084632 -0.007299433928 0.9967173338
-0.054875404 -0.13520117 0.81713057 -0.3987159431 -0.1572677195 0.9034890532
-0.06491439 -0.084883146 0.7652114 -0.2072567493 -0.3152404428 0.9261037111
-0.13589105 -0.0083328914 0.76659995 -0.3902187049 -0.264969945 0.8817710876
-0.027938783 -0.089271553 0.77733344 -0.4824638665 -0.5839392543 0.6528733373
-0.10693571 -0.054529637 0.74546015 -0.8989065289 0.2493053377 0.3602970243
-0.0056762281 -0.096086346 0.7955001 -0.6904811263 -0.6005879641 0.4031499624
-0.20751636 -0.06078124 0.73844445 -0.4630675018 0.5246139765 0.7143868804
-0.034973085 -0.14413016 0.82279491 -0.2770688236 -0.3201455772 0.9059468508
-0.084778719 -0.094790794 0.76146442 -0.2698507905 -0.3496614099 0.8971719146
-0.0054167281 -0.10438648 0.7835927 -0.5837482214 -0.6114848852 0.534157455
-0.01675573 -0.13477436 0.83100003 -0.09469476342 -0.2896939814 0.9524233937
-0.18634196 -0.024277365 0.73847932 -0.3778231144 -0.1418190002 0.9149519205
-0.14479056 -0.085015155 0.75762492 0.1191166863 0.02101286128 0.9926578999
-0.024030641 -0.10422227 0.77285308 -0.4993450642 -0.5391800404 0.6781882644
-0.078173824 -0.049313378 0.77766675 -0.3755121827 -0.4215831459 0.8253837228
-0.084855728 -0.13544306 0.76383704 0.128528744 0.6578908563 0.7420646548
-0.20501195 -0.025127688 0.7307964 -0.2777120769 -0.2865108848 0.9169446826
-0.14540349 -0.10548744 0.7654314 0.2573306262 0.4571463466 0.8513507843
0.002795385 -0.15373333 0.77221745 0.3449262977 -0.04630447924 0.9374869466
-0.09425474 -0.083611801 0.76112795 -0.3408452272 -0.2563359141 0.9044979215
-0.083560221 -0.053811111 0.77227288 -0.3558736742 -0.3984706104 0.8453254104
-0.16344662 -0.026862951 0.75161773 -0.4214572906 0.207175523 0.8828658462
-0.066448219 -0.076202139 0.76736134 -0.2528162301 -0.3594199121 0.8982768655
-0.12516177 -0.11463498 0.7641198 0.2790443301 0.4877362251 0.8271926045
-0.17491096 -0.0049247639 0.75504982 -0.3509179354 -0.3116140664 0.883036375
-0.054760721 -0.10678855 0.81752944 -0.332749337 -0.06069678068 0.941059947
-0.038573332 -0.065223999 0.80000001 -0.5438626409 -0.6055644155 0.5809519291
-0.015689204 -0.086798646 0.79300004 -0.600133121 -0.611366272 0.5158212185
-0.22360826 -0.071946815 0.73846662 -0.202900067 0.5830773115 0.7866717577
-0.054545444 -0.1462871 0.78061777 -0.2932819128 -0.948430419 0.1202723458
-0.036068492 -0.086841568 0.77410269 -0.4408748746 -0.5634458661 0.6986831427
0.0040867864 -0.12753907 0.76840031 0.2265308201 -0.18166399 0.956912756
-0.18470259 -0.084992014 0.76337492 -0.1427341551 0.3642047644 0.9203161597
-0.19466707 -0.085053258 0.76242858 -0.3214599788 0.3974358737 0.8594813347
-0.085174881 -0.12471555 0.80487764 -0.4747194648 -0.4741617441 0.7414931655
-0.21326455 -0.067900918 0.74256521 -0.379732281 0.5744602084 0.7251198888
-0.077216685 -0.11728781 0.80900002 -0.2075417936 -0.2180093974 0.9536237717
-0.11433117 -0.076659799 0.75263655 0.09184088558 -0.1060926318 0.9901058674
-0.16590409 -0.043423049 0.75849998 -0.1930868179 0.2349919826 0.9526259899
-0.018901985 -0.097637169 0.77560008 -0.5199722052 -0.5556510091 0.648753345
-0.085474998 -0.037153136 0.78000009 -0.3904262483 -0.3862114549 0.8357081413
-0.11223757 -0.11238584 0.75855565 0.3141000271 0.4320605993 0.8453785181
-0.10493907 -0.12554114 0.76497614 0.3219924569 0.5650631189 0.7596213222
-0.14521579 -0.054746676 0.75748008 -0.04836643115 0.02951980755 0.9983933568
-0.025191156 -0.085656069 0.78523999 -0.5428929329 -0.6165528297 0.5702015758
-0.14487103 -0.073577575 0.76169026 0.01470543444 -0.04636642337 0.9988162518
-0.13481927 -0.055032201 0.76310021 -0.2160659581 -0.0462975055 0.9752805233
-0.012890212 -0.11390986 0.77384865 -0.5181851983 -0.5864846706 0.62251091
-0.13506489 -0.06485825 0.76271439 -0.124210842 -0.09740000963 0.9874638915
-0.062620565 -0.14310198 0.81169999 -0.3957636058 -0.1996670961 0.8963840008
-0.014454477 -0.15596251 0.77591848 0.2587606907 0.124485597 0.9578863382
-0.0048460383 -0.12331882 0.77172005 -0.08524159342 -0.2790216506 0.9564940333
-0.22511964 -0.035375848 0.72385693 -0.0001917018526 -0.0484982729 0.9988232255
-0.10357093 -0.033574376 0.77400011 -0.259668529 -0.2430072576 0.9346227646
-0.06527251 -0.065273054 0.7740165 -0.3526572585 -0.4342602789 0.8288853168
-0.077238575 -0.13569343 0.76684207 0.0004340825835 0.5798873901 0.8146965504
-0.15565646 -0.0069175698 0.7569524 -0.4153516889 -0.2502849996 0.8745515347
-0.10580917 -0.045066129 0.74643475 -0.9416187406 0.1145712733 0.3165874481
-0.13489872 -0.094600692 0.75890505 0.1881133616 0.1903422028 0.9635264277
-0.15125778 -0.11219808 0.76820004 0.2891016603 0.5033984184 0.8142544031
-0.18218398 -0.047975205 0.7525714 -0.4742710292 0.4265504181 0.7701439857
-0.029742669 -0.079544351 0.78900003 -0.5338220596 -0.6283754706 0.5658429861
-0.2355063 -0.044541251 0.72830355 0.08640646189 0.08177858591 0.9928978682
-0.15744583 -0.057485517 0.7610001 0.0528258495 0.02660645172 0.9982492328
-0.015063424 -0.14479624 0.82573062 -0.09009985626 -0.3343853951 0.9381196499
-0.0067120343 -0.1077643 0.77556252 -0.5418663621 -0.5868079066 0.6016954184
-0.05548197 -0.093389623 0.76478058 -0.2249490768 -0.3325435221 0.9158672094
0.003909206 -0.1166685 0.77568579 -0.685826838 -0.5257274508 0.5032416582
-0.19530939 -0.034945827 0.73578596 -0.4866474271 0.08169247955 0.8697704673
-0.035784125 -0.075847931 0.78507906 -0.5084073544 -0.6051889658 0.6125914454
-0.056663979 -0.067958698 0.77742857 -0.4202661514 -0.4859030843 0.766338408
-0.16522545 -0.0063712094 0.75473982 -0.387778312 -0.2816919088 0.8776546121
-0.17505372 -0.054984462 0.76377988 -0.2104487419 0.2458926588 0.9461755157
-0.025495639 -0.12482303 0.82757133 -0.2648663819 -0.1374011338 0.9544457793
-0.10490541 -0.11430746 0.7560454 0.2670606077 0.3350852132 0.9035466313
-0.067493819 -0.05786651 0.77657139 -0.3764133751 -0.4393029809 0.8156750798
-0.046376023 -0.066580832 0.78347075 -0.5072929263 -0.5358887911 0.6748904586
-0.20081145 -0.069359675 0.75350004 -0.4519767761 0.5154744983 0.7280130386
-0.097972013 -0.027924338 0.77685726 -0.3078965247 -0.2819233537 0.9086908102
-0.091247849 -0.050693251 0.77100003 -0.3912448883 -0.4259412289 0.8157827854
-0.064741969 -0.1150879 0.81465858 -0.2178324759 -0.1916400939 0.9569864869
-0.11353867 -0.044977132 0.73387092 0.6768965125 0.4354161024 0.5934845209
-0.17293651 -0.036234036 0.75143999 -0.4661930203 0.3707055151 0.8032692671
-0.16548111 -0.10594101 0.77400017 0.2438168079 0.4947026074 0.8341598511
-0.19560243 -0.045038439 0.73776662 -0.5446513891 0.3091322482 0.7796102166
-0.14588043 -0.042818047 0.76105881 -0.1662783176 0.01360999327 0.9859849215
-0.13503462 -0.034762938 0.76256263 -0.3319278359 -0.006524297409 0.9432822466
-0.10305978 -0.13264951 0.76722223 0.3247416615 0.583432436 0.7444121838
-0.056134123 -0.056714367 0.78494751 -0.4903188348 -0.5154263973 0.7027965784
-0.16452762 -0.094551526 0.76540482 0.2526027262 0.3909220099 0.8850829601
-0.15457477 -0.10356729 0.76670289 0.2946392298 0.4614371359 0.836817503
-0.1755961 -0.044147205 0.75435722 -0.4139814377 0.3799132705 0.8272153735
-0.13516369 -0.044789955 0.76378191 -0.2620336413 -0.02571880631 0.9647159576
-0.12441157 -0.12156999 0.76755565 0.2687888443 0.5255458355 0.8071890473
-0.1921639 -0.056877907 0.75300002 -0.5858904719 0.4450218976 0.6772649884
-0.00067415665 -0.14089875 0.76900005 0.3129248321 -0.01133881975 0.9497101903
-0.1920011 -0.0044999304 0.7513333 -0.278822571 -0.4340704381 0.8566451073
-0.11463562 -0.10518671 0.75637501 0.2658925653 0.2876335979 0.920091331
-0.042836078 -0.11618192 0.82200003 -0.3429992199 -0.03487330675 0.9386880994
-0.24243811 -0.044965416 0.73134786 0.09608992934 0.1591498256 0.9825670719
-0.0076839002 -0.14398636 0.82538098 -0.08230105788 -0.3270051777 0.9414319992
0.0049910932 -0.10445318 0.80136853 -0.6752675772 -0.6261695623 0.3897760808
-0.092590205 -0.0429205 0.77291304 -0.4042518437 -0.4112067819 0.8170002699
-0.10772178 -0.018619522 0.77388901 -0.3372845352 -0.2903061211 0.8955230117
-0.11545587 -0.12736514 0.77307147 0.3001036644 0.5691429377 0.7655155659
-0.14809443 -0.0095328735 0.75866669 -0.4069029689 -0.2180400491 0.8870673776
-0.17477359 -0.091685712 0.76800013 0.1314538717 0.4720771611 0.8717012405
-0.18224695 -0.057930134 0.76186669 -0.3830801249 0.3524867594 0.8538165689
-0.20363572 -0.076161571 0.75300002 -0.4059189856 0.4909545481 0.7708393931
-0.034284022 -0.15041891 0.81900012 -0.2519050241 -0.3838230669 0.8883826137
-0.06879466 -0.12978786 0.80900002 -0.2785494924 -0.1990390122 0.939571023
-0.033134442 -0.10162677 0.76770598 -0.4369212687 -0.5132668614 0.7386859655
-0.025997944 -0.075722173 0.79481828 -0.580403626 -0.6256514788 0.5212407112
-0.17582546 -0.064606801 0.76221853 -0.1379297227 0.1561983228 0.9780477881
-0.05524414 -0.12556061 0.81842881 -0.3913481534 -0.1019207388 0.9145812392
-0.075249411 -0.055212829 0.77446932 -0.3864293396 -0.4214020073 0.8204222918
-0.064874038 -0.124902 0.81414294 -0.359064579 -0.1623671502 0.9190807939
-0.12501869 -0.077697217 0.75695658 0.2050337344 -0.14149867 0.9684726596
-0.09671548 -0.12726857 0.76316667 0.3276801407 0.5448009372 0.7718922496
-0.019385729 -0.14790595 0.81900007 -0.09643119574 -0.3666825891 0.9253350496
-0.20435813 -0.045321077 0.73278975 -0.4609981179 0.258654654 0.8488689661
0.00069169002 -0.10997871 0.78900003 -0.6509965658 -0.6060804725 0.4570229352
-0.042176954 -0.14092574 0.82099998 -0.3040396571 -0.2631213069 0.9156020284
-0.17503418 -0.1040733 0.77788883 0.1671433896 0.5407825708 0.8243890405
-0.011173408 -0.10147329 0.78033334 -0.594453752 -0.5750713348 0.5620656013
-0.13513608 -0.014798484 0.76353967 -0.3956266642 -0.1151784137 0.9111605287
-0.16873817 -0.099616513 0.77300006 0.2006918192 0.5195640922 0.8305274844
-0.059999943 -0.078876331 0.76900005 -0.2777906954 -0.4220399857 0.8629684448
-0.01391007 -0.084089883 0.80445451 -0.611895442 -0.6469057798 0.4550790489
-0.21525756 -0.044677578 0.72549993 -0.204693377 0.1506556571 0.9671626091
-0.011890282 -0.092802912 0.79247063 -0.6157842875 -0.6156702638 0.4916908443
-0.10205155 -0.054241519 0.76469225 -0.5276584029 -0.3310669661 0.7822859287
-0.20464961 -0.065528773 0.74323648 -0.471999228 0.5532029271 0.6864278913
-0.18462935 -0.09801387 0.77243483 -0.007408910897 0.465557307 0.8849866986
-0.11775795 -0.065296762 0.76611102 0.08598826826 -0.351149559 0.9323626161
-0.044574853 -0.083338238 0.77289492 -0.3846777081 -0.5270433426 0.7577917576
-0.096504413 -0.046360556 0.76815403 -0.4454035163 -0.4117815197 0.7950167656
-0.093797155 -0.12301593 0.75599992 0.2169294655 0.4556436837 0.8633252382
-0.10184795 -0.075429641 0.76142102 -0.2969455421 -0.1281443834 0.9462570548
-0.21506584 -0.015691692 0.73537278 -0.1641405672 -0.4441899359 0.8807685375
-0.080433287 -0.060155991 0.77100003 -0.3525495529 -0.3863375485 0.8523215652
-0.2202625 -0.080872498 0.75000006 -0.3623251319 0.5532131791 0.7501170635
-0.0046586068 -0.092567571 0.80225009 -0.6870986819 -0.6128643155 0.3902470767
-0.16078155 -0.039361458 0.76100004 -0.1957688928 0.2326984555 0.9526415467
-0.11460882 -0.024589933 0.77319163 -0.3198470175 -0.2500290275 0.9138836861
-0.11840698 -0.057451766 0.76500005 0.1029081941 -0.431838423 0.8960610628
-0.20169619 -0.058012288 0.74114293 -0.5401529074 0.475725919 0.69420439
-0.20595701 -0.083746664 0.75700015 -0.3911452591 0.4589558244 0.797724843
-0.2042588 -0.09345565 0.76454771 -0.294947952 0.4334367216 0.8515505195
-0.025346808 -0.095365964 0.77428854 -0.4845693409 -0.578463912 0.6561799049
-0.15683153 -0.11314139 0.77713329 0.2787649333 0.5178924203 0.8087506294
-0.062179226 -0.073006943 0.77200001 -0.339356035 -0.4337610304 0.8346788883
-0.026209706 -0.11775634 0.82636356 -0.2683603168 -0.1070138365 0.9573561549
-0.18348742 -0.036012944 0.74360001 -0.5184565783 0.29915905 0.8010659814
-0.20543651 -0.054615006 0.73609275 -0.4848864675 0.4440701306 0.7534499764
-0.1351743 -0.024760494 0.76333934 -0.3790866137 -0.04410428554 0.9243095517
-0.15955947 -0.018385453 0.74900001 -0.4391770065 -0.0303869769 0.8978865147
0.0047029587 -0.13508122 0.76659173 0.4079695046 -0.1243694797 0.9044849873
-0.10409269 -0.065074429 0.75414282 -0.4988526404 0.2502448559 0.8297731876
-0.11932573 -0.01415729 0.76900005 -0.341319114 -0.1569531411 0.9267507792
-0.17941773 -0.051167525 0.75800002 -0.3884381354 0.3783717752 0.8402086496
-0.15878013 -0.08446034 0.7610001 0.1946151704 0.1698398888 0.9660638571
-0.10834285 -0.070258699 0.74900001 -0.102610901 0.1793366373 0.9784218669
-0.12439682 -0.10318931 0.75838482 0.2626036704 0.3552746773 0.8971171379
-0.046577506 -0.076510407 0.77600008 -0.4275983274 -0.5267665386 0.7346268892
-0.017258633 -0.12600105 0.82786959 -0.1382155418 -0.2724819481 0.9521817565
-0.081893191 -0.04314452 0.77999997 -0.3792424202 -0.4185450375 0.82522434
-0.14542748 -0.0073277773 0.7664091 -0.3874766827 -0.1884044558 0.9024220705
-0.12483946 -0.072827376 0.76329708 0.2137056589 -0.1754407138 0.9610153437
-0.15520129 -0.074798018 0.76291221 0.05953240395 0.01899362355 0.9980456829
-0.19553737 -0.016367117 0.73644012 -0.2885313034 -0.3964164853 0.8715524673
-0.21521483 -0.073960908 0.74691892 -0.369086504 0.5645561814 0.7382760048
-0.035073187 -0.1470225 0.78218538 -0.1491838843 -0.9790449142 0.1386190802
-0.068039767 -0.14207205 0.8077274 -0.5053642988 -0.6600118876 0.5558698177
-0.0073906751 -0.098856561 0.787 -0.6104733944 -0.6219874024 0.4903610349
-0.095125064 -0.064981349 0.76417863 -0.4012278616 -0.2846166492 0.8706374168
-0.052598946 -0.081400432 0.7712 -0.3262012303 -0.4580158293 0.8269306421
-0.18571036 -0.04457742 0.74523079 -0.5889362693 0.397333473 0.7037614584
-0.12369153 -0.03852687 0.77100003 -0.310370326 -0.08541566879 0.9467705488
-0.022230295 -0.091316447 0.78025001 -0.5107781887 -0.5998674035 0.6158447266
-0.22459136 -0.064756267 0.73337513 -0.1024734303 0.5298678875 0.8418664932
-0.21054903 -0.048637465 0.73000002 -0.4049651325 0.3052038252 0.86188972
-0.064333692 -0.054063316 0.78206992 -0.4147401154 -0.4590623379 0.7856541276
-0.095121577 -0.11503465 0.75261819 0.05257266015 0.2806974053 0.9583554268
-0.089827649 -0.098477721 0.75900006 -0.2955878377 -0.3184595704 0.9006727338
-0.087453015 -0.057236843 0.7681306 -0.3991002738 -0.3969970942 0.8265060782
-0.0082056001 -0.1490684 0.78000003 0.3031505942 0.03994499519 0.9521051049
-0.091011152 -0.14089875 0.76900005 0.2056377381 0.707496047 0.6761378646
-0.083839141 -0.13108183 0.75900006 0.04931367189 0.5294151306 0.8469284177
-0.096166842 -0.036080018 0.7753334 -0.2893533707 -0.3336754441 0.8971818686
-0.084729835 -0.11363936 0.81154543 -0.2075417936 -0.2180093974 0.9536237717
-0.16665015 -0.023236129 0.74720597 -0.4149349034 0.1212582514 0.9017347097
-0.21440716 -0.055862915 0.73137999 -0.3003148437 0.4291290343 0.8518563509
-0.11355831 -0.034502544 0.73056406 0.742371738 0.4171116054 0.5243110061
-0.23544243 -0.055895925 0.73144442 0.05325641111 0.3218277991 0.9452992082
-0.18508653 -0.0085106799 0.74691677 -0.2928101122 -0.3593008816 0.8860954046
-0.087564684 -0.11587731 0.75099999 -0.1555879712 0.2104733288 0.9651390314
-0.13534196 -0.10514808 0.76252073 0.2325615138 0.3939268887 0.889233768
-0.0049552843 -0.15457554 0.77381134 0.3031505942 0.03994499519 0.9521051049
-0.074955754 -0.135067 0.80664265 -0.2416525036 -0.2219921798 0.9446287751
-0.19509032 -0.05543505 0.74389476 -0.5797176361 0.4532380402 0.677128315
-0.20997219 -0.028081387 0.72800004 -0.228926748 -0.2660553455 0.9363797903
-0.10478958 -0.037229303 0.74422204 0.9589020014 0.2132773697 -0.1871355027
-0.10741007 -0.11941866 0.76099998 0.3212500513 0.5033857226 0.8021229506
-0.18963616 -0.073192902 0.75900006 -0.3991836607 0.3369584084 0.8527082801
-0.14816017 -0.060994085 0.75900006 -0.01490190998 0.007197036874 0.9998630881
0.0026657043 -0.10648584 0.79581839 -0.6584503651 -0.6210641861 0.4251145422
-0.045434177 -0.14478348 0.81717038 -0.3408159316 -0.3261208534 0.8817537427
-0.14168759 -0.058499236 0.76116675 -0.1100031585 0.003466033377 0.9939252138
-0.055008642 -0.15172863 0.77700007 -0.3024808764 -0.9517576694 0.05160059407
-0.18794389 -0.063979387 0.75847822 -0.4761127532 0.3594875634 0.802549243
-0.084333144 -0.14111161 0.76650006 0.1635903269 0.7291632295 0.6644991636
0.0032592078 -0.14746864 0.77227271 0.3449262977 -0.04630447924 0.9374869466
-0.075711049 -0.12576845 0.80780822 -0.2248078436 -0.2287093997 0.9471818209
-0.13869634 -0.0057498375 0.77175009 -0.3902187049 -0.264969945 0.8817710876
-0.22469181 -0.053731054 0.72671127 -0.0004483264056 0.298248589 0.9544880986
-0.10252321 -0.082835898 0.76125002 -0.2644486725 -0.2661568224 0.9269452095
-0.18808496 -0.01657173 0.73876476 -0.3352386057 -0.3067819774 0.8907861114
-0.17654154 -0.033559401 0.74719995 -0.5034945607 0.3131951094 0.8052341938
-0.22563362 -0.02323612 0.73059988 -0.0005373440799 -0.3336814642 0.9426857233
-0.14608426 -0.015564959 0.75753665 -0.4109805524 -0.1738534719 0.8949133754
-0.11096934 -0.092583887 0.74900001 -0.009187556803 0.01719089597 0.99981004
-0.071561947 -0.051858336 0.78040004 -0.4009439051 -0.4330153167 0.8073052168
-0.077833384 -0.10118341 0.7610001 -0.2636462748 -0.2215453088 0.9388334751
-0.037258394 -0.094516754 0.76900035 -0.3968059421 -0.5285423994 0.7504584789
-0.04442735 -0.12545703 0.82283771 -0.3497893512 -0.07180085778 0.9340728521
-0.054513127 -0.06372416 0.78122526 -0.4981245995 -0.5161364675 0.6967603564
-0.021778544 -0.074852534 0.80133337 -0.5880849957 -0.6477457285 0.484336108
-0.19695543 -0.080512188 0.75900006 -0.3545496166 0.4151880741 0.8378027678
-0.074364737 -0.10818478 0.81146157 -0.2050150335 -0.2246738523 0.9526229501
-0.190653 -0.045551989 0.74111122 -0.5678993464 0.3542920947 0.7429451346
-0.17506972 -0.014962531 0.74559629 -0.3705891371 -0.2248718143 0.9011638761
-0.16380906 -0.064939298 0.76228255 0.05259176716 0.0400009416 0.9978146553
-0.07612782 -0.066745013 0.76848179 -0.3175691366 -0.381162554 0.8682539463
-0.14470936 -0.11198874 0.76817656 0.275929004 0.5059444308 0.8172413707
-0.044212617 -0.15279488 0.78135502 -0.2081122845 -0.9746822715 0.0817540586
-0.048583988 -0.13761474 0.81900007 -0.3789741099 -0.1942576468 0.9047886729
-0.215693 -0.027472449 0.7270264 -0.1544435769 -0.2920700014 0.9438444376
-0.01016495 -0.12130173 0.77300006 -0.1991625726 -0.2903473079 0.9359661937
-0.087033369 -0.10372358 0.75677431 -0.2967848778 -0.1458322257 0.9437434673
-0.16115746 -0.052299656 0.75900006 -0.02860600874 0.1258330792 0.9916388988
-0.15530428 -0.095454894 0.76307893 0.2594668567 0.3043209016 0.9165509939
-0.11562764 -0.11566222 0.76192087 0.3207991719 0.501429677 0.8035273552
-0.19200386 -0.078322627 0.7610001 -0.3273366094 0.34675017 0.8789852262
-0.074814975 -0.0460946 0.78107917 -0.4024669826 -0.4387138486 0.8034615517
-0.18158948 -0.025353896 0.74154156 -0.3986809552 0.04199921712 0.9161275029
-0.14644797 -0.024679417 0.7578572 -0.3642531037 0.01921472326 0.9311017394
-0.092369027 -0.09309683 0.76099992 -0.3169177473 -0.3440786302 0.8838399649
-0.0080702426 -0.15345436 0.82180005 -0.09009985626 -0.3343853951 0.9381196499
0.010221933 -0.11789296 0.77733344 -0.685826838 -0.5257274508 0.5032416582
-0.10537054 -0.092995249 0.75337499 -0.07088449597 -0.09563285112 0.9928895831
-0.15393692 -0.085062928 0.75804561 0.1502132714 0.09082461894 0.9844728708
-0.15495914 -0.044504832 0.76158488 -0.08329799771 0.09969810396 0.9915249348
-0.0046722721 -0.14703542 0.81535304 0.6465294957 -0.6231774688 0.4400562048
-0.018132316 -0.087904908 0.78800005 -0.5882571936 -0.6128274202 0.5276324749
-0.21499044 -0.078844331 0.75025004 -0.3655871451 0.5474534631 0.7527554035
-0.025818842 -0.15482323 0.78051239 0.1148499325 0.2576281726 0.9593942165
-0.19562171 -0.0075520822 0.74488568 -0.277554214 -0.4002397656 0.8733680844
-0.13440689 -0.077828661 0.75878942 0.04848262668 -0.1274747849 0.9906561375
-0.068134457 -0.13659079 0.80881822 -0.3469448686 -0.2099481523 0.9140847921
-0.14400221 -0.09285222 0.75892007 0.1803783625 0.1868348569 0.9656895995
-0.04725438 -0.11485181 0.81900018 -0.3571730852 -0.04446492344 0.9329792261
-0.0018296033 -0.12678966 0.76871437 0.2265308201 -0.18166399 0.956912756
-0.12579519 -0.10772897 0.76107693 0.2834176719 0.4094093144 0.8672130108
-0.1111026 -0.044769146 0.74515402 0.9570175409 0.2732658386 0.09717591107
-0.044726774 -0.093680829 0.76725018 -0.3475824594 -0.4734799564 0.8093226552
-0.073701136 -0.11375181 0.81110841 -0.1932126582 -0.2249302864 0.9550263286
-0.1451142 -0.078170277 0.75887489 0.07522082329 -0.0160230156 0.9970381856
0.010078536 -0.13505237 0.76642859 0.4079695046 -0.1243694797 0.9044849873
-0.16315761 -0.013037548 0.75045455 -0.3934230506 -0.1233385429 0.9110466242
-0.00068467663 -0.11023294 0.78100002 -0.6220439076 -0.6233358383 0.4738289118
-0.03942633 -0.069860689 0.78900003 -0.5125635266 -0.6045426726 0.6097596288
-0.059017975 -0.14599344 0.77777779 -0.2787048519 -0.9585803747 0.05871323869
-0.11305901 -0.028247174 0.73044443 0.8133866191 0.240766257 0.5295600295
-0.10151397 -0.10098866 0.74900001 -0.08602918684 -0.1074600965 0.9904803634
-0.1570565 -0.033460874 0.75879991 -0.2642686367 0.2607059777 0.9285442829
-0.20867312 -0.035278559 0.72769994 -0.3249225914 -0.03530919924 0.945081234
-0.065331616 -0.1447084 0.77618861 -0.3300490975 -0.9433951378 0.03276041895
-0.056974273 -0.14515437 0.80900002 -0.4640617669 -0.7666059732 0.4438039958
-0.12010158 -0.13095821 0.77400005 0.2789979577 0.5581668019 0.7814153433
-0.10692215 -0.032313112 0.73531246 0.9318603277 0.3627860844 -0.004757551942
-0.11145127 -0.055460002 0.74109101 -0.8580883145 0.3317358196 0.3919640481
-0.13679482 -0.1183174 0.77281833 0.2669323981 0.5171324015 0.813216567
-0.09793485 -0.097607851 0.74850005 -0.1820853353 -0.2660190165 0.9466143847
0.0056849029 -0.1428991 0.76844007 0.3731846511 -0.09188559651 0.9231956601
-0.14405733 -0.046449151 0.75826842 -0.1189735159 0.02198099345 0.9926540852
-0.083038233 -0.11749467 0.80900002 -0.2075417936 -0.2180093974 0.9536237717
-0.073373787 -0.13931257 0.77099997 -0.3591330349 -0.9096240997 -0.2088239789
-0.14520891 -0.034431972 0.76121271 -0.228674382 0.05532306433 0.971929729
-0.15438454 -0.05441444 0.75889504 0.02434916608 0.04657770321 0.9986178875
-0.036057577 -0.067455307 0.79656011 -0.5391658545 -0.6155136824 0.5748417974
-0.0246973 -0.14771497 0.81864721 -0.1201596409 -0.406768769 0.9055941701
-0.095721096 -0.087609686 0.75899994 -0.3275704086 -0.2886072099 0.8996685743
0.0057992805 -0.12266883 0.77277786 -0.5187621713 -0.405564487 0.7525976896
-0.21206607 -0.0087417308 0.74177784 -0.1768609285 -0.486897856 0.8553658128
-0.13559689 -0.09873721 0.7610001 0.1992901415 0.2965854108 0.9339810014
-0.11282142 -0.13230307 0.77392864 0.3167292774 0.5742737651 0.7549120784
-0.09420412 -0.10526669 0.75168753 -0.1274668872 -0.02103356086 0.9916197658
-0.21932621 -0.070520818 0.73800004 -0.218385607 0.5759623051 0.7877659202
-0.025309352 -0.13547944 0.82793605 -0.2027551085 -0.2487004995 0.9471211433
-0.15932541 -0.1155622 0.78000003 0.2787649333 0.5178924203 0.8087506294
-0.23284179 -0.028812528 0.72766668 0.07623943686 -0.1806363165 0.9805907011
-0.021728057 -0.15716304 0.778 0.1429131478 0.2546021938 0.9564275146
-0.17310345 -0.11171924 0.77800006 0.2073599398 0.5335561633 0.8199510574
-0.091140307 -0.11874362 0.81433338 -0.2059590667 -0.2246783376 0.9524182677
-0.23841345 -0.034943823 0.73003983 0.09317809343 0.01447707228 0.9955441952
-0.15237431 -0.060550489 0.75900006 -0.0122048175 0.03389236331 0.999350965
-0.20527676 -0.01104337 0.74100012 -0.2414800823 -0.4430298805 0.8633723855
-0.023932999 -0.160693 0.78000003 -0.02337543853 -0.9556370378 -0.2936179042
-0.095595241 -0.028309319 0.78000003 -0.321991086 -0.2862714529 0.9024247527
-0.11228258 -0.070258699 0.74900001 0.02642562054 0.109019801 0.9936882854
-0.077850632 -0.097812332 0.75900006 -0.2251544148 -0.31433779 0.9222240448
-0.19414018 -0.098591693 0.77116662 -0.1126675606 0.472138077 0.8742949367
-0.16428193 -0.045431878 0.76114267 -0.1350343525 0.1829985827 0.9737952948
-0.101765 -0.046501037 0.76875007 -0.1823206395 -0.463830173 0.8669606447
-0.036617488 -0.14761874 0.81900012 -0.2877962291 -0.3402381837 0.8952158093
-0.019385729 -0.15149589 0.81900007 -0.1201596409 -0.406768769 0.9055941701
-0.17628366 -0.10662721 0.77999997 0.1749245673 0.5272151828 0.8315320611
-0.016361836 -0.15188602 0.78015387 0.1998494565 0.1480548531 0.9685762525
-0.0101781 -0.16081397 0.77400005 0.2587606907 0.124485597 0.9578863382
-0.02549785 -0.12894627 0.83100003 -0.230174616 -0.2191939354 0.9481422305
-0.1390665 -0.052565813 0.75900006 -0.1910105944 -0.02550036646 0.9812566638
-0.10828695 -0.064490855 0.74733323 -0.4902074933 0.4206372797 0.7633877397
