# .PCD v0.7 - Point Cloud Data file format
VERSION 0.7
FIELDS x y z normal_x normal_y normal_z
SIZE 4 4 4 4 4 4
TYPE F F F F F F
COUNT 1 1 1 1 1 1
WIDTH 512
HEIGHT 1
VIEWPOINT 0 0 0 1 0 0 0
POINTS 512
DATA ascii
0.06287774444 0.09505730122 0.8246071339 0.2907252908 0.3975147307 0.8349315524
0.06872502714 0.104460828 0.8136524558 0.02330982126 0.04731863365 0.7989495397
0.08153676987 0.1170786768 0.7941272259 -0.394402951 -0.5221395493 0.6997177601
0.07911869138 0.1111461744 0.799138546 -0.272585243 -0.3679313064 0.7158895731
0.08276163042 0.1100998595 0.7874715924 -0.4520052373 -0.5771341324 0.6799243689
0.07812637836 0.107481122 0.7784724236 -0.4289343953 -0.5808022618 0.6912907362
-0.1763152778 0.1192685142 0.7588238716 -0.02524358965 0.2723825574 0.9610912204
-0.1824011207 0.1257831603 0.758820951 0.01578954607 0.2246776819 0.9719468355
0.03684065118 0.08366566151 0.8269503117 -0.05459620431 0.1070293263 0.9917455912
0.05675016716 0.08571137488 0.8267157674 0.1233805642 0.1200106218 0.9657786489
0.05540318042 0.09968952835 0.8256905079 0.0975311026 0.1937309206 0.960847199
0.04829214513 0.09062838554 0.8268837333 0.04302100837 0.1039259061 0.9934771657
-0.1750451624 0.1367637068 0.7590959072 -0.04782303423 0.1084943712 0.9921552539
0.07972642034 0.09371077269 0.7697977424 -0.6776519418 -0.2034955174 0.6414805055
0.07399694622 0.09480917454 0.7636510134 -0.5497808456 -0.2877210379 0.779373467
0.07699324936 0.1022280902 0.7713880539 -0.492498517 -0.4973391891 0.7100933194
0.07749466598 0.08699017018 0.7881808877 -0.2245408893 -0.2585368454 0.5414075851
0.0797662884 0.09292080998 0.7803832293 -0.4913348258 -0.2579061389 0.5859317183
0.07571258396 0.08611449599 0.8006017804 0.1431932747 -0.4193384647 0.5289672017
0.08115313947 0.1019756049 0.7846921682 -0.426261127 -0.4881669581 0.6454700828
0.07929094136 0.09620844573 0.7895733118 -0.2455345839 -0.4502536356 0.6035795808
0.06587611884 0.1009852663 0.7637660503 -0.2425612658 -0.4520621598 0.8171239495
0.05817654356 0.07694551349 0.8260527849 -0.03609625623 -0.5470443964 0.7939586043
0.04193907231 0.1437272131 0.7880083323 -0.2814061046 -0.4576921761 0.8431936502
0.05669527501 0.1094804108 0.8181799054 -0.05388331413 0.01629923098 0.943720758
0.07078292966 0.1291103214 0.7948089838 -0.3643295467 -0.4438361526 0.7909166217
0.05191476271 0.1151808649 0.8138839006 -0.1542652249 -0.004612167366 0.9263476133
0.06501425803 0.1215193272 0.8039367199 -0.2446482927 -0.2618222833 0.8509835005
0.04291923344 0.1255344898 0.8075506687 -0.1722547114 -0.09755443037 0.9207499027
0.04309664667 0.1191848889 0.8132318258 -0.1372825354 0.01831969246 0.945625484
0.05016532168 0.1407392919 0.7926983237 -0.2837067246 -0.4189989865 0.8461526632
0.04359834269 0.1374065429 0.7967982292 -0.239177525 -0.3186568022 0.8733101487
0.03861033544 0.1071952656 0.8220053911 -0.06473115087 0.1773515195 0.980880022
0.07352301478 0.118322365 0.799369216 -0.3204007447 -0.3985710144 0.7794346213
0.06426370144 0.1124816015 0.8101804852 -0.1609177291 -0.1628473997 0.8746996522
0.06313508749 0.125490576 0.7856875658 -0.3641807139 -0.4538576603 0.8123848438
-0.06320539862 0.1382692605 0.7594537139 0.2363500446 0.00166253082 0.9242392778
-0.06541001797 0.1525588334 0.7634461522 0.09592106193 0.1180717722 0.941042006
-0.05820479617 0.1441164166 0.7653691769 -0.0003654565953 -0.1109082177 0.9414231777
-0.08009782434 0.1562990397 0.7710497379 -0.07683795691 0.2739434242 0.9424054623
-0.0728943795 0.1529417485 0.7663593888 0.04227159172 0.1970717013 0.9390655756
-0.07496319711 0.1453146338 0.7662315965 0.06931657344 0.1561938524 0.9300355911
-0.07446082681 0.1639006138 0.7691352367 -0.05655737221 0.2887423933 0.9516849518
-0.1661670357 0.08394686133 0.7832320929 -0.1819309592 0.6203185916 0.7565696836
0.06766130775 0.09155586362 0.7590000629 -0.1420581937 -0.1139767095 0.9744020104
0.05767749622 0.0999212414 0.8176457882 0.1607874632 0.2176524401 0.860449791
0.04722135141 0.1061460376 0.8229900599 -0.01573402435 0.1606859118 0.9851515293
0.07574275881 0.09130580723 0.8069326878 0.3186068535 -0.4620856941 0.5642262697
0.05797344819 0.1106818914 0.7920143604 -0.09749232978 -0.3193681538 0.8001532555
0.06228576601 0.09757141024 0.8031906486 0.06723812222 -0.4571040273 0.7288697362
0.06159139797 0.09852001816 0.8114204407 0.1567278802 -0.001087930636 0.7919889688
0.01701259799 0.1169910207 0.767524004 -0.04747535661 -0.2878974378 0.9548348188
0.01068762131 0.1317917556 0.7734080553 -0.1122144163 -0.3041760623 0.9433345795
-0.01703787781 0.1513641924 0.7756365538 -0.08472778648 -0.2371968925 0.9673258662
-0.1886624545 0.1168021858 0.7628699541 0.04980325326 0.3356986046 0.9392685294
-0.1924278885 0.1109670326 0.7672684193 0.04045947641 0.3965652883 0.9161043167
-0.1912447661 0.09896418452 0.7718823552 -0.005175410304 0.4999607801 0.8650645614
-0.1741755903 0.08643796295 0.7811266184 -0.09619632363 0.6169344187 0.7801789045
-0.1847696453 0.0929678604 0.77660954 -0.03757180274 0.5537605882 0.8309968114
-0.1778530627 0.09309475869 0.7737082839 -0.05603640527 0.5699555278 0.8192169666
-0.1736307293 0.1101223454 0.7664383054 -0.1090642288 0.3704530299 0.9140334725
-0.1811183393 0.1126717776 0.7656989694 -0.04465542734 0.3630794287 0.9226525426
-0.1662010998 0.1371192634 0.7611288428 -0.101111643 0.1402126104 0.9820565581
-0.02780793235 0.1464111656 0.7722594738 -0.06337135285 -0.2198207229 0.9733412266
-0.1139329448 0.07799025625 0.8070301414 0.05200363323 0.5657797456 0.8213925958
0.03126269206 0.06107867882 0.7961047888 0.04868554696 -0.8084974289 0.386020273
0.03399646655 0.06528066099 0.8052273393 0.02848330513 -0.55143857 0.563554585
0.03539568186 0.07037889957 0.8163235188 -0.007660594769 -0.2445256114 0.7807677984
0.02684054151 0.07106505334 0.8168959618 -0.06892509013 -0.1944211572 0.8080320954
0.03333733976 0.0757105425 0.8269446492 -0.06638625264 0.06530769169 0.9951179624
0.07069458812 0.08268123865 0.8212383986 0.5967502594 -0.09006454796 0.7167292833
0.0711524561 0.09498991072 0.8158112168 0.2831834257 0.02791380696 0.7568088174
0.07528152317 0.1001288295 0.8087208867 0.1017356962 -0.1761318147 0.7295841575
0.07432135195 0.08837413788 0.8145394325 0.5330949426 -0.3364321589 0.5838450789
0.079175964 0.105430156 0.7940811515 -0.266020745 -0.560200274 0.6640916467
0.07767425478 0.09948314726 0.8012435436 0.0248638764 -0.5137377977 0.6156865954
-0.08365294337 0.1685823351 0.7708708644 -0.1398417503 0.3485178947 0.9261912107
-0.08471158147 0.1615118384 0.7752236724 -0.1372754574 0.3249762952 0.9346045256
0.06502842903 0.1337901205 0.7901565433 -0.3682063222 -0.4668419957 0.8040263653
0.04948667809 0.1301297545 0.8022546768 -0.2231235057 -0.2214597166 0.8888494968
0.05464440584 0.1349502504 0.7946403623 -0.2792535722 -0.3711247146 0.8514015675
0.0599989295 0.1288887113 0.7969540954 -0.3059008718 -0.3256584406 0.8429551125
0.05172839761 0.1217085719 0.8070958853 -0.2070713043 -0.1122725308 0.9040565491
0.0438419953 0.1363435388 0.7830861211 -0.284476459 -0.4645293057 0.8384052515
0.0426283665 0.09883204103 0.8249445558 0.002310534706 0.1409465522 0.9877914786
0.0433033891 0.1050961614 0.7669857144 -0.1479471475 -0.4807717502 0.8628697991
-0.1001133323 0.1645249128 0.7683525085 -0.2248894274 0.3907352388 0.8910346031
-0.09053374082 0.1629461497 0.7701358199 -0.171099171 0.3663918972 0.9130378366
0.05968683213 0.07897590101 0.7690686584 0.1401015967 0.1266000718 0.9306932688
0.06229471415 0.08503051102 0.762513876 0.05719484016 0.0229381714 0.983846724
0.06569936872 0.07060729712 0.7676833868 0.3370063603 0.2491819561 0.8874117732
0.06705526263 0.07733447105 0.7607675195 0.20338732 0.1897619516 0.9524083734
0.0744106099 0.08056184649 0.790792048 0.02575297654 -0.1819396466 0.5503259897
0.07698181272 0.0830752179 0.7791154385 -0.3823277354 -0.05994392931 0.5524836183
0.07172929496 0.07794030011 0.802934885 0.4507316351 -0.3086858392 0.5482566953
0.07136049867 0.07710391283 0.7747125626 -0.00102237484 0.09265707433 0.7077246308
0.07129703462 0.07717579603 0.7834144235 0.1526549906 -0.02822438069 0.6627067924
0.07221911848 0.07860928029 0.8126577735 0.5769085884 -0.4528202116 0.4848183692
0.0779100582 0.08391306549 0.770532608 -0.6041943431 0.04528339952 0.5766031146
0.0588199757 0.1046084613 0.7641257048 -0.1890954226 -0.5557281971 0.8004943728
-0.02473097667 0.07505112886 0.7696849704 -0.1380596459 0.2998499274 0.9369933605
-0.02063833736 0.09852867573 0.7689505816 0.0006318186061 0.06346089393 0.996535778
-0.0338149108 0.0807396844 0.768461585 -0.02654629387 0.3317922056 0.9368480444
-0.1615389436 0.09065317363 0.7802327275 -0.2375502735 0.6186193824 0.7489097714
0.05246197432 0.06570117921 0.7804090381 0.2942044139 -0.02587367408 0.6362643242
0.05491885543 0.07233767956 0.775506556 0.2098304778 -0.01423143409 0.7517017722
0.0448224172 0.06823102385 0.7834403515 0.2040319294 -0.5591874123 0.4175856709
0.05270447209 0.09865529835 0.7833926082 -0.133032456 -0.07975851744 0.6994883418
0.05885038152 0.09073968977 0.7968446016 0.03205904737 -0.3272916675 0.6667068601
0.05717132241 0.1029690057 0.7885612249 -0.1036667228 -0.4081730545 0.7261083722
0.04749783501 0.07476445287 0.7860027552 0.002543818671 0.5813137889 0.5739366412
0.06543106586 0.08263963461 0.8110762239 0.205449 -0.5978752375 0.6334881186
0.05018217862 0.08681514114 0.7847790718 -0.064954862 0.2444216758 0.6373307705
0.06344373524 0.08888003975 0.805041492 0.1189298481 -0.5721338987 0.6625332832
0.05265298486 0.07880427688 0.7923974991 0.04488383979 0.2161398828 0.5999552011
0.05723992363 0.08174131811 0.7983883619 0.08847597986 -0.09908396751 0.6198111773
0.06107747927 0.07955008745 0.8055284023 0.1667924523 -0.294233799 0.6131293774
0.04672504589 0.08348856866 0.8270304799 0.03677132726 0.04162959009 0.9927687645
0.05103455111 0.09024465084 0.8141385913 0.1235469878 0.4399559796 0.8104371428
0.05847395584 0.08808311075 0.8175987005 0.2621068656 0.5200181603 0.7724964619
0.04672946781 0.07706330717 0.7991555333 0.06532045454 0.6453193426 0.6630375981
0.04712554067 0.08562933654 0.8071477413 0.0594904758 0.498185277 0.7628865242
0.04785559326 0.06867308915 0.7924546003 0.09719710052 0.7855972052 0.5625177622
0.056373436 0.08255844563 0.8111621737 0.2294134647 0.5778806806 0.710875392
0.01708046533 0.07704429328 0.8243510127 -0.1320508718 0.06897906959 0.9884869456
0.02430555038 0.0833748281 0.8249686956 -0.1213050485 0.1216248572 0.9850307703
-0.05121371523 0.1482000649 0.7774813175 0.06380169839 -0.1446827799 0.9737240076
0.029235458 0.1305431128 0.8038696051 -0.1884434223 -0.1174575686 0.9081497788
0.03554358706 0.1426466703 0.7930867076 -0.2418227941 -0.3864890337 0.8619379997
0.03163701296 0.1153687462 0.816991806 -0.11899665 0.135216102 0.9606634974
0.03367584199 0.1219931319 0.8113463521 -0.1479078233 0.001576217939 0.9368876815
0.008318118751 0.1186595336 0.7681131959 -0.01278979611 -0.2204822004 0.9749254584
-0.01132728532 0.1004214361 0.8171280622 -0.1283186525 0.1311605722 0.9829748273
-0.009922284633 0.09123793989 0.8209999204 -0.1294635236 0.1160497665 0.9847465754
-0.00288770441 0.1294278204 0.7719575167 -0.04293197766 -0.201274246 0.9778279662
0.006246905308 0.1261509508 0.7709902525 -0.05181408674 -0.2391286641 0.9681125879
-0.09986718744 0.1485400647 0.7721380591 -0.1702367067 0.2828275561 0.9370312691
-0.1077259555 0.1636146158 0.7658120394 -0.2737537026 0.3940493464 0.87730515
-0.1048218906 0.1549252868 0.7706315517 -0.2592699528 0.3803201616 0.8875358701
-0.1132736728 0.1525625587 0.767257154 -0.2944938242 0.3972818255 0.8682668805
-0.1510889679 0.1521172076 0.7614440322 -0.1816075146 0.2069786787 0.9611131549
-0.1311118156 0.1254295409 0.7749273181 -0.4331559241 0.4443717003 0.7834836841
-0.1324752718 0.1322801411 0.7698585987 -0.3874807358 0.3811765313 0.8364693522
-0.1592115909 0.1492898315 0.759914279 -0.1206958294 0.1426636875 0.9807626605
-0.1652130783 0.1145155802 0.7640403509 -0.1722960323 0.3141798973 0.9324867129
-0.1598046273 0.1228755489 0.7613857388 -0.1873795539 0.2297060341 0.9473083615
-0.1564008296 0.1153919622 0.7651997805 -0.3077905178 0.3594689071 0.8788745403
-0.1518634856 0.1391251534 0.7597468495 -0.1990392804 0.1787244081 0.9619959593
-0.1065946072 0.07405972481 0.8108918667 0.1416054964 0.6180420518 0.7717655897
-0.1010144055 0.0756964013 0.8040688038 0.16789186 0.6041693687 0.7701148391
-0.1081801355 0.08072221279 0.8024262786 0.1134267077 0.5649579167 0.8103035092
-0.04825020209 0.0874902457 0.7686135769 0.2598011494 0.4023152888 0.8727487922
-0.1817206293 0.1016567647 0.7708202004 -0.06544557959 0.4917368591 0.8601533175
-0.171643734 0.1015434042 0.7711194754 -0.1663866788 0.5107877254 0.8324148655
-0.1577318162 0.08286706358 0.7834978104 -0.2545707524 0.6096462607 0.745493412
-0.1696066111 0.09542416036 0.7758514881 -0.1748459041 0.5583977103 0.8033427
-0.1308052391 0.08856157959 0.7928618789 -0.2714132667 0.4912673831 0.8195297122
-0.1465550959 0.09455614537 0.7815759778 -0.4348091185 0.5232191682 0.7316837311
-0.1124286875 0.08719459176 0.7997873425 0.07747018337 0.5003187656 0.8592110872
-0.03949322179 0.1562003642 0.7787984014 -0.03822292387 -0.2227768898 0.9738907814
-0.02946509421 0.1545057297 0.7739343047 -0.05324577913 -0.2243518233 0.9730306864
-0.04671864212 0.1540976167 0.7717885375 -0.02432138845 -0.1439970881 0.9833644032
-0.05044808984 0.1633247137 0.7749018669 -0.05774959922 -0.08005665243 0.9897430539
-0.03850322217 0.1431096643 0.7692394257 -0.03011886217 -0.2123930156 0.9765062332
0.03317821026 0.09245745093 0.8254968524 -0.08797235042 0.1515506953 0.9841827154
0.03504799679 0.09643220901 0.7753615975 -0.1014419943 -0.6033455729 0.7141562104
0.03733413294 0.08825971931 0.7788449526 -0.005372370128 -0.7022389174 0.5642918944
0.03252211586 0.07596562803 0.7843959928 0.03788107634 -0.8524042368 0.3768216372
0.03306224942 0.0678877458 0.7879038453 0.1117344424 -0.9504438639 0.2366062403
0.04930172116 0.09936718643 0.7984492779 -0.07729445398 0.06461024284 0.8022713661
0.04703071713 0.09832690656 0.8084861636 -0.03031952679 0.1849049479 0.859783709
0.0468823947 0.1039202958 0.8140520453 -0.03711152449 0.09237344563 0.9290252328
0.05478032306 0.110668309 0.7818615437 -0.205929175 -0.3814840019 0.7652203441
0.0505421795 0.09781000763 0.7911235094 -0.09925124049 0.03659146652 0.7462723851
0.04901009798 0.1062057614 0.8057854176 -0.08340533823 -0.04357460514 0.8903044462
0.05119857192 0.1079041883 0.7967169881 -0.1298852563 -0.1718383431 0.8429321647
0.04799813777 0.08598285913 0.7931196094 -0.02805949189 0.360406667 0.6873732805
0.04738943279 0.09254382551 0.8017423153 -0.0273811426 0.2713646889 0.7819051743
0.04491808265 0.08833567053 0.7742471099 0.001036514994 -0.5090446472 0.6940357685
0.04418889806 0.08037680387 0.7781267166 0.06588044018 -0.622633934 0.5473389626
0.05303228274 0.09263857454 0.7669315338 -0.03834477067 -0.2264050841 0.9259163737
0.05264718086 0.08580619842 0.7700992823 0.01718629152 -0.317014426 0.8047432899
0.04577574879 0.09753144532 0.7697542906 -0.07389353216 -0.3773676157 0.8638308048
0.06185078621 0.06265232712 0.7762440443 0.3811185956 0.3909681439 0.8328377008
0.06753654778 0.07207988948 0.8069187403 0.5987674594 -0.2227874696 0.577624023
0.06526144594 0.06269662082 0.7867981195 0.4438866675 0.2035797834 0.7482462525
-0.05733337998 0.1084860787 0.7597686052 0.3541764319 0.0566114299 0.9127165079
-0.05023255199 0.1004116014 0.7642835975 0.1692684442 0.1226642951 0.9605160356
-0.07171408832 0.149609372 0.779263556 -0.005628385581 0.1370766014 0.9812794328
-0.07749778032 0.1448140889 0.7801707387 -0.02833994851 0.1181194484 0.9916930199
-0.07552885264 0.1575805098 0.7778001428 -0.08259931207 0.2656864524 0.9579069018
-0.05788335949 0.1546330303 0.7694773674 -0.08815981448 -0.05187636241 0.962305963
-0.06103739515 0.1500743032 0.7777884007 0.07726567984 0.04993469268 0.9949741364
3.174460289e-05 0.1165428683 0.767877996 0.01779899374 -0.1532301009 0.9873286486
0.006114350632 0.1107921973 0.7670637965 0.01869777776 -0.1524634659 0.9874420166
-0.01204841211 0.1028389335 0.7682606578 0.04053109512 0.09355337918 0.9941084385
-0.01971121691 0.08179675043 0.7712903619 -0.1019336358 0.250336647 0.9543249607
-0.01639827713 0.0915883705 0.7701871395 -0.02636706457 0.1743647307 0.9754974246
-0.1436240822 0.07846685499 0.7973499298 -0.3478928506 0.5032810569 0.7907069325
-0.1452190131 0.08984685689 0.789069891 -0.4143880308 0.5265292525 0.7370769978
-0.1511824578 0.0791843608 0.7886951566 -0.3204622269 0.5876742601 0.7413826585
0.07022620738 0.10803397 0.7724995017 -0.3849942684 -0.6021139622 0.6962769032
0.07056934386 0.1205385029 0.784183085 -0.3905662298 -0.5461310148 0.7366564274
0.06577661633 0.07098896801 0.7776973248 0.4998144209 0.1452926248 0.822170198
0.06866082549 0.07318821549 0.7980201244 0.5989893675 -0.1702100486 0.6443068385
0.06739967316 0.07255146652 0.7889648676 0.5565790534 -0.03439571708 0.7234583497
0.05006153136 0.07077942789 0.8159672022 0.01309879869 -0.6720392108 0.6549627185
0.04420935735 0.06621812284 0.8058665991 0.08166964352 -0.6967961192 0.5327558517
0.04732972756 0.07515946776 0.8251044154 0.009887351654 -0.343631804 0.8979104161
0.0403085649 0.06175193936 0.7964270711 0.115323104 -0.7936779857 0.3734811544
0.01345728058 0.07012683153 0.8216645718 -0.1254466176 -0.4976308346 0.810208261
0.01958219521 0.06805478036 0.8134487271 -0.07904879749 -0.4888600111 0.6999043822
0.02676660195 0.06178689376 0.790091157 0.03182050586 -0.9579803348 0.2804466188
0.01699122228 0.06335298717 0.8043754697 -0.05542720109 -0.7985075116 0.50475806
-0.02296112292 0.06670249999 0.7980620861 0.06548936665 0.3226545155 0.7691295743
-0.01419808343 0.0757804811 0.8185031414 -0.2373002172 -0.3170286417 0.8534222841
-0.01499361265 0.06463817507 0.7967113853 -0.05589890853 0.2446473688 0.8419577479
-0.01737768203 0.06942362338 0.8051681519 -0.08174578846 0.06457168609 0.821705699
-0.0108873751 0.07124562562 0.8108372688 -0.2328903526 -0.169974044 0.8823257089
-0.02488016337 0.06342922151 0.7911022902 0.1509700865 0.5254712105 0.7501952052
-0.02608616464 0.07068748027 0.8047268987 0.06573563069 0.1982724816 0.7417378426
0.01080513746 0.1237442642 0.8029803038 -0.1631876379 -0.009248542599 0.9469189644
0.01042563934 0.1170858219 0.8100908399 -0.1435137093 0.1075493172 0.959209621
0.01555384789 0.1292234659 0.7981057763 -0.1721789986 -0.0846638307 0.9345546961
0.0101130493 0.07952878624 0.8228206038 -0.1354826987 0.06816206127 0.9882260561
-0.0436475724 0.1466822326 0.7776507139 -0.04237407446 -0.1824217588 0.9716286063
-0.04849575832 0.1338776946 0.7737052441 -0.02429328673 -0.1217304394 0.9670604467
-0.05289051682 0.1401269287 0.7742695808 0.1404547393 -0.2203357965 0.9562003613
-0.04121913388 0.109033525 0.7662855983 0.09236034751 0.09499787539 0.9887239933
-0.03762412816 0.1011622548 0.7673127055 0.03163854405 0.1040223688 0.9909200072
-0.02444284223 0.1055377498 0.7685406208 0.05299420655 0.1276173145 0.9899459481
-0.04155313969 0.09220744669 0.7675242424 0.01293638069 0.1368962973 0.9877346158
-0.03365878761 0.07428866625 0.7751508951 0.1717647612 0.5369253755 0.8230956197
-0.02748588473 0.0661482811 0.7782121897 0.1686672419 0.5924494863 0.7834784985
-0.006597710773 0.1308953911 0.7853304744 -0.1007953137 -0.06819459796 0.9788078666
-0.0034810137 0.138513729 0.782526195 -0.121071443 -0.1330940276 0.9722559452
-0.007018507458 0.1431723386 0.7750813961 -0.1014341488 -0.2002100945 0.9740970731
-0.01502979919 0.1440623552 0.774512887 -0.06512246281 -0.1790785044 0.9816101193
-0.008091094904 0.1356672645 0.7730844021 -0.07395114005 -0.1904102266 0.978536725
-0.0973514989 0.1583562046 0.7718193531 -0.1975132823 0.3671410382 0.9079657197
-0.08172790706 0.1482832432 0.7712266445 -0.04647759721 0.2177599669 0.9411940575
-0.1223629117 0.1353005767 0.7700390816 -0.3046779335 0.3774698675 0.8589327335
-0.1432002634 0.1177314967 0.7728185654 -0.4507281184 0.3936882317 0.7883952856
-0.1389359087 0.1236219704 0.768709898 -0.4372577071 0.374884069 0.8159477711
-0.1367431134 0.1426219791 0.764100492 -0.2900943756 0.3157040775 0.9009329677
-0.1415289044 0.1369495988 0.7636629343 -0.2931935489 0.2438043952 0.921372056
-0.1520532817 0.1235816553 0.7639712691 -0.2932395041 0.2853497267 0.9080952406
-0.1459185183 0.1286752373 0.7645357251 -0.3258766532 0.2640062869 0.9029608369
-0.1620198041 0.1303344369 0.7586702108 -0.1360268295 0.1371170878 0.9805623293
-0.1701509655 0.1268828809 0.758636713 -0.08850782365 0.1773843169 0.9787474871
-0.1353409141 0.08271700889 0.799898982 -0.3358559608 0.4645389915 0.8191479445
-0.12871252 0.07698766142 0.8043973446 -0.2162829041 0.4896117747 0.8416339755
-0.05415859073 0.1043228135 0.7766714096 0.177511692 0.07014312595 0.943447113
-0.06304128468 0.09658174962 0.780888319 0.4092671275 0.3303611577 0.8053552508
-0.0486998111 0.08700760454 0.7854648829 0.1426015794 0.4770205021 0.7160129547
-0.03152426705 0.08947525173 0.7993427515 -0.4133440256 0.2834574878 0.7013617158
-0.03744968399 0.08902649581 0.7942141891 -0.2220666558 0.3399951458 0.7130076289
-0.05125833303 0.09195187688 0.7789005637 0.2185664922 0.3707379103 0.8051683903
-0.04149772599 0.1001491696 0.7810345292 -0.1061322913 0.08789739758 0.9080985188
-0.03898691759 0.09511983395 0.7876265049 -0.1804519445 0.1967069358 0.8177033067
-0.03090999648 0.103065595 0.7815614343 -0.1497091502 0.04525896907 0.9623388052
-0.01944339834 0.09494189918 0.808062613 -0.3689997196 0.19582358 0.8217437267
-0.03400852159 0.1045030281 0.7749937177 -0.1154750958 0.01524616033 0.9838789105
-0.02238369174 0.08735824376 0.8088378906 -0.6319836378 0.2933696508 0.6479234099
-0.0214833077 0.1016657501 0.7992139459 -0.1556769758 0.09468957782 0.9613586068
-0.02669020928 0.09636438638 0.7942209244 -0.3529749215 0.1529453695 0.8300166726
-0.09575012326 0.09358838201 0.7894981503 0.2781546116 0.3729238808 0.883830905
-0.06447127461 0.08273904771 0.785161674 0.3631160557 0.5941646099 0.7145078182
-0.05945884809 0.08832097054 0.7817239761 0.393666774 0.5127786994 0.7288273573
-0.05494910851 0.09344566613 0.7674438953 0.2915033698 0.2880635858 0.9034293294
-0.06135192513 0.0939084515 0.7734123468 0.427911222 0.3830838799 0.8081096411
-0.1621520519 0.09936186671 0.7721205354 -0.241911903 0.5418807268 0.8029471636
0.02994233184 0.1000077501 0.8238643408 -0.09827752411 0.1793620437 0.9785702825
0.02996835485 0.1075275913 0.8219951987 -0.1056054905 0.1926864982 0.9755195379
0.07416851819 0.07642217726 0.7650185227 0.3707486987 0.03498539701 0.840337038
-0.06420471519 0.1676891893 0.7733970284 -0.03646492958 0.2466795444 0.9662811756
-0.05908774957 0.1619629711 0.7750269771 -0.02220484428 0.06747267395 0.9944477081
-0.06662160158 0.158354789 0.7762759328 -0.01473211218 0.1738941967 0.9809912443
-0.00827103667 0.1212089658 0.769697547 0.003720428329 -0.1286810338 0.9904080629
-0.01497884374 0.1288175583 0.7707798481 -0.0419148542 -0.1200334355 0.9901657104
-0.01053053327 0.1242692247 0.7886557579 -0.09180606902 -0.03261853009 0.9835418463
0.001367801102 0.1133169383 0.8100402355 -0.1245882958 0.1422270536 0.9753197432
-0.004527246114 0.1141793281 0.8051393032 -0.115644753 0.08997014165 0.9791781902
-0.01274652965 0.1161290258 0.7973738313 -0.1019800156 0.01148214377 0.9845930934
-0.002965666354 0.1204669923 0.7983078957 -0.1075935736 0.05474062636 0.9784633517
-0.01373194531 0.1278998703 0.7820488214 -0.08189210296 -0.08481257409 0.9857863784
-0.01830119081 0.114992179 0.791891396 -0.06312500685 0.03364032134 0.9912365675
-0.01266065799 0.10957589 0.8055513501 -0.11202012 0.06242907792 0.9842792153
-0.02264939435 0.1241682693 0.7754130363 -0.0203955397 -0.03121741489 0.9965622425
-0.01911816001 0.1207803711 0.7839612365 -0.05100315809 -0.01321943291 0.9922065735
0.007598320488 0.1020065621 0.7723602057 0.01136045158 -0.1490591764 0.9083673358
0.01449585613 0.09119707346 0.7761535048 -0.03634227812 -0.5138821006 0.6739850044
0.01972900704 0.07847905904 0.7827498317 -0.0147944903 -0.7505370378 0.4680231512
0.07737728208 0.1192035526 0.7882670164 -0.4139446318 -0.5695364475 0.7084718347
0.06317104399 0.1100682542 0.7711163759 -0.2907011211 -0.6130474806 0.7275524735
0.06130091473 0.1178352088 0.7777528167 -0.3320335448 -0.5803558826 0.7380393147
0.05472677946 0.1163234264 0.7732964158 -0.2387799025 -0.5416714549 0.7991865873
0.03723736107 0.05843325704 0.7897450924 0.1124862358 -0.9363547564 0.2663159966
0.05211704224 0.06824013591 0.8089326024 0.02025179006 -0.7925242186 0.4642550349
0.05967461318 0.07331416011 0.8183389902 -0.1044763923 -0.745842278 0.5976868272
0.05023258924 0.0643394962 0.7993966937 0.1193038449 -0.8944754601 0.2884052694
0.05708580464 0.06206871942 0.7901132703 0.3073386252 -0.02070595138 0.6593068242
0.0505849719 0.05886194855 0.7859661579 0.260623455 -0.2804997265 0.466714412
0.05804347619 0.06794125587 0.8026829958 0.2650439441 -0.6452787519 0.4644275308
0.0301874429 0.1387242079 0.7812822461 -0.2521620393 -0.4501072466 0.8563534021
0.01987978257 0.1461932957 0.783354342 -0.2313871533 -0.3862121701 0.8914959431
0.02674198523 0.1486795545 0.7873926163 -0.252807796 -0.42743209 0.8663721681
0.02156719938 0.1285479069 0.803935945 -0.1790801287 -0.06716745347 0.9198741317
0.02287289314 0.1344221383 0.7989428043 -0.2001461387 -0.1720570624 0.9049082398
0.0217786599 0.1408682168 0.7910553217 -0.2181842625 -0.2878697813 0.8960728645
0.02233556286 0.1198562384 0.8121320009 -0.1456560194 0.09523013234 0.9436463118
0.02904095501 0.1398980916 0.7977721095 -0.2243625969 -0.2639372349 0.8828999996
0.007301120088 0.1090087667 0.8168133497 -0.1275858432 0.1893458217 0.9734172225
0.02158488706 0.110614121 0.819691956 -0.1138860807 0.2098103166 0.9709983468
0.02590830997 0.09855681658 0.7728232145 -0.06294246763 -0.5356571078 0.7562488914
0.02706926689 0.1065807194 0.7688294053 -0.07710940391 -0.4280901551 0.8794676065
0.02300889976 0.07177881151 0.7863157392 -0.02099839784 -0.8989357948 0.3442662656
0.02682670765 0.08681263775 0.7791094184 -0.05652962998 -0.7046355009 0.573839426
0.014656418 0.1049903557 0.7690241337 -0.0167741254 -0.2664579451 0.923879981
-0.07385459542 0.07431437075 0.7977019548 0.2612483501 0.6393814087 0.7230527997
-0.06743182987 0.07718076557 0.7915115952 0.2848852277 0.6515196562 0.7023558021
-0.07277085632 0.08231734484 0.7888132334 0.2935085893 0.590258956 0.7488905191
-0.06367117912 0.1223371029 0.7785407901 0.2596099675 0.05008111149 0.9386641979
-0.05133256316 0.1188698858 0.7749623656 0.02558831312 0.04483133182 0.9745035768
-0.06007968262 0.1312851757 0.7755348086 0.2451495677 -0.1142472476 0.9439276457
-0.0749271512 0.1328442991 0.7799900174 0.1362498552 0.06919180602 0.9867354035
-0.06704223901 0.1354236901 0.7792031169 0.1989839822 0.0576704666 0.9693418145
-0.06098349392 0.1420944482 0.7770572901 0.1588869542 -0.01956299692 0.9740319848
-0.05102550611 0.1324674189 0.7634387016 0.07998253405 -0.1913545132 0.9431200027
-0.05755820125 0.1262575239 0.7578594089 0.291981101 -0.1395611316 0.9192478061
-0.04158980772 0.1295107603 0.7690484524 -0.06046716869 -0.1138049141 0.9720825553
-0.02255758084 0.1191854924 0.7698340416 0.03741238266 -0.02152367122 0.9979713559
-0.04034255818 0.1158167422 0.7629246712 0.2514592111 -0.01745554246 0.9464972615
-0.02878990211 0.1144610941 0.7675442696 0.1082142144 0.004828778561 0.9891606569
-0.05255581066 0.1187642962 0.7582496405 0.3561651111 -0.05833705887 0.9178001881
-0.04274007678 0.1140509769 0.7733606696 -0.04829083011 0.04370112345 0.9974938035
-0.03415913507 0.1137756631 0.7748035789 -0.04270655662 0.04497005045 0.997520864
-0.02541697957 0.1076709181 0.7910456061 -0.0834376514 0.07318398356 0.9915943742
-0.01521804929 0.1022727042 0.8100909591 -0.1199403629 0.1135313511 0.9851873517
-0.02788344212 0.1134536937 0.7786097527 0.0111747561 0.03896322846 0.9950492382
-0.04459028319 0.1216196418 0.7725399137 -0.1638098955 0.01710845716 0.9837452173
-0.03151008114 0.08935828507 0.7678108811 -0.03604407609 0.173716262 0.9803444743
0.009726741351 0.1406313479 0.7842746377 -0.1852037013 -0.2547554076 0.9298167825
0.002863017609 0.1209090129 0.8040395975 -0.1316248626 0.07333999872 0.9710624814
0.004720408004 0.1273011416 0.7975362539 -0.147262007 -0.03022303246 0.9588518143
0.008016285487 0.133901909 0.7911861539 -0.1698941737 -0.147578299 0.9418997765
0.01251436677 0.1407123804 0.776736021 -0.1818968803 -0.3410381973 0.9220516086
0.001187964575 0.1481514424 0.7757287025 -0.1556063294 -0.2555480599 0.952894032
0.001428027172 0.1387724578 0.7745425105 -0.1262137145 -0.2550209463 0.9568206072
-0.1228414252 0.1525782496 0.7655542493 -0.3207242191 0.3777596056 0.8677400351
-0.1159245893 0.1384945661 0.7733017802 -0.2757791281 0.3992456496 0.8710954785
-0.148467347 0.1134364754 0.7685611248 -0.4023581445 0.4080717564 0.8174099922
-0.1354443133 0.1537183672 0.7615813613 -0.2241529673 0.3031072021 0.9258054495
-0.1419402808 0.1477874219 0.7604040504 -0.2265822589 0.2798737288 0.9326984882
-0.005617452785 0.07327096164 0.8192278147 -0.2463944256 -0.428543061 0.8413451314
-0.004820218775 0.06635005772 0.8050276637 -0.2052873373 -0.09206216782 0.8822799921
0.002849716926 0.06671111286 0.8121854663 -0.1887690872 -0.3412873745 0.823538363
-0.003926862031 0.0608375594 0.7939322591 -0.1719202399 0.1681835055 0.9129881859
-0.004823701456 0.08216674626 0.8211694956 -0.1509248167 0.08245848119 0.9821372628
0.003391602775 0.08500640094 0.8214572072 -0.1340626925 0.09095837176 0.9867440462
-0.0567782335 0.08136256039 0.7819112539 0.3358927071 0.5912145376 0.7225568295
-0.04898066819 0.08309203386 0.7755354047 0.3216542006 0.5281392336 0.7766879797
-0.0622965768 0.1080079079 0.7787817121 0.3396560848 0.1073673666 0.9086769819
-0.04475525394 0.1063148454 0.7738037109 -0.01580457948 -0.006415020209 0.9994471073
-0.08790167421 0.08841540664 0.7885427475 0.3240858912 0.4310232103 0.8408520222
-0.1001426131 0.08502755314 0.7955186367 0.2291413546 0.5019637942 0.8263009787
-0.1224919632 0.09357344359 0.7949236631 -0.1290184706 0.4694572091 0.8671159148
-0.1205647141 0.08648582548 0.7979448438 -0.09479548782 0.4868280292 0.863593936
-0.07239948213 0.09482505172 0.7804451585 0.3930739462 0.318413496 0.8599407077
-0.08396874368 0.09480202943 0.7851501107 0.3316274881 0.3150039911 0.8891131282
-0.07686515152 0.08850365132 0.785846591 0.3313113153 0.4536625445 0.8210154772
-0.1529698968 0.09134814888 0.7842655778 -0.3294424117 0.5652551055 0.7456766367
-0.1050143018 0.09338472039 0.7976626754 0.1667674184 0.4426184595 0.8776738644
-0.08682945371 0.1280015707 0.7704486251 0.1047608256 0.1280746907 0.9606087804
-0.0798541829 0.12388248 0.7656445503 0.2163597494 0.08056868613 0.9416357875
-0.09356592596 0.136918962 0.7752411366 -0.04782424495 0.1647456586 0.9794735312
-0.07356948406 0.1274863333 0.76245296 0.2406661808 -0.008720810525 0.9335798025
-0.06572824717 0.1243248805 0.7573333979 0.3502373695 -0.0733583644 0.9145424962
-0.08586254716 0.140738219 0.7708012462 -0.007359024603 0.1470558345 0.9564038515
-0.07692428678 0.1342251897 0.7650845051 0.1417280585 0.05454535037 0.938246727
-0.09939268231 0.1312183738 0.7728438377 -0.03098869324 0.2715987563 0.9448342919
-0.10344363 0.1395301074 0.7716875672 -0.1357818395 0.302110523 0.9238408208
-0.1087987646 0.1460678875 0.7700943947 -0.2355468571 0.3446017206 0.8963845968
0.02409426123 0.09468676895 0.8243758678 -0.1239954233 0.1561097354 0.9799031019
0.02129215747 0.1020129398 0.8224133849 -0.1163734719 0.1804601699 0.9765761495
0.03094039485 0.1222072244 0.7732570767 -0.1675249636 -0.4295363724 0.8865565062
0.02567067184 0.1157173663 0.7677614689 -0.09949766845 -0.3660902381 0.924335897
0.03344378248 0.115483582 0.7689253688 -0.1541537642 -0.438208431 0.8844076395
0.03649184853 0.1071385518 0.7697444558 -0.1360729933 -0.4679331183 0.8728571534
0.04965597764 0.1109330505 0.7672846317 -0.1623386443 -0.5317530036 0.8308836818
0.04122999683 0.1247071177 0.7750864029 -0.2426306605 -0.4791789055 0.8420256972
0.04104726017 0.117339246 0.7711809278 -0.1910534799 -0.4848567545 0.852144897
-0.006185969803 0.1111017317 0.7675907016 0.05390427634 -0.009205909446 0.9933588505
0.003351523075 0.05855893344 0.7891954184 -0.1185503826 -0.9732899666 0.1951189935
0.01902315952 0.05880153924 0.7912899256 -0.01107414439 -0.9573792219 0.2792102098
0.01146781258 0.06657002866 0.8137127757 -0.118547678 -0.6864901781 0.6508094072
0.0134836873 0.06039876118 0.7971442938 -0.07606056333 -0.9034943581 0.3598917425
0.009891876951 0.10094212 0.8212562203 -0.1225818172 0.1609012187 0.979229331
0.01083221473 0.08844356984 0.8228101134 -0.1317836344 0.1154637933 0.9844871759
6.409640628e-05 0.09418867528 0.8211843371 -0.1282549948 0.1190497801 0.9845388532
-0.01054979395 0.06648439169 0.7824621797 -0.1830089837 0.3118388057 0.926420927
-0.01537487563 0.0594369173 0.7796683908 -0.05127258226 0.3349146843 0.7810308933
-4.136251391e-06 0.1010999307 0.7717438936 0.0132718347 0.0646366626 0.9881393313
-0.01220154576 0.08492154628 0.7739859819 -0.06633445621 0.2434928417 0.9531700015
-0.008889140561 0.09654895216 0.7725156546 0.02580277435 0.1746013165 0.9763670564
-0.008622957394 0.07459465414 0.7798216939 -0.1410654783 0.1584990621 0.8541714549
0.01025401056 0.08407662064 0.7808587551 -0.02728756517 -0.5185501575 0.5797746778
0.002285232767 0.08640151471 0.7779844403 -0.05186194554 -0.1517310888 0.7821656466
0.01380020194 0.07096339017 0.7867887616 -0.06112640724 -0.8364212513 0.3244839311
0.006487971637 0.09303941578 0.7764722705 -0.009749862365 -0.2445147634 0.7829975486
-0.003404570743 0.08155584335 0.7784372568 -0.09352446347 0.02689538337 0.8376836181
-0.001607045764 0.07041814178 0.7831723094 -0.1273239404 -0.1917213798 0.6468501687
0.008001474664 0.07708157599 0.7829927802 -0.06260031462 -0.5128264427 0.5323091149
0.005296559539 0.06809105724 0.7857828736 -0.1071944833 -0.513514936 0.4672314227
-0.00323287677 0.1055873483 0.8167403936 -0.1382721514 0.1609586477 0.9768897295
-0.02258636616 0.06073961779 0.7837076783 0.08393897116 0.5799255371 0.777795136
0.06833032519 0.1141953245 0.7779855132 -0.3670457602 -0.5935541391 0.7098586559
0.04703952372 0.1297917664 0.7807934284 -0.2951141298 -0.4787983 0.8261696696
0.05082201958 0.1236118674 0.7778228521 -0.277721405 -0.5059084296 0.8136053085
0.03108839318 0.1314762682 0.7769780755 -0.2315798998 -0.460745424 0.8556137681
0.02263608947 0.1398414522 0.7794088721 -0.2320380658 -0.4152978063 0.87831074
0.01783262566 0.1244391501 0.7712827325 -0.09472382814 -0.3394053876 0.9272946715
0.02134729922 0.1329387277 0.7756140232 -0.1982049495 -0.4059363306 0.8878331184
-0.08973736316 0.1214640141 0.7850445509 0.09545122832 0.2367370278 0.9518970847
-0.08496389538 0.1320601255 0.7809669971 -0.007517079357 0.1366186589 0.984347403
-0.08052902669 0.07805304974 0.7960838079 0.2852966785 0.6011434793 0.7454396486
-0.08836542815 0.07768045366 0.799708426 0.2802420557 0.5834644437 0.7587008476
-0.06700926274 0.07057128102 0.799048543 0.2686514556 0.6602761745 0.7013121843
-0.04418571666 0.1376765966 0.7682242393 -0.09490022063 -0.2260501385 0.9659329653
-0.03388845921 0.1354288906 0.7719807625 -0.06365146488 -0.1102517322 0.9912135005
-0.02228093334 0.1403416991 0.7726079822 -0.07548229396 -0.1776886433 0.9800017476
-0.02905602194 0.1292812526 0.7719427347 -0.04215243459 -0.0436215736 0.9959169626
-0.04630872607 0.1231061518 0.7638248205 0.1839679778 -0.04096735641 0.9554206133
-0.03750886023 0.122070007 0.7678048611 0.08882873505 -0.01125158463 0.979205668
-0.02925003506 0.09947170317 0.7684280872 0.01242378354 0.1191820502 0.9916065931
-0.01755735278 0.110055998 0.768709898 0.07289994508 0.05056737363 0.9922556877
-0.1570187062 0.1061585173 0.7687732577 -0.3155599535 0.4666772485 0.8249161839
-0.1436779052 0.1103459969 0.7755448818 -0.4691722989 0.4575019777 0.7508649826
-0.1205176339 0.1630451977 0.7619372606 -0.2823336422 0.3632366061 0.8874396086
-0.1323655695 0.1608944833 0.756521225 -0.2246605307 0.321018517 0.9199560881
-0.1230826974 0.1141315699 0.7818288803 -0.222420603 0.4441086352 0.8382909298
-0.1351119727 0.1120945439 0.7781646252 -0.4466162324 0.4545630217 0.753152132
-0.1406188011 0.09929341823 0.7845588923 -0.4769414663 0.4889520705 0.7291052341
-0.1190678701 0.1026166603 0.788950026 -0.1040601581 0.410128653 0.8853660226
-0.1273712069 0.1019838676 0.7862263322 -0.2484829873 0.4399198592 0.8260706067
-0.1460421681 0.1011726409 0.7768707275 -0.4545367956 0.4979507923 0.7381575704
-0.1536867619 0.1009240001 0.7741464972 -0.3705026805 0.5119262934 0.7736363411
-0.1350875646 0.09363915026 0.788030982 -0.3575295508 0.490676254 0.7811874151
-0.1010652557 0.1248841882 0.7839380503 0.06206944585 0.3347277641 0.933591783
-0.09359083325 0.1287208796 0.7817084789 0.02419091016 0.2447493523 0.9588191509
-0.08259411156 0.1541789472 0.7801568508 -0.1191203743 0.283375293 0.9507276416
-0.0856930241 0.1448108405 0.7801321745 -0.09259957075 0.1998768002 0.9716483951
-0.0984287858 0.1452862322 0.7800524831 -0.139492169 0.3347865343 0.9307691455
-0.09334962815 0.1517699659 0.7770581245 -0.1594589353 0.3226147294 0.9319574833
-0.1080317274 0.1370522976 0.7802093029 -0.1096867323 0.3625143766 0.9235132337
-0.09995225072 0.1377164125 0.7803685069 -0.05550763011 0.2909270227 0.9514980912
-0.1205499321 0.1229939237 0.7797930241 -0.220256418 0.4474814832 0.8494539857
-0.129554525 0.118498005 0.7811633945 -0.3844487965 0.4560753703 0.7978776097
-0.09600920975 0.09989128262 0.7934664488 0.275888741 0.4108144343 0.8665335178
-0.08714029938 0.0846541822 0.7959039211 0.2921872735 0.5385579467 0.7832910419
-0.09401515871 0.08909881115 0.7967525125 0.2732519209 0.4800878167 0.8280969858
-0.03199920058 0.06404004246 0.787363708 0.2863732874 0.6574610472 0.6874047518
-0.03402675316 0.06963095069 0.7822352052 0.2935801148 0.6358508468 0.7113157511
-0.09713509679 0.1224082112 0.7769736052 0.09980879724 0.343100369 0.9327645302
-0.1077723205 0.1214387789 0.7803621292 0.007561397273 0.4046276212 0.9102935791
-0.1099777967 0.1283120513 0.7756329179 -0.0937127471 0.3984391391 0.8821525574
-0.100468792 0.11567083 0.7809532881 0.0808275938 0.3644492328 0.9222012758
-0.1131344512 0.114616245 0.7846319675 -0.03978238627 0.4276840091 0.8996760249
-0.1045820042 0.09855313599 0.7903541923 0.1455354989 0.3722763062 0.9067567587
-0.07305714488 0.1166531295 0.7647286654 0.3509504497 0.1281257123 0.8927696347
-0.07958049327 0.1167088598 0.7692726851 0.2805268168 0.2064767033 0.902928412
-0.06858931482 0.1095746458 0.7681134343 0.4449397326 0.2442714423 0.8338458538
-0.09797007591 0.1097824872 0.7903015018 0.2009886205 0.3684646785 0.9063974619
-0.1061249822 0.1150729656 0.7891747952 0.1070635542 0.4006462693 0.9071248174
-0.01753368042 0.06925431639 0.7770617008 -0.1292945445 0.3822567761 0.9098933339
0.005860422272 0.069169797 0.8195947409 -0.1934796125 -0.6139957905 0.7480599284
0.005864586681 0.06130265817 0.7990399599 -0.129898116 -0.7879799008 0.4078645408
-0.06306630373 0.1015672907 0.7695117593 0.4801472425 0.2728875279 0.829608202
-0.0744567439 0.1017480642 0.7774726748 0.3520885706 0.2591370642 0.8931075931
-0.08540552109 0.1149373576 0.775005877 0.2289407253 0.3162223995 0.9000310302
-0.07531715184 0.1092812717 0.7730699182 0.3689109981 0.289788276 0.8572938442
-0.08231664449 0.1028975844 0.7843199372 0.3444648087 0.2518103123 0.8999214172
-0.09112906456 0.1008022055 0.7850906849 0.2692722976 0.3134173751 0.9070606232
-0.08907342702 0.1081901938 0.7818215489 0.2196590155 0.2888970673 0.9275826812
-0.09332696348 0.1151276082 0.7787809968 0.1488839686 0.332260102 0.9291548133
-0.08133936673 0.119514361 0.7834887505 0.2628164589 0.183343485 0.9380802512
-0.07453354448 0.1185367554 0.7806204557 0.357019037 0.1350208372 0.9214022756
-0.07897496223 0.1107634753 0.7827321291 0.3670222759 0.197216779 0.9047535658
-0.07050783187 0.1084371656 0.780583024 0.4417650104 0.1746940911 0.8786614537
-0.1259029806 0.1306285709 0.7759811282 -0.3554501235 0.4381323159 0.8234075308
-0.1240324304 0.1446693838 0.7674636841 -0.3415786028 0.3968509138 0.8516405821
-0.05793355405 0.06667784601 0.7990044355 0.2917719185 0.7031071186 0.6484057903
-0.01841492951 0.08669368923 0.8159881234 -0.5326694846 0.2684440613 0.7151873708
-0.1126187816 0.109611243 0.7911850214 0.007957026362 0.4179932177 0.9043977857
-0.1129967123 0.09961128235 0.7931678295 0.03785821795 0.4248147607 0.9035569429
-0.11609184 0.1300200224 0.7814167738 -0.1702111214 0.4264215827 0.8805221915
-0.04074628279 0.07688536495 0.804048717 -0.1895149797 0.5270124674 0.6177769899
-0.0489433594 0.07397833467 0.7986427546 0.07804587483 0.6087934971 0.6371343732
-0.03282466158 0.0815827921 0.8048923016 -0.3687015772 0.4509023726 0.607144177
-0.03938676044 0.08236061037 0.7980999351 -0.1552837044 0.4999964833 0.627420783
-0.05054150522 0.08021124452 0.7896194458 0.1997754574 0.6003725529 0.6559880376
-0.05728733167 0.07450138777 0.7901159525 0.3284552693 0.674898982 0.6603304148
-0.04833216965 0.07027258724 0.7904083133 0.3375754952 0.6936950684 0.6357925534
-0.04199748859 0.07369413972 0.7825859785 0.3361986876 0.674700141 0.6555057764
-0.03869781271 0.06656119972 0.7908627987 0.347879827 0.6594510078 0.6641043425
-0.04997020587 0.06643806398 0.8018192053 0.2374269068 0.5746414065 0.6707834601
-0.03931439295 0.07004282624 0.8083454967 0.03642458469 0.295458138 0.7210482359
-0.0229981225 0.07898890227 0.8144370914 -0.4469969273 0.1379000098 0.6855204701
-0.02863319963 0.073729828 0.8131353259 -0.1488227695 0.06827166677 0.7550940514
-0.03510832787 0.06849303097 0.7988140583 0.2216596752 0.4561709166 0.6848879457
-0.1263534427 0.1094114259 0.7893172503 -0.2705047727 0.4244460166 0.8605104685
-0.1343182027 0.1071514413 0.7847625613 -0.4272447824 0.4576339722 0.7790073752
