# .PCD v0.7 - Point Cloud Data file format
VERSION 0.7
FIELDS x y z normal_x normal_y normal_z
SIZE 4 4 4 4 4 4
TYPE F F F F F F
COUNT 1 1 1 1 1 1
WIDTH 512
HEIGHT 1
VIEWPOINT 0 0 0 1 0 0 0
POINTS 512
DATA ascii
-0.0606966652 -0.0146786347 0.7584152818 -0.1151959598 -0.7362138629 0.6659963131
-0.04841431975 -0.02618238516 0.7468449473 -0.07794115692 -0.7365003228 0.6708911061
-0.008731962182 -0.06125138327 0.7353799343 0.1626754999 -0.1691362858 0.8649169803
-0.01065965183 -0.07291155308 0.7383443117 0.3280279338 -0.3069015145 0.5972696543
-0.251496017 -0.08287412673 0.7122249603 0.1318377107 -0.07778088748 0.9649711847
-0.258862108 -0.1055599749 0.7170197368 0.01677506231 0.2408420742 0.9680357575
-0.2537496686 -0.1141387001 0.7203873992 -0.1056254804 0.3458740115 0.9279122353
-0.061261978 -0.1008621007 0.7406136394 0.06903339922 -0.7829300761 0.1671750993
0.001101350761 -0.05532123521 0.7293900251 0.1377747357 -0.128308475 0.9638898969
-0.0002614903206 -0.06349512935 0.732147038 0.2638106048 0.04123685509 0.9536604285
-0.05106107146 -0.02062223852 0.7527162433 -0.1107973978 -0.7561168075 0.6446376443
-0.01854510047 -0.08682150394 0.7664573193 0.2074661106 -0.5238217711 0.476744771
-0.01681492291 -0.08354598284 0.780026257 0.01550912298 -0.2743908763 0.8062396646
-0.01220360212 -0.06972397119 0.7904329896 -0.07345499843 -0.1133540496 0.9908356071
-0.242458567 -0.04900495708 0.7236748934 0.1423911452 -0.4945716262 0.8556072712
-0.2469810396 -0.05681812763 0.7210885286 0.1569451094 -0.4493830204 0.877143681
-0.1528535783 -0.1127260849 0.7502169013 0.08175869286 0.6069019437 0.7894260883
-0.008036604151 -0.0405908972 0.73499614 -0.3148925006 -0.7120079994 0.6208212972
-0.2605306208 -0.08740933239 0.7141149044 0.2302278727 -0.01514408365 0.9703441858
-0.2615607381 -0.0959758237 0.7154746652 0.1460229754 0.1152261272 0.9721620083
-0.04664754495 -0.01253463794 0.7663940191 -0.1679361761 -0.7490145564 0.6176149249
-0.05008856952 -0.03616626188 0.7790650725 -0.1980423033 -0.2366178483 0.8635202646
-0.05149370804 -0.02677008882 0.7734931111 -0.1930427998 -0.4138776064 0.7763309479
-0.2513299286 -0.1029981822 0.7122911215 0.0001431658602 0.2312940657 0.9681894183
0.001265652827 -0.07353877276 0.7345090508 0.2758667767 0.1098835617 0.9528525472
-0.02000086568 -0.09017032385 0.7517648339 0.3812914491 -0.8088147044 0.1376709044
-0.02199218795 -0.08859603852 0.7595180869 0.2619200051 -0.6749588847 0.329621017
-0.007977061905 -0.07596743852 0.7812741399 0.09805243462 -0.4563588798 0.7868311405
-0.01456209365 -0.08021917939 0.7863776088 -0.05002775788 -0.2123439461 0.9480858445
-0.01098095626 -0.08029786497 0.7734872699 0.1749681085 -0.524990201 0.6146556139
-0.0106548043 -0.08538480103 0.7475997806 0.2704999745 -0.2376076579 0.5793389678
-0.01184934285 -0.08479882777 0.7562350631 0.3031930029 -0.5174036026 0.432387352
-0.01081445906 -0.08199605346 0.7651863694 0.2494933009 -0.5516764522 0.5104570389
-0.0252272971 -0.07023992389 0.7427634001 0.2032874972 -0.5739120841 0.4570288956
-0.02387977019 -0.06180215999 0.7406898141 0.0567833595 -0.2732784152 0.7777844071
-0.04199983925 -0.09234222025 0.7597444057 0.1466445923 -0.8747327328 0.3416057527
-0.03772053495 -0.09287942201 0.7474764585 0.2516771257 -0.9500834942 0.1477025598
-0.05017403886 -0.05080065504 0.7862520814 -0.2096456438 -0.008869018406 0.9775753021
-0.06136110052 -0.05832097679 0.7833716273 -0.2242144048 -0.06892761588 0.9719257355
0.004757374991 -0.04438069463 0.7501980066 -0.2744479477 -0.6507360935 0.5784303546
0.009591656737 -0.04744709656 0.7366749644 -0.6631347537 -0.4794488847 0.53717345
0.008652394637 -0.0576800108 0.7379842997 0.2433038354 -0.2377950549 0.7634616494
0.006485682447 -0.05111606792 0.7444502711 -0.008914514445 -0.4468185306 0.6731778383
0.007993541658 -0.06503483653 0.7316868901 0.4573051333 0.00769981835 0.8868446946
0.003506507957 -0.06726048142 0.7389777899 0.1877408922 -0.1044168323 0.8525232673
-0.004542443901 -0.03714033589 0.7427503467 -0.3478127122 -0.7542562485 0.5454528928
0.001748319482 -0.04373833165 0.7354858518 -0.4718506932 -0.6150174141 0.6172006726
-0.02689374238 -0.08513390273 0.7770816684 0.0009949655505 -0.3687204421 0.7584238052
-0.02776223607 -0.08734582365 0.7671141028 0.1070261449 -0.5675769448 0.5342309475
-0.04941084608 -0.08071170747 0.7846786976 -0.1625100821 -0.2545518577 0.9433413744
-0.05112655833 -0.05917060375 0.7872599959 -0.2139779925 -0.05871007219 0.9744505882
-0.05055293813 -0.07161919028 0.7864713669 -0.2078592628 -0.1367859393 0.9674397707
-0.05214985833 -0.05432260036 0.7775217295 -0.1549531668 -0.1278874874 0.8550648689
-0.04238650575 -0.07222253084 0.7660123706 0.0316631794 -0.5039025545 0.5397368073
-0.04445724189 -0.06765822321 0.7745893598 -0.06152962148 -0.3244281709 0.7160673738
-0.03759591654 -0.08169217408 0.7548779249 0.1711740941 -0.7775814533 0.2871362865
-0.0477530919 -0.06166730076 0.7780620456 -0.1209219322 -0.2041999847 0.8151552677
-0.02870891057 -0.08189375699 0.7870164514 -0.1098992303 -0.1749293655 0.9779419303
-0.06408553571 -0.06660228223 0.7829898596 -0.2101615816 -0.1104081571 0.9712510705
-0.2352095246 -0.04412633926 0.7261030674 0.06872723997 -0.4811435938 0.8722792268
-0.2181208134 -0.03848499805 0.7250992656 -0.05570832267 -0.4475005567 0.8913055062
-0.219523713 -0.04560235888 0.7200545669 -0.05265216529 -0.4160624444 0.9064384103
-0.1835818291 -0.033031445 0.7175440788 -0.4038803577 -0.4142389297 0.6093323827
-0.1763678491 -0.03164225817 0.7110829353 -0.4709732533 -0.5399633646 0.4298459589
-0.1911638677 -0.03545449674 0.7218540311 -0.3519279957 -0.342528522 0.732057333
-0.1675298363 -0.0314581804 0.7045097351 -0.540571034 -0.6654708982 0.1775234789
-0.1142047346 -0.06344404072 0.7344161272 -0.2006513476 -0.265473783 0.9421104789
-0.1037196144 -0.06258815527 0.7537745833 -0.1891082823 -0.1818091422 0.9594649076
-0.1094135344 -0.06833378971 0.7425262928 -0.1792733669 -0.2219500244 0.9545277357
-0.1028673798 -0.07120868564 0.7541825175 -0.1587593406 -0.1724079251 0.9674420357
-0.09436270595 -0.07169187814 0.7705003619 -0.1478750259 -0.1135026887 0.9796933532
-0.1631834358 -0.1175664142 0.7560867071 -0.0176211074 0.6030950546 0.7944799662
-0.1716354191 -0.1224456429 0.7601482272 -0.1113482937 0.5778717399 0.8068494201
-0.1561004072 -0.1021179929 0.7400147319 0.1180219278 0.4328885376 0.8915901184
-0.1658359915 -0.1110998839 0.7484633327 -0.02299667709 0.5763593912 0.8128614426
-0.1609952003 -0.0948747322 0.7369616628 0.1479587704 0.2383201569 0.9585479498
-0.04491253942 -0.0439786166 0.7485520244 -0.1007740349 -0.4647890627 0.8122194409
-0.04382511973 -0.05014457554 0.736446023 0.02636241913 -0.6952674985 0.6576349735
-0.04160010442 -0.06787183881 0.7507939935 0.09235606343 -0.681951344 0.4560810924
-0.0471980907 -0.06215927377 0.7658758759 -0.03012309037 -0.3910515606 0.6425988078
-0.03643637151 -0.08056990057 0.7455672622 0.2184211314 -0.9040545821 0.2180424035
-0.04526585713 -0.0597290881 0.7555235028 0.004397650249 -0.5188550949 0.6173225641
-0.0432420522 -0.06906924397 0.7585766315 0.06149294972 -0.5787481666 0.4852676988
-0.04456763715 -0.0530054383 0.7449483275 0.006573856808 -0.6014155149 0.6601153612
-0.05145270377 -0.0456741564 0.7631409168 -0.1446033567 -0.2455323935 0.8922289014
-0.04148033261 -0.04054602981 0.7350655794 -0.05255229771 -0.6686626673 0.7383696437
-0.04619701207 -0.09466050565 0.7462229729 0.2138683796 -0.9626617432 0.1607886702
-0.05124554783 -0.071822837 0.7417126894 0.09835598618 -0.8323808908 0.4001088142
-0.05129773542 -0.04367739707 0.7341756821 -0.008629346266 -0.6122335196 0.7764983177
-0.05156886578 -0.06282898784 0.7392829657 0.06456192583 -0.7600932121 0.5217740536
-0.03377203271 -0.09110600501 0.7592049241 0.2000928819 -0.8602767587 0.3013984263
-0.04312895238 -0.0899097845 0.7774142027 -0.002459598938 -0.6714131832 0.6517333388
-0.03834579512 -0.09049994498 0.7681806684 0.1001447141 -0.7660514712 0.4745644033
-0.02744709328 -0.09131036699 0.7490165234 0.3104391694 -0.9339442253 0.1189138815
-0.03541848809 -0.08485696465 0.7835992575 -0.1010975689 -0.2874132395 0.9059891105
-0.04054268077 -0.07836209238 0.7869184017 -0.1559606642 -0.1893055886 0.968636632
-0.08581376821 -0.09373380989 0.7289215922 -0.1738879085 0.2692044079 0.9352850914
-0.08035161346 -0.1035164446 0.7401944399 -0.05941736698 0.1959964335 0.6412796974
-0.07901127636 -0.08775723726 0.7306162715 -0.2143583745 0.1841667742 0.9413769245
-0.08199891448 -0.08044184744 0.7277805209 -0.166500628 0.09940771759 0.9539633393
-0.07793588936 -0.07232274115 0.7296270728 -0.09070997685 0.005934245884 0.9576054811
-0.09295005351 -0.08885352314 0.7247477174 -0.1795257926 0.2182389349 0.9489395618
-0.1002087072 -0.08109236509 0.7230508327 -0.2130556256 -0.003037541872 0.9719741344
-0.1649463475 -0.04467789829 0.7388648987 -0.08939759433 -0.03709861264 0.9935546517
-0.002876573009 -0.06445901096 0.7459243536 0.02121554315 -0.1432366073 0.8216519356
-0.003319505602 -0.06809892505 0.761590302 0.2297404408 -0.004585921299 0.8597140312
-8.857151988e-05 -0.05646459013 0.7643770576 0.02479505725 -0.3122504652 0.7188383937
-0.002796401037 -0.06933846325 0.7816469073 0.4326730371 0.08213298768 0.867683053
-0.003075507004 -0.06907095015 0.7734178901 0.3541720808 0.05308076367 0.8673123121
0.001911794301 -0.04813205451 0.7590128779 -0.1874739677 -0.5521057248 0.6204887629
-0.002874729922 -0.06525506079 0.7541757226 0.1076116264 -0.1012455896 0.8280789256
-0.0005543888547 -0.05585793033 0.7496375442 -0.1183304489 -0.3677402735 0.7166410685
-0.006196749397 -0.07500274479 0.758092165 0.1578694284 -0.02927840501 0.9463487864
-0.003469491145 -0.0784003064 0.7517562509 0.1698479503 0.01909327134 0.9514227509
-0.005403193645 -0.07677734643 0.7684941292 0.09257550538 -0.1542504132 0.934294641
-0.001416278305 -0.0812413469 0.7388288379 0.2182101011 0.1596881747 0.9624746442
-0.02146038599 -0.01909084246 0.7755061388 -0.230222106 -0.6738601327 0.61805439
-0.008104224689 -0.01750099845 0.7720931768 -0.2858794928 -0.799662292 0.5238183141
-0.02553280815 -0.04221041501 0.7854094505 -0.1452579349 -0.1941979975 0.8944689631
-0.01519334782 -0.02735219337 0.7774295211 -0.2292640209 -0.5571824312 0.6725187898
-0.001530650537 -0.03341415152 0.7673065066 -0.2817930281 -0.7144719362 0.5627657175
-0.003649506019 -0.04098718613 0.7718878388 -0.2355561405 -0.5665151477 0.6609405279
-0.006605869625 -0.02929122746 0.773075223 -0.2537874579 -0.6663924456 0.604754746
-0.01057196688 -0.03967306763 0.7807637453 -0.1813400984 -0.4416408539 0.7556045651
-0.00930767972 -0.04812211543 0.7810619473 -0.1607307494 -0.3514959514 0.8095436692
-0.006672222633 -0.06153042242 0.788151145 -0.09867030382 -0.1826393902 0.9391794205
0.002053046832 -0.04004132375 0.7645230293 -0.2006058544 -0.6570820808 0.5593064427
-0.0007047302206 -0.05345860496 0.7774294019 0.08616062999 -0.310305357 0.7203522325
-0.001930345199 -0.03552016243 0.7507973909 -0.3184281886 -0.7947518229 0.5165466666
-0.01733591221 -0.06353663653 0.7916354537 -0.07241871953 -0.1070247218 0.9915357232
-0.02493851259 -0.07439139485 0.7883633971 -0.08599991351 -0.1380442232 0.986643672
-0.03489726782 -0.07898309827 0.7630267143 0.1254295409 -0.6331083775 0.4457797408
-0.03769232333 -0.06994973123 0.7800993323 -0.05054798722 -0.281504333 0.8007788062
-0.06968738139 -0.08339628577 0.78000772 -0.1498025954 -0.1331927776 0.9788473845
-0.05977574363 -0.07961301506 0.7820686698 -0.2088544965 -0.1544609368 0.9654583335
-0.05804080889 -0.08704608679 0.7816807032 -0.1693840325 -0.2426329106 0.9442363381
-0.06680549681 -0.09769964963 0.7605867982 -0.08369255066 -0.5456023216 0.531221807
-0.06723641604 -0.09654001892 0.7685639262 -0.1142087728 -0.3674486578 0.7339312434
-0.07245308906 -0.1006117761 0.7466816306 -0.0415174216 -0.4302888513 0.3956059217
-0.07612174749 -0.0980707556 0.7571795583 -0.08040945977 -0.1161299273 0.7188450694
-0.08009151369 -0.101011008 0.7498006821 -0.06545696408 0.1201200038 0.7226968408
-0.07497573644 -0.09529117495 0.7656683326 -0.1040807217 -0.1491441429 0.8351162672
-0.05904701725 -0.01106617879 0.766955018 -0.1448410451 -0.6993949413 0.6714660525
-0.07751515508 -0.01464710478 0.7567455173 -0.1211000308 -0.6801224947 0.7203934789
-0.06878670305 -0.0127430493 0.7594467998 -0.1226441115 -0.7084777355 0.6937912703
-0.02803491428 -0.01685035415 0.7716888785 -0.226684317 -0.7337206006 0.5880510807
-0.03627353534 -0.02569764294 0.773845017 -0.2032065243 -0.5515798926 0.6914725304
-0.03013687581 -0.03219196573 0.7814902067 -0.205394879 -0.3786915243 0.7808689475
-0.0344504714 -0.03796336427 0.7839475274 -0.1986850947 -0.2517929971 0.8502355218
-0.03871300817 -0.04643154144 0.7876565456 -0.1799069494 -0.06720996648 0.9530147314
-0.042265784 -0.02199583128 0.7702496052 -0.1805135161 -0.6177515388 0.6721017361
-0.0405664891 -0.03231110424 0.7771456838 -0.1939132214 -0.4001896977 0.7753314376
-0.04287384823 -0.04033253714 0.7826446295 -0.1936871558 -0.2097026706 0.8762150407
-0.2053208947 -0.02738843486 0.7324457765 -0.1257441044 -0.2813920677 0.9501127005
-0.197007224 -0.02699533477 0.7327039242 -0.2223167717 -0.1931429654 0.9536733627
-0.2259240597 -0.03604310751 0.7316805124 0.01451874245 -0.4661823809 0.8817792535
-0.2134395987 -0.02896730788 0.7334203124 -0.06329634786 -0.3949176967 0.9157310724
-0.2139452249 -0.048315797 0.730291307 -0.2907564938 -0.1704911143 0.8451695442
-0.2408335954 -0.1155401245 0.719884336 -0.2472524494 0.4204925001 0.8676214218
-0.2318642586 -0.08897707611 0.7126351595 -0.3280547559 0.1038175896 0.9289753437
-0.2412239909 -0.09252216667 0.71257025 -0.1656675935 0.141554907 0.9414353967
-0.2526665926 -0.09466224909 0.7142677903 0.02865196206 0.114550449 0.9615296125
-0.1739996523 -0.09824380279 0.7402473092 0.03257371858 0.2687903941 0.9537464976
-0.1807158887 -0.1015243083 0.7421829104 -0.06500082463 0.2777936459 0.95046556
-0.173467949 -0.1073086411 0.7443638444 -0.04533082247 0.444242537 0.8812446594
-0.1660881191 -0.1027274728 0.7408891916 0.05736633763 0.3854079843 0.9111748934
-0.2130936086 -0.06921900064 0.7184563875 -0.5484036803 0.05363994092 0.8289307952
-0.2154033482 -0.0841178894 0.719856441 -0.6147419214 0.1645287424 0.7680528164
-0.2217786461 -0.09173898399 0.7180969715 -0.5350132585 0.2121047825 0.8148831725
-0.2365630269 -0.08032594621 0.7172574997 -0.2080711573 -0.03913138807 0.8672069907
-0.2439167351 -0.07547637075 0.7161951661 -0.02803254686 -0.1502985656 0.8974317312
-0.2255919427 -0.08155594766 0.720066309 -0.4407937229 0.02544959821 0.8112378716
-0.2453554869 -0.06663328409 0.7194690108 0.04841106012 -0.2937297523 0.8728592396
-0.2380516678 -0.07227972895 0.7199280858 -0.1352534145 -0.1727816612 0.8472419381
-0.2070983946 -0.0607641302 0.7307903171 -0.5332219005 0.06785845757 0.7829586864
-0.2133851498 -0.0500847511 0.7188453674 -0.2607604265 -0.2656430602 0.9226339459
-0.1685487032 -0.06253259629 0.7415680289 -0.02091864496 0.06518865377 0.9959365726
-0.1705462486 -0.07483764738 0.7426569462 0.04040501267 0.09137456119 0.9945543408
-0.1651064754 -0.05565451831 0.741227746 -0.04914687574 0.04764459282 0.9966233969
-0.175892815 -0.02763731591 0.7191967368 -0.380017668 -0.3981590569 0.5891976357
-0.1858001053 -0.02953395434 0.7281629443 -0.287227273 -0.2231448442 0.8375123143
-0.1732845455 -0.0540876314 0.7396897078 -0.1378140748 0.08999959379 0.9801689982
-0.1372366995 -0.08907324821 0.7352800965 0.1903603226 0.352231741 0.8945474029
-0.1094260514 -0.08222104609 0.7208821177 -0.07904478163 0.06301626563 0.9905424118
-0.09153001755 -0.09917165339 0.7335011363 -0.01553656999 0.4819355905 0.8750457168
-0.02049783804 -0.04418568686 0.733135879 -0.1668582708 -0.6893523932 0.6898054481
-0.006608738098 -0.05350315198 0.7305785418 0.02964378335 -0.1371048987 0.9707228541
-0.02306832001 -0.07982154191 0.7447812557 0.3550550044 -0.8050197363 0.1775517613
-0.01779825054 -0.05685124919 0.7372502089 0.05608993396 -0.4958576858 0.7015736103
-0.01451299619 -0.05034393445 0.7349514365 -0.02670612559 -0.3330758214 0.9116128683
-0.03337019309 -0.07359068096 0.7432079911 0.1495376378 -0.8812190294 0.296210438
-0.02573184855 -0.05263394117 0.7365826964 -0.02652879618 -0.7749922872 0.5383988619
-0.03155826405 -0.06452082098 0.7409905195 0.1465232223 -0.8068593144 0.3874154091
-0.03426666185 -0.05537318811 0.7385035157 0.02694765106 -0.7662715316 0.538951993
-0.03573266789 -0.03368522227 0.7399743795 -0.10799817 -0.7417222857 0.6613644958
-0.04484070837 -0.03410050645 0.738669157 -0.05862416327 -0.7138220072 0.6977408528
-0.04086502641 -0.02810059302 0.7458363771 -0.09836747497 -0.7560552955 0.6465651989
-0.1788173467 -0.1147959903 0.7489238977 -0.1703167707 0.4901196361 0.8488555551
-0.1707896292 -0.1185449734 0.7528550029 -0.1072688773 0.5251297951 0.8298350573
-0.05893891677 -0.09621854126 0.7592393756 0.01935500652 -0.6496092677 0.4728605747
-0.05519900098 -0.09555210918 0.7481505871 0.1256682724 -0.9125103354 0.2061110437
-0.0641085878 -0.09639880806 0.7795792222 -0.1568944752 -0.1816128939 0.9617661834
-0.05728342757 -0.09427025914 0.7754631639 -0.08312573284 -0.4147540629 0.8205318451
-0.06669757515 -0.09525582939 0.7386681437 -0.2114687562 0.4207428992 0.7626453042
-0.06497819722 -0.07146627456 0.7367748618 0.09899076074 -0.5447739363 0.5959162712
-0.07019326091 -0.07864683867 0.7347968221 -0.08845493942 0.1059250236 0.8195095062
-0.05595260859 -0.08589498699 0.7433892488 0.1116658673 -0.7294495106 0.3255528212
-0.06441418827 -0.08727791905 0.7389598489 -0.07328629494 -0.03362283856 0.6437580585
-0.07658783346 -0.06488918513 0.7297019958 -0.02860022523 -0.07700270414 0.96308285
-0.07282125205 -0.08973437548 0.7347119451 -0.2105328888 0.2922538221 0.8952772617
-0.07318570465 -0.1011812091 0.7363007665 -0.1361284256 0.2917489409 0.7800056338
-0.08412732929 -0.09885883331 0.7574964166 -0.1424583495 0.1509368122 0.8660017252
-0.08270787448 -0.09583365917 0.7656798959 -0.1899877638 -0.06448305398 0.8892416358
-0.09945815802 -0.06926546991 0.72612077 -0.05334913358 -0.1503538787 0.9805704951
-0.08624432981 -0.06242596731 0.7271367908 0.006483087782 -0.1573204696 0.9767628312
-0.09241269529 -0.07804293185 0.7237833142 -0.1447627097 0.01621542498 0.9728586078
-0.09341880679 -0.06067017838 0.7295231819 0.0290414039 -0.1940542907 0.9785327315
-0.0824926123 -0.04912755266 0.7307550311 0.06282932311 -0.2974218726 0.9490688443
-0.08635026217 -0.07195691764 0.7260363102 -0.08607298136 -0.02319959924 0.9682117701
-0.0212327335 -0.05599651113 0.7913223505 -0.08409999311 -0.07473088801 0.9929727912
-0.02542866394 -0.02472668327 0.7533797622 -0.2081818432 -0.8100297451 0.5481082797
-0.01985309087 -0.01801447012 0.7670315504 -0.2495862991 -0.8004461527 0.5447409749
-0.01645647734 -0.02842226066 0.7522330284 -0.2773225307 -0.7956543565 0.5364320278
-0.1057262793 -0.05138839036 0.7411466241 -0.1004597619 -0.2618975341 0.9525772333
-0.09821650386 -0.05793959275 0.7573840022 -0.1070969775 -0.1850697547 0.9676337838
-0.09528212249 -0.06211501732 0.765340507 -0.127078861 -0.1434614062 0.9739841223
-0.1015319228 -0.05343058333 0.7486024499 -0.08676559478 -0.2305847704 0.960519135
-0.108188577 -0.04555181041 0.7353397608 -0.08229068667 -0.2981838286 0.9475076199
-0.1154965237 -0.05051997304 0.7310299277 -0.2494924664 -0.19218117 0.9073649645
-0.105083026 -0.05634172261 0.7324114442 -0.04743190855 -0.210665077 0.9752191901
-0.1077878848 -0.07217749953 0.7230058908 -0.01791317575 -0.05193290114 0.9896729589
-0.1199223623 -0.07028036565 0.7202907205 -0.1802820414 0.04838956892 0.9324679971
-0.1137938872 -0.06002070755 0.7271814346 -0.1826840043 -0.09123454988 0.9279422164
-0.1210609972 -0.05998637527 0.7239767313 -0.3449360728 -0.01278517209 0.8694839478
-0.05535019934 -0.03652666509 0.7359135747 -0.006283580791 -0.6273524761 0.7784472108
-0.06119097397 -0.02582801133 0.7453635335 -0.06313633174 -0.6907679439 0.7200948
-0.09364436567 -0.04496708885 0.7341651917 0.06580234319 -0.3288508654 0.9417666793
-0.08547092974 -0.03998919949 0.7351586819 0.03810605034 -0.4252831936 0.9015174508
-0.09601726383 -0.05283391476 0.7325806022 0.07359210402 -0.2171932757 0.9704183936
-0.1006909162 -0.03562681004 0.7382454872 -0.0258698687 -0.4210649431 0.9060502052
-0.2119751722 -0.06000985578 0.7185079455 -0.4590035379 -0.05908844247 0.8779048324
-0.2195013016 -0.0640777275 0.7162427902 -0.3643709123 -0.1069821939 0.9123142958
-0.2350859791 -0.1009832323 0.7113465071 -0.2632301748 0.2915648818 0.9110724926
-0.2273657471 -0.09858803451 0.7167133689 -0.442263186 0.2704284489 0.8505880237
-0.2309226841 -0.1140323356 0.7211952806 -0.362491101 0.4341834188 0.8216337562
-0.2371393591 -0.105252713 0.7175466418 -0.2882273495 0.3055751324 0.8785870075
-0.2468811274 -0.1075816676 0.7173219323 -0.1382943988 0.2901855409 0.9217439294
-0.1948190629 -0.1155983657 0.7426683307 -0.3670744598 0.2907068729 0.8643122315
-0.1823808551 -0.1215989739 0.7529369593 -0.2480543405 0.4612593353 0.8495026231
-0.2122882158 -0.09659113735 0.7291275263 -0.5868653059 0.215222612 0.7796834111
-0.216833517 -0.1003160253 0.7243523002 -0.5858100057 0.2526873648 0.7694712877
-0.1763221323 -0.04340195283 0.7363016009 -0.2183365822 -0.02615096606 0.9751501083
-0.2021698207 -0.09779137373 0.7307617664 -0.4798197448 0.2050099522 0.7950943708
-0.2100711614 -0.08855298162 0.7264743447 -0.6841427684 0.1585729867 0.7116571069
-0.1976555437 -0.08678976446 0.73278898 -0.3976244032 0.1393628716 0.8400270343
-0.2239424288 -0.05582679063 0.7271746397 -0.1995532066 -0.2533521056 0.8073512316
-0.2143911421 -0.05832013115 0.7301394343 -0.3863518536 -0.07261835784 0.7877514362
-0.2115375251 -0.07105176896 0.727714479 -0.5917326212 0.08108815551 0.7329114079
-0.2120241523 -0.07735855877 0.7228859067 -0.6749017835 0.1336847693 0.7253742814
-0.2288626134 -0.07369110733 0.7198007107 -0.3034420013 -0.1003332511 0.8327534795
-0.221216619 -0.07276089489 0.7230630517 -0.4356021583 -0.01584164798 0.7858852148
-0.1267568618 -0.07577276975 0.7218365669 0.1698514223 0.1213013083 0.9630228877
-0.1765802354 -0.08928348869 0.7390000224 0.01366329193 0.1163675711 0.9915302396
-0.148695305 -0.06339585781 0.7385168076 0.3814157844 -0.009030930698 0.9170984626
-0.1509851813 -0.0902870819 0.7423450947 0.1597213745 0.2208884358 0.9344494939
-0.1418063641 -0.09615875781 0.7396554351 0.1294552833 0.3955414295 0.8937738538
-0.1554258019 -0.05868914723 0.740401566 0.1527313292 -0.02139758505 0.9665876627
-0.1487457156 -0.08110047132 0.7387381792 0.2035846114 0.1344021857 0.9483450651
-0.1467629075 -0.05323598906 0.712541163 -0.6286026239 -0.1711691469 0.6303778887
-0.1553430855 -0.05137525499 0.7152899504 -0.4618166685 -0.3362855613 0.4786446989
-0.1541556418 -0.06214509532 0.7260924578 -0.1710298061 -0.02747472934 0.8505296111
-0.1514347494 -0.0685538128 0.7313373089 0.1054097041 0.03347466886 0.9149590135
-0.1442879736 -0.06169676781 0.7200964093 -0.2672415376 -0.07430396974 0.7409771681
-0.1439258456 -0.06728320569 0.7257930636 -0.01091136411 -0.01266993769 0.8181285858
-0.16059798 -0.02385283075 0.7121056318 -0.5216482878 -0.5575013161 0.3793764114
-0.1611097008 -0.02624772862 0.7040113807 -0.552521646 -0.6821153164 0.1822301745
-0.18019633 -0.01897939667 0.7337007523 -0.2452563345 -0.2052068859 0.8634369969
-0.1687307805 -0.02253849991 0.7192747593 -0.3919218183 -0.4277118146 0.5307326317
-0.1748270541 -0.01594685204 0.7409014702 -0.1770000458 -0.1010533571 0.9788799882
-0.1777814925 -0.02781310119 0.7377540469 -0.2101687491 -0.08757337928 0.9730605483
-0.1826623827 -0.03424815834 0.7347064018 -0.2455610633 -0.06915531307 0.966750741
-0.196230337 -0.0728199333 0.7389757633 -0.4051598012 0.2207624614 0.886736691
-0.1282690465 -0.09584405273 0.7353932858 0.1287927479 0.521856606 0.8419921398
-0.1385231465 -0.1044685915 0.7417078018 0.09367992729 0.4955010414 0.8612474799
-0.1334714741 -0.05766635761 0.7121786475 -0.6095181704 -0.08400589973 0.687517941
-0.1280492693 -0.06537108123 0.7139673233 -0.3672150373 -0.03528949618 0.8005362749
-0.11709328 -0.07687524706 0.7319110632 -0.0753660053 -0.007054613903 0.9418192506
-0.1296257228 -0.08902838081 0.7318910956 0.2194965184 0.3976832628 0.8868794441
-0.120103918 -0.08616045117 0.7264949679 0.080955185 0.2855727375 0.9403315187
-0.101156041 -0.08906281739 0.7254943848 -0.1263670772 0.2764430642 0.9356966019
-0.09225763381 -0.1004447266 0.7610373497 -0.1497526467 0.08351191133 0.8406338096
-0.09422649443 -0.1045821831 0.7510209084 -0.07105038315 0.3796524405 0.8186767697
-0.04834839329 -0.09265635163 0.7678518891 0.05176012218 -0.7777839303 0.5168817043
-0.05028761178 -0.09165834635 0.7802670002 -0.04867435247 -0.6626611948 0.7259165049
-0.1332154721 -0.06954761595 0.7208919525 0.09040322155 0.06362825632 0.8615283966
-0.1390045583 -0.07328230888 0.7286008 0.3027366698 0.08717056364 0.9163092971
-0.1294497252 -0.05804851651 0.7324442863 -0.05377268046 -0.104865998 0.9554538727
-0.1376187205 -0.05888007209 0.7348774672 0.1656179279 -0.05534048378 0.931273222
-0.1321757436 -0.04748549685 0.733902812 -0.1646349877 -0.2713421881 0.8457795382
-0.1329796165 -0.03478510305 0.7353240252 -0.2598145902 -0.5883262753 0.7622537017
-0.1511837691 -0.04152129963 0.7030172944 -0.749867022 -0.6229085922 0.1152061522
-0.01662972197 -0.03298894316 0.7434066534 -0.240680337 -0.7893509269 0.5636825562
-0.01581663638 -0.03705733642 0.7358490825 -0.2277672291 -0.7784624696 0.5846313238
-0.03099749424 -0.02890390903 0.7462921739 -0.1474755704 -0.7812106013 0.6049253941
-0.02405722067 -0.03612697124 0.7361889482 -0.1521026194 -0.7390137911 0.6547945142
-0.02874110825 -0.04268353432 0.7343050241 -0.1116880476 -0.7170088291 0.6869303584
-0.03972794488 -0.06346548349 0.7893915772 -0.1568243206 -0.07984491438 0.9834398627
-0.02791496925 -0.05946830288 0.7903320193 -0.08343055099 -0.08281855285 0.9928811193
-0.03538856283 -0.04905529693 0.764993012 -0.1252652258 -0.3285965025 0.8664365411
-0.04387885705 -0.04575833678 0.7595366836 -0.1495548636 -0.3371121585 0.8487883806
-0.04924454167 -0.0473055318 0.7723981738 -0.1875354201 -0.146165356 0.919105947
-0.02768242173 -0.05681137741 0.7507974505 -0.0262334682 -0.2344964445 0.8558052778
-0.02170844376 -0.06548566371 0.7501772642 0.03808367252 -0.02426341549 0.9021108747
-0.03385540098 -0.05321889371 0.7739027143 -0.1217969432 -0.1683349609 0.922998786
-0.0323847644 -0.05098612979 0.7554792762 -0.08229296654 -0.3470743299 0.840832293
-0.03363340348 -0.04677769169 0.7455895543 -0.08275550604 -0.5174134374 0.7798442841
-0.01611131802 -0.07377518713 0.7502756119 0.09746336937 0.1812782586 0.9489745498
-0.02850608155 -0.06099043787 0.7733652592 -0.06422815472 0.0201406721 0.9645539522
-0.02432011813 -0.06579628587 0.7676093578 -0.01226709038 0.1003198773 0.9697493315
-0.02692049555 -0.06011178717 0.7598956227 -0.02992004342 -0.09190831333 0.9087084532
-0.04353988171 -0.05494498089 0.7888488173 -0.1800140887 -0.04727732763 0.9823297262
-0.03569224849 -0.05475252494 0.7889949083 -0.1578998864 -0.04120572284 0.9864698648
-0.0318084769 -0.06947140396 0.7741459012 0.06742370129 -0.3666811287 0.6490800381
-0.02280700952 -0.07824072242 0.753583312 0.2452885062 -0.4004905224 0.473174572
-0.03330526128 -0.05949242413 0.7817959189 -0.06733370572 -0.1485734135 0.852750659
-0.02349377237 -0.07095422596 0.7619037032 0.09119443595 -0.0896808207 0.776447773
-0.03354166821 -0.0203369949 0.7575027347 -0.1848247647 -0.800350368 0.5698152781
-0.02658475377 -0.01806277968 0.7633264661 -0.2231286168 -0.8002856374 0.5560166836
-0.03687534481 -0.02378839068 0.7513902187 -0.1537376195 -0.7861099243 0.5976427794
-0.01725818589 -0.04829955101 0.7861897349 -0.1059374362 -0.2003914416 0.9159680605
-0.01784023084 -0.0358157903 0.7813313603 -0.1816779971 -0.3889348805 0.7805712819
-0.01304813568 -0.02329933457 0.7639220357 -0.2900979519 -0.7969359159 0.5297878981
-0.005833124276 -0.03030355461 0.7573353052 -0.314193368 -0.7943384647 0.5195982456
-0.07510098815 -0.06002637744 0.7802123427 -0.2001983821 -0.07664190978 0.9762088656
-0.07257624716 -0.07050611079 0.7809856534 -0.1753592342 -0.1176725402 0.9768589139
-0.0609315671 -0.04798652232 0.7329825759 0.01725444384 -0.5087758303 0.81480968
-0.06022069603 -0.05620280281 0.7351640463 0.04748055339 -0.5744053721 0.703861177
-0.07214608043 -0.05670553446 0.7306212783 0.05813267827 -0.3281855583 0.8709890246
-0.05834374949 -0.07633304596 0.7405616045 0.1214363426 -0.7380287051 0.430066824
-0.06665071845 -0.06343599409 0.7343277931 0.07927937061 -0.4846644998 0.7087142467
-0.05837571248 -0.06718250364 0.7384288907 0.08721451461 -0.6808207035 0.5425914526
-0.07024209946 -0.02444356121 0.7626151443 -0.1495723575 -0.5003788471 0.782933712
-0.06227350608 -0.01974979602 0.752128005 -0.09813798964 -0.7315724492 0.6743236184
-0.07056581229 -0.0365199782 0.770359993 -0.1913037598 -0.2494064569 0.884973824
-0.07857337594 -0.03057077527 0.7636247277 -0.1589400321 -0.4169490635 0.8361722827
-0.06443682313 -0.04764135927 0.7786180973 -0.2268957645 -0.04976000637 0.9543659687
-0.07083962858 -0.04527906701 0.7743639946 -0.2049631476 -0.1576902717 0.9270261526
-0.08034335077 -0.02406060882 0.7596815228 -0.1432271898 -0.5104669333 0.8000421524
-0.06276381016 -0.01897049695 0.7661023736 -0.1465381086 -0.6074142456 0.7133229971
-0.05795650557 -0.03225145116 0.7755773664 -0.1892840862 -0.2882409096 0.8484472632
-0.06021059677 -0.02524712309 0.7723570466 -0.1753494292 -0.4300690293 0.7886606455
-0.05730955303 -0.04161394015 0.7792192698 -0.2118367106 -0.1122626215 0.9218353629
-0.04458008334 -0.06688249856 0.7409103513 0.1173156276 -0.8078087568 0.447381258
-0.04803330451 -0.08604746312 0.7457840443 0.1813129783 -0.9437456131 0.2036056072
-0.2185871005 -0.07792016864 0.7158789635 -0.5211686492 0.1037051529 0.8461990952
-0.2276617587 -0.05229998007 0.7178996205 -0.02340088598 -0.3898907304 0.9187342525
-0.2120620608 -0.1059404835 0.7293776274 -0.6257764101 0.2390518039 0.742067337
-0.1993687153 -0.09237237275 0.7417072058 -0.4446646869 0.1726678163 0.8691081405
-0.1815075725 -0.1064517274 0.7492034435 -0.1513329744 0.3965657353 0.8799387813
-0.2015922368 -0.1014052853 0.7416638732 -0.5286756754 0.1675585806 0.8319103122
-0.1924595237 -0.08879727125 0.74249053 -0.2093694508 0.1265579611 0.9628847837
-0.1994982511 -0.03525183722 0.7321324348 -0.2400875688 -0.1729951203 0.943952322
-0.1881436259 -0.04406180605 0.7341172695 -0.282774359 -0.02518664859 0.9564656615
-0.1811203212 -0.05046173558 0.7370841503 -0.2297466099 0.07322212309 0.9665033817
-0.2026281059 -0.07205493003 0.7336418033 -0.5770213008 0.1850244701 0.7886489034
-0.1919037849 -0.0820485428 0.7362074256 -0.2459516078 0.1342686117 0.9212557673
-0.1603037417 -0.09626959264 0.7462963462 0.1042188331 0.34247154 0.8904497027
-0.1486887038 -0.1043914482 0.7459968925 0.1274148226 0.4566860199 0.852124095
-0.1564171761 -0.07876539975 0.741650939 0.183352232 0.033362519 0.9816915989
-0.169665426 -0.1012327 0.7479758859 -0.005074994173 0.4118233919 0.8817199469
-0.166317448 -0.08567788452 0.7434914112 0.08534371108 0.1287013888 0.976896584
-0.1697891206 -0.0927484557 0.7453617454 0.02981506474 0.2550216019 0.9358023405
-0.173785761 -0.08207025379 0.7423795462 0.03936317563 0.09138302505 0.9949904084
-0.1045985669 -0.09869342297 0.7578666806 -0.02333967015 0.3181033731 0.8680360913
-0.1103737131 -0.1036445647 0.7499537468 0.01903294027 0.4974833429 0.8157424927
-0.09763750434 -0.07529180497 0.7624267936 -0.139278993 -0.1126579568 0.9829553962
-0.1506331712 -0.07145639509 0.7392182946 0.2894111574 0.03236451 0.950755477
-0.1875922084 -0.07374880463 0.739690721 -0.153643012 0.1757223755 0.9603202939
-0.1839756966 -0.05889116228 0.7383685112 -0.1917031854 0.1509132981 0.9652237892
-0.1793759465 -0.06808847189 0.7403425574 -0.06937010586 0.1261050403 0.9813876152
-0.1980926096 -0.08175104111 0.7410100102 -0.4459391832 0.1860001832 0.8730463386
-0.1289677471 -0.1034660116 0.7409122586 0.06591370702 0.5418857336 0.8355256319
-0.1211621389 -0.1014119536 0.7390323281 0.08862596005 0.5740632415 0.8115933537
-0.1204683185 -0.09201151878 0.7345415354 0.05805943906 0.4273548424 0.8451254964
-0.1147926971 -0.1052810997 0.7424810529 0.04384220019 0.6196638346 0.7828112245
-0.09925118089 -0.08219269663 0.7595104575 -0.1252000034 -0.0786030367 0.9757282734
-0.1123639122 -0.09215062857 0.7403905392 -0.04256978631 0.3355531096 0.8588175774
-0.1120715067 -0.08328352869 0.737364769 -0.1042628065 0.1101312786 0.9109255075
-0.1079680249 -0.09398123622 0.7488642931 -0.03448593989 0.3259703517 0.868413806
-0.09696356952 -0.08851578832 0.7660647035 -0.083813034 0.05070903152 0.9499712586
-0.1068499908 -0.0796764642 0.7451213598 -0.1346864253 -0.04582890496 0.9554285407
-0.098039262 -0.09531392157 0.7299188375 -0.03296938539 0.4555336535 0.8842957616
-0.1393877119 -0.04945508763 0.7081865668 -0.8003546596 -0.2494842708 0.5338828564
-0.1303015947 -0.07919021696 0.7319819331 0.2017014474 0.1209096462 0.9129052162
-0.1219147071 -0.06902701408 0.7319624424 -0.03041932359 -0.1484289169 0.9366351962
-0.1424130797 -0.06844497472 0.7351292968 0.3660366237 0.05828332528 0.9241230488
-0.1311966926 -0.06819734722 0.7335351706 0.144253999 -0.06414422393 0.9315001965
-0.1677986383 -0.02313316613 0.7402995825 -0.1415536404 -0.08529197425 0.9844655991
-0.1655590683 -0.03514523059 0.7395498157 -0.1195275709 -0.06015754864 0.987619698
-0.170727402 -0.01960682124 0.7307812572 -0.2893696129 -0.2327663153 0.7971535921
-0.04373921826 -0.01723724604 0.7594604492 -0.1583499461 -0.7804864645 0.6040852666
-0.03690584004 -0.01542953216 0.7645405531 -0.19128941 -0.8008703589 0.5671237707
-0.124437429 -0.0363311395 0.7348083854 -0.2122380733 -0.4670534134 0.852457881
-0.1458110064 -0.03859031573 0.740216732 0.2734528482 -0.2824005187 0.9018162489
-0.1439037174 -0.04772400111 0.7378118634 0.2353390753 -0.2369569689 0.8546296954
-0.14713943 -0.0547193028 0.7382330894 0.4223379195 -0.08295290172 0.8872138858
-0.1432092041 -0.04272700101 0.7051175237 -0.8074076176 -0.3737745285 0.4493994117
-0.1390145719 -0.03998352215 0.7161198854 -0.7742281556 -0.4549974799 0.4340709746
-0.08169174939 -0.01873817295 0.7500079274 -0.09664084017 -0.6265309453 0.7697892189
-0.07844015956 -0.03491953388 0.7381523252 0.008850689046 -0.5193763971 0.8534014821
-0.06989907473 -0.03067879006 0.7414591908 -0.0412632525 -0.6081084609 0.7914832234
-0.09590426832 -0.04595755413 0.7557926178 -0.09194539487 -0.3024381697 0.9275770783
-0.09181904048 -0.06340177357 0.7726880312 -0.1441563964 -0.1313911676 0.970148623
-0.1021036208 -0.0380348675 0.7466152906 -0.07464927435 -0.3675969541 0.9166100621
-0.06885423511 -0.04700394347 0.7315249443 0.0247443337 -0.4089134932 0.9020261168
-0.07079067826 -0.03969130665 0.735178709 0.02265212871 -0.50677073 0.8579691052
-0.2364449501 -0.07109864056 0.7091907263 -0.06250035763 -0.2328725308 0.9669867158
-0.2271498144 -0.06810183823 0.713362515 -0.2579864562 -0.1562066525 0.9510089159
-0.2379549295 -0.08023880422 0.7078863978 -0.1483980417 -0.0915999189 0.975651443
-0.227662161 -0.06035719067 0.7146493793 -0.102607429 -0.2968307734 0.9431220293
-0.2353190482 -0.05198122188 0.7191320658 0.04726765305 -0.4591536522 0.8842511773
-0.2411458194 -0.0635619238 0.7134826779 0.04201601446 -0.3365116715 0.9379224777
-0.2315624654 -0.06016923487 0.7235673666 -0.1454060674 -0.2701776326 0.8236328959
-0.2236841619 -0.1148981825 0.7259099483 -0.4581416249 0.4095837474 0.7872770429
-0.2233362794 -0.1064271703 0.721932292 -0.5150732994 0.3245435953 0.7915762067
-0.1942777783 -0.1063295826 0.7450342178 -0.3161247969 0.2189360112 0.9180859923
-0.1572427154 -0.03385392949 0.6994498968 -0.6415963769 -0.7530129552 -0.03439244255
-0.1723351777 -0.03859413788 0.7104212642 -0.5745941401 -0.5134171247 0.3235860467
-0.1767492443 -0.05018686503 0.7279152274 -0.2885888517 -0.08778914809 0.8123416901
-0.1586388648 -0.04248674214 0.7075186968 -0.6663691998 -0.562697053 0.2057657689
-0.1663003862 -0.04926801473 0.7219026089 -0.3689148128 -0.2171596736 0.6138615012
-0.1747687757 -0.04352250323 0.7161753178 -0.5573167205 -0.3786938488 0.4957090318
-0.1816411018 -0.04411624745 0.7201125622 -0.5048992634 -0.2940401733 0.6257963777
-0.1900981069 -0.04413491115 0.7237948179 -0.4682048261 -0.2190894932 0.7552716136
-0.1624054015 -0.04601148516 0.7149019837 -0.5126770735 -0.3849875033 0.414601624
-0.2042069882 -0.0435853228 0.7235758901 -0.3347555697 -0.2046855986 0.9175137877
-0.2093515545 -0.03678222373 0.7319179773 -0.2100081146 -0.297601521 0.9004133344
-0.1985001862 -0.046508912 0.7307342887 -0.3976388872 -0.09429129213 0.9073711038
-0.1728165448 -0.059067633 0.7324822545 -0.1391990036 0.04144565389 0.909360528
-0.1640543342 -0.0610512048 0.7297024727 -0.1062620655 -0.05861661956 0.8453313708
-0.1931608915 -0.0680122003 0.7315166593 -0.3266237974 0.1310464293 0.88873142
-0.1838528663 -0.0656279102 0.7328394055 -0.2087220848 0.119549647 0.9335089326
-0.1997396648 -0.06453182548 0.7266948223 -0.4825797379 0.1010162756 0.828625083
-0.2054794729 -0.05670298636 0.7229893804 -0.4725836515 -0.007774383761 0.8755059838
-0.1815851778 -0.08021362126 0.738249898 -0.07491660118 0.1143567562 0.9885927439
-0.1659553349 -0.06995409727 0.7353034019 0.0422960259 0.0697895214 0.9941145182
-0.1462860554 -0.08761677146 0.7342893481 0.2500007451 0.2025036663 0.9439879656
-0.155000791 -0.08851443231 0.7355399728 0.1941749007 0.1632401943 0.9629891515
-0.1628274024 -0.08380764723 0.7363808751 0.130954057 0.09224823117 0.985799551
-0.08669398725 -0.07187556475 0.7790312767 -0.1674861312 -0.09919650853 0.9780481458
-0.08841822296 -0.0816032812 0.7800246477 -0.217977196 -0.1868911386 0.94858706
-0.0724549219 -0.09575802088 0.7804796696 -0.2000325918 -0.2133890688 0.9521571994
-0.08250276744 -0.09443885088 0.7797269821 -0.2312326282 -0.2431946546 0.9356172085
-0.0801974386 -0.0783662647 0.7803117037 -0.1722470522 -0.1376292855 0.9694830775
-0.1012003422 -0.104484953 0.7412343621 -0.0008433554322 0.5856719017 0.8094907403
-0.1057241336 -0.09809460491 0.7343845963 0.01262077503 0.5724809766 0.819666326
-0.1284965724 -0.05262458697 0.723891139 -0.5673367381 -0.0244195424 0.7801513672
-0.1269019544 -0.04224225134 0.7267589569 -0.5062806606 -0.3858115077 0.6655128002
-0.1397064626 -0.03069677204 0.7405821085 0.1261139363 -0.4090123773 0.8902322054
-0.1309426874 -0.0165711157 0.7463387847 -0.08103685081 -0.4678673744 0.8800567389
-0.07914114743 -0.03947077319 0.7671256661 -0.1694489568 -0.3183521926 0.8828421235
-0.08579266816 -0.03139220178 0.7568305731 -0.1180800945 -0.4226205647 0.8622166514
-0.0918353945 -0.02832143195 0.7487788796 -0.07415084541 -0.4555969536 0.8721292019
-0.09431926161 -0.03894802928 0.7492192984 -0.06244223565 -0.3861516416 0.9029586315
-0.08398491144 -0.06031120196 0.7754567266 -0.1754555255 -0.1094923317 0.9706432223
-0.08956895024 -0.04581869021 0.7619977593 -0.1189520508 -0.2758938968 0.9261448383
-0.07817454636 -0.05231126025 0.7728326321 -0.1866361946 -0.1431019455 0.9576238394
-0.08811996132 -0.05277575552 0.7677931786 -0.14020814 -0.2040801793 0.9459073544
-0.09237747639 -0.01580947451 0.7503365874 -0.09593565762 -0.5863482952 0.8035106063
-0.1028206274 -0.01541470364 0.7490680218 -0.08732522279 -0.5202141404 0.84837538
-0.1190598235 -0.04337438196 0.7318586707 -0.2962810695 -0.3415436149 0.8355888128
-0.1224061921 -0.02909585834 0.739225924 -0.1123265624 -0.485393554 0.8654380441
-0.1085909531 -0.03317635506 0.7393466234 -0.08571563661 -0.423761487 0.9009869695
-0.1132095605 -0.02507929504 0.7430564165 -0.07157214731 -0.4534157515 0.8882855177
-0.1532967091 -0.02587436512 0.7047491074 -0.6697084308 -0.6686223745 0.2229261249
-0.1460824758 -0.03327656537 0.7083838582 -0.7883811593 -0.4981997609 0.3498136401
-0.1301686019 -0.03190564364 0.7270308137 -0.460025996 -0.4790702164 0.6099488735
-0.1353361756 -0.03474681079 0.7222929001 -0.6335226297 -0.4923516512 0.4907361865
-0.1409976631 -0.02786578238 0.7184664011 -0.6165117621 -0.5540682673 0.415035516
-0.138910085 -0.01695351116 0.7433726192 -0.1423053294 -0.5195453167 0.8029443026
-0.1440505683 -0.01908771507 0.7357535958 -0.2877946496 -0.5823913813 0.6508474946
-0.1383489519 -0.02248076536 0.7275006771 -0.4639907479 -0.5294163823 0.5443943143
-0.1332612187 -0.01943508722 0.7361525893 -0.289000839 -0.502812624 0.695730269
-0.0764670521 -0.02496623434 0.7448843122 -0.07053633779 -0.623437047 0.7779768109
-0.191554144 -0.1211538017 0.7490820289 -0.372852385 0.3013539314 0.8772062659
-0.2040528357 -0.1128242463 0.7418192029 -0.5144723654 0.2157089263 0.8281587362
-0.2093307525 -0.1198837683 0.7395387292 -0.516031146 0.2606820464 0.8138306737
-0.2045627236 -0.1066093147 0.7345016003 -0.5227552652 0.2525493801 0.7879832387
-0.19580172 -0.09745372832 0.7351968884 -0.3427539468 0.1859226674 0.8718842864
-0.1868903786 -0.09429123253 0.7378096581 -0.1285033524 0.16373083 0.9517335892
-0.194076851 -0.05351909995 0.7336121798 -0.4197893143 0.09578577429 0.8984735608
-0.1973157972 -0.05639951676 0.7267144322 -0.3733131289 0.02019840851 0.9062947035
-0.1967817545 -0.06153456867 0.7350310087 -0.4366995096 0.1969207823 0.8724844456
-0.1293538809 -0.1104302034 0.7448855042 0.03687817603 0.5773585439 0.8152586818
-0.139590174 -0.1109849289 0.7461538911 0.06352607161 0.5855879188 0.8062909245
-0.10742452 -0.1106648892 0.7475746274 0.03071893193 0.6086366773 0.7849422097
-0.0956441164 -0.09950149059 0.7710053921 -0.1864677966 -0.02075301297 0.8704805374
-0.099164024 -0.1029497609 0.7637850046 -0.1194480956 0.1732030362 0.8443459868
-0.09211593866 -0.08790792525 0.7737660408 -0.1769851297 -0.1637839824 0.9365107417
-0.08828358352 -0.09527605772 0.7731971145 -0.2513258457 -0.2382429391 0.8782840967
-0.1355189234 -0.04864958301 0.7164173722 -0.7637274861 -0.2308249921 0.5699803829
-0.09750369936 -0.02665058896 0.7430123687 -0.04953261837 -0.4861578345 0.8722727895
-0.1529828906 -0.03400040045 0.7410767078 0.03550545499 -0.2269954979 0.9546175599
-0.1586173475 -0.03985604644 0.7410353422 -0.04698146507 -0.08370794356 0.9903339148
-0.1606342494 -0.02854353003 0.7410111427 -0.07285062969 -0.08483117819 0.991855979
-0.1127245575 -0.01415989362 0.7496959567 -0.08244993538 -0.5066642761 0.8579474688
-0.1214196533 -0.02025413513 0.7438583374 -0.07990672439 -0.4572273791 0.8854408264
-0.150861904 -0.02343104966 0.7174011469 -0.5751959085 -0.4884912074 0.4688127041
-0.1461829394 -0.02457905002 0.7424278855 0.06797363609 -0.4503168464 0.8667688966
-0.1556576937 -0.0154072959 0.7429676056 -0.08522626013 -0.2581344545 0.9490943551
-0.1541025639 -0.01999955811 0.7279391885 -0.3689658046 -0.3798588812 0.6754148006
-0.162725836 -0.01895804331 0.7338085771 -0.2350120693 -0.2299747914 0.8376126885
