# .PCD v0.7 - Point Cloud Data file format
VERSION 0.7
FIELDS x y z normal_x normal_y normal_z
SIZE 4 4 4 4 4 4
TYPE F F F F F F
COUNT 1 1 1 1 1 1
WIDTH 512
HEIGHT 1
VIEWPOINT 0 0 0 1 0 0 0
POINTS 512
DATA ascii
-0.201929 0.011931751 0.63709092 0.1844633967 -0.45152843 0.8729807138
0.041658852 -0.042218689 0.63700002 0.6516591311 0.1857238859 0.7354230285
-0.069927752 0.030700428 0.64850003 -0.1772027016 -0.5594206452 0.8097207546
-0.12356516 -0.061880819 0.66707408 0.2108968794 0.7208026052 0.660277307
-0.035396855 -0.045687314 0.68731755 0.08078812063 -0.0896576792 0.9926906824
0.016627999 0.028950777 0.68230009 -0.326192975 -0.7246662974 0.6070065498
-0.201057 -0.064729735 0.65340006 -0.459213227 0.6148079634 0.6411976218
-0.1117956 -0.011468663 0.61200005 0.5127288103 0.4915288389 0.7039237022
-0.015054747 -0.0050182985 0.6361236 -0.1057875678 -0.4324041307 0.8954527974
-0.14481656 0.033868264 0.64588892 -0.05400618538 -0.1009496823 0.993424654
-0.067173563 -0.047337826 0.63667744 -0.05550495535 0.3160814047 0.947107017
0.020120814 -0.029265326 0.69550002 0.03312209249 -0.7845467329 0.6191843748
-0.15480794 -0.022499645 0.64900011 0.01198753342 0.4821954072 0.8759816885
-0.23282269 -0.034197077 0.6357857 0.2432256639 0.1491054446 0.9584408402
0.041325938 -0.0024009398 0.66128576 -0.4742635489 -0.6431266665 0.6012172699
0.0045551113 -0.053720728 0.66209257 0.2468939126 -0.9044216871 0.3479437232
-0.02426438 0.031114522 0.65899998 -0.128355667 -0.7126238942 0.689704299
-0.16537276 -0.063956469 0.67369998 -0.2890553772 0.5625631213 0.7745771408
-0.19187599 -0.026537545 0.63063341 -0.3977657855 0.2549875975 0.8813419938
-0.055266127 -0.0050213169 0.63677812 0.0603845343 -0.08626832813 0.9944402575
-0.10720173 0.021316055 0.63800001 -0.1412415057 -0.3103335202 0.9400765896
-0.10715466 -0.036055688 0.64409673 0.3272361159 0.4742294252 0.8173267245
-0.01537431 -0.0165668 0.69336188 -0.1571342647 -0.1214115843 0.9800857306
-0.084940128 -0.062722877 0.66111118 0.235272944 0.7411873937 0.6287192702
-0.03511015 -0.061585274 0.65752 0.01217560843 -0.9836784005 0.1795232147
-0.16522603 0.004910023 0.63300008 -0.2229107469 0.103492938 0.9693296552
0.005149004 0.014868561 0.65455228 -0.2241019905 -0.6637089849 0.7136306167
0.024973201 -0.014982459 0.63333338 -0.3270181119 -0.5052632093 0.7986038923
-0.1276675 -0.0081703588 0.64419997 0.0977325961 0.2559329569 0.9617414474
-0.084866501 -0.015177047 0.64108604 -0.2092325091 0.06889496744 0.9754359126
-0.0051840744 -0.044054478 0.69323558 0.01136949752 -0.7043992281 0.7097129226
-0.17893687 -0.044947576 0.64900005 -0.6216629148 0.4140848815 0.6648826599
-0.22259955 -0.0072234408 0.63400006 0.2525984049 -0.2201628983 0.9421901703
-0.14566335 -0.046701603 0.66197062 0.155101195 0.5361561179 0.8297470808
-0.06152096 -0.050061174 0.68800002 -0.09678160399 -0.2363275588 0.9668415785
-0.045693547 0.022114359 0.64816672 -0.1281110793 -0.6520901322 0.747238934
-0.21530354 -0.054838106 0.63509089 -0.05397185683 0.5440759063 0.8372983336
-0.08635994 0.0086291945 0.64018756 -0.04378346354 -0.1268721521 0.9909523129
-0.17576994 0.023897532 0.6422565 -0.01533657592 -0.2734207213 0.9617722631
-0.051619887 -0.029124036 0.68733335 -0.01083251461 -0.001833890332 0.9999396205
-0.13957994 -0.063301176 0.6833334 0.09531626105 0.7059782147 0.7017902136
-0.18498158 -0.0049541295 0.6277799 -0.1719304621 0.02917966433 0.9846768379
0.034050126 0.016083194 0.67195004 -0.42204234 -0.6663853526 0.6146631837
-0.1353327 0.015541605 0.63694954 -0.03427715227 0.02282904088 0.9991515875
-0.016876493 -0.05061369 0.67525005 0.2207823843 -0.8647276759 0.4511110783
-0.065242656 -0.025008554 0.6376583 0.1044490114 -0.007921025157 0.9944986701
0.023165001 -0.045652397 0.65348852 0.4449176788 0.5091205835 0.7367798686
-0.035263933 -0.013585848 0.63378197 0.002935361117 -0.1297935396 0.9915366769
0.023069574 0.0011362477 0.64810002 -0.3781790435 -0.6665711999 0.6423888803
-0.057371158 0.033202805 0.6662308 -0.1632524729 -0.7219142914 0.6724495292
-0.12679017 -0.035832088 0.65351284 0.2379063517 0.3525745869 0.9050368667
-0.10443152 -0.053866882 0.65582985 0.1860368252 0.6949827671 0.6945424676
-0.025433777 0.014556533 0.64561772 -0.1271658242 -0.6206347346 0.7737191916
-0.054952256 -0.061756946 0.64629626 -0.09797092527 0.6077665687 0.7880491614
-0.10190701 -0.021317903 0.62750006 -0.5441713333 0.4114636183 0.7311465144
-0.16438001 -0.036923662 0.66152787 -0.2080994844 0.4211446047 0.882797718
-0.21500812 -0.024837211 0.62619185 0.1437950283 -0.0267176833 0.9892467856
-0.17517154 -0.02511546 0.64537787 -0.5696486831 0.4355325103 0.6970020533
-0.12508591 0.033010304 0.64082927 -0.05273021385 -0.1892754287 0.980507195
-0.085307807 -0.038105749 0.6354444 0.01266747247 0.2014237791 0.9794222713
0.042608533 -0.022395326 0.64044452 -0.7594564557 -0.229523778 0.6087238789
0.0054588881 -0.012474485 0.63613147 -0.07637643069 -0.504498601 0.8600277901
-0.18166703 -0.064172655 0.66241676 -0.4370501637 0.5775999427 0.6894674897
0.0044850265 -0.017703941 0.69634795 -0.06097396463 -0.3538656235 0.9333066344
-0.10176187 -0.0027295791 0.63758826 -0.5731340647 -0.2179450691 0.789947629
-0.0064213322 0.030951217 0.66614288 -0.2210267335 -0.7586298585 0.6128849387
-0.20411953 -0.0057203826 0.62790567 0.1127253622 -0.2266670913 0.9674270153
-0.19628432 -0.044228114 0.63628578 -0.4283013344 0.4552628398 0.7805727124
-0.035317309 -0.019527663 0.68750012 -0.09646058083 -0.1234117821 0.9876562357
-0.045564752 -0.060347985 0.69300002 0.1533383727 -0.20310013 0.9670768976
-0.067956567 0.011046438 0.63800001 -0.04450365901 -0.3217235804 0.9457871914
-0.095005691 0.032238562 0.64673805 -0.1331345886 -0.2916041017 0.9472287297
-0.15503918 -0.0051038335 0.64441377 -0.09965589643 0.4138468504 0.9048753977
-0.15493944 0.023941582 0.63496554 -0.04492291436 -0.1657385528 0.9851459861
-0.084280729 -0.052209202 0.64684379 0.2717549801 0.65079391 0.7089545131
0.028857237 -0.031290159 0.63060009 0.1590466648 0.2110925466 0.9644398093
-0.041236207 0.029330637 0.66250008 -0.1104301065 -0.7463524342 0.6563255191
-0.043889727 0.0065389946 0.6401394 -0.06322754174 -0.4011767805 0.9138159156
0.014734297 0.023776276 0.66465306 -0.3171687126 -0.7213747501 0.6156480312
-0.2309964 -0.050897513 0.63800001 0.1334395558 0.3476111293 0.9280950427
-0.01906487 -0.059505504 0.65900004 0.1095341742 -0.9515044093 0.2874746025
-0.13394596 -0.02332278 0.64602178 0.1886148304 0.311912775 0.9312007427
-0.17000321 -0.0095381336 0.64000005 -0.4516357481 0.4052059054 0.7948794365
-0.11133447 0.0027145983 0.61949998 -0.5855174661 -0.4948120415 0.6421295404
-0.18086685 0.010477044 0.62900001 -0.0432892479 -0.2207134068 0.9743775725
-0.0050135921 0.0051364331 0.64272493 -0.141999349 -0.5151955485 0.8452275991
-0.025279965 -0.035066396 0.69112164 -0.08810122311 -0.295039624 0.9514146447
-0.23102358 -0.019483916 0.63500005 0.3277971148 -0.05025659502 0.9434104562
0.022317013 0.011735644 0.65833336 -0.395203501 -0.6214502454 0.676471591
0.013781867 -0.042101458 0.69219047 0.1448490173 -0.8078838587 0.5712639093
-0.046729278 -0.022350559 0.63507146 0.088059403 0.01827821881 0.9959475398
-0.22185837 -0.04372859 0.62883991 0.1166543812 0.3165832758 0.9413643479
-0.074774534 -0.0052483538 0.63896012 0.05752486363 0.02438201383 0.998046279
-0.11716478 -0.01772367 0.64565378 0.3338146508 0.2983238399 0.8941871524
0.032035094 -0.051318947 0.64420003 0.4778420925 0.3856775165 0.7892526984
-0.21271497 0.0025245494 0.63590479 0.2110718042 -0.3279770017 0.9208038449
-0.19540629 -0.054469027 0.64574057 -0.4695271254 0.5408779383 0.6978505254
-0.11850974 0.01340326 0.64000005 0.02853908204 -0.06138825044 0.9977058768
-0.17195259 -0.048564944 0.66163641 -0.4425466955 0.4592131674 0.7702438831
-0.099067129 -0.0082105678 0.62433338 -0.7454619408 -0.1007816717 0.6588850617
-0.14530084 0.0037291048 0.64073193 -0.1117277965 0.2949795425 0.9489488602
0.0020187881 0.031684138 0.67680001 -0.2503814697 -0.7601617575 0.5995525122
-0.096994035 -0.044912301 0.64356762 0.2522339821 0.5526598096 0.7943205237
-0.20711079 -0.042425212 0.62848395 -0.1767795533 0.3511286676 0.9194877148
-0.074656762 -0.034615498 0.64280301 0.03334379196 0.02058532275 0.9992319345
-0.14464037 -0.035156786 0.65533775 0.2279860526 0.3668912053 0.9018942118
-0.0031537684 -0.047093261 0.67072731 0.2004973292 -0.9076375365 0.3687749505
-0.12330133 -0.051936295 0.65824997 0.2360786647 0.6086428761 0.7575095892
-0.06586384 -0.062324546 0.65378273 0.1266283244 0.7259935141 0.6759428382
-0.18166725 -0.068051249 0.67500001 -0.4109940231 0.5816238523 0.7019954324
0.014532166 -0.04480207 0.6632821 0.2757100761 -0.9174807668 0.2867279947
-0.14555389 -0.056462716 0.67399991 0.05555030704 0.6454622149 0.7617694736
-0.057737965 0.026816184 0.65080005 -0.170715645 -0.6400637031 0.7491158843
-0.0057842052 0.021046471 0.65728569 -0.2181738466 -0.68612957 0.6939930916
-0.19519562 -0.014764017 0.62621588 -0.1048736498 0.01808851771 0.9943210483
-0.085085832 0.024740232 0.64374304 -0.1218636781 -0.3503425717 0.9286599755
0.035347201 -0.0117824 0.64000005 -0.4518167377 -0.5754905939 0.6816686988
-0.054617353 0.01520751 0.6422717 -0.1042113453 -0.4022951722 0.9095595479
-0.14523329 -0.014371068 0.64710426 0.08399497718 0.3963128924 0.9142652154
-0.15493563 -0.054698359 0.66576922 -0.206122309 0.5632809997 0.8001425266
-0.092252038 -0.025326349 0.64200002 -0.1474803388 0.125488326 0.9810720086
-0.16519204 -0.025303679 0.6554265 -0.2654114962 0.4872004092 0.8319810629
-0.095679581 -0.014084528 0.63570005 -0.4701677859 0.1182642952 0.874617517
0.0063750683 -0.001353728 0.64041185 -0.1111288816 -0.552716732 0.8259264827
-0.0048848363 -0.025044613 0.69677758 -0.07311590016 -0.2237258255 0.9719057679
-0.10533977 -0.062096983 0.66431248 0.1854896247 0.7152283192 0.6738263965
-0.098591089 0.013233186 0.63777781 -0.1871323138 -0.3304892778 0.9250720739
-0.034673646 0.024358779 0.65417075 -0.1016479358 -0.7004379034 0.7064378858
-0.17372036 -0.035994358 0.65456259 -0.5173358917 0.4084453881 0.7520212531
-0.18341483 -0.0564356 0.65389371 -0.5499943495 0.510455966 0.6610150933
0.0049072625 -0.035341162 0.69537705 -0.01950258203 -0.620244205 0.7841662765
-0.024632139 0.0014224711 0.63722736 -0.1062708721 -0.4085809886 0.9065142274
-0.20532537 -0.061462961 0.64321434 -0.3021122217 0.5787281394 0.7574971318
-0.18423353 -0.015813068 0.63135016 -0.4412760735 0.2412152588 0.8643440604
-0.13628602 -0.01554891 0.63800013 0.137447089 0.3623054922 0.9218693376
0.023646234 -0.035561014 0.68667859 0.1106677577 -0.8422137499 0.5276633501
-0.014829325 0.017337497 0.65145153 -0.1752307564 -0.6472069025 0.7419012189
-0.045308005 -0.058763552 0.65333343 -0.2515161335 0.4365487695 0.8638083339
-0.058537956 -0.033851024 0.64000005 -0.04067897797 0.1675965339 0.985016048
-0.076171026 -0.057995964 0.65226322 0.202536732 0.693972528 0.6909276247
-0.025319962 -0.052003331 0.68252176 0.2987187505 -0.8093432188 0.505698204
-0.18261199 -0.036500666 0.64263833 -0.6107119918 0.3755381405 0.6971384287
0.014837882 -0.053159572 0.65588635 0.3089900017 -0.9329349995 0.1848175079
-0.11499592 -0.047047008 0.65275007 0.2247509658 0.5452563763 0.8075781465
-0.10295237 -0.031051971 0.63249999 0.2509309947 0.4927518964 0.8332041502
-0.058017366 -0.04872163 0.64250004 -0.07765307277 0.3561222851 0.9312072396
0.032263633 0.002089316 0.65712506 -0.4395939112 -0.6526235938 0.6171220541
-0.085451327 -0.0039994069 0.63721889 -0.1108694598 -0.017593408 0.9936792254
-0.16561216 0.027327336 0.64399999 -0.03536402807 -0.2441656888 0.9690884948
-0.15494289 0.0063504991 0.63585001 -0.2019858658 0.1792983711 0.9628363252
-0.13142899 -0.044422381 0.64900011 0.235392049 0.4452804327 0.8638957739
-0.095034175 -0.059106618 0.66100001 0.202266559 0.7132673264 0.6710722446
-0.1847312 0.018655466 0.64000005 0.05696795508 -0.3652274907 0.9291735888
-0.0084159998 -0.012343466 0.64000005 -0.0837681368 -0.4155313671 0.9057133198
0.014775577 -0.0074475845 0.63690245 -0.1409957409 -0.5706097484 0.8090270162
-0.016667163 -0.046428379 0.685 0.1216908842 -0.7725698948 0.6231589317
-0.11501451 -0.057255872 0.66312909 0.2088163793 0.6724626422 0.7100631595
-0.19312435 0.0016525713 0.62806249 0.08837034553 -0.2572934628 0.9622841477
-0.015044418 -0.035301428 0.69292903 -0.1662826985 -0.3144525588 0.9345960021
-0.036538258 -0.035432491 0.6879583 -0.01479559112 -0.06023871154 0.9980743527
-0.13524571 0.033537935 0.6414001 -0.0219912231 -0.1330801547 0.9908612967
-0.15460277 -0.03505183 0.65744638 0.02058605291 0.4036381543 0.9146870971
-0.045178622 -0.0050158417 0.63620996 0.04947669432 -0.1588635743 0.9860600233
-0.044293422 -0.051708657 0.68792582 0.09504508972 -0.03001055494 0.9950205088
-0.055190705 -0.01505222 0.63588923 0.1036292464 -0.02029489353 0.9944089055
-0.14529447 0.014928902 0.63588113 -0.06759075075 0.04539880157 0.9966797233
-0.024874536 -0.01758169 0.69031602 -0.1313948631 -0.1211922169 0.9838942289
-0.16511489 0.014773911 0.63125342 -0.1117029339 -0.1612016112 0.9805796742
-0.065386102 -0.01502074 0.63692528 0.1180724427 0.05195981264 0.9916446209
-0.14541166 -0.025312241 0.65417737 0.1713432074 0.4153341949 0.8933862448
-0.014914623 0.0060295388 0.64263064 -0.1305498183 -0.4896605015 0.8620842695
-0.10434039 0.032488707 0.64336669 -0.1263607889 -0.2252952904 0.9660615921
-0.14507407 0.024840971 0.63581848 -0.0705145672 -0.07846412063 0.994419992
-0.20513919 -0.024524501 0.62530947 -0.05072982982 0.05414234102 0.997243762
-0.0052539231 -0.054208592 0.66326636 0.2368255407 -0.8811540604 0.4092446268
-0.16479698 -0.054464433 0.66555399 -0.2689583302 0.5147812366 0.8140403628
-0.21472438 -0.034665406 0.6264267 0.1224304289 0.1249261722 0.9845832586
-0.075629979 0.0049045202 0.63794911 -0.001217014971 -0.1196830273 0.9928113818
-0.11451548 0.027546808 0.64002371 -0.09172922373 -0.1799643785 0.9793868065
-0.20563093 -0.05367671 0.63618177 -0.3359901607 0.5221383572 0.7838891149
-0.17438339 -0.0054525062 0.63230669 -0.3661310971 0.2143355608 0.9055430889
-0.014752516 0.027771618 0.66231036 -0.1675532311 -0.7217367291 0.6715817451
0.035742123 -0.024752896 0.63257891 -0.5724186301 -0.2572297454 0.7785690427
-0.034274474 0.001038662 0.63792855 -0.04608092085 -0.3570331037 0.932954371
-0.21352512 -0.015485753 0.62814599 0.168885991 -0.1525657773 0.9737562537
0.018152807 -0.021758758 0.63237506 -0.1290865839 -0.3120791316 0.9412456155
-0.10813063 -0.026533019 0.64524001 0.3265978992 0.3368214965 0.8831110597
-0.034958847 0.015277724 0.64440483 -0.1110728458 -0.5912108421 0.7988319993
0.0053764926 0.025086969 0.6634773 -0.2754625976 -0.7345702648 0.6201023459
-0.13480569 0.024986278 0.6362415 -0.03167994693 -0.07795803994 0.996453166
-0.12480447 -0.02489274 0.64766115 0.2763575315 0.3145538867 0.9081202149
-0.11018473 0.0095083266 0.63800001 -0.2060755938 -0.4421027303 0.8729708195
-0.07466837 -0.052976832 0.6444667 0.2039523572 0.6392062902 0.7414976358
-0.055719152 -0.024573548 0.63662881 0.09403968602 0.01972311363 0.9953730702
-0.03119556 -0.027566155 0.69000006 -0.07806256413 -0.1417365372 0.9868216515
-0.19476874 -0.034914024 0.63353181 -0.4215792716 0.3322372735 0.8437353373
-0.1936819 0.016234275 0.64054543 0.1699474454 -0.4850036204 0.857839942
-0.053782456 -0.05476157 0.69004786 0.1523788422 -0.1413458586 0.9781625867
-0.15520622 0.015011074 0.63248736 -0.1023090854 0.0417224206 0.9938772917
-0.16102614 0.00056106667 0.64000005 -0.2681661546 0.3258678913 0.9065853953
-0.075274132 -0.025576636 0.64115262 0.007114607375 -0.07175197452 0.9973971248
-0.064193793 -0.055495869 0.64275414 0.008979268372 0.5139181614 0.8577921987
-0.06438984 -0.0048668152 0.63759696 0.04515425116 -0.04077105597 0.9981476665
-0.12511632 0.024491597 0.6374706 -0.01833445951 -0.1030365005 0.9945085645
-0.075091451 -0.044139151 0.63342869 0.01584988832 0.1952471733 0.9806259871
-0.095169909 0.0049393722 0.63644326 -0.2634103596 -0.2249889374 0.9380804896
-0.14484423 -0.00480159 0.64370847 0.009838405997 0.3514962196 0.9361376166
-0.15665717 -0.062431078 0.67183334 -0.2265790999 0.5788837075 0.7832978964
-0.16551864 -0.014715652 0.64588434 -0.3570016026 0.4840738773 0.7988882065
0.023397055 0.022123827 0.66639137 -0.3639551103 -0.7042316198 0.6095855236
-0.011712266 -0.049777132 0.66800004 0.1910363585 -0.8811588287 0.4325092137
0.014749156 0.0040100459 0.64659017 -0.2556356192 -0.6553733945 0.710729301
-0.026447279 -0.012275145 0.63337946 -0.02698862925 -0.2471110523 0.9686112404
-0.097269088 -0.049588945 0.65266675 0.2141524404 0.6778542399 0.7033153176
-0.085417546 -0.056953181 0.65445167 0.2436337769 0.7128816843 0.6576034427
-0.095370993 -0.035127703 0.63437933 0.09251242131 0.3427093923 0.9348752499
-0.0058692186 0.012057511 0.6480372 -0.1828614473 -0.6388726234 0.747263968
-0.055328913 0.0036554488 0.63796461 -0.02196612582 -0.2164283991 0.9760513306
-0.17911974 -0.023816843 0.63770002 -0.5890599489 0.3721308112 0.7173054218
-0.054613773 -0.044771906 0.68735009 0.05154474825 -0.0009621885256 0.9986702204
-0.044684913 0.015351997 0.6427564 -0.1031937376 -0.5478243828 0.8302044868
-0.0046547437 -0.035500452 0.69481343 -0.03466041759 -0.5273050666 0.8489688039
-0.20508061 -0.015050974 0.62603992 0.03872171044 -0.07794189453 0.9962056279
-0.17658743 -0.014546311 0.63528848 -0.5010626912 0.3420999348 0.7949237823
-0.065628491 0.023775518 0.64559627 -0.1612330228 -0.5755786896 0.8016938567
-0.15511593 -0.047100559 0.66178799 -0.07254748046 0.5282334685 0.8459942341
-0.17427944 0.01495348 0.63216674 -0.08382938802 -0.2440939546 0.9661214948
-0.075214468 0.024890987 0.64508319 -0.1216870099 -0.4716754854 0.8733353019
-0.074570894 0.015814396 0.64053601 -0.07390936464 -0.3240074515 0.9431630969
-0.17151105 -0.059324034 0.67000002 -0.3592410088 0.5708650351 0.7382811308
-0.13574615 -0.027756372 0.65308702 0.2045394778 0.3357587159 0.9194725156
-0.045025285 -0.034883805 0.68774992 0.005867826752 -0.008332733065 0.9999480844
0.034491222 -0.039660752 0.64080006 0.5035398602 0.3349630833 0.7963964939
-0.015275574 -0.025011042 0.69381827 -0.1745068878 -0.1710432768 0.9696863294
-0.092292607 -0.042902865 0.63557893 0.1838792562 0.5175278187 0.8356754184
-0.076484241 -0.015333413 0.64017981 0.03497251123 0.08279515803 0.9959527254
0.035687849 0.0059801904 0.66375512 -0.4364756644 -0.6597563028 0.6117275357
-0.0051414091 -0.0052549429 0.63690943 -0.1053460613 -0.4888498783 0.8659838438
0.014329302 0.013270102 0.65642112 -0.3079688847 -0.6565153599 0.6885802746
-0.16451831 0.022436846 0.63445455 -0.1054283679 -0.2381870151 0.9654800892
-0.17469633 0.0049269451 0.62934077 -0.163908273 -0.1228978187 0.978790164
-0.18624628 -0.03408115 0.63560802 -0.5547525883 0.3461742401 0.7565798163
-0.19984844 -0.030280067 0.62800002 -0.2785456479 0.2132611722 0.9364464879
-0.10502504 -0.043657031 0.64640015 0.2514147758 0.5265030265 0.8121485114
-0.026722474 -0.061300281 0.66136366 0.07237527519 -0.9659534097 0.2483865321
0.0046442966 -0.043042101 0.69254082 0.01151743811 -0.7118332982 0.7022539973
-0.21399036 -0.048345666 0.6302501 -0.00604007626 0.3829957843 0.9237303734
-0.22264914 -0.034678329 0.62843251 0.2337369621 0.1158483922 0.9653735757
-0.095218055 0.025085229 0.6428051 -0.1230648085 -0.2886143923 0.9495034218
-0.15537204 0.029196715 0.64117652 -0.002597216284 -0.1265816987 0.9919527769
-0.13723549 0.0027663056 0.64088893 -0.04099577665 0.2499473393 0.9673911929
-0.12419395 -0.043931093 0.65262955 0.2245537788 0.4938231409 0.8400680423
-0.11508593 -0.034705833 0.64483559 0.3222166002 0.3846230805 0.8650095463
-0.13489836 -0.0053434037 0.64212328 0.02065534703 0.2936430275 0.9556919336
-0.18029514 -0.056232281 0.66128576 -0.5138213038 0.5226209164 0.6803345084
-0.09661442 -0.025269434 0.63526535 -0.03029471636 0.2243813127 0.9740304351
0.021825911 -0.053196721 0.65114295 0.4449176788 0.5091205835 0.7367798686
-0.20815574 0.0078549329 0.64000005 0.2026931643 -0.4307865798 0.8793966174
-0.17736351 -0.032906335 0.6474573 -0.6444291472 0.3839113712 0.6613041162
-0.0044019632 -0.017096223 0.69646442 -0.08588004112 -0.1903121918 0.9779600501
-0.16496772 -0.045105424 0.66326845 -0.2624812126 0.4449336827 0.8562345505
-0.044101119 -0.02650708 0.68716675 -0.01354478113 -0.04176174849 0.9990357757
-0.1685603 -0.022179401 0.64870012 -0.4159407616 0.4920108914 0.7647996545
-0.092584297 -0.033272177 0.64210528 0.1052330285 0.3025963306 0.9472916722
-0.044658653 0.026384881 0.65477514 -0.1083337516 -0.6913920045 0.7143114805
0.032836087 -0.0061255395 0.64492315 -0.4348824322 -0.6381620765 0.6353160143
0.0066733048 -0.047232635 0.66608107 0.220533818 -0.9307899475 0.2915389538
-0.084655561 0.032161299 0.6463902 -0.1668292135 -0.42993626 0.8873121142
-0.050715167 -0.054134168 0.65000004 -0.260989368 0.38728562 0.8842478991
-0.21528602 -0.0052119903 0.63229418 0.2104904652 -0.2571394742 0.9431717992
0.028810188 0.0090881111 0.66166669 -0.4230484664 -0.6399334669 0.641494453
-0.22439195 -0.05398025 0.6353488 0.0467880182 0.3810774088 0.9233585
-0.14207545 -0.02159515 0.64824998 0.1641162187 0.3598807454 0.9184507132
-0.12237776 -0.033327259 0.64765388 0.2717619836 0.360535115 0.8922778964
-0.17287163 -0.01624486 0.6426087 -0.5022568107 0.43640396 0.7465183735
-0.12502848 -0.015432797 0.64470303 0.2415027469 0.3113705516 0.9190891385
-0.19227102 -0.058335643 0.6516667 -0.5041143298 0.5560379028 0.6608256698
0.0049421233 0.0048625176 0.64472711 -0.1844407767 -0.5874710679 0.7879462838
-0.18960722 -0.040829875 0.63800001 -0.5529895425 0.4121257663 0.7241235375
-0.16682565 -0.0037524393 0.63616294 -0.359945029 0.3498317897 0.8649030924
0.035535991 -0.034238387 0.63280964 0.5654743314 0.2230331451 0.7940371633
-0.22201501 -0.026427994 0.62873679 0.2392825633 0.0162440259 0.9708141088
-0.1554486 -0.014967099 0.64802837 -0.01247888431 0.4617478549 0.8869234324
-0.14743139 -0.051964145 0.66715389 0.05013601482 0.656452775 0.7526992559
-0.084746547 -0.033575345 0.64150971 -0.03985625505 0.1170586273 0.9923249483
-0.22466727 -0.015773084 0.63316381 0.2733391523 -0.1553866267 0.9492843151
0.024830705 0.0056422274 0.65465575 -0.4224565327 -0.6319146752 0.6497802138
-0.04508654 -0.015027336 0.63490099 0.08641458303 -0.05815685168 0.9945603609
-0.11525647 -0.025158634 0.64709848 0.2939667404 0.3644536436 0.8836045861
-0.19546978 0.0060961572 0.63360375 0.121346578 -0.3682296574 0.9217819571
0.015190799 -0.014688411 0.6350801 -0.1001086831 -0.4887622595 0.8666543365
0.0048920806 -0.025071276 0.6974861 -0.05814278498 -0.4714950919 0.8799498677
0.0079776663 0.0096871667 0.65000004 -0.2551467419 -0.6432784796 0.7218676805
-0.13887219 -0.059065122 0.67600006 0.09921229631 0.6873287559 0.7195388675
-0.21152215 -0.058911998 0.64000005 -0.1621945053 0.5925121307 0.7890641689
-0.18412504 0.0038404698 0.62844449 -0.03129802644 -0.2258026749 0.9736701846
0.024227435 -0.0085887033 0.63699996 -0.2906883359 -0.598737061 0.7463338971
0.014550474 -0.034903608 0.69373345 0.036743965 -0.76295048 0.645411849
-0.17586467 -0.04465574 0.65671825 -0.5371949673 0.4121587873 0.7358985543
-0.014124907 -0.042494155 0.69157588 0.06579087675 -0.606439352 0.7924032211
-0.13462086 -0.034929071 0.65431547 0.2196963727 0.3639517725 0.905136764
-0.0095083266 0.00055931334 0.63800001 -0.1070268974 -0.4644038975 0.879132688
-0.034387905 -0.056162059 0.66236115 0.03604138643 -0.9616007805 0.2720753253
-0.060995962 0.007774781 0.64000005 -0.05221008509 -0.2755607665 0.9598647952
-0.094869778 -0.0050137388 0.63706779 -0.4253064692 -0.1374777704 0.8945469856
-0.17404535 -0.065313816 0.67326921 -0.3550848663 0.5973936319 0.7190518379
0.02542543 -0.0039804103 0.64349979 -0.3450829685 -0.6448527575 0.6819697022
-0.19881713 -0.06097427 0.6476 -0.4239166081 0.5923262835 0.6851600409
-0.085039042 -0.025342871 0.64238262 -0.2196582705 0.004330267198 0.9755672812
-0.11475668 -0.052672472 0.65755552 0.21551615 0.6343452334 0.7424007654
0.0019257445 0.020605465 0.65899998 -0.2367008626 -0.7045770884 0.668987155
0.013873382 -0.026220087 0.69742322 -0.05707138777 -0.7417556047 0.6682375669
-0.091262579 -0.051029541 0.64820004 0.2623545229 0.6740593314 0.6905173063
-0.20582396 -0.034313299 0.62797177 -0.1467220932 0.237563774 0.9602270722
-0.1951271 -0.0051331781 0.62671226 0.03151043132 -0.1671543419 0.9854270816
-0.065385647 -0.035113081 0.64172226 -0.01628811844 0.08029869199 0.9966377616
-0.053781521 -0.035921175 0.68783331 -0.008446905762 0.03434130922 0.9993744493
-0.18568517 -0.052815616 0.64816225 -0.5658515096 0.502423048 0.6537454724
-0.044922329 -0.04462963 0.68741441 0.05154474825 -0.0009621885256 0.9986702204
0.024717269 -0.023982627 0.6307593 -0.1369270384 -0.1524934024 0.9787730575
-0.098750159 -0.014962194 0.62761903 -0.7753207088 0.02731348202 0.6309768558
-0.17058136 -0.028367909 0.65150005 -0.5291923881 0.4478368461 0.7206923962
-0.17127822 0.021759918 0.63640004 -0.01060152985 -0.2619346678 0.9650273919
-0.10431078 0.0056076674 0.63767213 -0.3107306957 -0.4228760004 0.8512474895
-0.039318498 -0.056255698 0.69000006 0.1616916955 -0.3577324748 0.9197191596
-0.015203109 -0.054725781 0.66443104 0.2026332468 -0.8815792203 0.426330626
-0.18459184 -0.044714496 0.64483148 -0.6029089689 0.439003855 0.6661654711
0.0011379133 0.010810177 0.64900005 -0.2028992921 -0.6466161609 0.7353362441
-0.10482366 -0.0051172958 0.62183833 -0.7210751176 -0.2518889606 0.6454476118
0.015504706 -0.0025577408 0.64182508 -0.1928397864 -0.6204821467 0.7601412535
-0.061156265 -0.019637333 0.64000005 0.1158509925 0.03025942482 0.9928056002
0.036110565 -0.0035128032 0.65558833 -0.4542922378 -0.6593114138 0.5991052389
0.025533002 0.015903188 0.664096 -0.42204234 -0.6663853526 0.6146631837
0.011010056 -0.050414469 0.66100001 0.2658878863 -0.9252645969 0.2705348432
-0.19936189 -0.050817735 0.63700002 -0.4339793324 0.5167629719 0.7379823327
-0.02439194 0.024607589 0.6566419 -0.1293614507 -0.7013309002 0.7009996772
-0.1627596 -0.019013731 0.65066671 -0.2903137803 0.4867739379 0.823874414
-0.19265291 -0.046619464 0.64160615 -0.5079388022 0.470220536 0.7217276692
0.016015448 0.017576588 0.66149998 -0.3302617073 -0.7040760517 0.6286526322
-0.16927293 -0.041018356 0.65900004 -0.4565523565 0.4230533838 0.7826786041
-0.17875649 -0.050847545 0.65724999 -0.5590775013 0.46789518 0.6844753027
0.0083058318 0.019122729 0.66100001 -0.2640313804 -0.7263759375 0.6345592141
-0.12512901 0.01766091 0.63794762 -0.01359133143 0.005111162085 0.9998945594
-0.015272454 0.022568161 0.65582925 -0.1628394872 -0.6783952117 0.7164239287
-0.1352421 -0.042365205 0.65428579 0.2474276721 0.4567528069 0.8544918895
-0.1084661 -0.0074740946 0.61658335 -0.8456962705 -0.2657191455 0.4628078938
-0.08493384 0.01526746 0.64074641 -0.07741320878 -0.2905180454 0.9537329078
-0.10080498 0.019263288 0.64000005 -0.1014892757 -0.1773838252 0.9788947105
0.020297024 -0.041753441 0.66150004 0.3643239141 -0.8964218497 0.2523806691
-0.14705755 0.029467616 0.64025003 -0.03870480508 -0.09896714985 0.994337678
-0.024692779 0.019564277 0.65000004 -0.113931261 -0.6558911204 0.7462080717
-0.034636181 0.028601203 0.66175008 -0.1000047773 -0.7726608515 0.6268925071
-0.025101157 -0.0049101436 0.6351772 -0.06479758024 -0.3279480338 0.9424709082
-0.064423308 0.015515246 0.64141303 -0.05582479015 -0.3432022929 0.9376010895
-0.18467806 -0.02491645 0.63423812 -0.510240078 0.3240524232 0.7966461778
-0.11523234 -0.041779473 0.64873081 0.2465935946 0.4605515897 0.8526921272
0.027629411 -0.046945464 0.64644003 0.4778420925 0.3856775165 0.7892526984
-0.21119513 -0.0093741966 0.62900001 0.1770402044 -0.2048391104 0.962651372
0.042043246 -0.035851743 0.63535994 0.5654743314 0.2230331451 0.7940371633
0.02915092 -0.00057158666 0.65200001 -0.4147669971 -0.6773198247 0.6076233983
-0.036969129 0.021423491 0.64877784 -0.1115010679 -0.6445131302 0.7564194202
-0.035104856 -0.0050110384 0.63561749 -0.03302329779 -0.2388155609 0.9705032706
-0.025127862 -0.025487829 0.69122094 -0.1449666768 -0.1822615415 0.9725046754
-0.025954038 -0.041495774 0.69021064 -0.01629921235 -0.2232517451 0.9746245146
-0.075036407 -0.047583718 0.64085722 0.05918027461 0.3930983841 0.9175899625
-0.0046894657 0.016523292 0.6527555 -0.2054545432 -0.6546057463 0.7275161147
-0.071032792 -0.021813219 0.63800001 0.08920992911 -0.01252896339 0.9959340692
-0.016274057 0.0011878285 0.63743746 -0.1051210091 -0.4373999834 0.8931018114
-0.025062606 -0.046472639 0.68584901 0.1634615213 -0.5882493854 0.7919867635
-0.20367458 -0.045961831 0.6326552 -0.2900812924 0.4401774406 0.8497627378
-0.10587823 -0.048922442 0.65199995 0.2287606299 0.6043927073 0.7631369829
0.016593546 0.027853454 0.67600006 -0.3155643642 -0.7268977165 0.6099498272
0.018456288 -0.040893346 0.68800002 0.1264058501 -0.8258622289 0.5495208502
-0.15472263 0.0014594048 0.64048004 -0.1890147477 0.3787806332 0.9059793949
-0.18574128 -0.062200774 0.65525639 -0.5169615149 0.5696278811 0.6389638782
-0.12506838 -0.055826664 0.66294992 0.2677176893 0.6722040176 0.6902673244
-0.2265109 -0.024261646 0.63265121 0.2895222008 -0.007671445608 0.9571405649
0.028398739 0.022523711 0.67022228 -0.4011133611 -0.6900624633 0.602429986
-0.060315542 -0.061442938 0.64300001 -0.02268295735 0.5519835353 0.8335464597
-0.015757827 0.012884241 0.64709759 -0.1584173143 -0.6012920141 0.7831678391
-0.10469637 0.014937134 0.63767987 -0.1363688409 -0.2598624825 0.955968082
-0.025472617 0.0064116889 0.64089823 -0.08950956911 -0.4718357027 0.8771311641
-0.077176824 -0.038750418 0.63573343 0.03594101593 0.1068694964 0.9936232567
-0.084908672 -0.043997247 0.63351786 0.1258448958 0.4217416346 0.8979404569
-0.035265379 -0.052662734 0.68696314 0.2024012506 -0.3902154267 0.8982013464
-0.18486649 0.014329443 0.63556868 0.03870926425 -0.3594985604 0.9323424101
0.0046744132 -0.0059976848 0.63668764 -0.08177212626 -0.5144913197 0.8535877466
-0.16293839 -0.0061287954 0.64035404 -0.3352233171 0.4482442439 0.8286750913
-0.055482708 -0.055615596 0.64579082 -0.1682348251 0.439876616 0.8821596503
-0.015426704 -0.011101121 0.63712502 -0.06456055492 -0.3800022006 0.9227297902
-0.20480509 0.0046855304 0.63595647 0.1685797274 -0.3701203465 0.9135599732
0.016215468 0.0088867713 0.65260005 -0.3338913023 -0.6517180204 0.6810141206
-0.14597546 -0.060413409 0.67863631 0.04425565898 0.6274245977 0.777418673
-0.0028053334 -0.00056106667 0.64000005 -0.1245294511 -0.502219677 0.8557264805
0.010387624 -0.018942136 0.69700003 -0.06118588895 -0.6732363105 0.7368915677
-0.054780573 0.023098394 0.64707142 -0.1676992178 -0.6284368634 0.7595683336
-0.22776094 -0.035197232 0.63157147 0.2429462075 0.1221317127 0.9623206258
0.033270136 0.012671193 0.66705567 -0.4423208535 -0.6725376844 0.5933340788
-0.095369764 -0.055319246 0.65638608 0.2262464911 0.6767138243 0.7006218433
-0.10477875 0.025780512 0.64115244 -0.1085549816 -0.2048281878 0.9727596045
-0.065693334 0.0048839198 0.63775021 0.007336698007 -0.1683677584 0.9856969714
-0.093481794 -0.0155202 0.64104086 -0.2719520032 0.04478096589 0.9612683058
-0.19536091 -0.063220195 0.65420455 -0.4997303486 0.600569129 0.6241685152
-0.22632115 -0.045578703 0.63230562 0.1658205539 0.2809948325 0.9452753067
-0.17820163 -0.0023895011 0.62900007 -0.3036800027 0.03438605741 0.9521533847
-0.063203923 -0.046401273 0.64099997 -0.06065403298 0.3166203499 0.9466111064
-0.18718533 0.0078138765 0.63150007 0.07125712186 -0.3413280249 0.9372393489
-0.17502505 -0.055238001 0.66364604 -0.4552487135 0.4868430793 0.7454746366
-0.047982011 -0.061636969 0.64900005 -0.2368256301 0.4615032375 0.8549435139
-0.031925276 -0.04187252 0.69000006 0.07556095719 -0.08001190424 0.9939258695
-0.13722329 0.0077162883 0.63785011 -0.06326167285 0.1545597017 0.9859560132
-0.063202411 -0.031041887 0.63800001 0.03325232863 0.05671494827 0.9978365302
-0.21813984 -0.013364601 0.63087505 0.1961530149 -0.1442203075 0.9699095488
-0.2013343 -0.03654382 0.63079172 -0.306365788 0.3360374868 0.8906283379
0.016968176 -0.047895141 0.656762 0.3268295527 -0.9295645952 0.1705642194
0.031552367 -0.025909627 0.62882352 0.1335001141 0.1538496017 0.979034245
-0.2318764 -0.04533498 0.63690484 0.1658205539 0.2809948325 0.9452753067
-0.084721066 -0.0089440607 0.64000005 -0.1507932842 0.004826089833 0.988553524
-0.14509296 0.0086196419 0.63779181 -0.125496313 0.1828535944 0.975097537
0.041302599 -0.025685254 0.63600004 -0.6728770137 -0.1647742689 0.7211698294
-0.14456061 -0.042387862 0.65846449 0.1760305613 0.4884413481 0.8546568155
-0.085198335 0.0040008137 0.63719058 -0.06773674488 -0.08383311331 0.9941748977
-0.11507943 -0.061666094 0.66660869 0.2145681083 0.7216593027 0.6581552625
-0.19642009 -0.024294725 0.62821448 -0.2466134727 0.1402040571 0.9589184523
-0.20736493 -0.0021788259 0.63076478 0.1131241843 -0.270755589 0.9559782147
-0.035568196 0.0058917999 0.64035797 -0.07160068303 -0.4276654422 0.9010968804
-0.19511671 0.012135537 0.63706058 0.145198524 -0.4220870733 0.8948518634
-0.0048938105 0.026320145 0.66346538 -0.242218405 -0.7382745743 0.6295084357
-0.029553309 0.030712264 0.66100001 -0.114029102 -0.7352382541 0.6681482196
-0.076719142 0.011372704 0.63800001 -0.04723391682 -0.2616271675 0.9640125632
-0.11391925 0.015789846 0.63800037 -0.08054763824 -0.3508719802 0.9329528213
-0.094405957 0.015400292 0.64068025 -0.0856982097 -0.1991496682 0.9762147665
-0.12878233 -0.027921833 0.65000004 0.2145029902 0.3038767874 0.9282495975
0.026731629 -0.052276291 0.64745003 0.4461137652 0.4317913055 0.7839252353
0.034507085 -0.015778186 0.63637292 -0.5439853072 -0.4633764625 0.6995443106
-0.075341575 0.031322021 0.64862508 -0.1803320944 -0.5243169069 0.8322091699
0.04063474 0.0036912777 0.66375005 -0.4707114995 -0.6471560001 0.5996831059
-0.025005644 -0.056246165 0.66235435 0.1070808768 -0.949010849 0.2964996994
-0.1779276 0.019364471 0.64025009 0.008962244727 -0.3374896348 0.9412865639
-0.11923543 -0.060498767 0.67000002 0.2267924398 0.720338583 0.6554979086
-0.03544791 -0.025061134 0.6878069 -0.04918414727 -0.1278125942 0.9905780554
-0.21525872 -0.043526839 0.6281969 0.05791420117 0.3345431685 0.9405992031
0.0090991426 -0.055028152 0.65899998 0.2664453983 -0.9214420319 0.2827569246
-0.055154026 -0.029697374 0.69133335 -0.01108840108 0.007933987305 0.9999070168
0.034291476 -0.044891205 0.64198524 0.5562823415 0.2678622305 0.7866382599
0.0020843148 -0.046018384 0.67063636 0.2139702886 -0.919213891 0.3305488229
-0.11519464 0.022700677 0.63794899 -0.07834227383 -0.2995594144 0.950855732
-0.14762844 -0.017980911 0.65018183 0.09002223611 0.3976377249 0.9131156802
-0.15448077 -0.025511937 0.65330774 -0.005831939634 0.4424191713 0.8967894316
-0.18735878 -0.012706214 0.62846881 -0.269791007 0.1250654906 0.9547625184
-0.01906487 0.030619336 0.65900004 -0.153808251 -0.7455689311 0.6484365463
-0.0723776 0.0084159998 0.64000005 -0.03597340733 -0.1892650127 0.9812668562
-0.16640399 -0.033303607 0.65839559 -0.2966154218 0.4133239686 0.8609196544
-0.10190747 -0.026120126 0.63145459 0.1439704746 0.406844914 0.9020807743
-0.12423554 0.013182956 0.64029735 -0.02441489883 0.05065818876 0.9984175563
-0.10753479 -0.012295968 0.61472732 -0.8449665904 -0.02211419865 0.5343617201
-0.23175998 -0.024435915 0.6360001 0.3028391898 -0.0153841991 0.9529175162
-0.12252832 0.028700713 0.63999999 -0.0587627776 -0.1885909885 0.9802960753
0.040924992 -0.0057636453 0.65750003 -0.4772081673 -0.6464312673 0.5953142047
-0.17742813 -0.062894702 0.66490006 -0.42145136 0.5905493498 0.6882079244
-0.047062706 0.0033556952 0.63789505 -0.02202801034 -0.2966173589 0.9547423124
-0.018480133 -0.050671332 0.68000001 0.1804290414 -0.839710474 0.512183249
-0.15400675 -0.043214779 0.65884876 0.04755658656 0.4656957388 0.8836661577
-0.072049722 -0.014694688 0.63800025 0.1059257388 0.07619401813 0.9914505482
-0.0045619905 -0.011635157 0.63704163 -0.07647375762 -0.4546206295 0.8873960972
-0.14429909 -0.064125672 0.68228209 0.009027206339 0.6928575635 0.7210179567
-0.055252861 0.008074481 0.64000016 -0.04033520073 -0.3390622735 0.9398988485
-0.11571903 0.03212028 0.64111114 -0.06756420434 -0.1998919249 0.9774857163
-0.045845285 0.030758725 0.66200006 -0.1137052253 -0.7715278864 0.6259519458
-0.20315848 -0.057303779 0.6420666 -0.3795788288 0.5366039276 0.7536419034
-0.13453564 -0.015105858 0.64244574 0.137447089 0.3623054922 0.9218693376
0.021324625 0.028897857 0.68199998 -0.326192975 -0.7246662974 0.6070065498
-0.12808275 0.030762233 0.63800001 -0.02576442435 -0.1048377529 0.9941555262
-0.13297281 0.012904533 0.64000005 -0.03506166488 0.04863896221 0.9982008338
-0.15224837 -0.018184207 0.65044451 0.01511563826 0.4535734653 0.8910906911
-0.066243559 -0.051703807 0.63790911 -0.001958818873 0.4009873867 0.9160814881
0.021024073 -0.031941202 0.69183332 -0.006755674724 -0.8196569681 0.5728148818
-0.012742031 -0.048751198 0.67445451 0.1639410853 -0.8724939227 0.4603017271
0.031880859 -0.0095083266 0.63800001 -0.3824329972 -0.6038001776 0.6994071603
-0.1025569 -0.014278249 0.62515908 -0.7827926874 0.1035040393 0.6136142612
-0.068263113 -0.0052366219 0.63999999 0.04487677291 -0.01385396998 0.9988964796
-0.18063717 -0.049005665 0.65000004 -0.5970640779 0.445903331 0.6668468118
-0.15447743 -0.058932453 0.67000002 -0.2265790999 0.5788837075 0.7832978964
-0.074581847 -0.061904464 0.65382338 0.159062326 0.7750967741 0.6114934087
-0.061724603 0.033073127 0.66514295 -0.186461553 -0.6537125111 0.7334111929
-0.098186664 -0.0056106662 0.64000005 -0.324367702 -0.02843322419 0.9455036521
-0.18207167 0.02181546 0.64166671 0.06792525202 -0.3465224802 0.9355791211
-0.062110558 0.027242176 0.65109092 -0.1800633222 -0.6081237793 0.7731511593
-0.21477632 -0.060965154 0.63800001 -0.1014006883 0.5786993504 0.8092125654
-0.13442163 0.031041885 0.63800001 -0.04615930468 -0.07866889238 0.9958315492
-0.11119076 -0.0014761814 0.62042856 -0.646425724 -0.504981637 0.5719504356
-0.045231797 -0.056499168 0.6912061 0.1670427173 -0.1641602516 0.9721872807
-0.0050189621 -0.048867349 0.66736835 0.2555215657 -0.8720324636 0.4174543619
-0.085886009 -0.049156014 0.64450008 0.2470758408 0.6636874676 0.7060258389
-0.061227717 -0.047888353 0.69150007 0.05154474825 -0.0009621885256 0.9986702204
-0.090331733 0.0095381336 0.64000005 -0.06278514862 -0.1773671061 0.9821400046
-0.092756696 -0.061816402 0.65899998 0.2151706368 0.7357558608 0.6421564221
-0.11164162 -0.0075314431 0.61412501 -0.9191042781 -0.2836917937 0.273434341
-0.18010239 -0.0269312 0.64000005 -0.6022160649 0.3705744147 0.7071141601
-0.054204535 -0.051372357 0.6879999 0.1728855819 -0.1366504133 0.9754164219
-0.035753336 0.031195469 0.66454548 -0.1000047773 -0.7726608515 0.6268925071
-0.012343466 -0.0117824 0.64000005 -0.08042787015 -0.4027792811 0.9117566943
-0.106289 -0.058724578 0.66252637 0.1860368252 0.6949827671 0.6945424676
-0.2339648 -0.046568532 0.64000005 0.1658205539 0.2809948325 0.9452753067
-0.032362148 -0.01905435 0.69000006 -0.1118547022 -0.1224198639 0.9861550927
-0.026333995 0.028651901 0.66100001 -0.1293614507 -0.7013309002 0.7009996772
-0.12451398 -0.043196935 0.64900011 0.2150534689 0.4402188063 0.871756494
0.04195777 -0.018852843 0.64057148 -0.6454764605 -0.3963137865 0.6529130936
-0.10789136 0.0018117777 0.61999995 -0.5984397531 -0.457354188 0.6577970982
-0.048347924 -0.056518137 0.64881825 -0.239450112 0.4203386009 0.8752023578
-0.16798685 -0.059324034 0.67000002 -0.3083429933 0.5856924653 0.749592483
-0.086342014 -0.059686095 0.66100001 0.2140817642 0.7602719665 0.6133152246
