# .PCD v0.7 - Point Cloud Data file format
VERSION 0.7
FIELDS x y z normal_x normal_y normal_z
SIZE 4 4 4 4 4 4
TYPE F F F F F F
COUNT 1 1 1 1 1 1
WIDTH 512
HEIGHT 1
VIEWPOINT 0 0 0 1 0 0 0
POINTS 512
DATA ascii
0.03680841625 0.03555613384 0.9020023942 -0.1235882193 -0.004916067701 0.9523134828
0.04792681336 0.04361294582 0.8916845322 -0.07920235395 -0.1118427068 0.8144474626
0.04332175478 0.03878239915 0.897021234 -0.07309819758 -0.02774691209 0.8734413981
0.04638319835 0.03117240779 0.9011768699 0.1002699882 0.2047754079 0.847930789
0.05826584622 0.04772109538 0.8814188838 -0.2007012665 -0.4348028004 0.6981830001
0.05057194456 0.03608103096 0.8959512115 0.08592539281 0.1140554547 0.7936303616
0.05215152726 0.05173260346 0.8835237026 -0.190583244 -0.3524246514 0.757242322
0.06050301716 0.02605868317 0.8706543446 0.03563977778 -0.5166630149 0.7125216722
0.0581962876 0.01344527304 0.8783608079 0.3076956272 -0.4368203282 0.6923387647
0.05925616622 0.01170226187 0.8682032824 0.313234657 -0.2856794894 0.7635188103
0.06140952185 0.03363587335 0.8699256778 -0.116648674 -0.6133269072 0.6989349127
0.05713179335 0.01215027831 0.8858894706 0.3548716903 -0.5127367377 0.6458593011
0.060021054 0.01001364924 0.8604947925 0.3246906996 -0.165873155 0.8184247613
0.05550682917 0.01098415349 0.8980935812 0.4128480256 -0.6488232613 0.5682502389
0.008110708557 -0.01387398969 0.8702298403 -0.002939274535 -0.9553613663 0.2937020361
-0.1855468452 0.0192399323 0.8518412709 -0.1270976067 0.4913706183 0.8560422659
0.04445505887 -0.003712191246 0.8973724842 0.1703245491 -0.5824825764 0.6514609456
0.05267980322 0.003341836389 0.9001355767 0.4965208769 -0.5628057122 0.5770561695
0.04745314643 -0.003838024568 0.8858394027 0.3509549499 -0.2482837439 0.6994692683
0.04758844897 -0.002255684463 0.8779987693 0.4275946617 -0.1474647373 0.7699002028
0.045233652 -0.005487129558 0.8688489199 0.381359756 0.04539713636 0.8458039761
0.06341525167 0.02223755419 0.8491373658 -0.05276230723 -0.3174321353 0.8286778331
0.06290558726 0.02875689603 0.855743289 -0.006915858481 -0.475482583 0.7578588128
0.06196782738 0.01947826147 0.8584845662 0.1496561021 -0.2784946561 0.8020809889
0.06198403612 0.0261249356 0.8626506329 0.02470429614 -0.4217202067 0.7603301406
0.01569669507 0.006601382047 0.9055300355 -0.1596595794 0.004749123007 0.986626029
-0.03337662667 0.01098852139 0.8951827288 -0.1259098649 -0.1883324683 0.8920128345
-0.03511290625 0.00345471804 0.8991522789 -0.2140556276 -0.2834001482 0.8485553861
-0.09195572883 0.09123837948 0.846714139 0.07899393886 0.2884628773 0.6685628891
0.01019295119 0.03602305055 0.8983563781 -0.165221706 0.1216154769 0.9787195325
-0.03095085174 0.08129504323 0.8634008169 -0.04814460129 -0.3010968566 0.9523032308
0.02608790807 0.01465120632 0.9078735113 -0.1055059433 0.0368468985 0.993729949
0.04300820455 0.00867891591 0.9072512984 -0.1205093041 -0.2183986604 0.9191657901
0.03595321998 0.01032750588 0.9076143503 -0.1058779731 0.03827987984 0.9935506582
0.03934518993 0.001271461486 0.9064615369 -0.04704914987 -0.5275720358 0.811357379
0.0193376001 0.03499202058 0.9019486308 -0.1560619473 0.1125148386 0.9811314344
0.03994270414 0.04975710064 0.8891881108 -0.247974515 -0.2843808532 0.855107367
0.03482708335 0.04171374813 0.8968239427 -0.1890530735 -0.1099608541 0.9179620147
0.03133885935 0.05740296468 0.8854694963 -0.2451553643 -0.280567497 0.8792442083
0.03495775536 0.0650491938 0.8788853288 -0.285523653 -0.4211893678 0.836672008
0.04654796794 0.05752174556 0.8817901611 -0.3000531793 -0.4624888003 0.7952073216
0.02953599766 0.04922198504 0.8920257092 -0.2093745023 -0.1546540409 0.9134088159
0.03905005381 0.05863797292 0.8827236891 -0.277200073 -0.3878139257 0.8331549764
0.02605768852 0.03990307823 0.8998301625 -0.163514182 0.005672142841 0.960164547
0.04523957521 0.06381258368 0.8768467903 -0.3204393983 -0.5268300772 0.7852889299
0.02191060036 0.04643008113 0.8927851915 -0.1987475753 -0.04548567906 0.9400590658
0.03189209476 0.07043524832 0.8745362163 -0.2968847454 -0.4625198841 0.8353652954
0.02069575153 0.07150818408 0.8712211251 -0.2552221119 -0.420248121 0.8673670292
0.02094998024 0.05628185719 0.8841662407 -0.227635324 -0.1786196381 0.913398385
0.0216022227 0.06540246308 0.8767015338 -0.2479716539 -0.3242331147 0.8844681382
-0.1128784269 0.08494377136 0.857953012 -0.2274345756 0.1819452494 0.955047071
-0.1839433908 0.03285313025 0.848149538 -0.08726159483 0.3001582921 0.8940786123
-0.1783896834 0.02156945691 0.851544559 -0.2041303664 0.4928091466 0.8371565342
-0.1969985068 0.03089018352 0.8458147049 0.04133191705 0.343178153 0.9328066111
-0.2007484883 0.04277562723 0.8442763686 0.1373437792 0.1303290129 0.9801808
0.003561726538 0.02600441873 0.8540972471 -0.04518921673 -0.5605733991 0.7502081394
0.001696400344 0.01323546283 0.8590339422 -0.02598816901 -0.65539819 0.6134442687
0.001145077404 0.03457650915 0.8504328728 -0.03871289268 -0.4308388531 0.8730822206
0.02662664279 0.01062999666 0.8598068953 -0.06264217943 -0.7820743322 0.5367590785
0.03492538631 0.02385369688 0.8533270955 -0.1309047043 -0.6587732434 0.7108786702
0.02579953335 0.0195385199 0.8569329977 -0.098711133 -0.7192963958 0.6190405488
0.03204029053 0.03229187801 0.8510933518 -0.1618214399 -0.6059533954 0.7773481011
0.02404648252 -0.004940488841 0.8674216866 0.08646287024 -0.9333326221 0.2859292626
0.02149580233 0.000516395492 0.9054551721 -0.1134271771 -0.1636205167 0.969634831
0.03029900789 0.003380591515 0.9065354466 -0.0991249755 -0.05104126781 0.9870607853
-0.003363380674 0.04082483798 0.8490000963 -0.04331007227 -0.3476299942 0.9350470901
-0.1432981491 0.008443388157 0.8755381107 -0.2476839274 0.3610876799 0.8975754976
0.02051669173 0.02025030181 0.9065870643 -0.1349012256 0.06674615294 0.9877021313
-0.1850015074 0.04098086432 0.8401679993 0.03414653614 0.1748317778 0.9791598916
-0.1914191097 0.02490915172 0.8477521539 -0.02288790047 0.4325932562 0.8947931528
0.05720600113 0.01907016523 0.8908887506 0.2288821489 -0.6091937423 0.6099675298
0.05841586366 0.02457100339 0.8857080936 0.1039846539 -0.5999934077 0.635482192
0.05427509546 0.02361752465 0.8975912929 0.1841920316 0.213461265 0.775668025
0.05393527448 0.01526477095 0.9048116207 0.285907805 0.4774895012 0.7949993014
0.02794954926 0.05552368611 0.8652393818 -0.2747262418 -0.4883006811 0.8278121948
-0.1126082093 0.06751658022 0.8621668816 -0.09019120783 0.2080360502 0.9711188078
-0.104679212 0.08436398953 0.8581209183 -0.2454068065 0.1070474386 0.9629169703
-0.1094009727 0.07480920851 0.8600039482 -0.1382633597 0.1407006234 0.9780555367
0.04205385596 0.01989995129 0.9076496959 -0.00887057092 0.1796545684 0.9720131755
0.0354828611 0.006283434574 0.8599417806 -0.1029654071 0.08966773748 0.5315728188
0.03355385736 -0.002011762233 0.8635973334 -0.06905055046 0.2521567941 0.4286767244
0.02753512561 0.02368635312 0.9066355824 -0.1262329221 0.0690928027 0.9892973304
0.03451667354 0.02024863102 0.9072496295 -0.108026132 0.05346902087 0.9926846027
0.02783453837 0.03153886646 0.9054774642 -0.1278526485 0.08710454404 0.9877583385
0.006088892464 0.005105716176 0.9023341537 -0.2056067586 0.006338702515 0.9784227014
0.06238264963 0.04055721685 0.8654988408 -0.2032545805 -0.6988562942 0.6852408648
-0.1862263232 0.06700781733 0.8483368158 0.1189367101 -0.259318769 0.9555453062
-0.03946926817 0.08149308711 0.8645246029 -0.06237078086 -0.3343685567 0.9388768077
-0.1200625896 0.08421767503 0.8557782769 -0.2330320626 0.1795299947 0.9539800882
-0.1239898875 0.07703411579 0.8574194908 -0.2067715526 0.2108157128 0.9520693421
0.04115867242 -0.001549122622 0.8593432903 0.1064287052 0.3432934582 0.6680756807
0.04294266179 0.008575010113 0.8549314737 0.1250425577 -0.1213252842 0.7969821095
0.03943847865 0.01764015481 0.8540750146 -0.07507734001 -0.2673250139 0.7258241177
0.05376825109 0.001479939208 0.8857895136 0.5001625419 -0.3686211407 0.6712357402
0.05464265496 -0.003294730326 0.8596042395 0.4512701631 0.002777991118 0.8463792205
0.059499681 0.002267627511 0.8537812829 0.4420888722 0.02250072546 0.8801856041
0.05445136875 -0.001824119128 0.8679180741 0.4681812525 -0.1168672144 0.7897046208
0.05513748154 0.004338082857 0.8928200603 0.5195440054 -0.4923144579 0.6183809042
0.05574866012 0.001843655948 0.8768033981 0.4871015251 -0.2651095986 0.7272622585
0.02147037536 0.0615959689 0.8651309013 -0.245716244 -0.4691052139 0.8476385474
0.01499022637 0.06626401842 0.8736177683 -0.2200857103 -0.3291987181 0.8932853937
0.01302385889 0.05671677738 0.8810999393 -0.2032257169 -0.1666091233 0.927421689
0.01569400914 0.04989184067 0.8876718879 -0.1908470839 -0.0712031126 0.9417953491
0.004812285304 0.06037420034 0.875867188 -0.2091112435 -0.2158219069 0.9248587489
0.007358872797 0.04629740492 0.8886907697 -0.1831905544 -0.0197885856 0.9561911821
0.01374982111 0.04249069095 0.8934077024 -0.1775655597 0.05077057332 0.9670996666
0.007895982824 0.07172676921 0.8665018678 -0.2302186191 -0.3873144686 0.8922627568
0.01290391013 0.06524623185 0.8658825755 -0.2214531749 -0.4373221397 0.871506393
0.0004344954214 0.05109212175 0.8830280304 -0.1733441055 -0.1334083825 0.9484344125
9.867490735e-05 0.04068568721 0.8920219541 -0.1537196934 0.004810393788 0.9706253409
0.000619399827 0.06142573431 0.8616998792 -0.1781897247 -0.4072105587 0.894713223
0.009999267757 -0.006188400555 0.8676285744 -0.003310271073 -0.925049305 0.3351877928
0.01310150977 3.075892164e-05 0.8656059504 0.008270110004 -0.8633166552 0.4024219811
0.008013125509 0.006111269817 0.8628653288 -0.03174168617 -0.789604485 0.4948357642
0.04351397976 0.03158129379 0.8497189879 -0.192658633 -0.6044883728 0.7593969107
0.0227740258 0.03546000272 0.8518900275 -0.1540250927 -0.589409709 0.7798737288
0.02040566877 0.02797207423 0.8549237251 -0.1165935099 -0.6439092159 0.7018221617
0.01753958501 0.006833242252 0.8630802035 -0.02899906226 -0.8263641 0.4622932673
0.0143431304 0.01827529632 0.8590391874 -0.05193522945 -0.6912807822 0.616478622
0.009408088401 0.03312780708 0.8529586792 -0.06412053853 -0.5046879053 0.8253151774
0.01932366937 -0.006718955468 0.8920302391 -0.06342373043 -0.3856672943 0.722310245
0.02452957258 -0.01160161104 0.875184834 0.06972810626 -0.8384407163 0.3609556556
0.02903665043 -0.005709927529 0.8962489367 0.02161573805 -0.6074810624 0.687410295
0.0277660545 -0.008302312344 0.887082696 0.05210215598 -0.7342117429 0.5320051908
0.03514791653 -0.007142814808 0.8892788291 0.1141983271 -0.8565802574 0.4520500302
0.03478210419 -0.004154227674 0.9020707011 0.07171208411 -0.7084141374 0.6772340536
-0.1164870411 -0.001346378122 0.8825458884 0.08009993285 0.4520655274 0.887688756
-0.06864023209 0.04202762991 0.8576778173 0.1991660446 -0.01564112678 0.9222276211
-0.06008365005 0.04923743382 0.8561561108 -0.1072552204 -0.06052259356 0.9341089725
-0.02766432241 0.07310277969 0.8596096635 -0.04040148109 -0.2928465307 0.9549226165
-0.1713397205 0.01105355285 0.8601217866 -0.3570477366 0.5189064145 0.7752501965
-0.153776288 0.01496666949 0.8677790165 -0.3899902403 0.3869711459 0.8322239518
-0.135858193 0.005238458049 0.878203392 -0.1344583482 0.385592252 0.9077939987
0.01412744354 0.02612568252 0.904725492 -0.1669985503 0.100212656 0.9807983041
0.005808327347 0.02627180703 0.9022020698 -0.179234311 0.09796214104 0.9788271189
0.01337411162 0.01734363474 0.9054099917 -0.1874136031 0.07175955176 0.9793162942
-0.1902799755 0.03404999897 0.8423227072 0.0305291228 0.2887191772 0.9560169578
0.06190183386 0.008134709671 0.8459532857 0.3903282881 0.02079405636 0.9135924578
0.05303038284 0.007815255783 0.8493456841 0.3789137304 0.02008975483 0.9121279716
0.05550646782 0.01601299085 0.8453026414 0.3394564092 -0.05504939705 0.9174620509
0.04819998518 -0.00344812707 0.8557200432 0.4022041559 0.09127069265 0.8939592838
0.04890618101 0.01655552536 0.8489152193 0.1904066801 -0.2118354589 0.8664808869
0.05747045577 -0.008970903233 0.849537611 0.4343880117 0.1078960225 0.8941212296
0.05992792174 0.0318252556 0.8477880359 -0.3295577168 -0.5228413939 0.7847931385
0.05080811307 0.02928275429 0.848161459 -0.2098729461 -0.5455007553 0.790256381
0.03725189343 0.02907554992 0.9064050913 -0.04200563207 0.144941017 0.9760599136
0.03308013827 0.06017334014 0.8692589402 -0.3051272333 -0.486356765 0.8186699748
0.0188207794 0.05383014679 0.8613924384 -0.2145174891 -0.4898580313 0.8441858888
-0.09931246191 0.09175889939 0.8601876497 -0.2004855424 0.06517482549 0.9749064445
-0.1012466177 0.07604388148 0.8602109551 -0.105369471 0.05661340058 0.9913604856
-0.09616702795 0.08162973076 0.8605272174 -0.1213984862 0.02638518624 0.991009593
-0.08207639307 0.0921106413 0.8634318709 -0.08374578506 -0.2041293532 0.9531083107
-0.1837560833 0.05138470978 0.8396199346 0.1032265946 -0.1254450083 0.9848521948
-0.1923886985 0.04604572058 0.8422992229 0.1046278179 0.04798159376 0.9907601476
-0.1999736726 0.05113407597 0.8429852128 0.1411821097 -0.0909164995 0.9855870605
-0.1282059103 0.07808545977 0.8488698602 -0.3341830969 0.21500884 0.9174570441
-0.192210421 0.06180233508 0.8451548815 0.1850381494 -0.2513940334 0.9499049783
-0.1754312515 0.0740268603 0.8471058011 0.07269439101 -0.2905301452 0.9527788162
-0.1756088734 0.06645037234 0.8438516259 0.04526160657 -0.255459249 0.9648092389
-0.1070553288 0.09638171643 0.8585336208 -0.2489702553 0.1135255769 0.9616507292
-0.1155270264 0.09279578179 0.8544684649 -0.2581929564 0.124416098 0.9577186704
-0.09933782369 0.09179884195 0.8485212326 -0.01404296886 0.2373943925 0.7700561881
-0.09290339053 0.08781598508 0.8390647769 0.2561796606 0.4088000655 0.5400163531
-0.1259150356 0.05136239156 0.8655418158 -0.1525546163 0.3174926937 0.9339952469
0.05154208839 -0.010416531 0.8534930944 0.4022195339 0.1399303675 0.9032964706
0.004788218066 0.04360573366 0.8506807685 -0.08155971766 -0.4457860887 0.890008986
-0.0007202942506 0.05448445678 0.8585739136 -0.1397770941 -0.4259518385 0.8931748867
-0.006250844337 0.05147539824 0.877078712 -0.1459185481 -0.1815579087 0.9483575225
-0.01007788815 0.05630749464 0.87139678 -0.132511735 -0.236352101 0.9436761141
-0.009440148249 0.03286260366 0.9000583887 -0.1037167236 0.06705445051 0.9913002849
-0.007186444011 0.04170769826 0.8879916668 -0.1211809218 -0.04701914638 0.9742472172
-5.701969712e-05 0.0663915202 0.8704360723 -0.195062086 -0.2922405303 0.9218488932
-0.003723350354 0.0600774698 0.8756257296 -0.1659168452 -0.2134749889 0.9414298534
-0.004365816712 0.07119051367 0.863779366 -0.1815773845 -0.3590498865 0.914942503
-0.01084098313 0.0669400245 0.861775279 -0.1461923867 -0.3519059122 0.9241677523
0.03560134768 0.0394638069 0.8542295098 -0.1971968561 -0.6541212797 0.7286933661
0.02618337423 0.04599283636 0.8571227789 -0.2191151381 -0.5508722067 0.8031970263
0.03314071521 0.04919482768 0.8617457747 -0.2633485198 -0.5573224425 0.782995224
-0.09477329254 0.0186131075 0.8679326177 0.295633316 0.2978960574 0.8962679505
-0.1015596837 0.03132246807 0.8684533834 0.2608015537 0.1747017205 0.9468037486
-0.03559118509 0.01145436149 0.8476282954 -0.01862531155 0.143337965 0.9787998796
-0.0337045528 0.02045219205 0.8487936854 -0.009502886795 -0.02663828805 0.9942182302
-0.05042288452 0.07057469338 0.8612226844 -0.215478301 -0.3684353232 0.8977690339
-0.05268504098 0.05498830602 0.8558655977 -0.2983740568 -0.1208417192 0.9410982132
-0.04808392748 0.06054137647 0.8588350415 -0.1815198809 -0.2689009011 0.9361972213
-0.1791242361 0.01096389908 0.8561380506 -0.2853951454 0.544151783 0.7850459218
-0.1433892846 0.01212862041 0.8681569099 -0.2584236562 0.4062924683 0.8592652082
-0.1556984931 0.01634600945 0.8601186872 -0.4197559357 0.4497521222 0.7821685672
-0.1624231339 0.008402286097 0.8672094345 -0.3848849833 0.445548743 0.8067266941
-0.1424926668 -0.0005407821154 0.8790626526 -0.2113141865 0.3913803697 0.8951106071
-0.1511089355 0.003021405311 0.8742646575 -0.2864786088 0.4097704589 0.8592205048
-0.1305890828 7.524305147e-06 0.8822337389 -0.05542279035 0.411483109 0.9031701088
-0.0005806075642 0.03075293824 0.9012815952 -0.1460886896 0.09657391906 0.9834698439
-0.001068809535 0.022905102 0.9015834928 -0.1424645483 0.07298406959 0.9862146378
-0.03883298114 -0.004831940401 0.8912944794 -0.1299901009 -0.6110131741 0.5902580023
-0.01922234334 -0.01003366709 0.8741637468 0.01987503655 0.4646610916 0.4919553995
-0.02613203228 -0.003549291519 0.8944081068 -0.1175135672 -0.4492477775 0.8300351501
-0.0240564961 -0.008185891435 0.8812884688 -0.03010055237 0.04579032585 0.5747333765
-0.03018728644 -0.007211929653 0.8867393732 -0.06997931004 -0.3731207848 0.6014090776
-0.03337952122 -0.01246406883 0.8745013475 0.00809390191 -0.118909426 0.2859784961
-0.04089459032 -0.0118174646 0.8797504306 -0.03139716387 -0.587523818 0.2873838842
-0.02362689562 -0.01402205229 0.8631964326 0.05481552705 0.6731987 0.4825559258
-0.03707326949 -0.01259292103 0.8660338521 0.2114960849 0.748583734 0.617192328
0.06212002039 0.03659730032 0.8537030816 -0.2243426144 -0.645133853 0.7285481691
0.04477517307 0.03948688507 0.8548315167 -0.2011117935 -0.6676178575 0.7153912783
0.05905105174 0.0538126938 0.8747239113 -0.3213724792 -0.6581714749 0.6787498593
0.01544717327 0.04847326875 0.8564891815 -0.1726829261 -0.5048997402 0.8448626399
0.008022673428 0.0533234179 0.8589575291 -0.1594871581 -0.4627698064 0.8716067672
-0.1214235947 0.08296055347 0.8462109566 -0.2171439677 0.2740441263 0.8528161645
-0.09471122175 0.07602719218 0.8315793276 0.3913040459 0.5621261597 0.5157849193
-0.01723941788 0.01810149662 0.9012206197 -0.05832929164 -0.01754674315 0.9978769422
-0.01521220244 0.01051324047 0.9010497332 -0.05949375778 -0.01868705638 0.9979891777
-0.008570591919 0.01965368167 0.9010000229 -0.09267774969 0.02048130892 0.9941558838
-0.02802829444 0.01769260131 0.8974280357 -0.09078992158 -0.05914998055 0.9925377965
-0.01903436333 0.02664083429 0.9007269144 -0.06181770563 0.01964264177 0.9968503714
-0.006773075555 -0.01094802748 0.8645666838 -0.0501999706 -0.01139293984 0.5150327086
-0.0160551928 0.02451593988 0.8522285223 0.04093372822 -0.06061144546 0.937549293
-0.01199118979 0.004476004746 0.8575789332 -0.04240559787 0.4238049984 0.768253386
-0.00920394063 0.01974263601 0.8535400629 -0.0224275142 0.08758573234 0.860168457
-0.0003807911417 -0.007195506711 0.8655853868 -0.03636934608 -0.4766208529 0.4399716854
-0.005785231479 -0.0007588739973 0.8614792824 -0.03937387839 -0.05186951905 0.6039724946
-0.006841751747 0.02668826468 0.8518602252 -0.01759321801 -0.09779378772 0.8897427917
-0.006992941722 0.01218560059 0.8566882014 -0.03021786548 -0.01361040864 0.7520888448
-0.01291931421 -0.005567943212 0.8605383039 -0.05470443517 0.5743396878 0.6915586591
-0.04607148468 0.07123615593 0.8521074057 -0.2964258194 -0.1440555006 0.8135491014
-0.03684914112 0.0721642375 0.8594958782 -0.07352739573 -0.2679024041 0.933449626
-0.06724961102 0.03887009993 0.8476832509 0.2909420729 0.09631896764 0.9453147054
-0.07071749866 0.04709823057 0.845938623 0.3498058021 0.2171017081 0.9077875018
-0.0430797413 0.0203632284 0.8465430737 0.01738084108 -0.02637669444 0.9973130822
-0.05768485367 0.07057382166 0.8434306979 -0.5788123608 0.01755413786 0.6633139253
-0.03878914937 0.06581155211 0.8557587266 -0.1026909351 -0.2265598923 0.9152704477
-0.05281027779 0.06560324878 0.8489689827 -0.4471960664 0.020747995 0.7435414195
-0.06574369967 0.06637424231 0.8420990705 -0.7672381997 0.2318399251 0.5812146664
-0.1430152506 0.02068332955 0.8629626036 -0.3126836121 0.3752251863 0.8338047862
-0.13159886 0.01662491821 0.8709484935 -0.1135165766 0.3316619098 0.928850472
-0.1618507206 0.02450911514 0.857373178 -0.4349130094 0.4686757922 0.7656105757
-0.1517212093 0.02268208377 0.8648987412 -0.4516402185 0.3901487887 0.7977974415
-0.08955985308 0.08359631896 0.8294661641 0.5037093163 0.5766228437 0.3232372105
-0.1070818827 0.08915121853 0.8436995149 0.03302714229 0.3041368127 0.7094061971
-0.1145017371 0.08990790695 0.8461606503 -0.1002061293 0.2432028651 0.8089097738
-0.124097459 0.09320410341 0.8519659042 -0.2828475237 0.1337125897 0.9497855306
-0.0966713205 0.08406919986 0.8320403695 0.3717980087 0.5160945058 0.4301466644
-0.08393312246 0.08114671707 0.8246267438 0.6594853401 0.6700457335 0.2064105272
-0.1032344326 0.08482064307 0.8359848261 0.2207395881 0.4375681877 0.5654911995
-0.1119471788 0.08255413175 0.841121912 0.0043467707 0.3621074557 0.7413882017
-0.1288507879 0.08598569036 0.8489412069 -0.2888547778 0.1934161186 0.9358373284
-0.1270573884 0.06923701614 0.8588777184 -0.2948135138 0.2727098167 0.9040997028
-0.1353560239 0.07410212606 0.8554358482 -0.3053709269 0.1989488006 0.9040110111
-0.1371940672 0.09129881114 0.8505125046 -0.1838803589 0.0468236953 0.9793091416
-0.1284979731 0.0129215382 0.8771474361 -0.04506320134 0.3487946987 0.9286907315
0.01971226186 -0.0118999714 0.8679561615 0.007144612726 -0.5572937131 0.303491354
0.04351400584 -0.008641954511 0.877818644 0.2275736779 -0.0811708346 0.7739142776
0.02857575007 -0.01311183255 0.8671060801 0.02177917585 -0.252979517 0.2989200652
0.03375203907 -0.009201602079 0.8809784055 0.0713641867 -0.537602067 0.4004795253
0.03540908173 -0.01038886607 0.864372611 -0.09358215332 0.877399981 0.4230559766
0.04326543584 -0.01136082038 0.8591460586 0.2043753266 0.4163680971 0.7461504936
-0.02132902667 0.07914765924 0.8617584109 -0.07557937503 -0.3125171661 0.9465634823
-0.01951157302 0.07096437365 0.8607925177 -0.07662055641 -0.3173959851 0.9449471831
-0.01195957791 0.07578267157 0.8628934622 -0.135264203 -0.3354735374 0.931671381
-0.08490270376 0.00694701029 0.8666276932 0.292632103 0.4662935436 0.8343011141
-0.1052040979 0.02439674735 0.8714724183 0.2394824326 0.257671684 0.9306338429
-0.0990164727 0.01299474668 0.8718739152 0.2741462886 0.3644641936 0.8817786574
-0.09332213551 0.002394999145 0.8735629916 0.2845072448 0.4650507569 0.8378558159
-0.02764375322 0.01422895864 0.8503350019 -0.05240178108 0.08502210677 0.978902638
-0.01974248141 -0.0007585600833 0.8556062579 -0.1137726977 0.2979481816 0.916597724
-0.02096262574 0.007919399999 0.8532615304 -0.05974609405 0.1586788148 0.9409763217
-0.0210514795 0.01703722961 0.8514820933 -0.004028841853 0.01328297425 0.9629478455
-0.1229762137 0.0295759961 0.8684209585 0.0005946827005 0.2158562988 0.9748005271
-0.1143389493 0.03234381601 0.868590951 0.1143848673 0.2004332095 0.9729328752
-0.1286687553 0.005119385198 0.8757647276 -0.007687495556 0.4133727849 0.9083929062
-0.1238481775 -0.001822561608 0.8798530698 0.006410311442 0.4362178147 0.893050909
-0.1145652235 0.003317953087 0.8769338131 0.1216132045 0.4319133162 0.8886530399
-0.02556949481 0.02393217385 0.8503164053 0.00400596112 -0.06915476173 0.9906280637
-0.01352222171 0.03524711728 0.8492465019 0.04491494596 -0.2297481745 0.9706004262
-0.047198046 0.08280666918 0.8637324572 -0.136122033 -0.3797903359 0.8915619254
-0.06353337318 0.07698218524 0.8452344537 -0.6276344061 -0.05987166613 0.6265090108
-0.05122642592 0.08076462895 0.8578194976 -0.2850548029 -0.2602646351 0.8154007196
-0.1033489779 0.03733882681 0.8637652397 0.2016873807 0.1929606348 0.9578786492
-0.0675740242 0.01810590178 0.8520528078 0.3841079473 0.2938056886 0.8705138564
-0.1683105975 0.01886020228 0.854976356 -0.3513501585 0.5053889155 0.7847238779
-0.1168389544 0.02372754924 0.8689263463 0.08570963889 0.2167016417 0.9704858661
-0.0522579439 -0.01155693457 0.8734288812 0.3163521886 0.744079113 0.5883976221
-0.04447546601 -0.009121160023 0.8638856411 0.3160520494 0.7347829938 0.5984585285
-0.05117369071 0.002360526239 0.8808248639 0.1219946966 0.3850537241 0.7811764479
-0.03997596353 0.008721767925 0.8899791241 -0.01711888239 0.1180687025 0.8981148601
-0.05767213181 -0.004442609847 0.8777722716 0.1485352516 0.3259863555 0.6278722286
-0.05060085282 -0.006476141978 0.8823665977 -0.05293322355 -0.4476581216 0.4019709527
-0.04548460245 0.002081389772 0.8862359524 -0.01247526705 -0.05265454575 0.7013300061
-0.06117581576 -0.006231203675 0.8681976795 0.3108405173 0.7141395807 0.6265436411
-0.07161128521 -0.004569772165 0.8712437153 0.2628938556 0.6722142696 0.6893321872
-0.0795340538 -0.001130136778 0.8713018298 0.2599056065 0.586465776 0.7604087591
-0.06558567286 -0.007970379665 0.8746201396 0.1588564217 0.2632075846 0.5364985466
0.04352359101 0.04383579269 0.8605094552 -0.250847429 -0.635187149 0.7256241441
0.04032572359 0.05092272162 0.8671395183 -0.302947253 -0.5564090014 0.7713825107
0.05509131774 0.04436517134 0.8618646264 -0.2373458445 -0.6607605815 0.7084922194
0.05896593258 0.04826233536 0.8688978553 -0.2618798316 -0.6643530726 0.69583565
0.0554247573 0.0316892378 0.8916621804 0.06798656285 -0.01747522317 0.7501235604
0.05767317489 0.03327140585 0.884141922 -0.0249682609 -0.2585435808 0.7269483805
0.05984661728 0.03860719875 0.8780251741 -0.1442743987 -0.4838662446 0.6976851821
-0.06731332839 0.08081489056 0.8633005023 -0.07276947051 -0.4282937944 0.8871469498
-0.002534812782 0.01480686199 0.9014850259 -0.1697838902 0.0154341422 0.9850455523
-0.02770139463 0.002799804322 0.9007287025 -0.2005886734 -0.2590042949 0.9314764738
-0.01860840991 -0.0006486690254 0.898661375 -0.1254430413 -0.3762265444 0.8969341516
-0.02147720754 -0.005422424525 0.8879093528 -0.06947523355 -0.08527800441 0.7449913025
-0.01483438909 -0.01323384605 0.8650069237 0.0662477389 0.7088596821 0.3241282701
-0.01060905773 -0.01134440769 0.8732154965 -0.05166101828 -0.2673159242 0.4295530915
-0.07394142449 0.09148783237 0.8599330783 -0.05216185749 -0.5372747779 0.6548637152
-0.07490894943 0.08863309771 0.8516196012 0.1691595912 -0.2208785862 0.3874388933
-0.08915878832 0.09312684834 0.8548496366 -0.06170345098 -0.005657591857 0.7262447476
-0.08310412616 0.08973249048 0.8493716717 0.1487526745 0.07254245877 0.4518393278
-0.07585473359 0.08505866677 0.8411272764 0.4468680322 0.2358218879 0.06973112375
-0.07703595608 0.07239821553 0.8283472061 0.6295701861 0.6541205645 0.1736736447
-0.07007148862 0.07300748676 0.8345734477 -0.5178051591 0.2547780573 0.4619121253
-0.06066563353 0.08319168538 0.8550313711 0.0397102721 -0.2162517309 0.5373650789
-0.06980437785 0.08143679053 0.8379591107 0.52315557 0.3590199947 -0.04193812981
-0.06661108136 0.08912530541 0.8569196463 0.08132410794 -0.2741532624 0.5588524938
-0.06709738076 0.08544213325 0.8493071795 0.2631438076 -0.0176005736 0.3157834411
-0.06193874031 0.08937840909 0.8644245267 -0.1345356405 -0.5264800787 0.8150528073
-0.07764742523 0.08286432922 0.8327748775 0.6096616983 0.5815499425 -0.07644896954
-0.0854562819 0.08772159368 0.8409441113 0.2986228764 0.4265823662 0.3300902247
-0.06005506963 0.03736824542 0.8470326662 0.1613825411 0.07088394463 0.9732509851
-0.0567842871 0.04047842696 0.8542371392 -0.06230379269 -0.1141808182 0.9735476375
-0.04067440331 0.02428428642 0.8757379055 -0.08306363225 -0.1326650679 0.985599637
-0.06292948127 0.03370650858 0.8554022312 0.1389729083 -0.07177807391 0.9479931593
-0.070617266 0.0276645571 0.8575824499 0.2887120247 0.07194879651 0.9058980942
-0.07519057393 0.03592111915 0.8589985371 0.3890034556 0.02313007601 0.8991748691
-0.05219761655 0.04717784747 0.854927063 -0.1672236919 -0.1249013916 0.976467371
-0.03406657279 0.02476143464 0.8844134212 -0.09945517033 -0.1102487892 0.9865255356
-0.0410718061 0.03985582665 0.8642815351 -0.0810752809 -0.1640204489 0.9808097482
-0.03596574813 0.03109882027 0.8770936728 -0.0860748589 -0.1240665764 0.9852491021
-0.04297173396 0.03243783116 0.8606030941 -0.07557571679 -0.180101797 0.9797369838
-0.03978545219 0.03334918991 0.8709649444 -0.09779955447 -0.1553768516 0.981431663
-0.0332656391 0.0327411443 0.8508722186 0.0421349071 -0.1754872948 0.9831677675
-0.04606315866 0.05374199525 0.850451231 -0.2446560711 -0.05065506697 0.8363832831
-0.02528631501 0.06133056059 0.8567594886 -0.01345243584 -0.2875132859 0.9575961828
-0.02362131514 0.02559677698 0.8950489759 -0.03946457803 -0.02501585521 0.9974383116
-0.03412980214 0.03846338019 0.8727210164 -0.04762696102 -0.1345563084 0.9836375117
-0.0429084748 0.04632885754 0.8566742539 -0.06598887593 -0.2036808282 0.975446403
-0.0294734519 0.03406865522 0.881433785 -0.03877930716 -0.09616216272 0.9882401228
-0.03423344716 0.05132868513 0.8609879017 0.003293029964 -0.2345362604 0.9687538147
-0.02949950658 0.04718576744 0.8688427806 -0.01148532238 -0.1793982685 0.9743024111
-0.01531662326 0.03167738765 0.8951928616 -0.06749974936 0.009345079772 0.9944779873
-0.02218183875 0.03913989663 0.8824833632 -0.04037946835 -0.08180862665 0.9847542048
-0.02911936678 0.05120305717 0.8545249701 0.02277611941 -0.2604131997 0.9642421603
-0.03512660787 0.04579415545 0.8533829451 0.05064928532 -0.2189644873 0.9742239118
-0.03857516497 0.05748035014 0.8573309183 -0.04048168659 -0.2656175196 0.9601814151
-0.01685976796 0.04431425035 0.8809481859 -0.07608629763 -0.1183815449 0.972746551
-0.01568187214 0.05984811857 0.8655801415 -0.1084142625 -0.2893142104 0.940834403
-0.02231378481 0.04956556112 0.8715524673 -0.0537960045 -0.1848671585 0.9661159515
-0.01630414464 0.03680565953 0.8891841173 -0.06684570014 -0.03408543393 0.9873726368
-0.1669263542 0.08332992345 0.8504026532 0.03002949618 -0.2719967067 0.9607567191
-0.176410377 0.03400204703 0.8404963613 -0.1902055293 0.34732759 0.9153128862
-0.1619668305 0.05636534467 0.8416314721 -0.2656513751 0.006338895299 0.9628998041
-0.1655360907 0.06480434537 0.8413515687 -0.07115872949 -0.21475631 0.9739010334
-0.1481122077 0.04341683537 0.8565895557 -0.544040978 0.3831843138 0.7464245558
-0.1269648075 0.02364947833 0.8677911758 -0.0726107955 0.2528957427 0.9450657368
-0.1329459846 0.03099226579 0.8650006056 -0.1929750592 0.2681923211 0.8983998299
-0.1496260315 0.03468665853 0.8609303832 -0.5275678039 0.384349525 0.7565170527
-0.09848152101 -0.002575755818 0.878508091 0.2401711941 0.4949210584 0.834898591
-0.1062254235 0.0003349158505 0.8800000548 0.1652751714 0.4323710203 0.8851927519
-0.05713666975 0.06533553451 0.859880507 -0.2410888672 -0.2554369271 0.8941028714
-0.06054137647 0.05702116713 0.8574514985 -0.1696766764 -0.09716355801 0.92479527
-0.0680410862 0.06048952043 0.8603163958 0.05581635237 -0.1124001965 0.9098002315
-0.05961453542 0.07515612245 0.8624609709 -0.1635726243 -0.4497814775 0.8586812615
-0.07281435281 0.04852314666 0.85908252 0.2500165999 0.02064080723 0.9010336995
-0.08312230557 0.08211371303 0.8639354706 -0.0657440573 -0.1097012013 0.9878320098
-0.08319024742 0.0735674575 0.8632053733 0.04502401873 -0.09872403741 0.9843431115
-0.07530688494 0.07707347721 0.8633113503 0.001468627597 -0.2444265783 0.9431506395
-0.09434242547 0.07274979353 0.8608111143 -0.02791742794 -0.007916078903 0.9992158413
-0.08443504572 0.06213601679 0.8334739208 0.4748660028 0.5279542208 0.612424314
-0.09838403016 0.05342907086 0.8553832173 0.1634533107 0.1900646389 0.9570019841
-0.09194535762 0.05991661921 0.8417621255 0.3483325243 0.4112983942 0.7325890064
-0.08424053341 0.05080329254 0.8494459987 0.2883390486 0.2298173308 0.9108954072
-0.09157093614 0.05504610389 0.8484277129 0.2716356814 0.2854117453 0.8584865928
-0.0773884505 0.05501370504 0.838778317 0.4402019083 0.3940346837 0.7433952093
-0.0843533203 0.05640634522 0.8415605426 0.3803623915 0.3770920336 0.7634630799
-0.1276074648 0.0639487505 0.8514819741 -0.2483335584 0.2102309912 0.9180806279
-0.121899806 0.009209162556 0.8774651289 0.04357406497 0.380697906 0.9217909575
-0.1026190072 0.01847521774 0.8660984039 0.2781595588 0.2775188684 0.9167199135
-0.08085733652 0.02488326095 0.8601686358 0.4406968057 0.1728085726 0.8747385144
-0.0982247293 0.04725765064 0.861792326 0.1838066727 0.153178975 0.9699164629
-0.0587433055 0.02696814574 0.8472959399 0.1106110886 0.009579516016 0.9876334667
-0.06903095543 0.02520767599 0.8492437601 0.3483388722 0.1006608158 0.9272028208
-0.05667085201 0.01928279735 0.8465652466 0.1303029805 0.1113219187 0.9795261621
-0.0554442443 -0.003269941779 0.8626363873 0.342353344 0.6843627691 0.6413261294
-0.033193212 -0.01220421214 0.8583965898 0.1859785914 0.752628088 0.6313331127
-0.0333411023 -0.003204012755 0.8520991802 0.04150572419 0.4167003036 0.8897122741
0.04914409667 0.04866781086 0.8654688001 -0.2674969435 -0.6256740093 0.727203548
0.04673247412 0.05381648242 0.8707741499 -0.3068898022 -0.5949309468 0.740975976
0.05420877039 0.03825720027 0.8547928333 -0.1876623183 -0.6887059212 0.6987377405
-0.05332386494 0.05412339419 0.8476695418 -0.3664952815 0.0681078732 0.8046956062
-0.06324442476 0.05579898134 0.8450760841 -0.4964719713 0.2106267214 0.8019953966
-0.0491200611 0.03553669155 0.846984446 -0.1203884557 -0.01829049177 0.9494278431
-0.0596520789 0.04839980975 0.8454964161 -0.3618516624 0.147545293 0.872358501
-0.04715787992 0.04448953271 0.8490198851 -0.1378206462 -0.03893682361 0.9309244156
-0.04069356248 0.03554256633 0.8497702479 0.01616913453 -0.1416731328 0.9812735915
-0.07367122918 0.06527096778 0.8333643079 -0.05869578943 0.4936441779 0.560172677
-0.0704979673 0.05902881175 0.8384226561 -0.1429124326 0.3943413198 0.7097024322
-0.04608325288 0.008306874894 0.8820554614 0.07958699018 0.2311273813 0.8582848907
-0.05855331197 0.0004554056213 0.8717881441 0.2346765995 0.5552806854 0.7117023468
-0.07110657543 0.002578957472 0.8649070859 0.3192772865 0.582300365 0.7460185289
-0.04547388479 -0.003268182278 0.8567408323 0.3140852153 0.6236438751 0.7128196359
-0.05221210793 0.00705746375 0.8515914679 0.2197387367 0.4112377763 0.8754640222
-0.04020227864 0.0009108693339 0.8512140512 0.1360097229 0.4254550338 0.8928546309
-0.03180323914 0.003657752881 0.8489034176 -0.08036804944 0.2444628775 0.9614201188
-0.005222154316 0.04870877787 0.8542264104 -0.08381025493 -0.3869821727 0.9179810286
-0.01681069843 0.06253024191 0.857486248 -0.09320099652 -0.3328628838 0.9379285574
-0.008997281082 0.05504471064 0.8578229547 -0.1036305055 -0.3853483498 0.9155307412
-0.1622220278 0.06442388892 0.8502337933 -0.1732136756 -0.04789432138 0.8862157464
-0.1637017131 0.07560803741 0.8461313844 -0.01672266237 -0.2501147389 0.9667393565
-0.152487725 0.06798835099 0.8444780111 -0.2331129164 -0.03933134302 0.9692306519
-0.1482328475 0.07460098714 0.8461182117 -0.1834507138 0.01695862599 0.9805837274
-0.1423229277 0.06568916887 0.8479421735 -0.3590945005 0.1822372973 0.9133016467
-0.1360234767 0.06318293512 0.8579289913 -0.3782038093 0.2908602357 0.8503684998
-0.1756823957 0.03235351294 0.8476554155 -0.2079902887 0.3497323394 0.8709260821
-0.1545027941 0.0529550612 0.8533852696 -0.3883253038 0.2072470635 0.8045494556
-0.1372320354 0.03928165138 0.8610818386 -0.2801979184 0.3038946092 0.86666435
-0.1566067934 0.03199860081 0.8531008363 -0.4957871139 0.4074031413 0.7663536072
-0.1727657467 0.06269474328 0.8507890105 -0.1102227494 -0.07568389922 0.8950436115
-0.1625827402 0.05013294145 0.8496929407 -0.3397485018 0.1752297133 0.846437335
-0.1821776778 0.07411582768 0.8516458273 0.1000083983 -0.3051932752 0.9410761595
-0.1665611863 0.04997367784 0.8398153782 -0.2701359689 0.1402520835 0.9495591521
-0.1629562825 0.04325266182 0.8448641896 -0.4017525911 0.2618201971 0.8712648153
-0.1558789015 0.04248489439 0.8502902389 -0.4819602072 0.332757771 0.8020698428
-0.1286129951 0.06181854382 0.8609830141 -0.3487038612 0.3328680694 0.8697888255
-0.1250537187 0.05547725409 0.8577647805 -0.2418851852 0.3163500726 0.8724267483
-0.1417633742 0.08470220864 0.8476997018 -0.169371888 0.03693657368 0.9797552228
-0.1441330761 0.07683347166 0.8543428183 -0.2067434937 0.08743412793 0.929217577
-0.149163872 0.08231061697 0.8523850441 -0.1275396794 -0.006187762599 0.9606277943
-0.1351707876 0.02597194538 0.8715595007 -0.1542729884 0.2662854493 0.9507676959
-0.1425606012 0.02835308574 0.8684524894 -0.3407608569 0.3438399136 0.8671886921
-0.1297807693 0.03658588976 0.8696009517 -0.1346889734 0.2952049077 0.9412386417
-0.1265002936 0.04347189143 0.8674408197 -0.1190071255 0.3136161268 0.9411103725
-0.07742898166 0.05627639592 0.8601986766 0.3029434383 -0.001036038622 0.9244745374
-0.06732717156 0.07316008955 0.8614555597 -0.0004324764595 -0.4140460193 0.8725002408
-0.07373907417 0.06764493138 0.8612465858 0.09942919016 -0.2437289506 0.9077420831
-0.08917067945 0.05846061185 0.8608600497 0.2425341159 0.08413168788 0.9539083838
-0.1125505641 0.04139917344 0.867882669 0.1150007993 0.2348000109 0.9629343152
-0.1153139398 0.06012451649 0.8638805151 -0.04510362074 0.251175493 0.9644904137
-0.1197825596 0.04742959887 0.8663831353 -0.02065907791 0.2797639668 0.9532818794
-0.1111391485 0.07208650559 0.8442879319 -0.02404735982 0.3244573176 0.8104658723
-0.1034738421 0.06657805294 0.8473169208 0.1019485742 0.2886261046 0.8363571763
-0.09105232358 0.06678906828 0.8342525959 0.3884008825 0.5171070099 0.6163939238
-0.1039613038 0.07104235888 0.8390322924 0.1309805214 0.4199181199 0.7167844772
-0.1015874296 0.06194272265 0.8545133471 0.1034239307 0.17695795 0.9367402792
-0.1111519709 0.06847959757 0.851395607 -0.05681939796 0.211117208 0.9140771627
-0.09753848612 0.0661785081 0.842058599 0.2343180031 0.3821091652 0.7455955744
-0.08544407785 0.06982763857 0.826654017 0.54788661 0.6507658362 0.465141952
-0.1099341884 0.06104231626 0.8556767702 -0.008569928817 0.1794653237 0.9641059637
-0.1204352528 0.07248064876 0.8514634371 -0.2189195901 0.2007083595 0.9355931282
-0.1138453633 0.01124551427 0.8757520318 0.1128361225 0.3848353624 0.9138665199
-0.1060662344 0.017017873 0.8733950853 0.2298971713 0.3131499588 0.9150623083
-0.08049751073 0.01714914106 0.8582239747 0.3612582982 0.3028570116 0.8786359429
-0.07303670049 0.03265521675 0.8501728177 0.3845210671 0.06615050137 0.917906642
-0.08297899365 0.0334747918 0.8578308225 0.4086887538 0.08186809719 0.9059096575
-0.07226336002 0.009513225406 0.8604484797 0.3628511131 0.4672836363 0.8010292053
-0.06213625893 0.02490041777 0.8559728861 0.1550883651 0.09259089082 0.9056997299
-0.05352789536 0.0266059991 0.8597478867 0.04932744801 -0.01721552759 0.943529129
-0.03488683328 0.01708414592 0.8897493482 -0.1016996205 -0.0920253545 0.9852573276
-0.05333976448 0.01483895443 0.866838336 0.1690508276 0.2100108117 0.879592061
-0.04613840207 0.01769074611 0.8746305108 0.04286480322 0.05354805663 0.9317227602
-0.04107105732 0.01849220693 0.8808145523 -0.03340677917 -0.03300591931 0.9617590308
-0.05353542417 0.03315831721 0.8559272289 -0.01864257641 -0.1451037675 0.9796231389
-0.04828055575 0.02937497199 0.8650238514 -0.04979773611 -0.1447213888 0.9853250384
-0.0602898933 0.0158671625 0.8571193218 0.2515595257 0.2871662378 0.8501272798
-0.04906679317 0.02198424377 0.8682903647 0.03752557188 0.01065014582 0.9405949712
-0.05001996085 0.01062900014 0.8738117218 0.164698258 0.2453484982 0.8720815182
-0.05791873857 0.007161476649 0.8675975204 0.2612417638 0.4178594053 0.7993497849
-0.06441610307 0.006437676027 0.8590530753 0.3652038276 0.5240823627 0.7653223872
-0.04564939812 0.01161271147 0.8466624618 0.08636575937 0.1700660586 0.9728586078
-0.02232303284 0.03381377459 0.8494587541 0.08071801811 -0.1909934729 0.9782592058
-0.01272012293 0.04700998962 0.8526693583 -0.02165059373 -0.330216229 0.9426343441
-0.02264858969 0.04806618765 0.8524771929 0.03415314853 -0.2601161301 0.9642076492
-0.01785354875 0.04165017605 0.8493439555 0.05469650775 -0.2326705009 0.9703998566
-0.01882664487 0.05447201431 0.855447948 -0.03379077464 -0.3213807344 0.9449394941
-0.1459395587 0.05133421347 0.8544180393 -0.4914044142 0.3318746388 0.7738201022
-0.1592646688 0.0812933147 0.8513714075 -0.06793665886 -0.1594288647 0.9431160688
-0.1574956924 0.0719351843 0.849853158 -0.1492637098 -0.07868441194 0.9112176299
-0.151520282 0.06600549817 0.8520697951 -0.2807646692 0.08968510479 0.8599983454
-0.13656874 0.04864049703 0.8583352566 -0.3822314739 0.3431243002 0.8260157704
-0.1457150877 0.06122200191 0.8537460566 -0.3890143931 0.2513204217 0.8255371451
-0.1784500331 0.05807634443 0.8412383795 0.05125050619 -0.219729349 0.9730018377
-0.1760133654 0.0517972745 0.8459421992 -0.1302129328 0.02606437542 0.9011176229
-0.1729545891 0.04440781474 0.8453376889 -0.2047036886 0.1505849063 0.8801696897
-0.1808373928 0.04489248246 0.8454529643 -0.1029411778 0.1158982888 0.912635684
-0.1684396863 0.03561975807 0.8449196815 -0.3414746523 0.3610765934 0.8613282442
-0.1764599085 0.04747480899 0.8390001059 -0.05348109081 0.05087769777 0.9906394482
-0.1104896888 0.05446302518 0.8604201674 0.03394904733 0.2360860109 0.9674760699
-0.1058314815 0.04524112865 0.8633289337 0.1429216713 0.2028343529 0.9677347541
-0.09820530564 0.06428325176 0.8611630797 0.02040430158 0.06079313532 0.9937667847
-0.1353001744 0.06995023042 0.8488758802 -0.3729738593 0.2169798464 0.9014427066
-0.08781119436 0.02183715813 0.8607504368 0.3802320659 0.2092269212 0.8960831165
-0.08655923605 0.0150449248 0.8645906448 0.3744079173 0.3165831864 0.8633068204
-0.09416929632 0.02866634913 0.8659229279 0.3057840168 0.1839726567 0.9252509475
0.01437641773 -0.01149046328 0.8745779991 0.003962043673 -0.8197915554 0.3836772144
0.01389879175 -0.004468509927 0.9002615809 -0.1479334086 -0.1442985982 0.9069826007
0.01229383796 -0.008995503187 0.885248363 -0.0685627833 -0.5471612215 0.5996229053
-0.1521982551 0.05910720676 0.8450567722 -0.3678695261 0.131588921 0.8964664936
-0.138146475 0.05682479218 0.8545278311 -0.4594389498 0.3665704131 0.8070667982
-0.09117395431 0.05100012943 0.8609524369 0.2926830053 0.1514766663 0.9367411137
-0.07976311445 0.04403005168 0.8605000973 0.4648929834 0.0639455542 0.8814008832
-0.0935761705 0.03668506444 0.8646213412 0.3125966489 0.1149455011 0.9421360493
-0.07888631523 0.0416255407 0.8529347777 0.3885680735 0.1392614245 0.903850615
-0.08664339781 0.04532254115 0.8559601307 0.2862575352 0.1695209444 0.9371421337
-0.003214163939 -0.004215749446 0.8977652192 -0.101618655 -0.583412528 0.7946316004
0.002921227599 -0.007182282396 0.8914635777 -0.1383044571 -0.6167996526 0.6857928038
0.003359380178 -0.01162204798 0.8786646128 -0.04993434995 -0.8407959342 0.4450541139
0.0001589665771 -0.01366270054 0.8705655336 -0.07185450941 -0.9372034669 0.3199262917
-0.01232495345 -0.005216275807 0.8933383226 -0.09689223766 -0.5715994239 0.7781044245
-0.01069472264 -0.007461695932 0.886433363 -0.1053603813 -0.6700528264 0.6507707238
-0.01091807336 0.001473420998 0.8990639448 -0.07836783677 -0.2973653376 0.9118122458
-0.003538833465 0.002492940985 0.9012286067 -0.1415020376 -0.1994622499 0.9430041313
