# .PCD v0.7 - Point Cloud Data file format
VERSION 0.7
FIELDS x y z normal_x normal_y normal_z
SIZE 4 4 4 4 4 4
TYPE F F F F F F
COUNT 1 1 1 1 1 1
WIDTH 512
HEIGHT 1
VIEWPOINT 0 0 0 1 0 0 0
POINTS 512
DATA ascii
-0.208216697 0.03478364646 0.8957257867 0.2472791225 -0.07425868511 0.9629630446
-0.1993920803 0.03541686386 0.8925035596 0.1488963515 -0.1292079687 0.9767012
-0.0003328846651 -0.1062235385 0.9738817811 -0.01003814302 -0.8710353971 0.3913556337
-0.001906239544 -0.063291125 0.9859486818 -0.3214439154 -0.1341756731 0.8849188685
0.009063379839 -0.05214111134 0.9725019932 -0.4941989183 -0.3667114377 0.7164270282
0.0009113608394 -0.07518614084 0.9927191138 -0.145043686 -0.08695742488 0.970852077
0.01569323428 -0.05597887188 0.9703489542 -0.4815460443 -0.4141485691 0.6998074055
0.00926841516 -0.06365551054 0.9800690413 -0.331273973 -0.2824301422 0.8142572045
0.02280084603 -0.05129636452 0.9621070623 -0.5985235572 -0.5209906697 0.608546555
0.02514007129 -0.09670793265 0.9304863214 0.5138049126 -0.1524246633 0.8152769208
-0.1875377148 0.05242527276 0.9001212716 -0.08802247047 -0.4966234565 0.861764729
0.003145837225 -0.08777361363 0.9929950237 -0.04072792456 -0.2367011607 0.9601331949
-0.002347921254 -0.1039467454 0.9871945381 -0.1580337733 -0.5968607664 0.7736323476
-0.03278189898 -0.05339124799 0.9830224514 -0.3296468258 0.003676518332 0.9211822152
-0.0196987763 -0.02914782986 0.9765651226 -0.5385839939 -0.3438557684 0.6657530069
-0.02387356386 -0.04246743768 0.9807443619 -0.4368585944 -0.1569399685 0.7973120213
-0.01305524446 -0.02114836685 0.9749220014 -0.6176151037 -0.4616348147 0.5746938586
-0.00662191445 -0.03924591467 0.9746440053 -0.5015065074 -0.3000153899 0.7104675174
-0.0103665106 -0.02922817878 0.9767937064 -0.5635539889 -0.3697043955 0.640630424
-0.005807018839 -0.01919833757 0.9720103145 -0.6555113792 -0.5320597291 0.5302429199
-0.02248675376 -0.05157504603 0.98444736 -0.3841190934 -0.03497619182 0.875353694
-0.01598615013 -0.03713313118 0.9801974893 -0.4982071519 -0.2408291996 0.7282887697
0.02236139216 -0.1032708511 0.9344644547 0.6431882977 -0.1735023111 0.6970421672
-0.1825742126 0.03916459158 0.8909322023 -0.159807995 -0.2228491753 0.9578944445
-0.1930144727 0.04228286818 0.8929591775 0.04252036661 -0.227139309 0.9687818885
-0.1755137146 0.04875368625 0.89854002 -0.2254425883 -0.4064959586 0.8831223845
-0.1797196269 0.05434518307 0.9041378498 -0.1579303592 -0.5229879618 0.8349437714
-0.1706961244 0.05415293947 0.9039123654 -0.2308925837 -0.4936929047 0.8367466927
0.01865893789 -0.09186889231 0.9324458241 0.2140152603 -0.0682606101 0.9396899343
-0.05551624671 -0.09402494878 0.9411874413 -0.2001354396 -0.1490152329 0.4381416738
-0.01527953148 -0.1075419933 0.9690431952 -0.2087816149 -0.8564231992 0.4060638249
-0.01164074615 -0.1094019338 0.9613053799 -0.1409254372 -0.9214862585 0.2849867344
-0.003589360043 -0.1083678678 0.9648670554 -0.03444087878 -0.9359958768 0.2760258317
-0.0082939649 -0.105899103 0.9751285315 -0.1227154657 -0.8502655625 0.4357874095
-0.02126861922 -0.1108542457 0.956205368 -0.2583417296 -0.9193264246 0.2592518032
0.006061863154 -0.1008926108 0.9883307219 -0.1279986799 -0.5702898502 0.7719368339
-0.001912219101 -0.09718088061 0.992000103 -0.01706055924 -0.3033411801 0.9511671066
-0.02886420861 -0.03092531301 0.9624122381 -0.4953058362 -0.2782207131 0.7435647249
-0.04087527841 -0.04805688933 0.975250423 -0.3260699809 -0.04438534752 0.915225625
-0.03299855068 -0.03969542682 0.9707716107 -0.4257189333 -0.1738933772 0.8067131042
-0.02746524476 -0.02175864205 0.9510822296 -0.5433058739 -0.3649549782 0.7134355307
-0.04662481323 -0.05563541874 0.9806925654 -0.2948194742 -0.00318918284 0.9484302998
-0.0573795177 -0.06206864119 0.9789018631 -0.352488786 -0.1370947212 0.9073007107
-0.1344276965 0.05400266126 0.9138746262 -0.3450796604 -0.2918938696 0.8914714456
-0.132404089 0.05843794718 0.9217979908 -0.3299662173 -0.3418810666 0.8789381981
-0.1404214203 0.04113938659 0.904930234 -0.4089471102 -0.1108729392 0.8858796954
-0.03047456034 -0.03730614483 0.9296680093 -0.3496612012 -0.3316453397 0.8703751564
-0.02197740227 -0.0349846147 0.9345765114 -0.4790409803 -0.3887999058 0.7835941911
-0.01920333505 -0.04303161427 0.9310381413 -0.4700119495 -0.3442607522 0.8087339997
-0.0514035821 -0.06597955525 0.9281744957 -0.01168618817 0.2225600779 0.8717765808
-0.04208759218 -0.0558357127 0.9246757627 -0.1466493309 -0.04064847901 0.9318820238
-0.0549508445 -0.07761000842 0.9321859479 0.04390425235 0.4951041043 0.7808613181
-0.0623242557 -0.07276813686 0.9272915721 0.07356972247 0.4483039081 0.8434785604
-0.0731548667 -0.07000405341 0.924020648 0.1955198199 0.4860948324 0.8447917104
0.009503733367 -0.1033479422 0.9783148766 -0.1361800134 -0.8815187812 0.4319045842
0.02191023156 -0.08974996954 0.9474220276 -0.2542172968 -0.4176622033 0.6735903621
0.02015803009 -0.1008477584 0.946211338 0.2458212078 -0.4606800675 0.5419948697
0.02320416644 -0.09323423356 0.9405084252 -0.009914183058 -0.3198804259 0.6743898392
0.01649448462 -0.1042105034 0.9569432735 0.2490182072 -0.6627660394 0.4305763245
0.01468038186 -0.09668849409 0.9712417722 -0.1657063961 -0.8367450833 0.4262605309
0.02085613459 -0.08183281124 0.9625928998 -0.448132962 -0.6198132634 0.5949038863
0.01842032 -0.08765723556 0.9681655765 -0.3765345812 -0.690487802 0.5550065637
0.01965141855 -0.09026681632 0.9553675056 -0.3008035719 -0.562821269 0.6016087532
0.02381275594 -0.07621838897 0.9529698491 -0.5011821389 -0.5117231607 0.647157371
0.009920245968 -0.1095020622 0.9568244815 0.2989945114 -0.7030562758 0.3856721818
0.01553909574 -0.1116725504 0.9435164928 0.5800217986 -0.3791760802 0.5534886122
0.005053096917 -0.1087460518 0.9630417228 0.1006790325 -0.677401185 0.3007494807
0.001814503805 -0.1122029498 0.9505283833 0.1121726483 0.2677805126 0.4764223099
-0.214095518 0.01971847564 0.9003219604 0.2402576953 0.2793816328 0.9231638908
-0.1666888744 0.04823454842 0.9004948139 -0.2384462506 -0.4328153133 0.8677422404
-0.1741215885 0.03076114692 0.9022915363 -0.3197671175 0.1247138157 0.8314293027
-0.165517509 0.04040386528 0.8961704373 -0.2785979211 -0.221491307 0.9265662432
-0.1744551361 0.04019602761 0.8940834403 -0.2365975231 -0.2480626255 0.9315381646
-0.141448766 0.05999126285 0.9205282331 -0.2989469171 -0.4477292597 0.8393547535
-0.1393631101 0.04952281713 0.9087439179 -0.3422904015 -0.331086725 0.8741073012
-0.02092976868 -0.05002277344 0.9267036915 -0.4232900143 -0.2938763797 0.8563222289
0.01041545998 -0.07374057174 0.9361029267 -0.5173311234 -0.4700028002 0.7141387463
0.01658221334 -0.08288260549 0.9343742728 -0.2148337513 -0.2453200668 0.8733186126
-0.06928285956 -0.06211959571 0.9212158322 0.005428256933 0.3013997674 0.9437881112
-0.06011385098 -0.05614374205 0.9208486676 -0.02198657207 0.07595356554 0.9704839587
-0.05215378106 -0.05456482992 0.9230059385 -0.07261333615 0.004578018095 0.9714280963
-0.07657392323 -0.06658797711 0.9618319869 -0.1645301431 -0.05394366011 0.804644227
-0.06674924493 -0.06449814886 0.973734796 -0.3485225439 -0.2792874575 0.8575600982
-0.008058081381 -0.09154865146 0.992000103 -0.1314971745 -0.1990845054 0.9657059908
-0.02219221555 -0.1077238321 0.9651915431 -0.3297694027 -0.8043711185 0.399076581
-0.02222373709 -0.1043330133 0.9741438627 -0.4005353451 -0.677531898 0.5438038707
-0.05040128902 -0.09917733073 0.9486060143 -0.4668610394 -0.8494246006 0.2336761653
-0.04790489003 -0.09599632025 0.9558564425 -0.4558665752 -0.8261986375 0.3050425947
-0.05498685688 -0.09056877345 0.9656201005 -0.4749741852 -0.7272562385 0.4173863828
-0.06093135476 -0.09079635888 0.952965796 -0.4637820721 -0.7966690063 0.1778033227
-0.05903168395 -0.08626862615 0.9720051289 -0.4974596202 -0.6253545284 0.5710110664
-0.06493005157 -0.08584840596 0.9621372819 -0.373385489 -0.4261697531 0.5017341971
-0.06498678029 -0.09129855037 0.9438210726 -0.3039668202 -0.5409420729 0.1461674273
-0.06776092201 -0.08680723608 0.9539928436 -0.1922900081 -0.1306083798 0.5047405958
-0.04829394072 -0.06437958032 0.9786149263 -0.2874230146 -0.07538066059 0.9511642456
-0.01810090244 -0.02183165587 0.9620231986 -0.6120448709 -0.4350861311 0.6018003225
-0.02295144275 -0.02861755341 0.9687088728 -0.5374279022 -0.3412520587 0.6730747223
-0.01523628552 -0.01735199802 0.9559595585 -0.6639018059 -0.4948565066 0.557174921
-0.01180519443 -0.01671279222 0.9666939974 -0.6602675319 -0.5183436871 0.5338279605
-0.03298614174 -0.04235059395 0.9784643054 -0.3985240459 -0.1461102515 0.8229284286
-0.02703225426 -0.03453809395 0.9735612273 -0.4777839184 -0.2579192817 0.7367412448
-0.03367738053 -0.001486266148 0.9461835027 -0.4760025144 -0.3501873016 0.7923287153
-0.02245721966 -0.009220428765 0.95427531 -0.5836265683 -0.4464607537 0.6493480206
-0.02706148848 -0.006966243964 0.9459066987 -0.5681133866 -0.4231070578 0.6963834167
0.0221635811 -0.06978169829 0.9480601549 -0.5684413314 -0.4968138337 0.655544579
0.02090454474 -0.0601872243 0.9539901018 -0.5892716646 -0.5160194039 0.6210123897
0.0108095305 -0.07362615317 0.979382813 -0.278177917 -0.2426849157 0.8590641022
0.006418981124 -0.07686829567 0.9871740341 -0.1739154011 -0.1682775021 0.9283711314
0.01475581527 -0.06801378727 0.9733105898 -0.3777435422 -0.3292123675 0.7789929509
0.0193390511 -0.06527417153 0.9652510881 -0.4771500528 -0.4154684544 0.7074452639
0.01764641888 -0.08564085513 0.9770754576 -0.2229775637 -0.4118288159 0.8240532875
0.02292170562 -0.07263965905 0.9600443244 -0.4805746377 -0.4778130651 0.695151329
0.0151344426 -0.09442307055 0.9796818495 -0.2370857596 -0.646656096 0.6386666298
0.01311373618 -0.0972045213 0.9897515774 -0.05530951545 -0.4543965459 0.8413048983
0.01715348661 -0.07642567903 0.9715384245 -0.324906081 -0.4022997618 0.7833685279
0.01130083855 -0.08195513487 0.9818236828 -0.1679130793 -0.3232480586 0.8759459853
0.004283074755 -0.09623643011 0.9410422444 0.08529156446 0.3957220018 0.6633550525
0.01066477969 -0.09154871106 0.9365166426 0.1463247687 0.08694345504 0.8727437258
0.002768072532 -0.1141076237 0.9425497055 0.1287639439 0.3320153356 0.7290451527
-0.00577394478 -0.1088655666 0.9477155209 0.03896265477 0.5517635345 0.275382638
0.01194886118 -0.1054567695 0.9666383266 0.1361194104 -0.860057056 0.3339488506
0.01356631331 -0.1003305018 0.9354364276 0.2783299387 0.147853002 0.9130880237
0.0009643927915 -0.1051478311 0.9440488815 0.1332512647 0.7068908811 0.4808366597
-0.1944317967 0.03075802885 0.8885027766 0.1096501872 -0.03063885868 0.9830595851
-0.1947838664 0.02334762551 0.899625957 -0.0254966151 0.2229451388 0.8694589734
-0.2115082294 0.02783474699 0.90009588 0.2361779958 0.09776483476 0.9442589283
-0.1832479089 0.01611742936 0.9008274078 -0.2451548576 0.4085937142 0.8039626479
-0.1874406785 0.04248905927 0.9002758861 -0.09349790215 -0.2857149839 0.8687754273
-0.1856401712 0.03234169632 0.9005316496 -0.1554984003 -0.01880274154 0.8428658247
-0.19316113 0.03649139032 0.898848474 0.001983166439 -0.1190323979 0.8886450529
-0.2117387056 0.007870258763 0.9039852619 0.136269927 0.4715164006 0.8575975895
-0.1564170867 0.003151133424 0.9230594635 -0.3062248528 0.4664908648 0.8289840817
-0.1487187296 0.03147141635 0.9032208323 -0.4322134852 0.2022771239 0.8649107814
-0.1448043287 0.05605112016 0.9119015336 -0.2952275276 -0.4718677104 0.8292224407
-0.152809009 0.05582044274 0.9096843004 -0.2668412626 -0.5067270994 0.8190149069
-0.1497302651 0.04974285886 0.9050774574 -0.3263856471 -0.3953249454 0.8510405421
-0.1575338691 0.04753377661 0.9024782181 -0.2807163596 -0.3878171742 0.8749787807
0.01926352084 -0.07551279664 0.9382296205 -0.5679701567 -0.3897080123 0.7212771773
0.02523768321 -0.08172778785 0.9393184185 -0.4803403616 -0.2505094409 0.8175908327
-0.07622876763 -0.07608220726 0.9312640429 0.2527303994 0.5660085082 0.7840181589
-0.02804083563 -0.100894697 0.9667634964 -0.4163276553 -0.8271965384 0.3562344313
-0.02816994861 -0.1049631983 0.9583442807 -0.3502358794 -0.8806003332 0.295063585
-0.1340817064 -0.05028491467 0.935129106 0.3084775805 0.4096887708 0.8582394123
-0.1494479179 -0.02389795147 0.9332036972 0.1242536828 0.3852035403 0.9037185907
-0.09670580924 -0.05932071432 0.9309828877 0.3702438474 0.4452984929 0.8067705631
-0.008509453386 -0.07502177358 0.9924747348 -0.1991333365 -0.04800017551 0.9775807261
-0.01275915466 -0.08314675838 0.9920248985 -0.2138410956 -0.1011345312 0.9710252285
-0.01241718791 -0.06659161299 0.9919720888 -0.27791664 0.02245824598 0.960331738
-0.03135962412 -0.05395550653 0.9250417948 -0.2968518436 -0.1609988958 0.8931550384
-0.01834921353 -0.06870691478 0.9387239218 -0.5015895963 -0.4921685159 0.6471626759
-0.01998115703 -0.0575577803 0.9310393929 -0.4514929354 -0.3553438485 0.792914927
-0.0303369686 -0.07720335573 0.9383000731 -0.4304654598 -0.5953375101 0.5413480401
-0.02849843167 -0.06297378242 0.930478096 -0.3907877803 -0.3863998055 0.7328133583
-0.05158478767 -0.08624051511 0.9372724295 -0.05897020176 0.2565916777 0.6264240146
-0.03797943518 -0.0911590457 0.9437242746 -0.3869073093 -0.6539751291 0.3853593171
-0.0364150852 -0.06648089737 0.9302985072 -0.2452282608 -0.03831163794 0.7692363262
-0.04328305274 -0.07987382263 0.9359516501 -0.1925017089 -0.03169455752 0.6320729256
-0.04677702487 -0.07423786819 0.9318405986 -0.07721069455 0.3269310594 0.7652787566
-0.03732761741 -0.07416601479 0.9343640804 -0.2801888287 -0.2059569806 0.6547213197
-0.03628997505 -0.08447022736 0.9404286742 -0.375757277 -0.5587427616 0.4744434953
-0.03577155247 -0.07229269296 0.9844600558 -0.3800242543 -0.02077425458 0.9239805937
-0.03939542174 -0.06170382723 0.9821905494 -0.3169448376 0.02196689881 0.947368741
-0.02730459534 -0.07247267663 0.9871051311 -0.3636730611 0.007360767573 0.9307193756
-0.02770983055 -0.06033866853 0.9856490493 -0.336033076 0.05115773529 0.9403893948
-0.02838583104 -0.04571374506 0.9259189963 -0.3603411615 -0.2902234793 0.8841497302
-0.04360280558 -0.03704507276 0.9253098369 -0.1865820289 -0.2192986757 0.9568619728
-0.03730974719 -0.04597073421 0.9241316915 -0.2182939351 -0.2374220192 0.9432472587
-0.04050349444 -0.0005131044309 0.9414197206 -0.4161904752 -0.306221962 0.8558854461
-0.0499008894 0.008043033071 0.9381225109 -0.4153091013 -0.283560127 0.8642226458
0.01772443205 -0.04274842143 0.9623528123 -0.5967746377 -0.5275556445 0.6045261621
0.01098050363 -0.0446363464 0.9568321109 -0.5986710191 -0.5193905234 0.6097437143
0.003272333415 -0.05663668737 0.9789884686 -0.4161513448 -0.2529394925 0.7964019775
-0.01827172749 -0.01756685041 0.9466798902 -0.6592957377 -0.4667409658 0.5877687335
-0.07898402214 0.0115603162 0.9015938044 -0.9295067191 -0.2944561839 0.1581614465
-0.07312704623 0.01436767727 0.9161237478 -0.7425110936 -0.3300216198 0.4303651154
-0.06632834673 0.0131652914 0.9230736494 -0.6292518377 -0.3146639466 0.586148262
-0.06321757287 0.02005423978 0.9350412488 -0.4102913737 -0.2874452174 0.8653252721
-0.1118156016 0.03408119082 0.9256444573 -0.2757310569 0.1055640727 0.9482223392
-0.1024019718 0.04739155248 0.9306912422 -0.2928680778 0.0124744596 0.9533271194
-0.1128666997 0.05174873397 0.9245995879 -0.3109322488 -0.09468834102 0.9449189901
-0.1413423568 -0.02981618233 0.9380147457 0.2493200898 0.3107327521 0.8888334036
-0.1311458498 -0.01603776589 0.9321775436 0.06523074955 0.1201999411 0.9769719839
-0.1700041741 0.02962836809 0.8949066401 -0.3219850361 0.1200446412 0.9129468799
-0.1764030755 0.0249355454 0.8933404088 -0.2774773538 0.2425951511 0.9218270183
-0.1685628146 0.001223426312 0.9126845002 -0.3694952428 0.5642693043 0.7350114584
-0.2044548988 0.004259957932 0.9068909883 0.03274706751 0.5259750485 0.8145554066
-0.1966203898 -0.01121764723 0.9156761169 -0.1530835778 0.6309345961 0.7578040957
-0.1478212476 0.009975233115 0.9227058887 -0.2775360048 0.4525860548 0.8461794853
-0.1311094165 0.03472262621 0.9112279415 -0.4461739361 0.164071098 0.8794319034
-0.1146202013 0.02494696714 0.9054689407 -0.5898240805 0.07371822745 0.4889358878
-0.1244063303 0.02992714383 0.9083238244 -0.514203012 0.1287457198 0.7024868727
-0.1004960835 0.02166467533 0.8957452178 -0.775949657 -0.1321150064 0.1405996382
-0.07857284695 -0.08223946393 0.9564775229 -0.0074453298 0.1260946989 0.688737452
-0.0771567598 -0.07645340264 0.9634583592 -0.1965410262 -0.0290759448 0.7362514138
-0.06928830594 -0.08164260536 0.9687713385 -0.3405874372 -0.3089313209 0.6757433414
-0.07563427836 -0.0840036273 0.9373520613 0.2687953115 0.691554904 0.6700409055
-0.08069045097 -0.08281224966 0.9487027526 0.1527481973 0.3943670094 0.6977598667
-0.09176484495 -0.06599928439 0.9310126901 0.3919376433 0.5117803216 0.7636607289
-0.01670298725 -0.1117867827 0.9489381313 -0.1662164629 -0.9666153193 0.1593008935
-0.005637838505 -0.0702271536 0.9380696416 -0.3720864058 -0.3458218277 0.7876066566
-0.01416066568 -0.0754121989 0.9406329989 -0.4393778443 -0.5240398645 0.6180900335
0.003951399587 -0.0822077319 0.9376204014 -0.09752892703 -0.2140833735 0.9039683342
-0.02068723924 -0.09577136487 0.9448359013 -0.3079768419 -0.7237889767 0.4198648036
-0.01195405889 -0.08373869956 0.9412908554 -0.3140299618 -0.5152286887 0.6216161847
-0.02268694527 -0.08234847337 0.9431350827 -0.4609048963 -0.6530766487 0.4857364297
-0.02683452144 -0.08868867904 0.9447693229 -0.4392918348 -0.7294788361 0.4072374701
-0.02292849682 -0.1058547124 0.9478855133 -0.2259065509 -0.4621388912 0.2534196675
-5.36422267e-05 -0.08868978918 0.9396677017 -0.08339820057 -0.2296766788 0.7864972353
-0.01413344685 -0.1037960723 0.9466587901 -0.117728278 -0.01097292639 0.3446815908
-0.01023650635 -0.09461011738 0.9425934553 -0.1670660675 -0.4702506065 0.5922787189
-0.04047560692 -0.1019836292 0.9493038058 -0.4124649465 -0.8691148758 0.2660515904
-0.2035715282 -0.004160052165 0.9087361693 -0.02187388577 0.6232202053 0.7754838467
-0.1914569438 -0.01730025746 0.9203002453 -0.2233916521 0.5999915004 0.7662886381
-0.1793533564 -0.02727987245 0.9193889499 -0.2106096596 0.5724093914 0.7915993929
-0.1843321025 -0.02142215706 0.9180809855 -0.2005364597 0.5946107507 0.7766388655
-0.1710289419 -0.003465854097 0.9183830023 -0.3297083974 0.5858447552 0.7390615344
-0.1701029539 -0.01498237438 0.9288432002 -0.2169655263 0.4935018122 0.84077245
-0.1663169265 -0.0211426504 0.932240963 -0.1133506894 0.5268855095 0.8380782604
-0.1587943584 -0.0009226696566 0.9138219357 -0.2555299699 0.4363810122 0.8107836843
-0.1610971987 -0.005631577224 0.922006309 -0.223311469 0.4642534554 0.8355121017
-0.09771529585 -0.05030093342 0.9251778126 0.3567607105 0.3273589015 0.8679395318
-0.1090815589 -0.04035246 0.9248064756 0.2325609624 0.2292473465 0.9406775236
-0.1564919353 -0.04495007917 0.9485185742 0.2770516276 0.4822149277 0.8254987001
-0.07253754139 -0.07136216015 0.9729346633 -0.4670358896 -0.2963062823 0.7726442814
-0.08473636955 -0.07482153922 0.9568434954 -0.02805015072 0.165037334 0.7552002072
-0.09160646051 -0.07707219571 0.9474576116 0.2297266275 0.437787503 0.7434428334
-0.158672899 -0.02825651877 0.936390698 0.0743252635 0.5204910636 0.8422757387
-0.1650651693 -0.02797301672 0.9261851907 -0.03126754984 0.5069334507 0.8404373527
-0.1398266703 -0.04442008585 0.9268074036 0.2623747587 0.394369632 0.87575984
-0.1461720318 -0.03804873303 0.9279750586 0.1970574409 0.422500968 0.8723936677
-0.1452277154 -0.03007141314 0.9302389026 0.179628551 0.366610527 0.9083598852
-0.1248811558 -0.05557856336 0.9349384308 0.2692379951 0.4133772552 0.8687291741
-0.1059140489 -0.06088897958 0.9353595972 0.3342101872 0.4661584795 0.8161743283
-0.1153245047 -0.06034208462 0.935713768 0.2378439605 0.4219156802 0.8734942675
-0.1193925589 -0.04765828699 0.9337959886 0.2129099965 0.3411175907 0.9141002297
-0.181145668 -0.02593198232 0.9281218648 -0.2013801187 0.5693476796 0.7960879207
-0.06688138843 -0.03836608678 0.9241028428 -0.1619453877 -0.05299067497 0.9794071317
-0.06709417701 -0.05074059591 0.9215337634 -0.06894510239 0.02390115708 0.9883062243
-0.06024789065 -0.04578167945 0.9238705635 -0.094259426 -0.1034895554 0.9848563075
-0.07623172551 -0.02893540263 0.9196448922 -0.06562204659 0.07877905667 0.9875103831
-0.08282337338 -0.03526184335 0.9174813628 0.04977433383 0.08639597893 0.9900560379
0.001465036301 -0.07285640389 0.9368246198 -0.3383134007 -0.322493434 0.8225412369
-0.0164171122 -0.1020276472 0.9860270023 -0.2800881565 -0.6911777258 0.6457409859
-0.06536181271 -0.07533082366 0.9770389199 -0.4726814628 -0.3905733228 0.7672188878
-0.05736100301 -0.08049129695 0.9770875573 -0.4649740458 -0.4245497882 0.7365573645
-0.0573814176 -0.07198612392 0.979908824 -0.4061253667 -0.2095403671 0.8814445734
-0.1101172864 -0.06586462259 0.9396622181 0.2681334019 0.4852978587 0.8302392364
-0.09962575138 -0.06911213696 0.946952641 0.2044637352 0.3746938109 0.7999907732
-0.0895512104 -0.06814626604 0.9583249092 -0.05659280345 0.1159730107 0.8141883612
-0.0791215077 -0.06843935698 0.9694275856 -0.2850371003 -0.1153658405 0.8280014396
-0.08750869334 -0.06796551496 0.9497390985 0.04923518747 0.1942371428 0.7660196424
-0.09862270951 -0.06650900841 0.9365391135 0.3607006669 0.5012978911 0.7682590485
-0.09363756329 -0.07297879457 0.9382419586 0.3794800341 0.5466182828 0.7464466095
-0.0646661222 0.01197732333 0.9335312247 -0.4592442513 -0.3135386109 0.8301063776
-0.07049676031 -0.02613550983 0.9250085354 -0.2507100105 -0.02971938625 0.9669741392
-0.08326434344 -0.04518248141 0.9276218414 0.03075119853 0.1460078359 0.9213235378
-0.07295016199 -0.04261772335 0.9320107698 -0.1727228016 -0.04531559721 0.9790953398
-0.06276430935 -0.05704053119 0.9704325795 -0.2380761355 -0.2398642451 0.9381952882
-0.0639635846 -0.0453334786 0.9468073249 -0.219082281 -0.1595208496 0.9578299522
-0.06713141501 -0.04109372944 0.9383534193 -0.208119899 -0.1168190911 0.9666954279
-0.09127004445 -0.04290716723 0.925683856 0.163064301 0.2014233172 0.9222814441
-0.0789187476 -0.03844625875 0.9269545674 -0.08991973847 0.0379053615 0.9541389346
-0.08003200591 0.02511837706 0.9099484086 -0.6275957227 -0.2197857648 0.5086883903
-0.07667936385 0.03064159304 0.9270961285 -0.324731797 -0.2148288637 0.8557758927
-0.0833947286 0.03447660431 0.9189195633 -0.4102077186 -0.09925338626 0.7732302547
-0.07819242775 0.02830632031 0.9196337461 -0.4559103549 -0.2157400846 0.7056057453
-0.0779267326 0.01741175167 0.9069818854 -0.7799302936 -0.3063396811 0.3386202753
-0.1233031601 0.05045063049 0.9161931872 -0.371507138 -0.1548530608 0.9141082764
0.003254897892 -0.03957385197 0.9562946558 -0.606767714 -0.5171024203 0.6035131216
0.009417106397 -0.04105413705 0.9694835544 -0.5352194905 -0.43627882 0.6650996804
0.001315219444 -0.04643289372 0.9745253325 -0.4683819711 -0.2928036451 0.7470045686
-0.01444441359 -0.05457933992 0.9826536179 -0.3604131937 -0.04915250838 0.8801663518
-0.01033597346 -0.04828221351 0.9786164165 -0.4215653539 -0.1621354967 0.8061224818
0.0009739509551 -0.03427883238 0.9677907825 -0.5712938309 -0.4535236061 0.6234073639
0.001619481714 -0.02727314271 0.9633302689 -0.6323900223 -0.5428001881 0.5524191856
-0.002364802873 -0.03204735368 0.9567161202 -0.6419736743 -0.5140803456 0.5682120323
-0.01261387765 -0.02348179184 0.9507747889 -0.6569082737 -0.4904654026 0.5699883103
-0.008147303946 -0.01999787241 0.9596574903 -0.663097322 -0.5239944458 0.5339368582
-0.003971199039 -0.0368680656 0.9503732324 -0.6378698945 -0.4805638492 0.6009318829
-0.01153945737 -0.0301048439 0.9467771053 -0.6466852427 -0.4575797319 0.6092515588
-0.01846157387 -0.02830601297 0.9379301071 -0.5884705186 -0.4026378989 0.7008875012
-0.1256187707 0.0256673824 0.9168655276 -0.3669688404 0.2743293643 0.8429995179
-0.1092507094 0.01931474358 0.9089328647 -0.503544867 0.06858640164 0.5160381198
-0.1020082533 0.01516499091 0.9077404141 -0.5064039826 -0.009092720225 0.4356050789
-0.1245697364 0.02118563838 0.9233127236 -0.2760697603 0.2922664583 0.912638545
-0.1473484337 0.03916215897 0.9193930626 -0.3015535176 -0.02843599953 0.8039198518
-0.1462154388 0.02506829798 0.9202257395 -0.2959667146 0.2621014416 0.8153651953
-0.1499540359 0.02205016091 0.9078273773 -0.4315608144 0.4827563763 0.759853065
-0.158570379 0.05295151472 0.916444838 -0.2610003352 -0.3764525056 0.7892435193
-0.1503740996 0.03187277168 0.9155967832 -0.3518187106 0.1968233585 0.7576631308
-0.1532324255 0.05977616832 0.9187033176 -0.2619771361 -0.5200872421 0.806596458
-0.1012827605 -0.0280631613 0.9296931028 0.2159434557 -0.03967774659 0.9421293736
-0.09946800768 -0.03610306978 0.9287515879 0.2056510001 0.1054098755 0.9287083149
-0.09246069193 -0.03161370009 0.9268011451 0.09585475177 -0.001804943546 0.9683589339
-0.2021955252 0.01681302488 0.8932880163 0.1627598107 0.3307653069 0.9276535511
-0.2037116885 0.02440316044 0.8929639459 0.1942681223 0.2060621381 0.9578692913
-0.2090009451 0.01235539094 0.8983393312 0.1685035229 0.4037376642 0.894995451
-0.1959958076 0.0215806514 0.8895363808 0.1124959216 0.2592926919 0.9573380351
-0.1855988652 0.02550401539 0.8884397745 -0.1446069926 0.1611781269 0.9747967124
-0.1979977041 0.01605426334 0.9015874863 -0.01850454137 0.3883015811 0.8561272025
-0.2054198831 0.01953220554 0.9014257193 0.1047487408 0.2997071743 0.8950067759
-0.1619336754 0.01703451015 0.9035614133 -0.4186866283 0.5072876215 0.7521969676
-0.1574020982 0.02425667085 0.9019349813 -0.405662328 0.3963146806 0.8173148036
-0.1578271687 0.03311258927 0.8982021809 -0.3364393413 0.09823272377 0.9309497476
-0.1473313421 0.04217944294 0.9017828703 -0.3808134496 -0.1915898919 0.8930397034
-0.1164064482 0.03465347365 0.9138737917 -0.4257764518 0.05872773752 0.811475575
-0.1389860958 0.01902195811 0.9149747491 -0.3441550136 0.4149252474 0.8158470988
-0.136415273 0.02714619972 0.9098835588 -0.4032929838 0.3188561797 0.8493028879
-0.147824049 0.05300014839 0.9203353524 -0.2771956921 -0.3556065559 0.8168628812
-0.1405955851 0.0330670923 0.9204235077 -0.2989324927 0.1280905008 0.8309263587
-0.1358099729 0.0488181375 0.9212448597 -0.3180900812 -0.1628419012 0.8579772115
-0.1348819882 0.02586899325 0.9204944968 -0.3183997571 0.3325688541 0.8439823389
-0.1317623854 0.03749483824 0.9215499163 -0.324770838 0.0769950375 0.8690018058
-0.1223144978 0.009498592466 0.926410079 -0.1211886406 0.2346344143 0.9554054141
-0.0663991943 -0.08787600696 0.9362069964 0.2132931501 0.7204372883 0.6590538025
-0.06659421325 -0.0807537511 0.9313036203 0.1616227478 0.5921576023 0.7830187678
-0.08436399698 -0.07289832085 0.93318367 0.3659544587 0.5537670851 0.7471869588
-0.067001082 -0.05400082469 0.9555624723 -0.1929508001 -0.1451251507 0.9515381455
-0.08493003249 -0.06188653037 0.9424811602 0.1837689131 0.2761556208 0.8239292502
-0.07004646212 -0.0522252731 0.9468156099 -0.1554834247 -0.07836858928 0.9538890123
-0.07205416262 -0.04942076281 0.9376264811 -0.1446941495 -0.0368768461 0.9680416584
-0.07374285161 -0.060033191 0.9570682049 -0.0251801908 0.01801525801 0.87989676
-0.07711523026 -0.05019444972 0.9308916926 -0.05071729422 0.07980563492 0.9432215691
-0.07621480525 -0.05786991119 0.9484558105 -0.0009152717539 0.07108913362 0.8873742223
-0.06711263955 -0.05737446621 0.9624449611 -0.1623010933 -0.1373796761 0.925101459
-0.08270005137 -0.05598813668 0.9338074923 0.0950441882 0.2161775231 0.8777307272
-0.07862930745 -0.05594383925 0.9404351711 0.02437725477 0.1232176349 0.8932361007
-0.08596675098 -0.0586627312 0.9232062697 0.3022574484 0.3773618042 0.8735289574
-0.08077643812 -0.06468041986 0.9234865904 0.250424087 0.418413043 0.8671891093
-0.07642591745 -0.05550509691 0.918079257 -0.0009082392789 0.1606466174 0.9851842523
-0.03303075954 -0.105602175 0.9513164163 -0.3493800461 -0.897466898 0.2568822205
-0.04024772719 -0.0977492556 0.9563851357 -0.392580539 -0.8629201055 0.3100134432
-0.04247706756 -0.09364714473 0.9668489099 -0.4431985319 -0.7852950096 0.4189244807
-0.04909870401 -0.09167516232 0.9709025621 -0.4733586013 -0.7180050611 0.5059138536
-0.1465037316 -0.04591042921 0.9325681329 0.1998165995 0.4575999975 0.8487716317
-0.1567633301 -0.04046552256 0.9374239445 0.08437026292 0.5241588354 0.8310146332
-0.1604013443 -0.03829500452 0.9281853437 0.01131700445 0.50857234 0.8278591037
-0.1655089557 -0.03575955331 0.9215009212 -0.06687887013 0.5099052787 0.8198825121
-0.1739084125 -0.03160845116 0.9312292337 -0.1443030536 0.5711100698 0.8051953316
-0.1694697738 -0.03435222059 0.9403966069 -0.06788912416 0.5756571293 0.8133870959
-0.164293468 -0.03995572776 0.9458717704 0.07722273469 0.5808346868 0.8020347953
-0.1824495345 -0.01349827275 0.9232078791 -0.2551915348 0.5549947023 0.7901992202
-0.1178239584 -0.05008131638 0.9262897372 0.341593951 0.3577510118 0.8670755029
-0.1073529348 -0.05019206926 0.9272320271 0.3654511273 0.3628410101 0.8552001119
-0.132691294 -0.05048694834 0.9251813889 0.3079566061 0.3654272258 0.8779155016
-0.135570094 -0.01944891922 0.9266751409 0.0491264835 0.1144748926 0.9911666512
-0.1442811191 -0.01635225117 0.9263439178 0.01483394485 0.2213065028 0.9716024995
-0.1539481133 -0.02325833775 0.9250308871 -0.04162763059 0.3262413442 0.9152222276
-0.1581453234 -0.01361086033 0.9285712242 -0.06776541471 0.4075981379 0.9058921337
-0.1619880795 -0.02008806169 0.9242509604 -0.09517201781 0.4131673872 0.8869419694
-0.173298344 -0.0183094088 0.9205998182 -0.2534348369 0.5539527535 0.7858067751
-0.1339538842 0.01246686 0.9194620252 -0.2342768461 0.3316208124 0.8822387457
-0.0881306529 -0.011317336 0.9036166668 -0.5510427952 -0.1506612748 -0.03952542692
-0.09031229466 -0.01936598867 0.9080292583 -0.2780510783 -0.1006848142 0.301528573
-0.100474894 -0.03688645735 0.9197432399 0.2322307825 0.0816039443 0.9664627314
-0.1014147177 -0.02861326188 0.9202652574 0.1690122932 -0.02896369621 0.9814244509
-0.1080190614 -0.03319687769 0.9307592511 0.1833119988 0.07292553037 0.9470053315
-0.1250319183 -0.04027028382 0.9257801175 0.2360106856 0.2143835574 0.9358641505
-0.0821235925 -0.04639723524 0.9175631404 0.06152801216 0.1170165762 0.988691628
-0.01031405665 -0.06112140417 0.9366608262 -0.5325203538 -0.4014168084 0.7422747612
-0.02459556237 -0.09902464598 0.9828388095 -0.4658445418 -0.5631012917 0.6764047146
-0.03303045779 -0.09253185242 0.9818112254 -0.4914523661 -0.498034507 0.7031459808
-0.03245922923 -0.09564422816 0.9738327861 -0.4857791364 -0.7370533943 0.4619243443
-0.04360352457 -0.07812014967 0.9814912081 -0.3640592098 -0.2048003227 0.8966056108
-0.03772436827 -0.08537891507 0.9827586412 -0.4247663319 -0.3318939209 0.8368706703
-0.0413614884 -0.09216067195 0.976108253 -0.4884390235 -0.6252915859 0.5880042911
-0.09281075746 0.01747674495 0.9302257299 -0.09094440937 -0.02972233482 0.9924710393
-0.05886311084 -0.05150394887 0.9617651105 -0.2416635305 -0.1278679967 0.957883656
-0.01134032849 -0.04467244074 0.9365595579 -0.5552078485 -0.393474102 0.7311572433
-0.008129750378 -0.04042090848 0.9428246021 -0.6159814 -0.4260754585 0.6613243222
-0.1669273973 0.0246895235 0.9063469768 -0.3661902249 0.3034905493 0.7988783717
-0.1587101072 0.01648714766 0.9111104608 -0.3922350705 0.5056433678 0.762069881
-0.1680823714 0.03421325982 0.9086197615 -0.3180499077 0.05333027989 0.795107305
-0.1706899405 0.05485393852 0.9134483337 -0.2139388472 -0.4886468351 0.7875135541
-0.1711622328 0.04465393722 0.9094236493 -0.269145906 -0.2175757587 0.8010319471
-0.1608459353 0.02793987468 0.9131485224 -0.3359384537 0.206189543 0.7616775036
-0.1514697075 0.01490134094 0.9163560271 -0.3803173304 0.5306917429 0.7562772036
-0.1646235734 0.04540993646 0.9141073227 -0.2601858974 -0.22431916 0.7717719078
-0.1929295957 0.01443434972 0.8932310343 0.01763383485 0.4113891423 0.9035893083
-0.1814766526 0.0239220392 0.9010000229 -0.2495725006 0.2191399038 0.8179588914
-0.1754667014 0.01849798672 0.8978928924 -0.3221613765 0.4404918849 0.8353413343
-0.1207924187 0.04072286189 0.9230961204 -0.3232012391 0.04596073553 0.9172688127
-0.1218318567 0.05419731885 0.9230459929 -0.3215765357 -0.1923545301 0.9179058075
-0.1193353832 0.03163889796 0.9233146906 -0.3047451377 0.1594767123 0.923968792
-0.1044532359 -0.01058587711 0.9150252342 -0.2997713983 -0.1221239343 0.424418509
-0.09466197342 -0.005004423205 0.9047504663 -0.628924489 -0.1805479378 -0.121984899
-0.1099187434 -0.0182161089 0.9202334285 -0.1130377725 -0.06833849102 0.71353513
-0.09212949127 -0.02388642728 0.9151827097 0.09705921263 -0.08774728328 0.7912718654
-0.1018800214 -0.01809347048 0.9154974818 -0.1626135111 -0.09195376188 0.5565963387
-0.1509282887 -0.03798206523 0.9427139163 0.2930000126 0.4590962231 0.8348025084
-0.1334733069 -0.03297394142 0.9269127846 0.1939724088 0.1912842542 0.9566069841
-0.1329483092 0.006615339778 0.9259231091 -0.1494770795 0.2839503586 0.9311361909
-0.1308242679 -0.02844371647 0.9338806272 0.1715541929 0.1947151124 0.9472261071
-0.1191273406 -0.03475020453 0.9306458235 0.1914854348 0.1480849385 0.9585410357
-0.1103007123 -0.02364784293 0.930311799 0.1810609549 -0.07165057957 0.9680715203
-0.1277740598 -0.03617438301 0.9322609901 0.2067649662 0.2013646215 0.9539176226
-0.1369916052 -0.0401102975 0.9378412366 0.2984834909 0.3653993607 0.8773706555
-0.0903172791 -0.04755729437 0.918325901 0.2730307281 0.2193281204 0.9317783117
-0.01202498749 -0.05306793377 0.9319328666 -0.4945464432 -0.3645355403 0.7818316817
-0.001131465542 -0.06163256243 0.9349614382 -0.5190951228 -0.4306340814 0.730594337
-0.02644258179 -0.09180670232 0.9865691662 -0.4373323321 -0.3424775004 0.8261765838
-0.02035670541 -0.07522522658 0.9894735217 -0.3221878111 -0.02114772797 0.9440898299
-0.03014338762 -0.08328600228 0.9862670302 -0.4219162166 -0.179788053 0.8838893771
-0.01732990704 -0.09263610095 0.9902760386 -0.301151365 -0.2420231402 0.9123505354
-0.0968343541 0.008833266795 0.9300001264 0.03192655742 -0.01108307112 0.9927924275
-0.09432476014 0.02651917189 0.9002500772 -0.7074035406 -0.1905048639 0.2142445147
-0.1035384238 0.0421070233 0.9190731049 -0.3672827482 -0.04147996753 0.8464841247
-0.09860417992 0.0362127386 0.9125986695 -0.4890663624 -0.08945506811 0.614811182
-0.08894573897 0.02154986933 0.895332396 -0.8043366075 -0.2239101231 0.02514656633
-0.1074366942 0.0352079533 0.9076408744 -0.536552608 -0.1443433017 0.5737503171
-0.1044182479 0.02831201255 0.9050694108 -0.5922535062 -0.08098207414 0.4561080933
-0.1151442528 0.04306029901 0.9145460725 -0.3953185976 -0.1135571301 0.8555473685
-0.1117761061 0.02605255321 0.9245460033 -0.2549211681 0.1733926982 0.9506074786
-0.1036281511 0.03821523488 0.9292367101 -0.2722326815 0.09141231328 0.9546944499
-0.0818483606 -0.001847161446 0.9300979972 -0.02903544344 -0.1482230872 0.9266301394
-0.07977794111 -0.016022861 0.9177926183 -0.1200469509 0.03793702275 0.9742913842
-0.08027991652 0.01404499449 0.9314783216 -0.1781566441 -0.1698656529 0.9531262517
-0.07075048238 0.02481996827 0.9340011477 -0.3293271959 -0.2435882092 0.9074447155
-0.07153786719 0.02151790634 0.9260272384 -0.5204633474 -0.2907637358 0.6916532516
-0.05748887733 0.007988417521 0.9322568774 -0.4441818297 -0.2829053998 0.8156343699
-0.08725924045 0.004607562907 0.9303478003 -0.0103381332 -0.1385338306 0.9469379187
-0.0760986805 0.005704982206 0.9310038686 -0.2507171631 -0.2168882936 0.8817310929
-0.09464479983 0.0002011258912 0.9300115705 0.2049380988 -0.09469270706 0.9703879356
-0.07467559725 -0.001566286781 0.9135130048 -0.7246924043 -0.1489374042 0.4220417142
-0.08155593276 0.001934315544 0.9069892168 -0.9311867356 -0.07193545997 0.09795353562
-0.08087679744 -0.007578742225 0.9113028049 -0.7659780979 0.09133012593 0.2611076236
-0.07328491658 -0.01093455404 0.9181457162 -0.5741107464 0.007924395613 0.5792165399
-0.06637298316 -0.01846450008 0.924734354 -0.2991634011 -0.05103465915 0.9456664324
-0.06474711746 -0.001943926909 0.9277749658 -0.4382198453 -0.240741536 0.8632236719
-0.03938207403 -0.008731675334 0.9361595511 -0.3930355906 -0.3029457033 0.8679388762
-0.04807864875 -0.005245381501 0.9357366562 -0.3858779073 -0.2738609612 0.8797037005
-0.04061895981 -0.04374941811 0.9627162814 -0.3094236255 -0.1035306677 0.9272714257
-0.03359700367 -0.02594967932 0.9411333799 -0.4060333967 -0.3131284416 0.8362355232
-0.0382357426 -0.03814068064 0.9575557709 -0.3443178236 -0.1654869914 0.8949192762
-0.03592818975 -0.03249605 0.9505651593 -0.3774099052 -0.2336988747 0.8638742566
-0.03045220301 -0.01397835091 0.9398527741 -0.4830765128 -0.3761063516 0.7853745222
-0.03256039321 -0.02998061106 0.9320804477 -0.3630560338 -0.3532759547 0.8599797487
-0.04082094878 -0.02816758677 0.929217875 -0.280785501 -0.2773426175 0.9150718451
-0.05797085911 -0.04247158393 0.9424854517 -0.1980404556 -0.09769389033 0.9731856585
-0.05951699242 -0.03817635402 0.9326272607 -0.1805742681 -0.1034528241 0.9764142632
-0.04989534616 -0.0425109379 0.9246453047 -0.1085714623 -0.1653260887 0.9799976945
-0.09693744779 0.04172509909 0.9324166775 -0.2468808144 0.01347625628 0.9645302296
-0.08717095852 0.02457626723 0.9315393567 -0.1653648615 -0.09579331428 0.9759508967
-0.08986264467 0.043873474 0.9266757369 -0.2626993358 0.01731564105 0.9645084739
-0.08256723732 0.03762713075 0.9279645085 -0.2479074597 -0.08935945481 0.9594175816
0.01756035723 -0.05293518677 0.9535266161 -0.5832559466 -0.5109007955 0.630009234
0.01216978207 -0.06221245602 0.9431052208 -0.5636525154 -0.4954901934 0.6604912877
0.005063340534 -0.04552999511 0.9510374665 -0.6030029655 -0.4959728122 0.6243079305
0.009142456576 -0.05357824266 0.9467721581 -0.5800453424 -0.4936277866 0.6472765207
-0.09568462521 0.009449333884 0.9047549963 -0.6821972132 -0.07235520333 0.1035659015
-0.0865612179 0.01551237144 0.8891943693 -0.911839664 -0.2667699158 -0.1825176775
-0.1069964096 0.01298752148 0.9154831767 -0.3728109598 0.08938321471 0.615793407
-0.09367480874 0.01438723598 0.8985363841 -0.7247504592 -0.1410249919 0.09186989069
-0.08686044067 0.007760790177 0.8929663301 -0.8950667977 -0.250655055 -0.3409129679
-0.09188807011 0.002552328398 0.9017487168 -0.7601986527 -0.1513914019 -0.2386585623
-0.1134204715 0.01085587032 0.9226073623 -0.1676084101 0.1677166522 0.8836868405
-0.107483834 0.005279173609 0.9171687961 -0.2982019484 0.05882024765 0.5661893487
-0.1695146114 0.009599610232 0.9102358818 -0.3918267787 0.5418010354 0.7364875078
-0.1761768609 0.01109968498 0.9048099518 -0.3343933225 0.5338085294 0.7704158425
-0.1985931695 0.004214224406 0.8997918963 0.06158892438 0.5577298403 0.8257774115
-0.1762137115 0.002671474125 0.9061373472 -0.3359444737 0.6146301031 0.7121194005
-0.1777615547 -0.003739466425 0.9115552306 -0.3060641289 0.6331149936 0.710005343
-0.1805747896 -0.01269643568 0.9138784409 -0.2610091567 0.6165582538 0.7394032478
-0.1871682405 -0.003605528967 0.9104617238 -0.2263800353 0.6460805535 0.7228400111
-0.1926428974 -3.100445247e-05 0.9055649042 -0.1093816534 0.625038147 0.7668761611
-0.1841634512 0.002558624838 0.9042253494 -0.2246510834 0.6130028963 0.7489963174
-0.1401805878 -0.006611898076 0.9254603982 -0.05325941741 0.198926717 0.9750043154
-0.1515123695 0.004126901273 0.9171967506 -0.244094491 0.3789151907 0.8499646783
-0.1498058289 -0.004139607307 0.9206463099 -0.1360846311 0.3038010001 0.9103441238
-0.1425544173 0.00146792084 0.9222197533 -0.142113924 0.2835842371 0.9338160157
-0.1251334399 -0.03036605194 0.9266033769 0.1494900733 0.08545506746 0.9843447208
-0.1083617806 -0.003433965845 0.9188286662 -0.2296816111 0.006677377969 0.6243917346
-0.1146385744 -2.484781362e-06 0.9249760509 -0.05109324679 0.1098487154 0.9636461735
-0.1020384505 -0.001363949501 0.9122097492 -0.42708987 -0.05546314642 0.2763645649
-0.1145150959 0.01831832156 0.9250816107 -0.20459117 0.2050499618 0.9540064335
-0.1057574973 0.007180817891 0.9287938476 -0.02437836304 0.1232679933 0.9853721857
-0.07027100027 0.0009918743744 0.9192076921 -0.6346243024 -0.2509994507 0.6233894229
-0.07625348121 0.009031126276 0.9092721343 -0.8513384461 -0.3313961625 0.2986281514
-0.1018506438 -0.01907992363 0.9300001264 0.1981993467 -0.1734678745 0.9632874131
-0.1069525257 -0.009459276684 0.9300001264 0.1515801996 -0.06205417216 0.9755001664
-0.09909311682 -0.007473539095 0.9300001264 0.2466220111 -0.0869217366 0.9634162188
-0.08947538584 -0.005810798611 0.9300001264 0.1147198454 -0.1380820125 0.9454776049
-0.0757548511 -0.007015335374 0.9300001264 -0.1596363485 -0.1912161708 0.9120378494
-0.08360567689 -0.01160828676 0.9298144579 -0.02808341011 -0.1864245534 0.9255356789
-0.09003750235 -0.01728091948 0.9276162386 0.04811157286 -0.1071134433 0.9502821565
-0.08012472838 -0.02196904458 0.9254487753 -0.1508760899 -0.04118036851 0.9603844285
-0.08404381573 -0.03012452461 0.9274061918 -0.04935264215 -0.0832998082 0.9763038754
-0.05958583578 -0.01049026754 0.9287658334 -0.3691319525 -0.1706629843 0.9095750451
-0.02781643718 -0.02149645425 0.9364692569 -0.4653589725 -0.3665323853 0.8042472601
-0.04690222815 -0.04062862322 0.9543452859 -0.2978455424 -0.1874788553 0.9269929528
-0.04264991358 -0.03661613911 0.9488897324 -0.3223938644 -0.2299886942 0.9078671336
-0.05024658889 -0.05060780793 0.967335701 -0.2823936343 -0.1220874563 0.9448873401
-0.03712424263 -0.01764352247 0.9344974756 -0.3786324263 -0.3239471018 0.8666009903
-0.04888933524 -0.03064470738 0.9417983294 -0.2888383269 -0.2168805599 0.9282616377
-0.0528392531 -0.03791282699 0.9483656287 -0.2554740608 -0.1544053853 0.9497407675
-0.05368309096 -0.03576071188 0.9379523993 -0.2038161457 -0.15233697 0.9618635178
-0.05342441425 -0.04533893242 0.9570723772 -0.2453549951 -0.1197085977 0.9580013752
-0.05227867886 -0.02686133422 0.9329927564 -0.2538200617 -0.2023292631 0.9418916702
-0.005029889289 -0.05305777863 0.9368662834 -0.5623954535 -0.4297469556 0.7059963346
0.004285504576 -0.05652962998 0.940297544 -0.5756360888 -0.4718514979 0.6675077081
-0.126616016 0.0003450633376 0.9260814786 -0.08447648585 0.1562470794 0.9797459841
-0.1175053045 -0.01145899389 0.926074326 0.01758169569 0.01101266686 0.9967635274
-0.1241533309 -0.02088397555 0.9259479642 0.06726133823 0.02424347401 0.9961133599
-0.1290706843 -0.008985276334 0.9264147282 -0.02234379388 0.1175929084 0.9859921932
-0.05377905816 -0.01614085212 0.9288263917 -0.3103065491 -0.2144963741 0.9251319766
-0.0583150126 -0.02628027648 0.9255057573 -0.2409731299 -0.118982546 0.960416019
-0.09933115542 0.02274983563 0.9280056953 -0.1576373428 0.0660173744 0.9777466655
-0.09763903171 0.03093432263 0.9304189682 -0.1858735234 0.0309803132 0.9748601317
-0.09064110368 0.03644092754 0.915814817 -0.4384223223 -0.05245008692 0.6710889935
-0.08693254739 0.03062828816 0.9083941579 -0.557911694 -0.1160380691 0.4413090348
-0.08439713717 0.02396949939 0.9013608694 -0.7214655876 -0.1975713521 0.2492052913
-0.0813133046 0.01720595174 0.8951788545 -0.889978528 -0.2846088111 0.1020133421
