# .PCD v0.7 - Point Cloud Data file format
VERSION 0.7
FIELDS x y z normal_x normal_y normal_z
SIZE 4 4 4 4 4 4
TYPE F F F F F F
COUNT 1 1 1 1 1 1
WIDTH 512
HEIGHT 1
VIEWPOINT 0 0 0 1 0 0 0
POINTS 512
DATA ascii
-0.12140869 -0.071012631 0.87100005 0.2702934742 0.2125730813 0.9390176535
0.026725184 -0.10237801 0.93800002 0.2157681435 0.2637997866 0.9401350021
-0.25053117 0.01108545 0.84300005 0.2001226246 -0.1701014638 0.9648919106
-0.15900892 0.021530641 0.8876667 -0.5064173341 -0.7889169455 0.3480683267
-0.045498654 -0.036336649 0.92516118 0.1084112227 0.2512628138 0.9618284702
-0.054060876 -0.1356491 0.89182156 -0.1635709405 -0.4425441027 0.8817024827
-0.21412258 -0.062670372 0.87408704 0.05438428745 0.5341038108 0.8436678648
-0.086879857 -0.028368933 0.80900002 -0.6079300642 0.5894694924 0.5319274664
0.0053347182 -0.09477251 0.86460406 0.3623285592 -0.07593894005 0.9289517403
-0.072007939 -0.095503487 0.94050008 -0.1870206594 -0.1484763324 0.9710705876
-0.043940932 -0.05357907 0.85281485 -0.4132162631 -0.1719773412 0.8942461014
-0.15688226 -0.027070714 0.85099989 0.07412473112 0.2473280877 0.9660922885
-0.097614713 -0.01835026 0.86700004 -0.2221014649 -0.5145395994 0.8282028437
0.010576107 -0.048812799 0.92800003 -0.4687711298 -0.6397225261 0.6091048717
-0.21094792 0.034518749 0.87500006 -0.1988066584 -0.8304202557 0.5204595327
-0.087422282 -0.10773187 0.85631245 -0.5826203227 0.2705723047 0.7663838267
-0.023911759 -0.12376911 0.93222588 -0.1557333171 -0.4867534935 0.8595452905
-0.20582902 -0.01280824 0.84889483 -0.1620843709 0.3744809031 0.9129582047
-0.16118369 -0.093624994 0.89314288 0.2534850538 0.6009967327 0.757989645
-0.025529481 -0.076594427 0.93441671 0.02614792809 0.4578146636 0.8886630535
-0.1039262 -0.066134855 0.82900006 -0.6960744858 0.4957629144 0.519325912
-0.0043804841 -0.13655683 0.86900002 0.2975925207 0.03806985542 0.9539336562
-0.24277909 -0.033143904 0.85526663 0.05707986653 0.6204528213 0.7821637988
-0.011572 -0.057602849 0.88000005 -0.6789764762 -0.5758267045 0.4554278851
-0.12717015 -0.00078987668 0.90100002 -0.5426389575 -0.8141391873 0.2066890746
-0.16483286 -0.063079193 0.86769235 0.2001433074 0.5247934461 0.8273659945
-0.091041178 -0.10595416 0.89525002 -0.5234918594 -0.02765871026 0.8515816331
-0.17288603 0.0065899431 0.8520453 -0.2732748985 -0.4376031458 0.8566354513
-0.084867902 -0.068270855 0.86049998 -0.06764946878 0.5091568828 0.8580109477
-0.12221242 -0.042126812 0.8490001 0.01433847379 0.14936921 0.9886775017
-0.12473755 -0.10543127 0.86168766 0.5651876926 0.4763700962 0.6735238433
-0.135708 -0.00075393333 0.86000001 -0.3727623224 -0.6800917983 0.6312870979
0.0080851456 -0.071818456 0.90420008 -0.688657701 -0.6223664284 0.372035712
-0.18806447 -0.038283065 0.86000007 0.146736905 0.3978311718 0.9056481719
-0.055195946 -0.11818687 0.92484629 -0.2167784423 -0.7262941599 0.6523065567
-0.18980972 -0.078892112 0.89100003 0.1286109239 0.6372689009 0.7598338723
0.025388995 -0.12580371 0.86883348 0.1437111944 0.134405002 0.9804500937
-0.020009916 -0.050424989 0.91300005 -0.1205096245 -0.6788804531 0.7242918611
-0.068767488 -0.029471779 0.86200005 -0.107494846 -0.6257073283 0.77261585
-0.054100856 -0.06630405 0.92800003 -0.0227299165 0.3128193319 0.9495406151
-0.025715336 -0.12570588 0.89341664 0.1182503998 -0.9322989583 0.3418120742
-0.20571789 0.020768153 0.84881824 -0.1975485384 -0.6436808109 0.7393575311
-0.11197848 -0.0456267 0.80900002 -0.5406653285 0.5765593648 0.6125849485
-0.00550204 -0.10497103 0.94554514 -0.005038754549 -0.1196557432 0.9928026795
0.030003916 -0.076226167 0.92500007 -0.826724112 -0.2989773154 0.4765918255
-0.081188098 -0.13067418 0.88200003 -0.5547792315 -0.4431068599 0.7041848898
-0.23605973 -0.012275558 0.83884615 0.05691563711 0.2875792682 0.9560642242
-0.13503641 -0.093393035 0.88525003 0.5246601701 0.4874958992 0.6979107857
-0.044499859 -0.095203273 0.94066697 -0.1002134681 0.1168958545 0.9880751967
-0.10593816 -0.088406131 0.85099995 0.1914675087 0.4734850824 0.859739542
-0.18455288 0.028464139 0.87280005 -0.3119828999 -0.8455021977 0.4333505034
-0.06916637 -0.088928193 0.86700004 -0.7157482505 0.4122310579 0.563710928
-0.096013404 -0.039447371 0.84900004 -0.05688753724 -0.7159805894 0.6957985163
-0.21421525 -0.038619272 0.86040008 -0.05361678079 0.5476824641 0.8349665403
-0.087013043 -0.1138214 0.93170595 -0.3664990664 -0.5116201639 0.777125001
-0.064774528 -0.063086823 0.8437621 -0.4265656769 0.3934950829 0.8143729568
-0.10418729 -0.11363649 0.87209105 -0.302138567 0.6295548081 0.7158023715
-0.11959662 -0.0188045 0.85800004 -0.3345851004 -0.342566669 0.8778957129
-0.17867738 -0.016412953 0.85100001 0.08393463492 0.2302104086 0.96951437
-0.095641911 -0.085404977 0.87275016 -0.6498343945 -0.09726262838 0.7538270354
-0.23426664 0.025213167 0.85233337 -0.0216037333 -0.6223620772 0.7824312449
-0.010006273 -0.080819897 0.87800002 -0.3676669896 -0.5245002508 0.7679325938
-0.14642437 -0.052715287 0.85799986 0.1803988665 0.3792525828 0.9075371623
-0.14556397 -0.077120356 0.87288898 0.2981026471 0.6166676879 0.7285984755
-0.14276113 0.0066481135 0.88153338 -0.5525738001 -0.7933106422 0.2555785179
-0.18682176 -0.058286354 0.87100011 0.1415123492 0.5270462632 0.8379716277
-0.22184654 0.005308392 0.84099978 -0.1011448875 -0.1761438251 0.9791542888
-0.08682438 -0.043647323 0.82570583 -0.758866787 0.4577227235 0.4632614255
-0.10605738 -0.060926575 0.85800004 0.6632457972 0.2257167101 0.7135523558
-0.23212731 -0.049632482 0.87100005 0.02278301306 0.5784385204 0.815407753
-0.0089683002 -0.0383191 0.93000007 -0.283041358 -0.7126768827 0.6418560743
-0.15903786 0.012176024 0.86800003 -0.4719981551 -0.7609382272 0.4451862574
-0.15544778 -0.0061697215 0.84864742 -0.1255437136 -0.2987686396 0.9460317492
0.0030992227 -0.11727639 0.87100023 0.1672592908 0.1464925557 0.9749688506
-0.026152134 -0.047988534 0.86888909 -0.5455513 -0.1006940156 0.8320062757
-0.064587541 -0.1185649 0.8922857 -0.3733031452 -0.3298866451 0.8670752645
-0.13701701 -0.026185475 0.84900004 -0.1274042577 -0.05792676285 0.9901579022
-0.024780298 -0.09500096 0.94230026 -0.06059027463 0.1208817363 0.9908160567
-0.082477592 -0.054496318 0.8439523 -0.6301514506 -0.5816292167 0.5144090056
-0.16542162 -0.078033447 0.88215005 0.2283782214 0.6662886739 0.7098610997
-0.16589534 -0.043019988 0.85755545 0.1446961761 0.378991276 0.9140178561
0.01224528 -0.07882899 0.87300003 -0.5661160946 -0.6485731602 0.5087881684
-0.19498293 0.0051887394 0.84569401 -0.1911759228 -0.1027236283 0.9761657715
-0.021516468 -0.14061689 0.87650001 0.4178359509 -0.4207852781 0.8052036166
-0.2527934 -0.014186108 0.84778279 0.2426682115 0.3114017248 0.9187715054
-0.085377492 -0.063506916 0.82671434 -0.3924662173 0.4399091601 0.807743907
-0.082546942 -0.099004887 0.88000005 -0.6855399013 0.1729990244 0.7071819901
-0.0056780125 -0.12375128 0.93439293 -0.02924658172 -0.2793140411 0.9597542882
-0.041863464 -0.12243088 0.90100002 -0.2207813412 -0.9415287971 0.2545174658
-0.067267604 -0.071791209 0.86000007 0.07574430853 0.5050860047 0.8597388864
-0.18725726 0.020711625 0.85685718 -0.2802522779 -0.7648053169 0.5801133513
-0.08304631 -0.11551476 0.87312502 -0.7205773592 -0.02982817031 0.6927326918
-0.13575654 -0.10848827 0.87612498 0.7170311809 0.3959120512 0.5736896992
-0.2252747 -0.023161437 0.84761125 -0.1490724981 0.5113344789 0.8463535905
-0.19826692 -0.068660535 0.88000005 0.08034890145 0.5824698806 0.8088713884
-0.0063681062 -0.059700999 0.90800005 -0.5032195449 -0.7363449931 0.4522899091
0.017100479 -0.064041376 0.92325014 -0.7016031742 -0.4131210148 0.5805894136
-0.042027395 -0.1121908 0.94000006 -0.1835234165 -0.427131325 0.885368824
0.016265037 -0.082470424 0.91490918 -0.7819157839 -0.2534349263 0.5695423484
-0.12459466 -0.057391144 0.86136359 0.08223762363 0.4840132296 0.8711878061
-0.098465592 -0.076093636 0.84133333 -0.4744055569 0.5488469005 0.6882633567
-0.099016577 -0.054734681 0.84183335 0.6509135365 -0.3859808147 0.6537051201
-0.064837627 -0.042748652 0.85281813 -0.1336669773 -0.5610967875 0.8168864846
-0.025309836 -0.03869525 0.9234668 0.1723986566 0.09453555942 0.9804803729
-0.0082406662 -0.089823268 0.94000006 0.1341524422 0.1096182242 0.9848791361
0.0015429333 -0.068660535 0.88000005 -0.5613974333 -0.7292200923 0.3912428916
-0.12095983 -0.088652916 0.85700005 0.6252905726 0.027457105 0.7799088359
-0.033659115 -0.1409684 0.88700002 0.1956705302 -0.6345125437 0.7477344871
-0.048251733 -0.039958466 0.86000001 -0.3668808341 -0.5703920722 0.7348818779
0.023050489 -0.090303682 0.92800003 -0.0354539305 0.4659592211 0.8840956092
-0.084245808 -0.03317162 0.86117667 -0.09693455696 -0.6158927083 0.7818439007
-0.063626766 -0.077280901 0.93446678 -0.05226915702 0.2236584723 0.9732650518
-0.11692936 -0.12128931 0.87750006 0.4575665295 0.7690716982 0.4462752342
-0.1277613 -0.087215185 0.87266678 0.6838347316 -0.09919201583 0.7228630781
-0.021551974 -0.070043914 0.87800002 -0.5497688055 -0.2807970941 0.7867065668
-0.032136846 -0.062001374 0.866 -0.5705747604 -0.07608606666 0.8177134991
-0.21298245 0.028863594 0.86075002 -0.1975661665 -0.7697524428 0.6069998145
-0.19497317 -0.024857497 0.85669786 0.01422606688 0.4068658054 0.9133771658
-0.14572598 -0.10240618 0.89170581 0.4474000633 0.5293306112 0.7208621502
0.020450881 -0.096952319 0.86400002 0.2482636422 -0.01194113865 0.9686188698
-0.072056301 -0.11121175 0.93050003 -0.1407340765 -0.4200022519 0.8965445161
-0.14100219 -0.01119065 0.85100001 -0.2257769108 -0.2929072976 0.9291017652
-0.1075229 -0.027125822 0.85769218 -0.2432569414 -0.4565496743 0.8557969928
-0.10003994 -0.10079212 0.85800004 -0.3604539633 0.5301220417 0.7674917579
-0.1740692 0.017465988 0.86176467 -0.3646248579 -0.7463598251 0.5567725897
0.0039524324 -0.056048393 0.91734797 -0.4355833232 -0.6649246812 0.6067473292
-0.13454704 -0.074315004 0.86418927 0.268478483 0.3117859662 0.9114322662
-0.20626301 -0.052078918 0.8686924 0.02480344474 0.5094608665 0.8601362705
-0.11708475 -0.0083627421 0.86725008 -0.4270986319 -0.7928037643 0.4347976148
-0.14546297 -0.065097287 0.86482859 0.1992180943 0.4549089372 0.8679689169
-0.18418141 -0.07026384 0.87800014 0.1510061175 0.6185895205 0.7710669041
-0.055439129 -0.10896334 0.93766665 -0.2025294304 -0.4752219021 0.8562394381
-0.0069439169 -0.047291938 0.91718191 -0.3280481994 -0.6972563863 0.6373522282
-0.13500457 -0.044757251 0.85378951 0.1215533391 0.3389838338 0.9329066277
-0.036306527 -0.12586753 0.9262858 -0.2236223519 -0.7759200335 0.5898653865
-0.16676041 0.02191842 0.87420005 -0.4355563521 -0.7843273282 0.4417254329
-0.044999007 -0.075273685 0.93328559 -0.0587387234 0.2918717563 0.9546521306
-0.24110456 0.0019123607 0.83900005 0.16930525 -0.06850286573 0.9831801057
-0.13443904 -0.001169035 0.88900006 -0.5416160822 -0.8110414147 0.2210516781
-0.015765179 -0.1266337 0.88414282 0.4538011551 -0.3759851754 0.807898283
-0.17482692 -0.054429676 0.86502576 0.1673450172 0.470644623 0.8663078547
-0.14605203 -0.035490654 0.85248488 0.1453321725 0.2853872776 0.9473292232
-0.014864138 -0.1143197 0.94387108 -0.08710948378 -0.2579129636 0.9622332454
-0.18507895 -0.0052059512 0.84785718 -0.04640743509 0.06552556902 0.9967711568
-0.14610977 -0.086757332 0.88231587 0.3126216531 0.6101871729 0.7279693484
-0.086284161 -0.023670876 0.87100005 -0.1491651684 -0.5535529256 0.8193466663
-0.23509113 0.014965531 0.84426308 0.05875183269 -0.3601344824 0.9310485125
-0.21383421 -0.025403842 0.85350019 -0.1795084924 0.4593021572 0.8699529767
-0.083722629 -0.043870188 0.85376185 -0.09995606542 -0.6387984753 0.762853384
-0.21466896 -0.0052680266 0.84319609 -0.2404747456 0.2150703222 0.9465287328
-0.034720466 -0.085050985 0.93690896 -0.08849315345 0.2547061443 0.9629608989
-0.11645013 -0.11187918 0.86900014 0.4598194659 0.6157420278 0.6398655176
-0.065697558 -0.13291046 0.88782358 -0.3557034433 -0.3330876231 0.8732283115
-0.14781301 0.0012530488 0.85733336 -0.3370009661 -0.707303822 0.6214110255
-0.11443778 -0.078139231 0.85539997 0.67568928 -0.2308265418 0.7001165152
-0.055524796 -0.055166438 0.84621972 -0.250952512 -0.1946019083 0.9482367635
-0.19568463 0.032759231 0.87617654 -0.2624156475 -0.8474737406 0.4614393413
-0.034549747 -0.0429263 0.91650003 0.2494424284 0.1275070161 0.9599585533
-0.16443524 -0.014459808 0.84873015 -0.02833127789 0.02835760452 0.999196291
-0.084999174 -0.085002132 0.86677146 -0.6648341417 0.5568433404 0.4979167581
-0.039315868 -0.13096611 0.89100003 0.1530040652 -0.5295978189 0.8343355656
-0.22475255 0.03081884 0.85742855 -0.1221947819 -0.7177206278 0.685525775
-0.22495559 -0.034726039 0.85635024 -0.05631863326 0.5858358741 0.8084704876
0.015815798 -0.13178901 0.8731668 0.141815573 0.1839161664 0.9726577997
-0.055940371 -0.093150072 0.93768424 -0.06129083782 0.06231828034 0.9961726069
-0.21471839 0.014797504 0.84361905 -0.1440476477 -0.4863367975 0.861815989
-0.25225616 -0.026174637 0.85299999 0.197180286 0.4871416092 0.8507719636
0.014471894 -0.11429875 0.86879998 0.09243899584 0.06608817726 0.9935227036
-0.17494184 -0.035291925 0.85644937 0.1299524903 0.3784371018 0.916459322
-0.094001457 -0.088779159 0.85100001 -0.6448436975 0.3110569119 0.6981548667
-0.073921688 -0.11674511 0.88513625 -0.587946713 -0.2688019276 0.7629312873
-0.19484743 0.026040787 0.86422729 -0.2428876907 -0.8283920288 0.5047495961
-0.014784836 -0.13063167 0.93716669 -0.1120683551 -0.4427598417 0.889609158
-0.1080282 -0.054044448 0.81606668 -0.5747702718 0.5672333241 0.5898181796
-0.093090467 -0.046729401 0.83500004 0.1069053039 -0.7381934524 0.666064322
-0.054099474 -0.12409342 0.89242321 -0.2254587859 -0.8828838468 0.4119277894
-0.10427336 -0.037089467 0.80775005 -0.5350686908 0.5827245116 0.6116646528
-0.0048302091 -0.12525232 0.87355804 0.2858322561 0.08494363725 0.9545074701
-0.036008757 -0.045477625 0.86375016 -0.5426598191 -0.2954044938 0.786292851
-0.035988919 -0.068378948 0.93299997 0.005189600401 0.3942707181 0.9189797044
-0.18641081 0.011840978 0.84900004 -0.2332403213 -0.4029677212 0.8849949241
-0.240427 -0.040618304 0.8633334 0.07087372988 0.6159707308 0.7845743895
-0.11495324 -0.034433112 0.85351235 -0.05722830445 -0.3203550875 0.9455673099
-0.074563943 -0.04724462 0.84826684 -0.1901750416 -0.4876845777 0.8520547152
-0.22482167 0.021399571 0.84784216 -0.07023764402 -0.5556994081 0.8284110427
-0.17493914 -0.066330589 0.87337029 0.1940389574 0.5929746628 0.7814921141
-0.15592931 -0.045386523 0.86151534 0.1662157774 0.3720666766 0.9132024646
-0.09534584 -0.06513793 0.83578044 0.5661532283 -0.1721869111 0.8061155081
-0.094567403 -0.11518109 0.86702961 -0.2794265151 0.3930507004 0.8760319352
-0.13690975 -0.057439674 0.86031574 0.04147119448 0.4748181701 0.8791062832
-0.19501314 -0.044816785 0.86510855 0.09837444872 0.4393536448 0.8929114342
-0.075090557 -0.036907434 0.85682768 -0.08026946336 -0.6357324719 0.7677245736
-0.034721263 -0.10499047 0.94300044 -0.1147681922 -0.1130324751 0.9869406819
-0.10353273 -0.046962377 0.8480835 0.3481886387 -0.1540895551 0.9246734977
-0.016994478 -0.084150076 0.93799996 -0.05855388194 0.1912138909 0.9798003435
-0.17588404 -0.076640688 0.88300002 0.1675124019 0.6479720473 0.7430153489
0.0045390874 -0.13173009 0.87193352 0.2858322561 0.08494363725 0.9545074701
0.0010942261 -0.11603137 0.93650001 0.1382889003 -0.1707972139 0.975553453
-0.17461464 -0.0052016205 0.84757161 -0.09107910097 -0.05812725797 0.994145751
-0.065252773 -0.10540829 0.93694431 -0.2017982453 -0.3418528438 0.9178311825
-0.20421946 -0.035980456 0.86179304 -0.05604263023 0.4610551 0.8856000304
0.015029886 -0.086552225 0.86664295 0.271395117 -0.19947128 0.9415709972
-0.12876217 -0.034088481 0.8490001 -0.1381852329 -0.06123520806 0.9885115623
-0.035265122 -0.11849058 0.93537509 -0.2143208832 -0.4790427089 0.8512253761
-0.22485377 -0.045170099 0.86518198 0.00279343687 0.5627031922 0.826654315
-0.19473718 -0.015223057 0.85302716 -0.0219583679 0.3706591427 0.9285093546
-0.024973834 -0.11539422 0.9422062 -0.08629345894 -0.3504785299 0.9325868487
-0.24684951 -0.0054592723 0.84323078 0.239412576 0.1253875196 0.9627873898
-0.19526021 -0.0051091406 0.84729177 -0.09229764342 0.1365412772 0.9863253236
0.011892714 -0.06453377 0.9145 -0.6052157879 -0.5132703185 0.6084960103
-0.093060605 -0.076850206 0.86791313 -0.2136261761 -0.02822330222 0.9765077233
-0.071739085 -0.08597938 0.93700004 -0.2292300314 0.06756104529 0.9710247517
-0.13558881 -0.10283002 0.89168191 0.6076073647 0.3699068725 0.7028386593
-0.07620918 -0.094303481 0.87362516 -0.928031683 0.2382276952 0.2863647044
-0.11466483 -0.10453459 0.86180657 0.3496765494 0.535063386 0.7690471411
-0.045818381 -0.12265822 0.92506266 -0.2152836472 -0.8682081103 0.447065562
-0.16523239 0.00074429001 0.84900004 -0.186886698 -0.3579704463 0.9148390889
-0.15585332 -0.055486221 0.86158985 0.1870495379 0.4251241982 0.885596931
-0.20488632 0.0051750704 0.84373468 -0.2268913835 -0.05241790414 0.9725084305
-0.24471147 -0.022754146 0.8472963 0.1413971633 0.4744405746 0.8688572645
-0.0012697056 -0.088625453 0.86900002 0.265293777 -0.1708000898 0.9489186406
-0.090979591 -0.10031083 0.88700002 -0.5124462247 0.1135671437 0.8511764407
-0.1852435 -0.024759592 0.8545118 0.1076001972 0.3532375097 0.9293252826
-0.22649218 -0.0032853377 0.83899999 -0.1408949047 0.1407059133 0.9799747467
-0.0248009 -0.10499047 0.94300044 -0.092600137 -0.09621240944 0.9910441041
-0.065715045 -0.11792132 0.92687529 -0.1571344882 -0.5233977437 0.837474525
0.0032564409 -0.06858363 0.89628571 -0.6732020378 -0.6533443332 0.346323818
-0.025557015 -0.13475482 0.8832581 0.3621940017 -0.44029814 0.8215552568
-0.034506083 -0.094988525 0.94103473 -0.1080109701 0.1801211834 0.9776962399
-0.074502289 -0.062811591 0.84390008 -0.5255200863 0.5399472117 0.6574843526
0.0038521986 -0.045023471 0.93385726 -0.3864807785 -0.687302053 0.615019083
-0.23510361 -0.023771558 0.84726322 0.01089994144 0.5309019685 0.8473631144
-0.044305924 -0.085333906 0.9359166 -0.08072763681 0.262604624 0.9615206122
-0.015091749 -0.10477614 0.9445129 -0.003235458164 -0.07681187242 0.9970403314
-0.22462979 -0.014709995 0.84329778 -0.1657543331 0.359808743 0.9181846976
-0.15455058 -0.074515536 0.87428582 0.2611087263 0.6148885489 0.744133234
-0.15488403 -0.065012805 0.8655836 0.2361488044 0.4840398133 0.8425788879
-0.015387946 -0.13439731 0.87289459 0.4190540612 -0.3475462198 0.8388118744
-0.054380238 -0.044531703 0.85445726 -0.2475096136 -0.4737679958 0.8451525569
-0.12937343 -0.0069478028 0.85675001 -0.3543385267 -0.5244636536 0.7741976976
-0.16742027 0.01177977 0.85766667 -0.3862221837 -0.6816176772 0.6214738488
0.0058849426 -0.10407312 0.86336112 0.1848093569 0.0192586761 0.9825856686
-0.21491587 -0.014675665 0.84755009 -0.2359604985 0.3755400479 0.8962657452
-0.20489432 -0.024769124 0.85612261 -0.1161418334 0.4253638983 0.8975391984
-0.15517484 -0.03524011 0.85510665 0.1577985585 0.3186938167 0.9346303344
-0.12463991 -0.02450401 0.85265976 -0.2729219496 -0.2644461989 0.9249766469
-0.241466 0.020803738 0.84750009 0.0323577784 -0.450434804 0.8922227621
-0.17527995 -0.045887575 0.86167759 0.1459790319 0.4211263359 0.8951774836
-0.15479374 -0.085215814 0.88474286 0.266415894 0.6286687255 0.7306149006
-0.22492748 -0.055000536 0.87258619 0.03421928361 0.5395759344 0.8412413001
-0.20705289 -0.070043914 0.87800002 0.06902776659 0.5753745437 0.8149719834
-0.074967012 -0.068254113 0.85664701 0.1143486425 0.4718632102 0.87422508
-0.0070813624 -0.066657171 0.87800014 -0.4390519261 -0.4036440551 0.8026860356
-0.1110101 -0.078339368 0.84700006 0.7286959291 0.02361731231 0.6844300628
-0.12462625 -0.083948843 0.86486375 0.6619106531 -0.1704922318 0.7299361229
-0.17525105 -0.024711523 0.85167438 0.1343080252 0.3192164898 0.938116312
-0.012723831 -0.042012386 0.92162508 -0.2508236468 -0.7142195702 0.6534354091
-0.16504729 -0.054642938 0.86462879 0.1809103936 0.4454777837 0.876824379
-0.014666554 -0.09471228 0.94390917 -0.003925500903 0.0514873527 0.9986659288
-0.16526844 -0.024680885 0.85302049 0.06488694996 0.2927492261 0.953985095
-0.11529604 -0.065572813 0.86744452 0.2655528188 0.2051350623 0.9420198202
-0.096185915 -0.10825937 0.86088896 -0.2580982447 0.5085068941 0.8214657903
-0.084736399 -0.12402054 0.87503332 -0.6736169457 -0.4723186195 0.5684675574
-0.021717539 -0.055223107 0.87142879 -0.4925924242 0.02722982131 0.8698340058
-0.1845628 0.024045438 0.86460704 -0.2936480939 -0.7945538759 0.5314648747
-0.035810407 -0.037222069 0.92312509 0.1690821946 0.1743830889 0.9700524211
-0.19585533 0.013826022 0.84719366 -0.2031989843 -0.4315210283 0.878919661
-0.0062378021 -0.11326373 0.94245458 -0.02397935838 -0.1705413163 0.9850587249
-0.11477729 -0.094527647 0.85490251 0.3429151177 0.3765047789 0.8606122136
-0.15360442 0.016517129 0.88294446 -0.5551752448 -0.7655543685 0.3251259625
-0.20463282 0.027724026 0.86309093 -0.2287769169 -0.8233272433 0.5194163918
-0.086325772 -0.055427853 0.83615386 -0.4648410082 -0.2365080416 0.8532214165
-0.15477209 -0.014882098 0.84877819 -0.06082488224 -0.04071960598 0.9973175526
-0.074339472 -0.12551028 0.88361526 -0.5348069072 -0.4509896934 0.7145557404
-0.12515165 -0.065070137 0.86583346 0.1118837371 0.3636341989 0.9247984886
0.014683193 -0.055557285 0.92444444 -0.5581412911 -0.5696140528 0.6033391356
0.014540334 -0.10412541 0.86344844 0.1272089183 0.03086716309 0.9913955331
-0.15337896 -0.10181344 0.89566666 0.3083795309 0.5704007745 0.7612785697
-0.10588615 -0.016182322 0.86596006 -0.3138993084 -0.4849452972 0.8162690997
-0.013954341 -0.1186336 0.93650007 -0.07839412242 -0.272495389 0.9589580894
-0.1161228 -0.074560501 0.86530429 0.5129478574 -0.1735514849 0.8406928182
-0.10027313 -0.030911267 0.86000001 -0.1777368933 -0.5211735368 0.8347381353
-0.19515461 -0.056941986 0.87183332 0.08807867765 0.5169068575 0.8514983654
-0.013469985 -0.073122762 0.87800014 -0.4735346437 -0.3942047954 0.7876341343
-0.18468018 -0.045239467 0.86316687 0.1663127244 0.4260210097 0.8892953396
-0.05563163 -0.075266734 0.93319446 -0.04034297913 0.2649696469 0.9634124637
0.0041130511 -0.082817152 0.87161541 0.03743435815 -0.3895048797 0.92026335
-0.054932173 -0.085270211 0.93523818 -0.02733103558 0.2251308411 0.9739451408
-0.015106235 -0.065054752 0.87644458 -0.4900842309 -0.296033293 0.8198668957
-0.15573967 0.013561815 0.87550014 -0.5058488846 -0.7722200155 0.3844386935
-0.10498114 -0.1041426 0.86370581 -0.04732342064 0.4993728995 0.8650937676
-0.22488494 0.014784436 0.84290469 -0.06062313169 -0.4152710736 0.9076755047
-0.14497177 -0.024045093 0.84863657 -0.01653254591 0.06219638139 0.9979270101
-0.064490587 -0.094379134 0.93733317 -0.1910943836 -0.1212181747 0.974058032
-0.21548182 0.021325402 0.84855556 -0.154777512 -0.6132823229 0.7745506167
0.030277312 -0.084340088 0.9262858 0.09452586621 0.4406892359 0.8926689625
-0.19539547 0.021528672 0.85605258 -0.2400951833 -0.7587425709 0.6055278778
-0.045144729 -0.067129001 0.93255568 -0.03487580642 0.3207682371 0.9465153813
0.0051614586 -0.075693406 0.87554055 -0.419289887 -0.6596722007 0.62372154
-0.14347897 -0.092361063 0.88761544 0.3560407162 0.5559202433 0.7511243224
-0.24471568 -0.015132364 0.84443748 0.1761798561 0.3192197978 0.9311602116
-0.20535961 -0.044699967 0.86540002 -0.005933363922 0.4639215469 0.88585639
-0.16481087 -0.035342462 0.85516298 0.1250215918 0.352484256 0.9274289608
-0.20514563 -0.0051019196 0.84648937 -0.2020521611 0.2074055672 0.9571613669
-0.044493914 -0.10476092 0.94204891 -0.1055572554 -0.1407320052 0.9844044447
-0.055467956 -0.036296505 0.86000007 -0.2301326394 -0.5915094018 0.7727584243
-0.034849767 -0.055293757 0.86237943 -0.5652967691 -0.2246075869 0.7937197089
-0.22041504 0.032569919 0.86400002 -0.1118205264 -0.7742106915 0.6229718924
-0.15565717 0.0023244191 0.85580951 -0.3034321368 -0.6445077658 0.701810956
-0.0047116335 -0.074748643 0.87770742 -0.4988197088 -0.6201606989 0.6054582
-0.15511465 0.0067457408 0.86352384 -0.4209174514 -0.7661201358 0.485683471
-0.088210203 -0.041466333 0.86000001 -0.08763036132 -0.5964895487 0.7978227139
0.02652153 -0.094795279 0.93370008 0.1497589946 0.4013666809 0.903591156
-0.11526563 -0.025633384 0.85630006 -0.262091279 -0.3871460557 0.8839830756
-0.19539222 -0.035282329 0.86096787 0.062612921 0.4260568023 0.9025271535
-0.21417612 -0.052308612 0.8678751 0.03339604288 0.5230253339 0.8516626358
-0.145053 -0.045176379 0.85595018 0.1554025263 0.3310913146 0.9307140112
-0.10434666 -0.07241299 0.83749998 0.7409238219 -0.02561925165 0.6711002588
-0.16469344 -0.072882608 0.8761766 0.2191955894 0.637786448 0.7383642197
-0.074776329 -0.13303328 0.88599992 -0.5215622783 -0.456763953 0.7206521034
-0.18129466 0.028544266 0.88000005 -0.3376098573 -0.8536891937 0.3965278268
-0.00471598 -0.054789621 0.91394466 -0.385348022 -0.6915099025 0.6109999418
-0.06479121 -0.055249736 0.84290892 -0.3308763802 -0.1173563004 0.9363483787
-0.03445331 -0.1145681 0.94214308 -0.1738402992 -0.3678205907 0.9135029316
-0.12691349 -0.01613831 0.85703993 -0.3553681374 -0.290468961 0.8884487748
-0.093145274 -0.033067785 0.80881822 -0.6364555359 0.5674138069 0.5224614143
-0.23506482 -0.033604145 0.85633349 0.01870886423 0.6144580841 0.7887276411
-0.1384134 0.010108843 0.88700002 -0.5285397172 -0.8231568933 0.20750539
-0.081761435 -0.10942203 0.92800003 -0.3664990664 -0.5116201639 0.777125001
-0.16434005 -0.08471632 0.88599998 0.2378309518 0.6415489912 0.7292813659
-0.085223705 -0.094382063 0.87434381 -0.8135531545 0.3373564184 0.4736262858
-0.16584665 0.014726664 0.86468428 -0.4267717898 -0.7553902864 0.497243762
-0.15732035 -0.07860519 0.88028574 0.2507797182 0.6559568048 0.7119200826
-0.11502878 -0.015185128 0.86312836 -0.3531259894 -0.3802677989 0.8548089862
-0.045304831 -0.12552467 0.89478385 -0.1636422724 -0.9508265257 0.2629640102
-0.04297873 -0.13737427 0.88866669 0.08878844231 -0.60569489 0.790727675
-0.032368161 -0.12913637 0.88814294 0.2466702163 -0.4790272415 0.8424290419
-0.25373656 -0.0053510224 0.84672421 0.270611763 0.1599303484 0.9493110776
-0.039865538 -0.048891701 0.85800004 -0.4892236888 -0.4289778173 0.7593669891
-0.18485381 -0.075321153 0.88379306 0.1471558213 0.6302245259 0.7623399496
-0.07494691 -0.075130872 0.86014652 -0.3468363583 0.6631557345 0.6632714272
-0.022778595 -0.064261042 0.87309527 -0.4902801812 -0.03947571665 0.8706704378
-0.12495787 -0.075237975 0.86565852 0.4672626853 0.01343127619 0.8840165138
-0.14551008 0.0027319561 0.86450005 -0.421472162 -0.7792255878 0.463862747
-0.13503037 -0.064874589 0.86047637 0.001189157949 0.4244781137 0.9054374099
-0.13489272 -0.084833369 0.87407404 0.3831936419 0.3773739934 0.8430607915
-0.062169138 -0.13651828 0.89354539 -0.26964432 -0.9230922461 0.274212867
0.023401331 -0.065437622 0.92724991 -0.7750238776 -0.3839196265 0.5019398928
-0.024572296 -0.044706654 0.91502643 0.1723986566 0.09453555942 0.9804803729
-0.13211927 0.0020429839 0.89600003 -0.547981441 -0.8099291921 0.2091196924
-0.14542259 0.0051645604 0.87460011 -0.5340258479 -0.8024247885 0.2663285434
-0.075542308 -0.08521276 0.86534232 -0.6876326799 0.5841496587 0.43119663
-0.02479038 -0.083372481 0.93768412 -0.075244762 0.2598151267 0.9627223611
-0.091374665 -0.091374665 0.87100005 -0.6955090165 0.5301257372 0.4850092232
-0.041691199 -0.12098833 0.93250006 -0.194937259 -0.530395627 0.8250333071
-0.012477268 -0.1282286 0.875875 0.4389586151 -0.1756125242 0.8811784983
-0.15084103 -0.070849568 0.86900002 0.2614759207 0.5615898967 0.7850140929
-0.095110498 -0.024846371 0.86443615 -0.1846100837 -0.5532533526 0.8122991323
-0.23474789 -0.0049905274 0.83874506 0.06572768092 0.09783824533 0.9930294752
-0.1348867 -0.01479871 0.85307896 -0.2963511646 -0.2711679637 0.9157750607
-0.23445536 -0.044214681 0.86581081 0.05785486102 0.606951654 0.792630136
-0.175841 0.013347782 0.85589284 -0.3517489731 -0.6224465966 0.6991658807
-0.17564921 0.022424694 0.86699992 -0.3687945604 -0.7865074277 0.4953752458
0.0051448229 -0.062071793 0.91280955 -0.5520139933 -0.570407927 0.6082066894
-0.15882394 -0.069485478 0.87100005 0.2207053602 0.5747124553 0.7880321741
-0.12582494 -0.052331671 0.85616004 0.08511599898 0.513654232 0.8537649512
0.021378687 -0.058179688 0.92600006 -0.6749491692 -0.468893826 0.5697211623
-0.097199626 -0.04489205 0.84422225 0.2079413086 -0.7701599002 0.6030042171
-0.14434163 -0.004158996 0.85379505 -0.2982201278 -0.5477663875 0.7816755772
-0.074719854 -0.055479158 0.84385735 -0.5827902555 -0.1658613384 0.7955158949
-0.11736331 -0.056416273 0.86183333 0.1851013005 0.4601653516 0.8683232665
-0.21455769 0.0051613296 0.84104055 -0.2212483138 -0.09145875275 0.9709193707
-0.12434189 -0.0077196956 0.8619132 -0.3710775673 -0.6092453003 0.7008007169
-0.13922693 -0.088271566 0.88066673 0.3938927054 0.5716724992 0.7197493315
-0.17390633 -0.07207609 0.87775016 0.1943898946 0.6339621544 0.7485349774
-0.078163899 -0.12173276 0.87700003 -0.6430716515 -0.513420701 0.5682060122
-0.180944 0.018848334 0.86000001 -0.3163824379 -0.7463955283 0.5854877234
-0.094108202 -0.10376611 0.85518527 -0.3911754787 0.4313973486 0.8129440546
-0.034389876 -0.07533285 0.93400025 -0.06979022175 0.294740051 0.9530255198
-0.1946162 -0.064258903 0.87561768 0.09224640578 0.5811460614 0.8085541725
-0.074791551 -0.10523099 0.93343329 -0.1230563596 -0.3148707449 0.9411235452
-0.090844579 -0.067588367 0.82900006 -0.5652621388 0.4568977952 0.6868209839
-0.21507767 -0.044894531 0.86379045 -0.01468049455 0.5157337785 0.8566231132
-0.087064452 -0.11524587 0.86717647 -0.6053907275 0.09188581258 0.7906067967
-0.14401197 -0.072520442 0.86752951 0.1797015816 0.5183938146 0.8360473514
-0.24580207 0.0057229716 0.84357882 0.1903660297 -0.1095950305 0.9755765796
-0.13162097 -0.090056457 0.87800002 0.7792568207 0.2303000242 0.5828556418
-0.24473892 0.014221394 0.84582341 0.1310890913 -0.298758626 0.9452824593
-0.0037853795 -0.083697796 0.87592316 -0.1141466275 -0.4951885045 0.8612542748
0.015912266 -0.075548396 0.91312498 -0.7467019558 -0.3266627192 0.5794200897
-0.094700262 -0.095413104 0.85357511 -0.6442030668 0.3583142459 0.6757316589
-0.093471266 -0.055256993 0.83737838 0.5770733953 -0.2473785579 0.7783252001
-0.17483479 -0.061089441 0.8685385 0.1777435541 0.5221803188 0.8341072798
-0.014995873 -0.046278208 0.91587996 -0.26608634 -0.7093507648 0.6527017355
-0.13648824 0.0040301825 0.8836332 -0.5201637745 -0.8217148781 0.2328396738
-0.21727556 -0.022159969 0.84820002 -0.2124126852 0.4734460413 0.8548272848
0.0044615758 -0.048017778 0.92450011 -0.3864807785 -0.687302053 0.615019083
-0.046372231 -0.047349598 0.85504359 -0.3913561702 -0.3786154985 0.8387435079
-0.23450533 0.0043586353 0.83880514 0.07130637765 -0.1784863472 0.9813551903
-0.20489182 0.014770829 0.84524369 -0.2044120431 -0.4060013592 0.8907180429
-0.18565409 -0.01599058 0.85162497 0.06300476938 0.3142101467 0.9472604394
-0.091418803 -0.12112991 0.86900002 -0.3554062545 0.3105149567 0.8816273808
-0.064828105 -0.047648557 0.84781522 -0.1151080281 -0.4606791437 0.8800709248
-0.075663127 -0.028338253 0.86200023 -0.1047191173 -0.6240808964 0.7743106484
-0.18517455 -0.064648375 0.87397134 0.1453174949 0.5813211799 0.8005926013
-0.083544821 -0.048774146 0.84881818 -0.180803135 -0.6767251492 0.7136899233
-0.064912789 -0.11310837 0.9318462 -0.155833438 -0.5372079611 0.8289291859
-0.084649317 -0.075048551 0.86207515 -0.2968906164 0.602299571 0.7410068512
-0.12228338 -0.095369928 0.85575002 0.6108590961 0.3011640608 0.7322235703
-0.17294496 0.025091188 0.87387502 -0.3951482773 -0.8044301867 0.443565011
-0.10489801 -0.09420865 0.85469443 -0.02571732551 0.5184056759 0.8547480106
-0.10458389 -0.034627009 0.85600001 -0.193058148 -0.3844993412 0.9027119279
-0.16201958 0.0092116622 0.86119998 -0.4127851129 -0.7151249647 0.5640963912
-0.048516486 -0.10936768 0.93800002 -0.1638012975 -0.4291913807 0.8882364035
0.01046214 -0.058748938 0.91800004 -0.5728532076 -0.5571047664 0.6012266278
-0.18503347 0.0052042697 0.84765321 -0.1713832766 -0.2295823544 0.9580812454
-0.056473516 -0.048763469 0.84863639 -0.253985405 -0.4297534823 0.8664891124
-0.13897096 -0.077884823 0.87100005 0.1346850544 0.5522720814 0.8227123022
-0.10529141 -0.077021055 0.84254545 0.7716191411 0.06756982952 0.6324857473
-0.06571997 -0.037840519 0.85758328 -0.0953586176 -0.5914453268 0.8006866574
-0.065207675 -0.12603341 0.88773656 -0.4231062233 -0.4208803177 0.8023969531
-0.14696866 -0.0084162019 0.84900004 -0.1527355313 -0.2638748288 0.9523875117
-0.13103361 -0.082276918 0.86900002 0.5896803737 0.2188163549 0.7774294019
-0.20633402 0.031597696 0.86849999 -0.2221810967 -0.8282343149 0.5144545436
-0.086903013 -0.034728482 0.81157142 -0.6079300642 0.5894694924 0.5319274664
-0.045312744 -0.11563282 0.93469709 -0.1813188046 -0.5447218418 0.8187805414
-0.085412115 -0.027005551 0.86511552 -0.1432353109 -0.6013995409 0.7860039473
-0.026880644 -0.14135578 0.88433337 0.3053500056 -0.5668137074 0.7651689649
-0.14612693 0.011863492 0.88430005 -0.5729479194 -0.7662472129 0.2908536792
-0.074878581 -0.11486774 0.92553556 -0.1311101764 -0.4724279642 0.8715628982
-0.089606732 -0.06046633 0.83100003 -0.594486773 0.4429576099 0.6710991263
0.030166101 -0.090498298 0.93000007 -0.0354539305 0.4659592211 0.8840956092
-0.16518164 0.0055358931 0.85373187 -0.3021762669 -0.5817784667 0.7551313043
-0.0072184145 -0.095734976 0.94300002 0.1104529426 0.01711254381 0.9937340021
0.02470484 -0.13244842 0.86900002 0.1495342404 0.1648550332 0.9749165773
0.015282054 -0.12532417 0.87166667 0.1495342404 0.1648550332 0.9749165773
-0.11071862 -0.10919146 0.87100005 0.2157338709 0.724083662 0.6551043987
-0.13354176 -0.038234718 0.85099995 0.07072582096 0.2130957097 0.974468112
-0.22118036 -0.06046107 0.87300003 0.05600758269 0.5556982756 0.8294953704
-0.24564835 -0.027626865 0.85169226 0.1017393991 0.5558574796 0.8250282407
-0.05763723 -0.061433196 0.84655559 -0.2682633698 0.08951275051 0.9591779113
-0.16618054 -0.068032317 0.87193352 0.2120876163 0.5859140754 0.7821275592
-0.019286666 -0.13037786 0.88000005 0.445953548 -0.3486788273 0.8243473172
-0.23548155 -0.028922003 0.85137498 -0.01674555615 0.5774832964 0.8162307143
0.0053465818 -0.12524766 0.87114286 0.141815573 0.1839161664 0.9726577997
-0.2153502 0.02592463 0.85539132 -0.155978933 -0.7389165759 0.6554943919
-0.25207388 0.0043921592 0.84486681 0.2622018456 -0.09478096664 0.9603472352
-0.19828446 -0.0294034 0.86000001 -0.007519794162 0.4307153523 0.902456522
-0.14335269 -0.082287051 0.87618756 0.307154417 0.6575398445 0.6879662275
-0.12766954 -0.002526748 0.89466667 -0.5440099835 -0.8116196394 0.2129006237
-0.1734035 -0.082042851 0.88566679 0.1985633969 0.6536991596 0.7302396894
-0.055217296 -0.11341648 0.93293548 -0.2277131677 -0.5257825255 0.8195727468
-0.024672441 -0.12838818 0.88758826 0.3621940017 -0.44029814 0.8215552568
-0.20450599 0.034050249 0.87447071 -0.2262972891 -0.8351355195 0.5013363957
-0.035626996 -0.12630554 0.89356017 0.1530040652 -0.5295978189 0.8343355656
-0.065587074 -0.085262828 0.9351666 -0.1501881331 0.1323734075 0.9797554612
-0.15506603 -0.095506191 0.89397168 0.3083795309 0.5704007745 0.7612785697
-0.11635733 -0.039447371 0.84900004 -0.004517100286 -0.1035445556 0.9946145415
-0.16924839 0.021061333 0.86833334 -0.4118615985 -0.7916327715 0.4513176382
-0.15297396 0.0090631051 0.87185723 -0.4769020081 -0.7742217779 0.4161070585
-0.013709996 -0.052260049 0.91400009 -0.2951355875 -0.7148362398 0.6339591146
-0.22542605 -0.039958466 0.86000001 -0.007463758811 0.6010817289 0.7991526723
-0.16476674 0.023619205 0.88582361 -0.4464420974 -0.8067725301 0.3870497942
-0.11048455 -0.056370836 0.85733336 0.2874046564 0.4138799012 0.863771975
-0.22436443 -0.028214108 0.85139996 -0.1085501462 0.5717875361 0.8131887317
-0.080745384 -0.062229306 0.84500003 -0.6197292805 0.4002177417 0.6751010418
-0.00094986835 -0.094349504 0.86624998 0.3747440875 -0.1008753702 0.9216241241
-0.026832575 -0.12684532 0.92750001 -0.1700550914 -0.7713531852 0.6132662892
-0.038648728 -0.09127678 0.93800002 -0.1075497568 0.2199761569 0.9695584178
-0.20490874 0.023557398 0.85444438 -0.1994774342 -0.7459448576 0.6354329586
-0.20506215 -0.064364061 0.87607497 0.06902776659 0.5753745437 0.8149719834
-0.00079842418 -0.062275112 0.91075003 -0.4505984187 -0.6325781345 0.6299253702
0.0049590841 -0.06646163 0.90525001 -0.6666389108 -0.6438269019 0.3756054938
-0.24149686 -0.0043641054 0.83899999 0.1790653467 0.08631306142 0.9800437093
-0.026844157 -0.054670185 0.86785716 -0.5467807055 -0.07132393867 0.8342324495
-0.13538395 -0.0058823032 0.85535014 -0.3019482791 -0.4798303246 0.8237658143
-0.18468329 0.015963953 0.85336679 -0.2875792384 -0.5950698853 0.7504598498
-0.17255008 -0.041670773 0.85799998 0.1451844424 0.3904568255 0.9091011882
-0.13843779 -0.10602948 0.88716668 0.5918366909 0.3715914786 0.7152965069
-0.021311767 -0.11885408 0.93500006 -0.1272896528 -0.4166247845 0.9001228213
-0.18443167 -0.080153339 0.8876667 0.1457604468 0.6459394693 0.7493437529
-0.10555066 -0.098765269 0.86000001 0.02580687031 0.5767011642 0.8165474534
-0.019089416 -0.049632482 0.87100005 -0.4901251495 0.0029138627 0.8716471791
-0.12891629 -0.094170138 0.88480008 0.6406607032 0.3623865247 0.6769267917
-0.14141509 -0.033344194 0.8490001 0.08412753791 0.1758755445 0.9808110595
-0.19323674 0.017393693 0.85199994 -0.2667524815 -0.6381074786 0.7222617269
-0.056982055 -0.12792704 0.88853842 -0.2390274554 -0.2747202814 0.9313402176
-0.16005655 0.0193305 0.88200003 -0.4691237509 -0.7858005166 0.4030390382
-0.014759119 -0.12464412 0.93538886 -0.1292808801 -0.3544659019 0.9260887504
-0.11350886 -0.021026365 0.86000007 -0.2890605628 -0.4299396574 0.8553337455
-0.18131395 -0.060184043 0.86900002 0.1621011198 0.5223807693 0.8371627927
-0.01576422 -0.055549994 0.87600011 -0.5249727964 -0.08231305331 0.8471293449
-0.048369054 -0.055066217 0.84883338 -0.3887425363 -0.1768562198 0.9042129517
-0.25157002 -0.021584408 0.84900004 0.1753012985 0.4511921108 0.8750400543
-0.15277416 -0.0018333491 0.85236365 -0.2155732661 -0.5168625712 0.8284813166
-0.16308439 0.017101282 0.87338901 -0.4619713128 -0.7764463425 0.4286182523
-0.13073379 -0.10428476 0.86200005 0.6574627161 0.3897829056 0.6448348761
-0.20701745 -0.032238659 0.85786653 -0.09808963537 0.4592972696 0.8828501701
-0.11744753 -0.10068467 0.85799992 0.3646558821 0.5029386878 0.783631742
-0.14520337 -0.014971646 0.84875637 -0.11687354 -0.1661543101 0.979149282
-0.2118763 -0.018651083 0.85100001 -0.2071787417 0.4393555224 0.8740959167
-0.10754152 -0.064487129 0.86266679 0.3900069594 0.3348062336 0.8577874899
-0.10339161 -0.054359555 0.84600008 0.5362325907 -0.2605539262 0.8028488159
-0.1038814 -0.024078337 0.86144447 -0.2688109875 -0.4901762903 0.8291368484
-0.16437724 -0.0051402249 0.84795839 -0.1156567931 -0.192659393 0.9744259119
-0.2157445 -0.033895582 0.8569715 -0.1118048504 0.5313734412 0.8397272825
-0.078531474 -0.11573324 0.8774547 -0.661264956 -0.1086772829 0.742238462
-0.19723687 -0.011536494 0.84900004 -0.05669054016 0.2907102406 0.9551302195
-0.1941721 -0.072638012 0.88182604 0.1075119749 0.6181035638 0.7787099481
-0.23584512 -0.038247965 0.86028582 0.02846492454 0.6175605655 0.78600806
-0.21541199 -0.057138499 0.87218189 0.03541109711 0.5234657526 0.8513105512
-0.19459444 -0.052213851 0.86820018 0.09677337855 0.479385823 0.8722523451
