# .PCD v0.7 - Point Cloud Data file format
VERSION 0.7
FIELDS x y z normal_x normal_y normal_z
SIZE 4 4 4 4 4 4
TYPE F F F F F F
COUNT 1 1 1 1 1 1
WIDTH 512
HEIGHT 1
VIEWPOINT 0 0 0 1 0 0 0
POINTS 512
DATA ascii
-0.1709260046 -0.1362440586 0.7238262892 0.04767345265 0.2886936069 0.9495811462
-0.1093514711 -0.1210940108 0.7623444796 -0.5502989292 0.2956786454 0.7806527615
-0.161110267 -0.1142590493 0.7216219306 -0.225694105 -0.05190199241 0.9675590396
-0.1614139974 -0.1351501495 0.7229534388 -0.1659198701 0.2445962727 0.9498137832
-0.1769296676 -0.136360839 0.7295744419 0.1553902179 0.2600363791 0.9341646433
0.01443629526 0.02723039873 0.7658295035 0.1354842335 -0.04232614115 0.9836749434
0.01462419424 0.0007761736633 0.7281902432 0.8244795203 -0.5153841972 0.08302297443
0.01922817901 0.01057155803 0.7351050377 0.7392275929 -0.5130189061 0.008072990924
0.01947081648 0.01925840043 0.7492540479 0.6886612177 -0.5027661324 0.3536377251
0.01442930382 0.01296012942 0.7526140213 0.5254153609 -0.3599480093 0.6032751203
0.01988882944 0.02507925592 0.7580708265 0.6536272764 -0.4952283204 0.5564049482
0.01192187238 0.0130586084 0.7603549361 0.2945436537 -0.1888906658 0.8376161456
0.01496750116 0.01002663467 0.7456841469 0.663395524 -0.4526673555 0.4435591698
-0.1643586457 -0.09199630469 0.7241250873 -0.1233778521 -0.1793181896 0.9724933505
-0.1733197719 -0.1236305758 0.7197765112 0.1657657176 0.1565336883 0.9712944627
-0.180079475 -0.1272568256 0.7235254645 0.2598926127 0.1694196463 0.9476618767
-0.160035491 -0.1388566941 0.7303485274 -0.2195502371 0.2296986878 0.9062659144
-0.1885350794 -0.1240673438 0.7292564511 0.3900380433 0.07822033763 0.914694488
-0.1837553829 -0.1308978647 0.7296566963 0.3125611842 0.1709634364 0.9263894558
0.0006844506715 0.04538029432 0.764003098 0.125575617 -0.2821000218 0.8191701174
-0.002577261766 0.05149263144 0.7603293061 0.1359436959 -0.4194675982 0.7201250792
0.009292627685 0.03323527053 0.7690406442 0.1123347878 -0.04461146146 0.9925978184
0.0004205733421 0.0597287789 0.7506565452 0.1659342796 -0.6325722933 0.6135662794
0.0008128422196 0.0651480481 0.744851768 0.183340013 -0.760663867 0.5563656688
-0.06485320628 0.03667473793 0.7386842966 0.3980225027 -0.6166527867 0.6790335774
-0.03598490357 -0.006501657423 0.7206477523 0.1827510148 -0.1298886538 0.8642233014
-0.0239130538 -0.01432755869 0.7266480327 0.3507045209 -0.3446660936 0.6060631871
-0.04098983854 0.0006170614506 0.7186084986 0.2899712622 -0.1662233919 0.8610360622
-0.01444967464 -0.01983600482 0.7314243317 0.5109638572 -0.5333086252 0.3858636916
-0.02309533022 -0.02318782732 0.7260901928 -0.01818760298 -0.0896217525 0.8255691528
-0.1311214715 -0.02380327508 0.6976299882 -0.1629920453 -0.9466561079 0.2365498543
0.01093263552 0.001992410282 0.7433369756 0.6277655363 -0.421990633 0.4486374557
0.009181697853 0.003406554693 0.7511976361 0.5356478095 -0.3865029514 0.5817909837
0.006225494668 0.005347460508 0.7636615038 0.3947810829 -0.3362740278 0.7890101671
0.01317914948 0.01833601668 0.7658863068 0.2482549697 -0.1709029973 0.9181617498
0.0004821037292 -0.02092135511 0.7290895581 0.7553294897 -0.6390200853 0.08124937117
-0.1647250801 -0.1277544051 0.719907403 -0.09948085994 0.2188065499 0.9684640765
-0.1573345363 -0.1255235374 0.7206742167 -0.3320391476 0.121783115 0.9345709085
-0.0518572703 -0.03846336901 0.7147060037 -0.1179104671 0.0809757933 0.988122046
0.004850798752 0.04877625406 0.7569756508 0.141745612 -0.3690003753 0.8043061495
0.01319631655 0.0376400575 0.7643992305 0.148720026 -0.1213157922 0.9336714745
0.00734249549 0.05548440665 0.7495801449 0.2396165878 -0.5073973536 0.6690859199
0.01088090055 0.05721777678 0.7407624722 0.2784589529 -0.5978991389 0.5915269852
0.01732697338 0.04158672318 0.7539004683 0.497181654 -0.08921062946 0.6806617975
0.01513932552 0.04847726226 0.7468212843 0.3926377892 -0.3302721083 0.6387434006
0.02368380688 0.01555963606 0.7199658751 0.1972231269 0.4209074974 0.854589045
0.02221569978 0.01605220512 0.7290120721 0.2395509034 0.2609173357 0.8169621825
0.01200855616 0.01017888263 0.7250784636 0.6590422988 -0.1770661771 0.3456853926
0.02795507573 0.01690804586 0.7138976455 0.3950510919 0.1851862967 0.5018224716
-0.004804489203 0.0355803594 0.7705698609 0.07391550392 -0.01105344202 0.9970840216
-0.04986375198 0.005299367942 0.7158955336 0.2693665922 -0.08373304456 0.9578664899
-0.007660787087 0.05948433653 0.7328749299 0.2061862797 -0.7935114503 0.5723363757
-0.05983290076 0.03546180949 0.7459530234 0.3145175576 -0.5368366241 0.7135981917
-0.04500948265 0.02438581362 0.7597222328 0.03599818051 -0.2124029994 0.8899698257
-0.05201416835 0.03258212656 0.7523836493 0.197175011 -0.4125303924 0.7756533027
-0.03746856749 0.02611644007 0.7629323602 -0.03431314602 -0.1258283705 0.9376167655
-0.04389321804 0.0401087366 0.7514995933 0.2116430551 -0.434553504 0.748904407
-0.04777076468 0.04975187033 0.7440052629 0.3806819618 -0.6502183676 0.6174429059
-0.05116138607 0.04153396189 0.7461172938 0.3247030377 -0.5692216754 0.6717368364
-0.04125489295 0.033787705 0.7562986016 0.1067268476 -0.3017129004 0.8296917081
-0.1848669648 -0.1171722636 0.7266036868 0.358568877 -0.001373509527 0.9191739559
-0.1713516265 -0.1169389337 0.7274182439 0.005299502052 -0.02715558186 0.9130362868
-0.04940502346 0.0192174539 0.71674788 0.3708250523 -0.3297697604 0.8652112484
-0.1701470166 -0.07489626855 0.7349061966 -0.01078050397 -0.1197489873 0.9117062092
-0.1896299124 -0.106321007 0.7306227684 0.4646120071 -0.1282821149 0.8741286397
-0.180614695 -0.1063399166 0.7279876471 0.258090198 -0.1194114536 0.8916384578
0.01491305791 0.04325877875 0.7033959031 -0.2117275 -0.4087678492 0.8026500344
-0.09892769158 -0.1126971841 0.7626998425 -0.4509737194 0.4255923331 0.7717930079
-0.03503084183 0.007194275036 0.7661501765 -0.07876238972 -0.06123090163 0.9948784709
-0.004853006918 0.004145743791 0.767858088 0.03220544383 -0.1662522256 0.9828061461
0.007659350056 -0.005684264004 0.7378530502 0.7440007329 -0.5406494141 0.3107661605
0.002341147745 -0.002681332175 0.7606213689 0.5474572778 -0.4924029708 0.6483505964
0.002150662243 -0.01069208514 0.7429304123 0.6798920035 -0.5687273145 0.3903345466
0.005369591992 -0.004496269859 0.7474167943 0.6611812711 -0.5208856463 0.4526226521
0.00654961355 -0.008833846077 0.7303038239 0.7965164781 -0.576390028 0.1526762247
-0.08300328255 -0.09813316911 0.7583348155 -0.2931104898 0.6008144617 0.7397837639
-0.09394743294 -0.1071045548 0.7572790384 -0.3747060001 0.4992264211 0.7735998034
-0.08010037243 -0.09252403677 0.7530249953 -0.2339435071 0.6381384134 0.7331848741
-0.1523879021 -0.05981118605 0.7377439141 -0.1351688802 0.0766440928 0.9695817828
-0.1680356264 -0.04869092628 0.7312953472 -0.07113551348 -0.0426072441 0.9964713454
-0.1724659204 -0.06141803786 0.7291793823 0.08552306145 -0.1128958613 0.9857088923
-0.006318262313 0.06534226984 0.7408319116 0.2115123123 -0.7934654355 0.5704879761
-0.01373634674 0.0120615093 0.7226666212 0.5634685755 -0.5132458806 0.5361884236
-0.005032955203 0.009362030774 0.7248911858 0.6841053367 -0.5022681355 0.3663521111
-0.01589333639 0.01950096153 0.7192228436 0.5204706788 -0.4812515378 0.5932333469
0.0008593552047 0.003100258065 0.7282915711 0.7743577361 -0.5175720453 0.2415769249
-0.01918623224 0.03267692029 0.7126652598 0.3571331799 -0.5180447102 0.7744837999
0.02155751549 0.02754867449 0.7509025931 0.5597771406 -0.2323379964 0.6588720083
0.02305309102 0.02216758393 0.734502852 0.3949146867 0.06427745521 0.7469890714
0.008949534968 0.03607106209 0.7040473819 0.1832571179 0.05433902144 0.9616042972
0.0211955905 0.0235103108 0.7122032642 0.2250074744 0.3714831471 0.8773494363
-0.04181771725 -0.01829128712 0.765229404 -0.07431416959 -0.2182073593 0.9622373581
-0.04587606341 -0.00627953792 0.7168095708 0.1250248104 -0.03268583491 0.9744900465
-0.04065550491 -0.02120326832 0.7193903923 -0.06217560545 0.04233669862 0.9868760109
-0.0332245715 -0.01569420844 0.7214999795 -0.04868943989 0.00814782735 0.9636956453
-0.04337843135 -0.01349544805 0.7180487514 0.0346679613 0.00360746216 0.9805318117
-0.05307850242 -0.001839053119 0.7164728045 0.1895647645 0.01726812683 0.9773551822
0.004508266691 0.01143295318 0.7244774699 0.7589140534 -0.4423950911 0.2571310997
-0.005973937456 0.02902331389 0.7129841447 0.4035692811 -0.2978488207 0.744998455
-0.008240098134 0.01767723635 0.7207081914 0.6094932556 -0.4613872468 0.4671815932
0.0007092634332 0.03547076508 0.7075489759 0.2246031463 -0.06749545783 0.9487451315
0.01057748497 0.0291337017 0.7109274864 0.1959324181 0.1821283102 0.9215882421
0.0029275259 0.02709284611 0.7140176892 0.3787985444 -0.1216165796 0.7482824326
0.005450962111 0.01838687994 0.7197842598 0.5767605901 -0.2594600022 0.4871082902
0.01394514088 0.02193335444 0.7172302604 0.2564558983 0.2864080966 0.8337299824
-0.03946010396 0.0566829592 0.7451353073 0.3683717847 -0.7016891241 0.5926892161
-0.03338399902 0.05072018877 0.7511636019 0.2346363813 -0.525883913 0.7001854777
-0.02512725629 0.04018271714 0.7603347301 0.03342833742 -0.2432868034 0.8696004748
-0.006988089066 0.06559539586 0.7506417036 0.1681407988 -0.7557898164 0.4842005968
-0.01278123166 0.05890763924 0.7556352615 0.1668736935 -0.4908024967 0.7422664762
-0.01303808577 0.06781568378 0.7444118857 0.2243528217 -0.7751210332 0.5904016495
-0.01807323471 0.03803715855 0.7648897767 0.02509042434 -0.1456834525 0.9327812195
-0.02715825662 0.04865689203 0.7556263804 0.1479975283 -0.4218129814 0.7689172626
-0.06430164725 0.02889947407 0.7480009198 0.2412089556 -0.4353904724 0.7929420471
-0.05216731504 0.02007866278 0.7580782175 0.04800507799 -0.2126456946 0.9044662118
-0.0738338232 0.03411381319 0.7412666678 0.3654517531 -0.5774716735 0.7267283201
-0.06630098075 0.02105908655 0.7502605915 0.2131551206 -0.3756674528 0.8438748717
-0.04501594603 0.01431396883 0.7642450929 -0.06911237538 -0.07585964352 0.9742084742
-0.05127343535 0.007689699065 0.7620065808 0.0215618927 -0.1325864643 0.9670993686
-0.1690672487 -0.1023827866 0.7209113836 0.07885015011 -0.1413191855 0.9733083248
-0.15912579 -0.09906274825 0.7246668935 -0.2979798913 -0.1766869128 0.9226121306
-0.1492973119 -0.03077921271 0.7265612483 -0.05511774495 -0.2194393277 0.842020452
-0.1404542029 -0.02708359808 0.7113277316 -0.06755055487 -0.5982884765 0.4929427505
-0.1420860887 -0.02540935203 0.7193480134 0.06050574034 -0.414113611 0.6656336784
-0.1896375716 -0.09833005816 0.7322013378 0.4803757071 -0.1778637022 0.8586810231
-0.1482436806 -0.1015154421 0.7278537154 -0.5265107155 -0.152511254 0.8362166286
-0.09262402356 -0.09628006071 0.7508152723 -0.2938071489 0.565907836 0.7613056302
-0.01139946841 0.0080906488 0.7706890106 -0.03390786797 -0.1304222345 0.9908596277
-0.04416167364 0.004731597845 0.7656705379 -0.05855603516 -0.07272960991 0.9954738021
-0.02609210461 -0.01164063998 0.7646134496 0.01009920053 -0.1561544389 0.9873617291
-0.02224901319 -0.0184858162 0.7627575994 0.2043769807 -0.3485507965 0.8525895476
-0.03276806325 -0.02041465603 0.7638874054 0.05133233219 -0.3920208216 0.886441052
-0.01071051974 0.01849664189 0.7709999681 -0.022028381 -0.0697267279 0.9967395663
-0.0006818696856 0.02702755108 0.7713226676 0.09945821762 -0.03637019917 0.9942506552
0.003380406648 0.015704602 0.7685483098 0.131327942 -0.0858810246 0.9865798354
-0.003551517846 0.01194610074 0.769955039 0.04233540967 -0.1089476347 0.989662528
-0.07361795753 -0.02732755989 0.7256567478 0.08488962799 -0.1471225321 0.9823323488
-0.06212262809 -0.02368942834 0.7451815605 -0.03537191078 -0.2300838381 0.9595797062
-0.08562092483 -0.08885124326 0.7476773262 -0.1974089742 0.6320818663 0.7478494048
-0.1325806677 -0.1178921387 0.7413640618 -0.5646204352 -0.01822766103 0.8241161108
-0.1510587484 -0.1110748574 0.7264185548 -0.469209522 -0.0806619972 0.874976337
-0.02932024002 -0.03952598199 0.722884357 -0.2703700066 0.3152799904 0.9045134187
-0.02215698734 -0.03308939189 0.7240188718 -0.1427614093 0.07922120392 0.8414401412
-0.01278327592 -0.03093148582 0.7269019485 0.1676273942 -0.1949454248 0.5277963877
-0.005862017162 -0.02786740102 0.7275149226 0.6284459829 -0.5853017569 0.1061992869
-0.0165367946 -0.02650911175 0.7529604435 0.4949319661 -0.6267997622 0.4388732612
-0.01692172326 -0.03664463758 0.7329979539 0.5654717088 -0.7317002416 -0.1846978515
-0.01262948848 -0.02912614308 0.7401644588 0.5860415697 -0.6852201223 0.235645622
-0.01873341016 -0.03194534034 0.7459914684 0.4990382493 -0.6679173112 0.1324729472
-0.02128978632 -0.03717407212 0.7395896912 0.5183526874 -0.7079453468 -0.09061762691
-0.02588203177 -0.04398953542 0.7382372022 0.04253283516 0.002113596303 0.3611464202
-0.02496436611 -0.03357401863 0.7527984381 0.4566446841 -0.6061455011 0.389878571
-0.1620397568 -0.06881925464 0.7271799445 -0.1628333181 -0.08158862591 0.9788712859
-0.163408801 -0.06023282185 0.7278918624 -0.122348249 -0.06564096361 0.9883044958
-0.1635525972 -0.06405628473 0.7388626933 0.03194919229 -0.005791956559 0.9556968212
-0.1780211776 -0.06454998255 0.7373726964 0.2006848603 -0.1205054969 0.9556000233
-0.1535732448 -0.02888930403 0.734578073 -0.09802865982 -0.04622163251 0.990157783
-0.1442173719 -0.03572579101 0.7338225245 -0.07794386148 -0.005628207698 0.9943729043
-0.1701928377 -0.07047462463 0.7267021537 0.08115492016 -0.108525984 0.9784023762
-0.1782358289 -0.07186073065 0.7295101881 0.2575825453 -0.1495853961 0.9508102536
-0.1689726114 -0.08434292674 0.7255594134 0.03030223399 -0.1823783964 0.9694994688
-0.1731509566 -0.07788395137 0.7261418104 0.1785948724 -0.143690154 0.966329813
-0.05276006088 -0.01489902101 0.7166005373 0.07065634429 0.0395751372 0.995652914
-0.07630123198 -0.02455613203 0.7340320945 -0.01235122606 -0.2276650071 0.9686301947
-0.05229403079 -0.01563009061 0.7635447979 -0.2048046142 -0.2646558285 0.9406648278
-0.06118835136 -0.02113719657 0.7528914809 -0.1215505078 -0.2672696114 0.9502001405
-0.07082678378 -0.02362598106 0.7418071032 -0.05964144692 -0.2505909204 0.9606938362
-0.1222224534 -0.001226471155 0.7369070053 0.3077268004 -0.4963426888 0.8101711869
-0.1200841814 -0.01138915494 0.7334691286 0.3782449663 -0.510258019 0.7694643736
-0.1230776757 -0.01946146786 0.7024925947 -0.4063842297 -0.7785030007 0.4678605795
-0.05876915902 0.006364938803 0.718265295 0.3239564598 -0.1472499818 0.9311879277
-0.05751106143 0.01938206889 0.7203053236 0.3864049315 -0.3497726917 0.8522731066
0.0137086045 0.04799367487 0.7261238098 0.211463362 -0.4523239732 0.6525893211
0.01845298149 0.02998382039 0.7329460382 0.364200443 0.2118736207 0.7789359093
0.01809337735 0.03485375643 0.739471674 0.4027254283 0.05634578317 0.7365685105
0.017801065 0.02747802995 0.7220007777 0.2720175087 0.2700768709 0.8081713319
0.01345439069 0.05288301036 0.7336438894 0.2593773305 -0.6056860685 0.6091041565
0.01576601155 0.04256053269 0.7338584065 0.3116750121 -0.2356254905 0.6851422787
0.01999473944 0.0350757502 0.7571551204 0.5702854395 0.09925930947 0.7175995111
0.015433711 0.04073134437 0.7228261232 0.2204545736 -0.1951243877 0.70980829
0.02216224745 0.04301274195 0.7151449323 0.300930649 -0.134626314 0.7225848436
0.02317878418 0.03398708254 0.714045167 0.2844051421 0.147162348 0.7812919021
0.02279828675 0.04227674007 0.7068504095 -0.2610669434 -0.3530964851 0.5765511394
0.01644245163 0.05112843215 0.7173509002 -0.1335791796 -0.6632625461 0.5437224507
0.02748349123 0.03593458608 0.7073133588 0.268823266 0.1482626647 0.7679270506
0.01986512169 0.03426141292 0.7038285136 0.2769396603 0.2801686525 0.9116744995
0.02933038957 0.02413065173 0.7089725733 0.2695524395 0.4569146037 0.8476647735
-0.04478001595 -0.05660581961 0.7467221618 -0.1877614558 0.3124359846 0.6221722364
-0.04105985165 -0.04517196491 0.7542993426 0.09319505095 -0.5123113394 0.394770354
-0.04325750843 -0.0374985598 0.7621167302 -0.1356371343 -0.5071118474 0.6757917404
-0.05133083835 -0.06444948167 0.743881762 -0.2538219094 0.5810731053 0.7147099376
-0.0481380187 -0.05157235637 0.7529811859 -0.2578421533 0.1424769759 0.7587610483
-0.0368418321 -0.04968687147 0.7480036616 0.4102318287 -0.7045208812 0.08621031046
-0.03285789862 -0.03541399166 0.7578842044 0.2368376553 -0.7029255033 0.6242111325
-0.03270853683 -0.04347848147 0.7514744997 0.4486673772 -0.7070875168 0.2693738043
-0.03368517011 -0.05384290591 0.7409309149 0.3872928619 -0.4425862134 0.03279042616
-0.005078119226 0.04450589418 0.7101246715 0.2922564149 -0.6774003506 0.6741796136
-0.02451235615 0.06711474806 0.7464262843 0.2753756642 -0.757040441 0.5918827057
-0.01207014173 0.04494326562 0.7643076777 0.1123904064 -0.1683178693 0.9109158516
-0.01572599076 0.05022291467 0.7600960732 0.1554083824 -0.3096783459 0.833599329
-0.03140655905 0.06177376583 0.7476601601 0.311766535 -0.701638639 0.6086853147
-0.02547685429 0.0559582524 0.7530972362 0.2489655614 -0.5254490972 0.7076603174
-0.0348424539 0.01669740677 0.7662974 -0.1052241623 -0.04284306616 0.9934768081
-0.1749719828 -0.1156481132 0.7193980813 0.2550486624 0.007831051946 0.9647647738
-0.1755206585 -0.1059904769 0.7205203772 0.2468599826 -0.1238587499 0.9593447447
-0.1157682687 -0.02945699915 0.7004098296 -0.5117372274 -0.650572896 0.5610124469
-0.1284922063 -0.110359028 0.7448191047 -0.5573931336 -0.002994544804 0.8256011009
-0.1183441356 -0.1263589561 0.7547307014 -0.5897797346 0.1750946939 0.7784478068
-0.1217900664 -0.1172117516 0.7496487498 -0.5743629336 0.1145236418 0.8078996539
-0.1151740104 -0.1165893823 0.7564137578 -0.5552736521 0.2114395499 0.7998635769
-0.1271258891 -0.1032574698 0.7406110168 -0.4143446982 0.0275160633 0.8642972708
-0.1350581795 -0.1111949459 0.7368801236 -0.5834074616 -0.09209611267 0.804944098
-0.1143226102 -0.09177146852 0.744461 -0.1248023435 0.2576727271 0.9549213052
-0.182265982 -0.08084527403 0.7292311192 0.3361124694 -0.1927526891 0.9211688638
-0.1910951287 -0.08624570072 0.7371366024 0.4254421592 -0.1901139915 0.8844597936
-0.01244098414 0.05511198193 0.7265587449 0.2597426772 -0.7583296299 0.5965738297
-0.0998461023 -0.08750742674 0.7424869537 -0.1045942008 0.473793298 0.8642593622
-0.09186500311 -0.07668861747 0.7425208688 -0.04996025562 0.501578629 0.8429343104
-0.1484083682 -0.11888583 0.7272254825 -0.5030808449 0.01787635311 0.8596933484
-0.158073172 -0.1311347336 0.7290223837 -0.2737534344 0.1657594889 0.8876940012
-0.1517433226 -0.1259967536 0.7277185321 -0.4106683135 0.115828611 0.8739998341
-0.1679567248 -0.1258747578 0.7272043824 -0.06691242009 0.1218186915 0.9264529943
-0.1293007582 -0.1273395866 0.7413543463 -0.5876707435 0.01333700959 0.8084157705
-0.1240868568 -0.130219996 0.7474506497 -0.6203835607 0.09109807014 0.7742917538
-0.01117212046 -0.006295516156 0.7649533153 0.1564900279 -0.2838410735 0.8960989714
-0.005820072722 -0.02176725678 0.7448017001 0.6257070303 -0.6116413474 0.4117394686
-0.007497236133 -0.01833323948 0.7532519698 0.5789559484 -0.5835568905 0.5233502388
-0.01412852947 -0.01955563948 0.7618551254 0.4753031433 -0.5648735166 0.6679955721
-0.006426866632 -0.01194733009 0.762039125 0.5507360697 -0.5433390141 0.6311321855
-0.00181010447 -0.01202116907 0.7541304231 0.5951822996 -0.5530754328 0.5347173214
0.001793049276 -0.01664980501 0.7357863188 0.7263176441 -0.6088439822 0.2808372676
-0.0499526225 -0.007743378635 0.7655587196 -0.05952184275 -0.1519055068 0.9765897989
-0.04067402333 -0.01036321558 0.7654737234 -0.003454778343 -0.1241370887 0.9886813164
-0.03193120286 -0.001703630318 0.7662332058 -0.02977841161 -0.1206589714 0.9920175672
-0.02355792001 0.01257528551 0.7673578858 -0.08546540886 -0.07426004857 0.9929097891
-0.02422800288 -0.000174079978 0.7664248943 -0.03778863326 -0.1406617612 0.9889106154
-0.01534950454 0.001696765306 0.7677984238 -0.03507303819 -0.1380797029 0.9894266725
-0.009217612445 0.003511460964 0.7268180251 0.6417093277 -0.5399842262 0.4303547144
-0.02182688005 0.009235787205 0.72114712 0.5150649548 -0.4239756167 0.626108706
-0.0298897624 0.02177098766 0.7149321437 0.3797942698 -0.3924212456 0.8099170327
-0.01849537343 0.0005297639873 0.7248637676 0.575845778 -0.4778141975 0.5120460987
-0.006566752214 -0.01231497154 0.7325328588 0.7220232487 -0.6178978086 0.2608336508
-0.0153334355 -0.01171998121 0.7297549248 0.6300046444 -0.6063725352 0.3526601791
-0.009303695522 -0.005265343469 0.729447484 0.6813356876 -0.5433511138 0.3615137637
-0.02638489753 -0.000793576648 0.7230852246 0.4966568053 -0.4541673958 0.5861091018
-0.03335094824 0.004336708225 0.7195743322 0.4160640538 -0.342628032 0.7261794209
-0.03869438544 0.01146687008 0.7157022357 0.3482113183 -0.2634751797 0.8538818955
-0.1139747873 -0.08221039176 0.744843483 -0.04699153453 0.3224579394 0.9368407726
-0.08373152465 -0.07963233441 0.7422994971 -0.1226132587 0.5920572281 0.7960074544
-0.06825628877 -0.08033762872 0.7469335794 -0.2207107395 0.6406465173 0.7347729206
-0.1509945691 -0.1409160793 0.7310118675 -0.3739347756 0.224568978 0.8945320845
-0.1394938678 -0.137005493 0.7381066084 -0.4919878542 0.09582331777 0.8515588045
-0.1481452137 -0.07512919605 0.7394047379 -0.3150701821 0.002142488724 0.9204890728
-0.1578095853 -0.0665198192 0.7336668968 -0.2249405533 -0.01936752722 0.9455419779
-0.1521565467 -0.04953518882 0.7329925299 -0.1652933061 0.02077982388 0.9832199216
-0.1516637802 -0.03903137147 0.7328852415 -0.1417606473 -0.04069534689 0.9888458848
-0.1530655921 -0.04452886805 0.7263834476 -0.1538680494 -0.1482126862 0.8523141146
-0.1455455422 -0.04348727688 0.7122277617 -0.1445011795 -0.5029969811 0.4465588927
-0.1484143287 -0.041505225 0.7192229033 -0.1387058347 -0.3341328502 0.634303093
-0.1539305151 -0.05413141847 0.7216550112 -0.1922827661 -0.2409929335 0.7676463127
-0.1543447822 -0.0364908278 0.7238925695 -0.1321282089 -0.254155755 0.7416260839
-0.159942627 -0.03624541685 0.7303948402 -0.1391695887 -0.1035857946 0.9246957898
-0.1375117004 -0.02729088813 0.7022916079 -0.1525407881 -0.8128183484 0.2929532528
-0.1407525539 -0.0430679433 0.7330207229 -0.0967817679 0.00468096463 0.9928112626
-0.1324668825 -0.03169739991 0.6943236589 -0.08886818588 -0.9787324667 -0.1202021018
-0.1458362639 -0.05413552746 0.7239496112 -0.1493600905 -0.1323540807 0.8141610622
-0.1405931711 -0.04870907217 0.7173572779 -0.1240647137 -0.3099981248 0.5998119712
-0.1325518936 -0.03673202172 0.7018012404 -0.08697282523 -0.7496016026 0.106297791
-0.1543847471 -0.05838193372 0.7278422117 -0.192746684 -0.05316163599 0.9561989903
-0.1359804422 -0.04440047964 0.7122510672 -0.1015936807 -0.4449954629 0.4322190881
-0.1295217127 -0.05180581659 0.7251248956 -0.06386654079 -0.01937803812 0.803432107
-0.1387295723 -0.04037679359 0.7054726481 -0.1180582941 -0.6660246849 0.2349152118
-0.1266579628 -0.04153112695 0.7093946338 -0.113577202 -0.5061804652 0.3394834995
-0.1218797565 -0.04790114984 0.7210147977 -0.2009561062 -0.09414024651 0.8352296352
-0.1210711226 -0.03360084072 0.696208775 -0.3701934814 -0.8085898757 0.2481644154
-0.1202680469 -0.03880237788 0.7049417496 -0.3745732903 -0.4855436385 0.5926276445
-0.1235739142 -0.05787739903 0.7325549126 -0.01444779802 0.2055836171 0.9771314263
-0.06207011268 -0.01381654013 0.7190237641 0.144425422 0.04087619856 0.9886280298
-0.0813575983 -0.01940503158 0.7293581367 0.05110908672 -0.2096927762 0.9693843126
0.01010319684 0.0492506735 0.7080777287 -0.01966335811 -0.6648458242 0.7236207724
-0.03752844036 -0.02977981605 0.7635609508 -0.06188057363 -0.5725858808 0.8055002093
-0.02845963091 -0.03014766052 0.7613570094 0.3605700135 -0.6092551947 0.6752067804
-0.03910980746 0.01956008747 0.7133457661 0.341391623 -0.2955128253 0.8902138472
-0.03233338147 0.05669749901 0.7387964725 0.3456216156 -0.7272818089 0.5924366117
-0.02256803028 0.05341784656 0.7295521498 0.3083591461 -0.7275130749 0.6115223765
-0.05871741846 0.04323648289 0.741814971 0.4041767418 -0.6659662127 0.6267132759
-0.05243326351 0.04387386143 0.7370131612 0.4161089957 -0.6636040807 0.6208588481
-0.04151836038 0.04821486771 0.7478764057 0.3129701316 -0.5727789402 0.6605882049
-0.03342630714 0.0331912376 0.760232687 0.03420045227 -0.2109286785 0.8815268278
-0.03627133742 0.04199770093 0.7536949515 0.1834888309 -0.4017195106 0.7648788095
-0.06652614474 0.02790115774 0.729749918 0.3883581758 -0.5469275117 0.7408328056
-0.05902420729 0.0352117084 0.733069241 0.4114303589 -0.6204935908 0.6665458083
-0.03203967959 0.05085212737 0.7319287658 0.360882163 -0.7039663792 0.6099959612
-0.04665517434 0.04132983088 0.7299527526 0.4220972061 -0.6350197196 0.6465124488
-0.04082515091 0.04845898971 0.7344124913 0.4047435224 -0.6807377338 0.6087074876
-0.1347034872 -0.09915918112 0.7428703904 -0.4903287292 -0.0524516739 0.8672506809
-0.1435332149 -0.09040599316 0.736634016 -0.4883469343 -0.09502527118 0.8659127355
-0.1201888621 -0.03089981526 0.7369292378 0.1917039752 -0.05936291069 0.9057000875
-0.1246275604 -0.02354127727 0.7358065248 0.2648999095 -0.2115820646 0.8608623743
-0.1297799647 -0.01716804132 0.7059766054 -0.03468070179 -0.8458622694 0.3896076083
-0.1320617497 -0.01452064328 0.7143932581 0.06171409786 -0.7333074808 0.5109409094
-0.1334830672 -0.006669417024 0.7366934419 0.2682128549 -0.3470837176 0.8877180219
-0.1323153377 -0.0107251415 0.7249170542 0.1589777917 -0.5430030823 0.6929172873
-0.1430146396 -0.1140259653 0.7312514782 -0.5571498871 -0.05144656822 0.8275801539
-0.1068477109 -0.08554401994 0.7477613091 -0.1220833808 0.4385537505 0.8674693704
-0.09223270416 -0.09778583795 0.7599552274 -0.2973788381 0.57428056 0.7620363832
-0.05317862332 -0.05449527502 0.7284011841 -0.222123608 0.6449701786 0.7290034294
-0.0478570424 -0.04915897176 0.7236465812 -0.2201782167 0.5180575252 0.8047114611
-0.05894322693 -0.05033099279 0.7222684026 -0.1310669929 0.5170613527 0.8376153111
-0.06026487797 -0.06038022414 0.741176784 -0.2180225104 0.4481484294 0.7607694268
-0.05354265124 -0.05717968941 0.7475816011 -0.24186638 0.3155930936 0.7574701309
-0.08332201838 -0.03487277403 0.7128536105 -0.2564489245 -0.09198562801 0.8977172375
-0.07458873093 -0.03611274064 0.7140100598 -0.1430924833 -0.05273267999 0.9428883791
-0.08528074622 -0.02751952782 0.7154171467 -0.1654881835 -0.09929575771 0.899990201
-0.06821094453 -0.02967766859 0.7177834511 0.06044128165 -0.02251720428 0.9887456894
-0.06970296055 -0.01952813752 0.7203786969 0.1511488557 -0.01491238177 0.9851569533
-0.1837312728 -0.09705185145 0.7273939848 0.3762967288 -0.1969643831 0.9036102295
-0.1694403589 -0.09752280265 0.7284946442 -0.05085099488 -0.1704491973 0.8795281053
-0.1744468808 -0.09008057415 0.7315352559 0.0727988705 -0.1844738722 0.8908420205
-0.1742961109 -0.09493044764 0.7229961157 0.1720710695 -0.212034896 0.9567562938
-0.008332741447 0.0490548797 0.7161847949 0.304299593 -0.716455996 0.6226838827
-0.01868527383 0.04993585497 0.7238931656 0.3235798478 -0.697652638 0.6384914517
-0.0006187047111 0.05255427212 0.7157233357 0.2417707443 -0.7618462443 0.599196732
0.007135897875 0.05558081344 0.718765676 0.1098892987 -0.7613088489 0.617905736
0.01169844251 0.05924031511 0.7264341116 0.1118081063 -0.7831087708 0.5949485898
0.001293707639 0.05879383534 0.7269917727 0.2113787383 -0.7939602733 0.5698612928
-0.1433792412 -0.1363504976 0.7311716676 -0.4980246127 0.1673996747 0.8459601998
-0.1412581801 -0.1222395673 0.7325484753 -0.5564335585 0.02867688984 0.8289256692
-0.1045842096 -0.07757915556 0.7461613417 -0.02952789515 0.4242648184 0.8719519377
-0.1065243334 -0.04180029035 0.7120589614 -0.4522821009 -0.4000722766 0.6531399488
-0.1086041406 -0.05242816359 0.7226103544 -0.1997211277 -0.03482624516 0.8531681895
-0.1116946265 -0.04576665536 0.7175443172 -0.326988101 -0.2944464684 0.7065273523
-0.1192124858 -0.05344321579 0.727519393 -0.1087809727 0.04009063169 0.8916122913
-0.03801237419 -0.0452147983 0.7240226865 -0.2743213773 0.505356133 0.8173313737
-0.04465419427 -0.05304959044 0.7308142185 -0.2544829845 0.6157279015 0.7448656559
-0.03191746771 -0.05061940104 0.7325028181 -0.3607516587 0.6242992878 0.6889464259
-0.02747813612 -0.04448767751 0.7282771468 -0.3205392957 0.4825917184 0.8024622798
-0.131913051 -0.07025008649 0.7368169427 -0.1507745832 0.1639685035 0.9635629058
-0.1398261935 -0.08281479776 0.7343538404 -0.3417357206 0.01712191105 0.9098528624
-0.1373693347 -0.07681506127 0.7412219644 -0.2885661125 0.09006296098 0.9509510994
-0.0505480133 -0.02248883434 0.7158074379 -0.006013097242 0.03390008211 0.9974185228
-0.04190366715 -0.03412758559 0.7160084248 -0.1918614358 0.1001341492 0.9706072807
-0.0363673903 -0.02744571865 0.7201524377 -0.1606745124 0.07466466725 0.9729675651
-0.101617232 -0.0007251833449 0.7309264541 0.2620965838 -0.2964060009 0.9176813364
-0.1099897847 -0.005892473739 0.7204257846 -0.08479578048 -0.4587648809 0.7581940889
-0.1215092391 -0.007436053827 0.7238479853 0.03230734542 -0.6058730483 0.6879984736
-0.1238844842 -0.01360078808 0.7115561962 -0.2239353061 -0.7195385098 0.549433887
-0.1139883325 -0.006362363696 0.7275475264 0.1106443554 -0.4988810122 0.7882262468
-0.1154090837 -0.01191154961 0.7175448537 -0.1517457515 -0.5709587336 0.690762639
-0.1074293479 0.004038040061 0.7346914411 0.2610134482 -0.3148570657 0.9107550979
-0.02696454711 0.03106660582 0.7147823572 0.3720376194 -0.499497354 0.780878365
-0.02342928015 0.05943574756 0.7370196581 0.2763232589 -0.7522571683 0.5971931815
-0.01722413301 0.06341528147 0.7396295071 0.2393274903 -0.7718343139 0.588862896
-0.05201985687 0.03484576195 0.7277365327 0.4301609993 -0.5949348807 0.6783322096
-0.03734036162 0.02916635945 0.7163234949 0.3843413591 -0.4785697758 0.7885439396
-0.05332398042 0.02651094273 0.7227582932 0.4194299579 -0.4549393356 0.7850641608
-0.04563676193 0.03260851279 0.7217103839 0.4084638357 -0.5169056654 0.7500786185
-0.01317773014 0.03923043609 0.7120069861 0.3422971964 -0.5937572718 0.7274267673
-0.01602106355 0.04476413131 0.7170949578 0.3472027183 -0.6508094668 0.674860239
-0.02496174164 0.02071147971 0.7667789459 -0.09965963662 -0.04807860404 0.993825078
-0.01705799997 0.02868454717 0.7694699168 -0.04737973586 -0.03781427443 0.9974055886
-0.02954730578 0.04698130488 0.7252442837 0.353533864 -0.6587755084 0.6614188552
-0.1844954789 -0.07607669383 0.7367660403 0.3418723047 -0.1580464542 0.918910861
-0.1675889045 -0.08500021696 0.7358551025 -0.00958934892 -0.1435055137 0.8898078799
-0.1552104354 -0.08473481238 0.7362447977 -0.2664721608 -0.1093273759 0.8838718534
-0.1758762747 -0.08238318563 0.7360284925 0.1625768095 -0.1567149609 0.9001008272
-0.1613545269 -0.0774249807 0.7349411249 -0.1893000752 -0.1044980884 0.9015014768
-0.1551652104 -0.08050008118 0.7291994691 -0.3904041648 -0.1257717013 0.9086042047
-0.148468405 -0.08642146736 0.7312041521 -0.4448478222 -0.1016556993 0.8767259121
-0.1162629128 -0.04054694995 0.7126172781 -0.3827252388 -0.3976617455 0.6767625809
-0.147723645 -0.02105597779 0.736589849 0.1084046215 -0.1649720669 0.9481091499
-0.1431947201 -0.01806471683 0.7247107029 -0.006271533202 -0.3426008523 0.7640827894
-0.1417726725 -0.009768852033 0.7381427884 0.1417347044 -0.13724944 0.9793934226
-0.1352662444 -0.01669204608 0.7357919216 0.2455912083 -0.1668258607 0.9467198253
-0.129107371 -0.03366464749 0.7369241714 0.1116567031 0.03119346127 0.9704324007
-0.1372445971 -0.02578380331 0.7364364862 0.1862992942 -0.124971725 0.943877697
-0.1066130623 -0.109107472 0.7553297877 -0.4460965693 0.3935334682 0.7980044484
-0.06599033624 -0.04373371974 0.715441227 -0.003822872881 0.2329036742 0.9687483311
-0.05683130026 -0.03043104708 0.7161689401 -0.03169103712 0.02055958472 0.9966709614
-0.06116670743 -0.02281749249 0.7185491323 0.0555475764 -0.01177355368 0.9978609085
0.007882794365 0.06190333888 0.732131362 0.1942786574 -0.8087163568 0.5549307466
-0.06928498298 -0.0512223281 0.7205304503 -0.03100225329 0.5181774497 0.8512467146
-0.09381906688 -0.04170921445 0.7095559835 -0.4718030691 -0.06081318483 0.8240956068
-0.08151704818 -0.04661136493 0.7175670266 0.0260434933 0.3767862022 0.9142106175
-0.1332143247 -0.08353873342 0.7435752153 -0.2779380679 0.05227638409 0.9482498765
-0.1277205795 -0.07813251764 0.7394946814 -0.1155571342 0.1794381142 0.9662300944
-0.121362187 -0.08614549786 0.7418420911 -0.1271934211 0.1884502918 0.9590855837
-0.1230274886 -0.09488072991 0.7411633134 -0.2696916759 0.1136819422 0.9013970494
-0.1394692063 -0.103881143 0.7344409823 -0.5386393666 -0.1303094774 0.8193131685
-0.1299417168 -0.09031845629 0.7391220331 -0.2565139532 0.07208544016 0.9310083985
-0.137359485 -0.06464395672 0.7412024736 -0.190106526 0.1870065182 0.9589039683
-0.1191492602 -0.06873427331 0.7427980304 0.02734540775 0.246973455 0.9652450085
-0.1167132184 -0.060013704 0.7424194217 0.07302788645 0.2220482975 0.9702618122
-0.122059837 -0.05297978595 0.7409501076 0.02489735 0.1930740923 0.972258985
-0.1306051165 -0.05566488206 0.7406947613 -0.08726448566 0.1793590933 0.9665220976
-0.129044801 -0.06462176889 0.7421610951 -0.09068655968 0.2039723247 0.9615128636
-0.1204142272 -0.04028207064 0.7391687632 0.07731504738 0.1672092676 0.9811730385
-0.1022779867 -0.08033566177 0.7388849258 0.07635921985 0.4056358933 0.9103533626
-0.1137414426 -0.07466036826 0.7386879325 0.03141344339 0.252759248 0.9626145363
-0.1089962646 -0.06209465861 0.7327605486 0.08962426335 0.212897718 0.9441544414
-0.1014758274 -0.04828365147 0.717020452 -0.3235038817 -0.02086777985 0.8592655659
-0.09551320225 -0.07404393703 0.7347249985 0.1094629392 0.4518419504 0.8837398887
-0.1037851423 -0.0717061013 0.7369247079 0.1190383136 0.3448292911 0.9280927181
-0.148548007 -0.06908033043 0.7287111878 -0.2349041998 -0.01936899498 0.953938365
-0.1460114568 -0.06160424277 0.7289920449 -0.1733266562 0.04399487004 0.9713238478
-0.1461900622 -0.06833323836 0.736997366 -0.3208147585 0.06925288588 0.9390012622
-0.1342148781 -0.06327653676 0.7313522696 -0.110431537 0.1226558015 0.9661664367
-0.1424070746 -0.05362159386 0.7369531989 -0.185141772 0.07737326622 0.9739810228
-0.1292833537 -0.04373248294 0.7357228994 -0.02600633353 0.09948562831 0.9884166121
-0.06777944416 -0.01272605173 0.7453086376 -0.02256908081 -0.2236976475 0.9512809515
-0.08043403178 -0.01178513933 0.7303106785 0.128267169 -0.1965382993 0.9603501558
-0.07343125343 -0.01047020033 0.7388419509 0.06265277416 -0.2084619105 0.9522051215
-0.1070550159 -0.008730831556 0.7302564383 0.2177793533 -0.4538496733 0.8573655486
-0.0971930176 -0.01426728815 0.7269248962 0.1065975949 -0.3763300478 0.9169073105
-0.1050103903 -0.009131438099 0.7155877352 -0.1522858888 -0.4816418588 0.732403636
-0.09923942387 -0.002474132925 0.7233622074 0.1012911573 -0.3574872315 0.8503180742
-0.1115314588 -0.01400321536 0.7094316483 -0.3359915316 -0.5720934868 0.6450334787
-0.02361525036 0.04169509932 0.7167928815 0.3494146168 -0.6230967641 0.698751092
-0.03113101237 0.03817643225 0.7179481387 0.3639116287 -0.5798794031 0.7267372012
-0.1536873877 -0.09483906627 0.728191793 -0.441206187 -0.1640477031 0.8814214468
-0.08804968745 -0.03321988881 0.7286955118 0.1421630532 -0.0137189785 0.9458118081
-0.09621096402 -0.06419947743 0.7392449975 0.1186909825 0.3933965564 0.8844479322
-0.09006246924 -0.06960354 0.7399171591 0.02605137043 0.4759548604 0.84747684
-0.09531283379 -0.05424723774 0.7366074324 0.2325785458 0.3639014661 0.8793128729
-0.113549225 -0.02867816016 0.7331756353 0.4216955602 -0.03711471334 0.8551702499
-0.1084638238 -0.06499811262 0.7413331866 0.1453964114 0.2845723629 0.9403746128
-0.1030267254 -0.05734654143 0.738345921 0.2330225557 0.3044039309 0.9146552682
-0.1019195393 -0.04843400419 0.7360469699 0.3357034028 0.2897549272 0.8921654224
-0.1250699759 -0.119022049 0.7414876223 -0.5685653687 0.02099663392 0.8182061315
-0.1126155704 -0.1135275811 0.749194324 -0.4887899756 0.2658731639 0.8094159365
-0.1014667228 -0.0959367305 0.7492725849 -0.2818734646 0.5137458444 0.8037615418
-0.123312369 -0.1015637442 0.7471500039 -0.384601742 0.1249549761 0.9038795233
-0.1193774343 -0.1090812981 0.7500218749 -0.5160719156 0.1844589114 0.8333956599
-0.1148090288 -0.1008862481 0.7481613159 -0.315517962 0.2686960399 0.896030724
-0.05855997652 -0.04368628934 0.7449982166 -0.1719340235 0.2621026933 0.8094348311
-0.04682983831 -0.02888097242 0.7656136751 -0.2236058861 -0.4158326089 0.8713120818
-0.05565313995 -0.03784081712 0.7511183023 -0.1769292057 0.07780763507 0.840482533
-0.05130536482 -0.0337594226 0.7581059933 -0.2011268288 -0.1629406363 0.8532652259
-0.06352717429 -0.03722498193 0.7393669486 -0.08223880827 0.05578618869 0.898829639
-0.0654328838 -0.05185949057 0.7318019867 -0.1292490512 0.4647654295 0.7881536484
-0.06869767606 -0.03309549764 0.7325711846 -0.0003287037835 -0.1010391042 0.9708485603
-0.06017946079 -0.03183757141 0.746291697 -0.09675462544 -0.07556968927 0.9206643105
-0.06308273226 -0.04545973986 0.7374830842 -0.1269313246 0.2969230413 0.8257145882
-0.05494032055 -0.02598161437 0.7563222647 -0.1317770481 -0.2067372948 0.9329630136
-0.07202298194 -0.03623872995 0.7263844013 0.02464079484 -0.03435744718 0.967913866
-0.06759453565 -0.04136252031 0.7317078114 -0.05309668928 0.14580971 0.8927525878
-0.05823453516 -0.0526580438 0.7435586452 -0.2099837065 0.2846213579 0.7660956383
-0.05396518111 -0.04699262977 0.7507878542 -0.2272910476 0.04076455161 0.7867252231
-0.04947073385 -0.0413235873 0.7586148381 -0.2470142692 -0.2180968374 0.8097289801
-0.05673295632 -0.06080317125 0.7339695692 -0.2310254574 0.672162652 0.7026024461
-0.104261592 -0.03770281002 0.7058739066 -0.5604288578 -0.4225542545 0.6569073796
-0.1111741737 -0.03593444824 0.7009894252 -0.5340330601 -0.5064991713 0.6273281574
-0.08406857401 -0.01831174456 0.7181159854 -0.01424931176 -0.194878906 0.8748844862
-0.09222342819 -0.03203839064 0.7118469477 -0.3732520342 -0.2399925739 0.8051422238
-0.100874804 -0.03015334159 0.7090690732 -0.4956456125 -0.4107307196 0.6998391151
-0.09566813707 -0.02504928969 0.7122098207 -0.3239484727 -0.3545828164 0.7513361573
-0.1059261262 -0.02176583186 0.7091628909 -0.4525968432 -0.5648601055 0.624481678
-0.09501665086 -0.0522178337 0.7205762863 -0.1295729131 0.1589824408 0.8586263061
-0.100273937 -0.05630123615 0.725310564 -0.06360608339 0.1501892954 0.8893640041
-0.08670336753 -0.01333686896 0.7248277664 0.1653802991 -0.2053885013 0.9632784128
-0.09245857596 -0.006248609629 0.72247684 0.09540122002 -0.301077038 0.8673986197
-0.06168637425 -0.01013836637 0.7528428435 -0.04838464409 -0.2153281271 0.9497700334
-0.07509681582 -0.01287620515 0.7221805453 0.2063147426 -0.06922888756 0.9698789716
-0.08713191003 -0.0102119986 0.7177544236 0.006274229847 -0.2921687067 0.8306131363
-0.09872668236 -0.01508989371 0.713360548 -0.2359903008 -0.4651396871 0.7091780305
-0.06897461414 0.01539693959 0.7250500321 0.3718930185 -0.3520765901 0.8566545248
-0.0791349411 0.01651476137 0.7292403579 0.3232071102 -0.4257377982 0.8442870378
-0.07226341218 0.02416279167 0.746548593 0.2725365162 -0.4499838948 0.8075535297
-0.07197140902 0.02206966653 0.7283422947 0.3756921291 -0.4957993925 0.7827830315
-0.07874216139 0.02897273377 0.7383476496 0.3559188843 -0.5532850027 0.7529349923
-0.07943183929 -0.05244964361 0.7301359773 0.07727706432 0.4279659092 0.8496282697
-0.08584950119 -0.04602753744 0.7303276062 0.1804466099 0.2601087093 0.9014796615
-0.09356403351 -0.04577698931 0.7332010269 0.2840513289 0.274572283 0.9009038806
-0.07638376951 -0.04382942617 0.725915432 0.06017101556 0.1698251963 0.9232872725
-0.05793772265 -0.0715623796 0.7423813343 -0.2333111912 0.6135055423 0.7543030381
-0.07562793791 -0.08091514558 0.7449865937 -0.1945545524 0.6235198379 0.7560893297
-0.1140725687 -0.04566137493 0.7386981249 0.1845279336 0.2103058845 0.9474396706
-0.1107566729 -0.05475190282 0.7396656871 0.2181888968 0.2451376617 0.9308603406
-0.09752127528 -0.02593453042 0.7294030786 0.1794401109 -0.1411511153 0.9140868783
-0.09692154825 -0.03664986417 0.7321742177 0.2516047657 0.09430722147 0.9019822478
-0.1066972092 -0.03786848858 0.7339240313 0.4370991588 0.1208245903 0.8578940034
-0.1034414694 -0.01968196407 0.728482008 0.3304041922 -0.245071888 0.8626675606
-0.08785749972 -0.02232195064 0.7256384492 0.04090562463 -0.2527784407 0.9634907246
-0.07098673284 -0.05777765438 0.7269209623 -0.04680654779 0.5771278143 0.8111042976
-0.07096063346 0.003774913261 0.7225617766 0.3179444373 -0.1907840222 0.9273251891
-0.06713810563 -0.004560851492 0.7202135324 0.2502875924 -0.02295148373 0.9673036933
-0.08281984925 0.01559249219 0.7377637029 0.293474853 -0.3950060606 0.8562922478
-0.0792632252 0.01663427427 0.7457727194 0.2530853748 -0.3767207265 0.8568031788
-0.06171565503 0.009646607563 0.7561578751 0.1233508885 -0.2381339222 0.9221696854
-0.07121792436 0.01326401345 0.7505807877 0.1924754083 -0.3108849823 0.8881261945
-0.09057514369 0.02018907107 0.7393440604 0.330280602 -0.4529657662 0.8223848343
-0.08190422505 -0.06357938051 0.7365231514 -0.01863700524 0.4971060455 0.8272731304
-0.08115884662 -0.07234603167 0.7393013835 -0.09476727247 0.5516772866 0.8095282316
-0.0882884264 -0.05763640255 0.7363915443 0.1159992516 0.4249230623 0.8515573144
-0.0743079558 -0.06828903407 0.7356488109 -0.1464565247 0.579323411 0.8003509641
-0.0653007403 -0.06970573962 0.7379415035 -0.2068825513 0.6093873978 0.7651690245
-0.09168352187 -0.05900981277 0.7284024358 0.1922416687 0.4224099517 0.8818365932
-0.08664540201 -0.05183787271 0.7229223251 0.1783327907 0.5082215071 0.8409517407
-0.07652118057 0.0002197227732 0.7366472483 0.2090810984 -0.2171161175 0.9425828457
-0.06761693209 -0.003627167316 0.7464009523 0.1353825927 -0.1510028243 0.9694341421
-0.08235808462 -0.001680721529 0.7294343114 0.2407699674 -0.2086642683 0.9428498745
-0.07151279598 0.004284847993 0.7443075776 0.1904610544 -0.2520190775 0.9266082048
-0.0628201291 0.0004883733345 0.7533938289 0.1186029166 -0.1873576343 0.9554663897
-0.0799492076 0.007410996128 0.7352063656 0.2582038045 -0.3083857 0.9018957019
-0.0572242476 -0.001803508028 0.7593200803 0.07288832963 -0.1474719942 0.973146379
-0.07914539427 0.005097795743 0.7254963517 0.3041731119 -0.258490175 0.9161824584
-0.07557708025 -0.004472279456 0.7226923704 0.2632862628 -0.120869793 0.956005156
-0.0895704478 -5.919634714e-05 0.7268877625 0.256534338 -0.2443181425 0.933480382
-0.09818290919 0.006813862827 0.7323796749 0.2770166695 -0.3343909979 0.9001672864
-0.1028150097 0.01256900188 0.7358415723 0.2836731672 -0.3887146413 0.8762837052
-0.08801520616 0.01273041591 0.730777204 0.3046058714 -0.4091293216 0.8601061702
-0.09452847391 0.01441798173 0.7354404926 0.299549371 -0.4128732681 0.8599160314
