# .PCD v0.7 - Point Cloud Data file format
VERSION 0.7
FIELDS x y z normal_x normal_y normal_z
SIZE 4 4 4 4 4 4
TYPE F F F F F F
COUNT 1 1 1 1 1 1
WIDTH 512
HEIGHT 1
VIEWPOINT 0 0 0 1 0 0 0
POINTS 512
DATA ascii
-0.16720253 -0.14570433 0.88000005 0.265186429 -0.06209442019 0.9621956348
0.080359653 0.00153066 0.87300003 -0.6517128348 -0.3374859691 0.6792448759
-0.017716557 -0.11441377 0.84200001 -0.1192793027 0.338755995 0.9332828522
-0.10080322 -0.067279488 0.79666668 0.03027614951 0.8919971585 0.4510259032
-0.015114171 -0.011796426 0.84100002 0.2890711725 -0.7762159109 0.5602916479
-0.10979286 -0.070299022 0.90100002 0.4872792959 -0.8021339774 0.3451666236
-0.071806803 -0.16359328 0.90410006 -0.2365945131 0.6418299675 0.7294363379
0.043351557 -0.071430601 0.90644443 0.1387560517 -0.03371026367 0.9897527099
0.056173891 -0.062815331 0.81763178 0.3140385449 0.6155044436 0.7228652239
-0.031324465 -0.053838827 0.89577782 -0.07880714536 0.365863204 0.9273260236
-0.081871897 -0.10047915 0.84900004 0.04559069127 0.6484463215 0.7598939538
-0.038956188 -0.063088059 0.8164286 -0.5905432701 0.1492754817 0.7930797338
0.025486417 0.024694258 0.87252009 0.232328862 -0.809545517 0.5391283035
-0.12557657 -0.18243103 0.89600003 -0.2638131082 0.4947526455 0.8280232549
0.034528099 -0.0077720662 0.81328571 -0.03181418777 -0.8009968996 0.5978226066
-0.13375425 -0.1057045 0.86804771 0.4272911549 -0.1821219921 0.8855810761
0.014324052 -0.026535435 0.89122236 0.000760099967 0.2557903528 0.9667319655
0.032668326 -0.096139222 0.85174996 0.3117213547 -0.2964208126 0.90275383
-0.072067782 -0.04938807 0.85100001 0.6847542524 -0.2825882137 0.6717554927
-0.16485782 -0.10462859 0.90553337 0.6994591951 -0.6100726724 0.3722474575
-0.00079776667 -0.090147629 0.91000003 0.3165034056 0.09846034646 0.943467617
-0.047761176 -0.13230792 0.87671441 -0.1568218172 0.7324050069 0.662563026
-0.10329913 -0.13901953 0.88028574 0.02883039415 0.532815218 0.8457403779
0.07121408 -0.023041256 0.79640001 0.4106473029 -0.007961065508 0.9117594957
-0.16524199 -0.18462639 0.89331245 0.0007187618758 0.4991958141 0.8664889336
0.057230033 -0.011682636 0.8434 -0.4786963761 -0.7762498856 0.4102266431
-0.0086220168 -0.078090839 0.84299999 -0.002403441817 0.5945072174 0.8040866852
0.0019533106 -0.10188201 0.87233341 0.3235611022 -0.8538441658 0.4077478349
-0.0061717331 0.0069431998 0.88000005 0.874886632 -0.283947736 0.3923609257
-0.044836916 -0.083934061 0.84637153 -0.3576104045 0.5082348585 0.7834616303
-0.070994221 -0.078883342 0.81800008 -0.1318603903 0.9383128881 0.3196587861
-0.095871553 -0.072350807 0.86531258 0.538543582 -0.3452015221 0.7686395049
0.016752752 0.0014852486 0.84560001 0.219527036 -0.8653183579 0.4505906999
0.0046145422 -0.057494704 0.90099996 0.09973671287 0.2510282099 0.9628278017
-0.045196556 -0.035021655 0.83286208 0.5151749849 -0.4082143307 0.7536284328
-0.13533565 -0.1546685 0.8821429 -0.1870370358 0.296646893 0.9364922643
-0.054981299 -0.1059023 0.82569569 0.1769855469 0.5756036639 0.7983461618
0.04308353 -0.039055876 0.89357144 0.0213882979 0.124189049 0.9920280576
-0.13788934 -0.082872465 0.90222222 0.4846376479 -0.7877691388 0.38019225
0.054431491 0.015131844 0.86528134 -0.3121809959 -0.6594314575 0.6838809848
-0.075260729 -0.12478954 0.86715013 0.08951698989 0.5461714268 0.8328766227
-0.1050107 -0.11489662 0.86332512 0.1302364022 0.416755259 0.8996407986
0.045109227 -0.034037862 0.80675608 0.1454714388 0.1976680905 0.9694149494
0.043584984 -0.06786339 0.84271431 0.3726584315 0.4913162291 0.7872318625
-0.18144755 -0.12803261 0.89600003 0.6912401915 -0.5032399893 0.5185908675
-0.10497043 -0.16498065 0.89418197 -0.1666278839 0.4627792835 0.8706724048
0.025718771 -0.081832439 0.88900006 0.5414807796 -0.6093615294 0.5792038441
-0.073968552 -0.14575323 0.88330436 -0.1363132298 0.6876931787 0.7130896449
-0.15718108 -0.11235008 0.88163644 0.6333909631 -0.4643324316 0.6190406084
-0.049486078 -0.15002923 0.89600003 -0.2192491442 0.7246059179 0.6533575058
0.0068978849 -0.10592905 0.84175849 -0.05355279893 -0.5619031191 0.8254677057
-0.043056957 -0.12268285 0.84099996 0.2582843304 0.6750470996 0.6910865307
0.014832674 -0.021170622 0.82140005 0.4523985684 -0.6722080708 0.5860647559
-0.11674592 -0.083314382 0.87325007 0.5380917788 -0.6538792849 0.5318825841
-0.18267904 -0.16406815 0.88457161 0.3774952888 0.1934724152 0.9055747986
-0.058218557 -0.063565351 0.83183336 0.6473434567 -0.2920793295 0.7040143013
-0.014333433 -0.036925204 0.89323103 -0.04902035743 0.2767636776 0.9596868753
-0.018153137 -0.03195158 0.82833338 0.1955765337 -0.5568031669 0.8072918057
-0.12450232 -0.12755914 0.87128586 0.05674483255 0.3923327029 0.9180713892
-0.018746641 -0.01015443 0.89100003 -0.05137634277 0.4482914805 0.8924098015
0.051120624 0.030206865 0.88350004 -0.2380619496 -0.6832780242 0.6902591586
-0.032054439 -0.099805869 0.83100003 -0.4599902928 -0.2817946672 0.8420217633
-0.14504376 -0.17518225 0.88548702 -0.1567226052 0.4038484991 0.9013015032
-0.021990307 -0.071271829 0.9066667 -0.03218978643 0.340454191 0.9397099614
0.078648396 -0.02061657 0.87100005 -0.6977030635 -0.3018858135 0.6496732831
-0.14486222 -0.13489783 0.87428582 0.08320140094 0.2621482611 0.9614342451
0.05427159 -0.016445953 0.81588006 -0.002347156173 -0.6839898825 0.7294877172
0.035309989 -0.0025182739 0.83522218 -0.1593407243 -0.9105445147 0.381469816
-0.01730014 -0.10003994 0.85800004 -0.6175325513 0.3353650868 0.7114659548
-0.076720603 -0.073922284 0.79800004 -0.1215504408 0.7238218188 0.6791961789
-0.18108602 -0.11902913 0.91533333 0.7171484232 -0.5493993163 0.428787291
0.035013132 0.012173041 0.85706657 -0.01927135512 -0.7702814937 0.6374127865
-0.026462428 -0.065675139 0.83338898 -0.3157049417 0.4858187139 0.8150525093
-0.054705746 -0.11740013 0.85774988 0.492936939 0.4821115732 0.7242800593
-0.025365474 -0.13186316 0.85099995 0.1653032899 0.6245828867 0.7632634044
0.025175041 -0.055074736 0.89744473 0.2249966413 0.03404557332 0.9737645388
0.0029344955 -0.0015933904 0.86111116 0.4187183082 -0.8317162395 0.3645862043
-0.14391933 -0.096957237 0.88592309 0.5691046715 -0.6344231367 0.5230938196
-0.049420327 -0.08809945 0.81700009 -0.04863227904 0.3552169502 0.9335179925
-0.19091038 -0.14709722 0.89250004 0.6091821194 -0.2035799921 0.7664543986
-0.071911216 -0.087316878 0.83700001 0.8685391545 -0.1139501408 0.4823433757
0.063938074 -0.036401168 0.81408352 0.3734475076 0.2720046043 0.8868768215
-0.065661162 -0.09786094 0.86088896 -0.05869315565 0.3895995319 0.9191122651
-0.10424636 -0.095415547 0.85787082 0.380531013 0.002883288544 0.9247636795
0.045202687 -0.06137434 0.889 0.0597349517 -0.000777293928 0.9982139468
-0.037273739 -0.10134654 0.85271424 -0.03787014261 -0.5374550223 0.842441678
-0.00223813 -0.12235111 0.85100001 0.4659965932 -0.8055757284 0.3659165204
-0.14366305 -0.18760052 0.90139997 -0.1582003832 0.6096500754 0.7767235041
0.018848334 -0.085194468 0.86000001 0.3798744082 -0.268509686 0.8852106929
0.013953428 -0.074650705 0.90197313 0.4310099781 0.004088111687 0.9023379087
-0.031401321 -0.01971711 0.83300006 0.235450089 -0.5523707867 0.7996560335
-0.1081082 -0.18167658 0.90233332 -0.2170888633 0.4794019461 0.8503212333
0.067289159 -0.0031916057 0.86092311 -0.657992363 -0.3627145588 0.6599122286
-0.033805367 -0.0456522 0.81900018 0.05495655537 -0.2208431661 0.9737597704
0.025832182 -0.022044891 0.80573702 0.09053998441 -0.3949715495 0.9142209888
-0.087121964 -0.17135735 0.89800006 -0.2342902571 0.5794570446 0.7806007862
-0.00072675664 -0.015988646 0.82900006 0.3305408359 -0.609895587 0.7202569842
-0.0034495955 -0.088470131 0.85763329 -0.07996242493 0.8434993625 0.5311448574
-0.16515261 -0.16628808 0.88086647 0.1065116078 0.3036260605 0.9468191266
-0.092258066 -0.08169394 0.80333334 0.0293689575 0.8426648378 0.5376369357
-0.083105646 -0.063938729 0.85576922 0.6292057037 -0.2664439976 0.7301422954
-0.024494756 -0.085867845 0.84256744 -0.1720119417 0.2052540332 0.9634742737
-0.094709307 -0.12648161 0.87203711 0.10079889 0.5456966162 0.8318983316
-0.11950983 -0.080454327 0.89100003 0.4623900056 -0.8028131723 0.3764126003
-0.071909562 -0.071412578 0.84366673 0.6864926815 -0.2438997775 0.6850114465
-0.037659723 -0.14141272 0.88700002 -0.07428957522 0.7900241613 0.6085579991
-0.058606628 -0.043583777 0.84266669 0.6556591988 -0.4031538069 0.6384183764
0.044694856 -0.084158927 0.84661114 0.4733243883 0.1299860626 0.8712449074
-0.086406231 -0.084537618 0.85149986 0.5125898123 -0.06315237284 0.856308043
0.0086802272 0.01203155 0.86860007 0.4701279104 -0.7325202823 0.4923350215
-0.095048234 -0.15345208 0.8876667 -0.03540991619 0.5475327373 0.8360347152
0.014152907 -0.090432554 0.89700001 0.4917262793 -0.5958311558 0.6349728107
-0.1150209 -0.15388182 0.88762486 -0.1379441321 0.414806962 0.8993923664
-0.0047033918 -0.074624203 0.90691453 0.1170275211 0.2607854307 0.9582773447
-0.015134421 -0.053212196 0.89736009 -0.07634774595 0.3605402112 0.9296137691
-0.0014065241 -0.027670756 0.89160001 -0.01357617229 0.3436573744 0.9389969707
0.0049780891 0.016946843 0.88471431 0.5517414808 -0.7318668962 0.3999402225
-0.089007966 -0.11107191 0.85800004 0.05947761983 0.4769915938 0.8768930435
0.044568781 0.0026157831 0.84665221 -0.3301994205 -0.7374967337 0.5891238451
-0.12169693 -0.1682511 0.89099997 -0.2753034234 0.4196098149 0.8649483323
-0.050366689 -0.093217283 0.85750002 0.2611191273 0.2202138305 0.9398524761
0.031385545 -0.029030817 0.89500004 0.08348552883 0.1730134487 0.9813748002
-0.13062641 -0.08913289 0.87650001 0.531830132 -0.7035911679 0.4712919891
-0.16668235 -0.12426262 0.88211536 0.6018015742 -0.3626649976 0.7115538716
-0.12486959 -0.074157402 0.90380013 0.4565517902 -0.8096351624 0.3688514531
-0.14542021 -0.11473676 0.87237138 0.4538519382 -0.1785317212 0.8730090857
-0.15513727 -0.15504079 0.88041669 -0.02884690091 0.1641159058 0.9860191941
-0.012985186 -0.10541419 0.87133342 -0.2924282849 -0.5869175792 0.7549923658
-0.16700485 -0.11439798 0.89436358 0.7017355561 -0.5674874783 0.4307263494
-0.072961457 -0.11057046 0.85800004 0.02080699243 0.4380256236 0.8987216353
-0.040357351 -0.069708146 0.83700001 -0.1208399236 0.6204674244 0.7748663425
-0.12392385 -0.14085753 0.87800008 -0.09367774427 0.4306326807 0.8976525068
0.024637684 -0.0048049064 0.82511759 0.2078953534 -0.8642370701 0.4581198394
0.071521677 0.01323533 0.87100011 -0.4904865921 -0.5231242776 0.6969676614
-0.06170769 -0.13027179 0.86900002 -0.09233924747 0.7075624466 0.7005918026
-0.047956795 -0.073479317 0.82171434 -0.778529346 0.3594191372 0.5144997239
0.0188045 0.0112827 0.85800004 0.329798013 -0.7716807723 0.5438217521
0.04476377 -0.0074595567 0.82366663 -0.320818454 -0.8626009226 0.3911459744
0.059070826 -0.017580235 0.8021667 0.3131690323 -0.2169327587 0.9245892763
-0.12360393 -0.095809095 0.86496788 0.4876505136 -0.4070300162 0.7723493576
-0.063334472 -0.15353072 0.89349991 -0.2324719727 0.7073959708 0.6674936414
0.014940011 -0.044826616 0.89702028 0.04081716761 0.2357317358 0.9709606171
0.033851609 -0.076401144 0.85207993 0.3927386999 -0.001416881219 0.9196490049
-0.055725317 -0.078862302 0.80800009 -0.5559321642 0.4737033844 0.6830406785
-0.15002923 -0.088760749 0.89600003 0.5710965991 -0.7044605017 0.4214071929
0.0091722338 -0.094157174 0.85412502 0.1146118939 -0.7300465107 0.673718214
-0.063511282 -0.091195628 0.82633334 0.65292871 0.5349856615 0.5361664295
-0.089097381 -0.060558379 0.79400003 -0.5281176567 -0.6135956049 0.5870197415
-0.15496381 -0.12504447 0.87507147 0.3588167727 -0.05935273319 0.9315190911
-0.0053463117 -0.10605173 0.8356666 -0.2035379857 -0.287877351 0.9357878566
0.054135967 -0.044280738 0.80879992 0.09683633596 0.4027487338 0.9101737142
-0.035036568 -0.11197414 0.83846664 -0.05096250027 0.4689978361 0.8817277551
0.042393852 -0.017167436 0.80762511 0.007672935724 -0.5569140315 0.8305346966
0.046071257 0.026654221 0.87158841 -0.1862842292 -0.7241780758 0.6639760733
-0.17482409 -0.13559872 0.88442111 0.5105443597 -0.2884321213 0.8100317121
-0.11495449 -0.10520218 0.86097312 0.3246034086 0.1097441614 0.9394620061
-0.17463998 -0.17444001 0.88708705 0.2548105121 0.294698298 0.9209910631
0.052143257 -0.068203211 0.83255559 0.3574304879 0.6092717052 0.7078357339
-0.055806216 -0.14246647 0.88709521 -0.2042368054 0.7283790708 0.6540269256
-0.085053839 -0.13530323 0.87399995 0.0588517338 0.5873935819 0.8071587086
-0.046543311 -0.054824565 0.82329631 0.4578721821 -0.211271435 0.8635493517
-0.15785737 -0.10295699 0.89457148 0.6730731726 -0.5837060213 0.4541583359
-0.0084088407 -0.0030567904 0.8718335 0.8407549262 -0.5379974246 -0.06074490026
0.054216068 0.0046175048 0.85526931 -0.4013001025 -0.6125558019 0.6809799075
0.021600189 -0.011630736 0.81233335 0.3058682382 -0.6830877662 0.6632011533
-0.004716842 -0.044820994 0.89690483 -0.04703100026 0.3263827264 0.9440669417
0.0051186429 -0.0057357103 0.83433324 0.3079645932 -0.7628597617 0.5685092807
0.021919003 -0.10191103 0.84750003 0.2578294873 -0.5545586348 0.7911944389
-0.084212504 -0.1571503 0.89359999 -0.1799692512 0.6138911247 0.7686018348
-0.04458284 -0.10490905 0.83371109 -0.7857385874 -0.07708573341 0.6137366891
-0.17331918 -0.11682285 0.90550011 0.7022624016 -0.5656945705 0.4322234988
-0.02592128 -0.065195948 0.89600003 -0.05721419677 0.3525554836 0.9340402484
-0.12543097 -0.11501706 0.86712515 0.2616940141 0.1602042317 0.951761961
0.035406813 0.030018819 0.87800002 0.07530090213 -0.8167307377 0.5720844865
0.065739483 -0.013761637 0.8546316 -0.6871734262 -0.3380284607 0.6430625319
-0.16297758 -0.13463105 0.87644458 0.3716807961 -0.08447934687 0.9245088696
-0.15437992 -0.18266132 0.88788891 -0.03920416906 0.5102095604 0.8591561317
0.052992966 -0.076261453 0.84249997 0.5807554126 0.2345733941 0.7795501947
0.047596332 -0.054745741 0.81456518 0.3019444346 0.5085983872 0.8063232899
-0.035323456 -0.035653565 0.82580876 0.2092199922 -0.3436540961 0.9154937863
-0.1756862 -0.15468527 0.88148266 0.3812488616 0.02936311811 0.9240060449
-0.1562573 -0.09545505 0.90390909 0.6501681805 -0.6616259813 0.3735403121
-0.15465455 -0.14361227 0.87659389 0.03618004546 0.0971153453 0.9946153164
-0.085950971 -0.14601862 0.88235307 -0.01674158685 0.603672564 0.7970565557
-0.039075661 -0.02433013 0.84100002 0.3635028601 -0.5845541954 0.7253702879
0.062766008 0.021532865 0.87100017 -0.3826251924 -0.6502498984 0.6563330293
0.035017904 -0.064447798 0.8942793 0.1354533583 -0.05082068592 0.9894794822
-0.064929985 -0.13811924 0.88092315 -0.1767773628 0.6835902929 0.708134234
-0.13621679 -0.126136 0.87116021 0.1548014283 0.2324869782 0.9602012038
-0.10541917 -0.07891643 0.8635 0.5168795586 -0.4312075675 0.7395238876
-0.04780069 -0.09512344 0.82616663 -0.4693330824 0.07510316372 0.8798215389
0.081515096 -0.0091418792 0.86900002 -0.6923670769 -0.3144485652 0.6494227648
0.035205398 0.023053484 0.86675 0.005250497721 -0.7665740848 0.642134428
0.05118243 -0.0095048193 0.83399999 -0.4112582207 -0.8332395554 0.3695653081
-0.019251775 -0.073042989 0.83819997 -0.1265121847 0.4508932531 0.883566618
0.033923846 -0.073534012 0.88759995 0.1627167761 -0.06998529285 0.9841876626
-0.11503533 -0.12183312 0.86900014 0.08653791994 0.443410337 0.8921314478
0.064032391 -0.030905932 0.80425006 0.2863915265 0.1953122318 0.9379941225
-0.063823849 -0.072788745 0.83420002 0.7811252475 -0.381488204 0.4942773879
0.063287102 -0.054494135 0.81633341 0.2928852439 0.5378302932 0.7905420661
0.021642622 -0.066823564 0.90100002 0.1760570109 -0.03877006099 0.9836161733
-0.14398777 -0.14815545 0.88020009 -0.07537999004 0.2517677844 0.9648475647
-0.074079543 -0.1354486 0.87351614 -0.02147969976 0.6469340324 0.7622433901
-0.016804123 -0.091163695 0.84820002 -0.5394707322 0.4567523301 0.7073532939
-0.034733534 -0.091547661 0.84900004 0.1833470911 0.5228948593 0.832445085
0.0041366867 -0.094747663 0.86457694 0.03457112983 0.9687768817 0.2455120683
-0.068259507 -0.072963119 0.80455565 -0.420884639 0.3203451335 0.8486666679
-0.11483967 -0.13541332 0.87646163 -0.02882570028 0.4872250855 0.872800529
-0.14495419 -0.16509901 0.88197607 -0.1621442884 0.2824734449 0.9454723597
-0.071724266 -0.098623469 0.85225004 -0.04388740286 0.675681591 0.7358860373
0.034565132 -0.044778384 0.89609516 0.1180438921 0.1550034881 0.980836153
-0.10518793 -0.12768406 0.87155575 0.04814551026 0.5269355178 0.8485404849
-0.07687173 -0.086163923 0.84623075 0.7780414224 0.1904008985 0.598664403
-0.094549417 -0.094764322 0.85399997 0.2942253053 0.2517318726 0.921988368
-0.18440323 -0.13779052 0.88800001 0.5962756872 -0.352976203 0.7210153341
-0.024988903 -0.045608114 0.89474314 -0.0641670078 0.2981477976 0.9523605108
-0.11473382 -0.14470689 0.88266671 -0.07963103801 0.467892617 0.8801905513
-0.032805916 -0.057594545 0.83160001 -0.3143242002 0.2094938457 0.9259117842
-0.0045684623 -0.0077570891 0.83760875 0.3173340261 -0.7491109967 0.5814909935
-0.014359799 -0.077383369 0.91000003 0.06656813622 0.2887470424 0.955088377
-0.015554364 -0.10580966 0.83424318 -0.2477900088 -0.2802268863 0.927401185
-0.064688258 -0.11781173 0.8602221 0.006242174655 0.4077170491 0.9130870104
-0.062039189 -0.056160845 0.83779997 0.6337716579 -0.1804201007 0.7521848679
-0.02014317 -0.11862089 0.85100001 0.1023980603 -0.2904872298 0.9513841271
-0.0246245 -0.097010441 0.85121423 -0.4353728592 -0.08256422728 0.8964561224
-0.048756696 -0.12570085 0.86900002 0.1768583059 0.8063834906 0.5643286109
-0.1334739 -0.087787643 0.88620013 0.4735454917 -0.7651647329 0.4362081587
0.015964393 0.021590255 0.87433338 0.3883615732 -0.7637481093 0.515620172
0.0346963 0.0036084182 0.84446681 -0.09902527928 -0.8288684487 0.5506097078
-0.10471657 -0.10544607 0.85899985 0.2529367507 0.2212969959 0.9418336749
-0.095017351 -0.16491297 0.89576197 -0.1698021442 0.507515192 0.8447458744
-0.12491084 -0.15514691 0.88627267 -0.1803076863 0.3477885127 0.9200718999
-0.0047579869 -0.065003976 0.90419453 0.01950039715 0.3324652016 0.9429138899
0.014600514 -0.0026545008 0.8350001 0.3175942898 -0.8063421845 0.4989450574
0.024960624 -0.074892625 0.89613903 0.274204284 -0.08572455496 0.9578430653
0.074186534 -0.01343261 0.86384219 -0.6953184605 -0.293233633 0.6561602354
-0.15486617 -0.1649466 0.88084972 -0.03848299384 0.2834677398 0.9582093358
-0.10520497 -0.15474606 0.88699973 -0.1055440232 0.4788070619 0.8715527654
-0.13500074 -0.18290007 0.89316678 -0.2316270471 0.5054600239 0.8311793208
-0.11525352 -0.17404328 0.89567584 -0.2245266587 0.4590293169 0.8595812321
-0.13346373 -0.13963546 0.88000005 -0.0549906306 0.3653018177 0.9292634726
-0.13533495 -0.17465775 0.88685709 -0.2507447302 0.4263295829 0.8691203594
0.04515788 0.016157422 0.86222225 -0.1807080954 -0.7105976939 0.6799967289
0.04853256 -0.061575606 0.82633334 0.3617710769 0.6077076793 0.7069746256
-0.13530959 -0.16477284 0.88327652 -0.2281062156 0.2795516849 0.9326405525
-0.038584143 -0.078397088 0.84100002 -0.1881089061 0.6614962816 0.7259736061
-0.14411283 -0.1055632 0.87531424 0.5063948035 -0.3778433204 0.7751120925
-0.085703716 -0.074145824 0.80166662 -0.1099434868 0.7641537786 0.6355953813
0.004706847 -0.034512833 0.89463902 -0.0277517885 0.2937833071 0.9554690719
-0.044423666 -0.1139738 0.83707702 -0.02268687077 0.6806551218 0.7322525978
-0.16491659 -0.15484431 0.8780002 0.1456722766 0.1166231483 0.9824350476
0.015632467 -0.054544963 0.89800036 0.1855283827 0.133754611 0.9734931588
0.0047548702 -0.074541762 0.9045279 0.303961277 0.118213959 0.9453216195
0.023670753 -0.092981145 0.85142851 0.2893962264 -0.4776107967 0.8295406699
-0.1348073 -0.11543054 0.8687672 0.2725944221 0.04252932966 0.9611886144
0.045223124 -0.045074366 0.81205255 -0.04436248913 0.3000948131 0.9528772831
0.034797572 -0.024310878 0.80348903 0.03810802847 -0.2320414484 0.9719591141
0.034999635 -0.055193637 0.89646161 0.104802452 0.04953651875 0.9932585955
-0.006035611 -0.023276137 0.83200002 0.2555906475 -0.5212442875 0.8142344952
0.065258779 0.0051825703 0.86491191 -0.5227813125 -0.4852642119 0.7008696795
-0.01506994 -0.065053061 0.90490466 -0.0421689339 0.3466549814 0.9370443225
0.0047200983 -0.044840116 0.89728576 0.01952154934 0.2945950627 0.9554227591
0.025135783 -0.044773128 0.89600003 0.1504918188 0.1753611863 0.9729340672
0.035490099 -0.085574903 0.84805298 0.3801089525 -0.09643243253 0.919901073
-0.14540853 -0.12506504 0.87285352 0.2551568151 0.1146416515 0.9600793123
-0.18363532 -0.15470776 0.88649994 0.4673533142 -0.02405874431 0.8837432265
0.015630867 -0.0072652604 0.82603693 0.3756977618 -0.7900354862 0.4844534099
0.01189549 -0.11076859 0.84800005 0.305103898 -0.7767122388 0.5510260463
-0.095652089 -0.1158547 0.86250001 0.09737613052 0.4783788323 0.8727380037
-0.044180643 -0.046044238 0.82529414 0.4443207383 -0.2873239517 0.848542273
0.055371571 -0.025271593 0.80581635 0.4182420671 -0.06866286695 0.9057366848
-0.11527041 -0.094207257 0.8612501 0.4178129137 -0.1879915893 0.8888709545
-0.026287127 -0.034055483 0.82443762 0.1419759095 -0.3431893885 0.9284739494
-0.10175921 -0.086500697 0.85799992 0.3943180144 -0.269018501 0.87871629
-0.095072493 -0.14512163 0.88167495 0.03279060498 0.5645188093 0.8247686028
-0.04890836 -0.064348459 0.8221429 0.4632542133 -0.7122141719 0.5273960233
-0.062649377 -0.08245445 0.81666678 -0.4574272037 0.6938238144 0.5562093854
0.0038207329 -0.11412907 0.84441662 0.1152353734 -0.6915521622 0.7130753398
-0.025182376 -0.10481277 0.83438081 -0.2759471536 -0.3326579034 0.9017715454
0.024666913 0.016280718 0.86283892 0.2360345572 -0.7611373067 0.6041172743
0.026378501 -0.0016596895 0.8337273 0.07306556404 -0.9058341384 0.417283982
-0.12507334 -0.10476219 0.86462784 0.3861461878 -0.04905165732 0.9211325049
-0.12544805 -0.083841287 0.88481826 0.4870385528 -0.780064702 0.3928008974
-0.054065276 -0.045427613 0.83510518 0.6103525758 -0.3126256466 0.7278289199
-0.084214576 -0.12419614 0.86714828 0.09016125649 0.5251243114 0.8462360501
-0.0049801017 -0.095321685 0.86313802 -0.07172912359 0.8988010287 0.4324484169
0.054018009 -0.034406014 0.80686361 0.2369483858 0.2579498589 0.9366521835
-0.034407269 -0.054265078 0.8235001 -0.08619686961 0.01700212061 0.9961330295
0.022601344 -0.028836196 0.88900006 0.05339316279 0.2297651619 0.9717804193
-0.075936489 -0.094813518 0.84449995 0.3525472283 0.650688827 0.6725432873
-0.034461059 -0.12397543 0.84275007 0.1657954901 0.5458038449 0.8213464618
-0.17372939 -0.18228634 0.89239997 0.095200032 0.4577823877 0.8839526176
-0.16132683 -0.10988929 0.88900006 0.6787074208 -0.5385234356 0.4993483722
-0.0017772956 0.0017772956 0.86866665 0.541911006 -0.7872642279 0.2941896021
-0.077125415 -0.16355239 0.89717638 -0.2296868563 0.6418349147 0.7316364646
0.034337815 -0.015060061 0.80504328 0.006089453585 -0.5621473193 0.8270146847
0.065170944 -0.044837814 0.81589484 0.260325253 0.3535966873 0.8984431624
-0.066533916 -0.054554585 0.84507996 0.6873871684 -0.2828340232 0.6689572334
-0.16446081 -0.17453228 0.88349998 0.06765311211 0.3489549756 0.9346943498
-0.044491068 -0.13658218 0.88472742 -0.1845351011 0.7275428176 0.6607785225
0.04300791 -0.053426825 0.89365005 0.07387451828 0.06606669724 0.9950767756
0.012343335 -0.084114984 0.90265006 0.4275883734 0.01111792587 0.9039051533
-0.13500901 -0.084920853 0.89422214 0.4696619511 -0.7891934514 0.3957162797
-0.064856686 -0.14485215 0.8863529 -0.2047969997 0.7153204679 0.668112874
0.073682837 0.0051292595 0.86886686 -0.5919857025 -0.3839204013 0.7086310983
-0.094120495 -0.13374655 0.8765927 0.07084284723 0.5604811907 0.8251315355
0.0057956437 -0.092459403 0.90500003 0.3374362588 -0.5353236198 0.7743160725
-0.094713159 -0.1046707 0.85762155 0.2046402842 0.3301344812 0.9214844704
0.014894566 -0.034500424 0.8943336 -6.341154221e-05 0.2595272958 0.9657357931
-0.10578253 -0.17278421 0.89761895 -0.1893896759 0.4524294734 0.8714580536
-0.17276941 -0.12722225 0.88736367 0.6447725296 -0.4469941258 0.6200521588
0.045576785 0.0075544771 0.85354555 -0.3028026521 -0.7107335329 0.6349554062
0.0087519092 0.0017526029 0.85583335 0.3786913753 -0.8236972094 0.4220376015
0.0069754617 -0.098637626 0.84600008 0.05897998437 -0.6165937185 0.785069108
-0.05545361 -0.12460587 0.8640002 0.1862956733 0.7002253532 0.6891867518
0.054797955 0.023461085 0.87291318 -0.3026404679 -0.6860180497 0.6616554856
0.024853498 0.00366207 0.84546679 0.05958018452 -0.8619063497 0.5035549998
-0.17087635 -0.16087009 0.87800002 0.3143689632 0.1554795951 0.9364818335
-0.024721386 -0.12458513 0.84690011 -0.06362457573 0.1340033114 0.988936305
0.063207664 0.013538947 0.86866677 -0.4481810331 -0.603705287 0.6592978239
-0.024486177 -0.058714166 0.90100002 -0.061753463 0.3427736163 0.9373860955
-0.14600244 -0.1828381 0.88857144 -0.113304913 0.5079574585 0.8538976312
-0.014703452 -0.045165949 0.8954668 -0.07830037922 0.3312748671 0.9402797818
0.035258658 -0.0050788806 0.82740003 -0.05070072412 -0.9167390466 0.3962561786
0.049057391 -0.020618323 0.81100005 0.1316391826 -0.2454365939 0.9604332447
-0.11499909 -0.0788173 0.88433337 0.4796053171 -0.7850254774 0.3920634091
-0.051631283 -0.11130704 0.83420008 0.1747631878 0.7098377347 0.6823402643
-0.18157856 -0.12404087 0.90316671 0.7082858682 -0.5343468189 0.461307466
0.0088893995 -0.00074078335 0.84500003 0.3412033319 -0.8538179994 0.393160373
-0.15474363 -0.17535348 0.88421059 -0.06427032501 0.4392377734 0.8960689306
-0.067980111 -0.064280711 0.84285724 0.6920492053 -0.1798287332 0.6990919709
-0.12112991 -0.08913333 0.86900002 0.5040069222 -0.6200653911 0.6012453437
0.044401452 -0.024802098 0.80550021 0.05046888441 -0.1368583739 0.9893041253
-0.15495084 -0.13500668 0.87500006 0.1806765795 0.1102170274 0.9773474932
-0.0013266889 -0.082254715 0.90800005 0.2367611974 0.1464368105 0.9604688287
-0.03487175 -0.085136943 0.8437143 0.2762974501 0.3447167277 0.8971232176
0.015049736 -0.097543195 0.84775007 0.2189888507 -0.6105110645 0.7611308098
-0.065704629 -0.15832731 0.903 -0.2443249077 0.656942904 0.7132540941
-0.17497705 -0.14513156 0.88231581 0.4107974768 -0.161456883 0.8973166347
0.058243319 -0.0014927441 0.85175002 -0.4998580813 -0.5905607343 0.6335455179
-0.11397959 -0.086442836 0.8662501 0.5127596855 -0.5430747271 0.6649416089
-0.14837429 -0.10200367 0.88150007 0.5941651464 -0.5447384715 0.5918004513
0.015686089 0.014237978 0.86536002 0.4211324155 -0.7449871302 0.5173409581
-0.0045338883 -0.057515472 0.90131581 0.002351706615 0.3441993296 0.9388936758
0.023959972 0.0084869079 0.85252941 0.1683477312 -0.8263254762 0.5374432206
0.0052987388 0.0053091641 0.86435133 0.4949339926 -0.7177539468 0.489764899
-0.013747738 -0.025210785 0.83141375 0.2186774909 -0.5274038315 0.8209904432
0.0017816788 0.0089083947 0.87100011 0.5982019901 -0.6773454547 0.4282026589
-0.0046322066 -0.034589667 0.89371449 -0.01614401489 0.2719296813 0.9621816874
-0.051805448 -0.087426163 0.85233331 0.03243136406 0.6011814475 0.7984541655
-0.082932666 -0.057298936 0.86000001 0.6164683104 -0.2936314046 0.7305801511
-0.055816486 -0.088942215 0.82150006 0.2862026691 0.4732600749 0.8331344128
-0.015644366 -0.084452353 0.84428549 -0.3754581511 0.4426064789 0.8143283725
-0.12738067 -0.17262836 0.88780004 -0.2636415064 0.4433933794 0.8566769958
0.041032381 -0.090271242 0.85100001 0.4391867518 -0.1053015813 0.8922032118
-0.03461482 -0.065501623 0.83371782 -0.2544083893 0.5121253133 0.8203682303
-0.0238689 -0.018018745 0.83405894 0.205922693 -0.5371172428 0.8179858923
-0.096437722 -0.17221022 0.89799994 -0.1932213157 0.4698033333 0.8613653779
-0.032693278 -0.028956175 0.82871431 0.2114700824 -0.421212703 0.8819638491
-0.089171022 -0.070278861 0.86200005 0.5498809218 -0.2742762864 0.7889255285
0.065760516 -0.017769331 0.79799998 0.3428375423 0.04745140672 0.938195467
-0.025183685 -0.11161169 0.83809096 -0.1758593619 0.363196373 0.9149655104
0.021354724 -0.022779306 0.81200004 0.3881380856 -0.3145732582 0.8662519455
-0.044519641 -0.094599515 0.85263896 0.3533277512 -0.1826724708 0.9174913168
-0.040807255 -0.028812703 0.83420008 0.3812768459 -0.4720727801 0.7948428988
-0.08720433 -0.095523901 0.85157132 0.2155386955 0.4937492609 0.8424694538
0.057306167 0.0079312036 0.86150014 -0.398167938 -0.5879547596 0.7041104436
-0.14121026 -0.098666787 0.87700003 0.5521013141 -0.5601883531 0.6175541878
-0.12442553 -0.078111574 0.89640003 0.4529960155 -0.8103199005 0.371720612
-0.11519774 -0.16458422 0.89276212 -0.2397696376 0.4279540181 0.8714160323
-0.047848292 -0.042157494 0.83200008 0.5012279749 -0.3413524926 0.7951408625
-0.151026 -0.098866954 0.88800001 0.5975430012 -0.625009954 0.5022996068
0.037952654 -0.031351935 0.80666667 0.07796617597 -0.0232815966 0.996684134
0.014195863 -0.065157704 0.90105766 0.2769824266 0.05874605849 0.9590774775
-0.11534391 -0.18398619 0.903 -0.2269781232 0.4971014559 0.8374789953
-0.0014745533 -0.10985422 0.84100002 0.03388706222 -0.6088177562 0.7925860286
-0.1810613 -0.1754373 0.89099997 0.3114198446 0.2875918746 0.905708909
0.042507373 -0.0047620535 0.83600003 -0.300580591 -0.8814747334 0.3642163873
0.015354124 0.0055593452 0.85445833 0.3717107773 -0.7870109677 0.4923868477
-0.15251358 -0.09587878 0.8954286 0.6181192994 -0.661110878 0.4252774715
-0.13438454 -0.09512274 0.87386203 0.5516600013 -0.5341004133 0.6406309605
-0.095650792 -0.065107085 0.80172729 0.1975047737 0.9727270007 0.1216307208
-0.15437096 -0.10545378 0.88449997 0.6279859543 -0.5391664505 0.5611890554
-0.11046438 -0.079991452 0.86900002 0.5702079535 -0.5433738828 0.6161231399
-0.0648636 -0.047343947 0.84650004 0.6804929376 -0.2914102972 0.672316432
-0.076703005 -0.14188595 0.87641674 -0.04727211222 0.6564856172 0.7528558969
-0.056387804 -0.054145668 0.83324987 0.6656774282 -0.2573421299 0.7004631162
-0.031259738 -0.080539808 0.83900005 0.1828281879 0.2168339044 0.9589353204
-0.024676641 -0.11662468 0.84374082 -0.2564896643 0.3230992854 0.9109445214
-0.16300456 -0.11588822 0.8847369 0.6635578871 -0.4678975642 0.5837489367
-0.065199256 -0.12495418 0.86506075 -0.004368922208 0.6147642136 0.7886988521
0.069258422 -0.030081939 0.79800004 0.2863915265 0.1953122318 0.9379941225
0.0047444468 -0.06486173 0.90225017 0.1853674948 0.2333234102 0.954567492
-0.085776865 -0.15208441 0.8883332 -0.1067538038 0.5860423446 0.8032172322
0.062617667 -0.061178181 0.82100004 0.2866953909 0.614307642 0.7351406813
0.025058735 -0.034459576 0.89322239 0.06462615728 0.1887080669 0.9799044728
-0.11654877 -0.072188936 0.90350002 0.4457928836 -0.8163976073 0.3671016991
-0.17511696 -0.1654063 0.88211113 0.3234260678 0.2279594541 0.9183844924
-0.082534656 -0.10817579 0.86022228 -0.02086958662 0.4791009128 0.8775116801
0.054769114 -0.054712474 0.81270212 0.180022195 0.5225411057 0.8333923221
0.050038379 -0.068306357 0.90600002 0.1113025546 -0.02181985229 0.9935470223
-0.11530121 -0.11530361 0.86555272 0.1435970068 0.3521851301 0.9248489141
-0.07572262 -0.15652293 0.89546162 -0.2559003234 0.6571114063 0.7090272307
-0.022194132 -0.038905151 0.89350003 -0.05248828605 0.266572684 0.962384522
-0.13147019 -0.079511911 0.89800006 0.4541530907 -0.8046358824 0.382499814
-0.12261089 -0.1848402 0.90233344 -0.2515227199 0.4986891747 0.8294850588
0.074505307 -0.0065175029 0.866207 -0.6977030635 -0.3018858135 0.6496732831
-0.15060724 -0.10801643 0.87800002 0.5713064075 -0.436568737 0.694994092
0.012490941 0.0081329336 0.86066669 0.4359742999 -0.7431913614 0.5075361729
-0.10521486 -0.13413461 0.87521875 0.03508495912 0.5219077468 0.8522800803
0.04424734 -0.075085133 0.84339982 0.5407730937 0.2135688215 0.8136048317
-0.092864193 -0.087749593 0.85308337 0.3287352324 -0.1181645766 0.9370006919
-0.034629732 -0.10575628 0.83472967 -0.2178196758 0.1943267286 0.9564474225
-0.10495869 -0.14536917 0.88338244 -0.02862657979 0.5299576521 0.8475407958
-0.1246895 -0.13473415 0.87420005 -0.0266705025 0.4314970672 0.9017199874
-0.07751251 -0.063986525 0.85118741 0.6710927486 -0.266919136 0.6916565299
-0.0049001579 -0.10382995 0.87339997 0.2430862337 -0.6479857564 0.7218195796
0.05378291 -0.012244403 0.82166672 -0.4469175637 -0.8374915123 0.3144402206
0.060926579 0.00075218 0.85800004 -0.5209950209 -0.5115589499 0.6832800508
0.0524422 0.0011159967 0.84850001 -0.4225098193 -0.6616331339 0.6194571257
-0.071012631 -0.12904446 0.87100005 -0.02140640095 0.6425324678 0.7659593821
0.026906215 -0.10089337 0.85250002 0.3955641091 -0.5957794189 0.69898206
-0.025157325 -0.028059928 0.82813054 0.2124168277 -0.5455696583 0.8106989861
-0.1257695 -0.1645488 0.8864736 -0.2583395839 0.343532145 0.9029099345
-0.17632671 -0.11426747 0.91300005 0.7094173431 -0.5683906674 0.416724205
-0.031260177 -0.10047915 0.84900004 -0.5626857281 -0.605020225 0.5633252263
-0.15433289 -0.1158694 0.87614292 0.5309678912 -0.3313089311 0.7799406648
-0.015230465 -0.016313352 0.835513 0.2186774909 -0.5274038315 0.8209904432
0.028405225 -0.088783368 0.84820002 0.3094875813 -0.1850042343 0.9327329993
-0.065818429 -0.13310137 0.87405014 -0.06582038105 0.6765975952 0.7334053516
-0.12378328 -0.17634958 0.89280784 -0.2623387873 0.4624414742 0.8469511271
-0.054716498 -0.13285336 0.87545013 -0.1436440945 0.7422823906 0.654509902
0.054672297 -0.0053478125 0.84527767 -0.4661530852 -0.7550788522 0.4610392749
0.039075661 -0.00073727668 0.84100002 -0.2143439949 -0.8450638652 0.4898200333
-0.16875635 -0.11170859 0.90375006 0.709007144 -0.575163126 0.4080394804
-0.073644921 -0.15102565 0.88800001 -0.1890308559 0.6970057487 0.6917010546
-0.051780663 -0.082643546 0.84619999 -0.2016492486 0.4810326993 0.8531969786
-0.081515096 -0.13179544 0.86900002 0.06292484701 0.5747951865 0.8158743382
0.046431553 -0.0030762963 0.84291667 -0.3181605935 -0.8206317425 0.474697113
-0.056427352 -0.15220301 0.89400005 -0.2108934969 0.721303761 0.6597308517
0.045770463 -0.01409824 0.81300002 -0.1894295514 -0.7175669074 0.6702344418
-0.13474746 -0.13504416 0.8748107 0.005387040786 0.3399508297 0.9404277802
-0.068157323 -0.092212185 0.83150005 0.6802328825 0.4076958895 0.6091529131
-0.075367786 -0.055380695 0.8524074 0.6816176772 -0.2560429573 0.6854482889
-0.051545918 -0.055446316 0.82812506 0.5192212462 -0.2422988564 0.8195734024
-0.13149071 -0.099189401 0.86900008 0.4962925613 -0.411601305 0.7643808126
-0.0028979413 -0.11545206 0.84563643 0.1991057098 -0.6069885492 0.7693645954
-0.034185395 -0.07459946 0.83694869 -0.1413318515 0.6651486158 0.7332139015
0.042334232 0.030018819 0.87800002 -0.04845280945 -0.7622641325 0.645449996
0.034659091 -0.035110451 0.89451456 0.1458298266 0.1391148716 0.9794797897
-0.14542185 -0.15481703 0.88136822 -0.1110802516 0.2253906876 0.9679154158
-0.1618513 -0.1261058 0.87753862 0.509457469 -0.2159651071 0.8329538703
0.0047639739 -0.08501178 0.90628576 0.3382028043 0.08754356951 0.9369925261
0.064010814 -0.0055190548 0.85531813 -0.6019602418 -0.4323790669 0.671336174
-0.01556705 -0.077380419 0.84209102 -0.2720403075 0.4357155859 0.85798949
-0.075217314 -0.11525006 0.8625294 0.003696045605 0.4189447165 0.9080042243
-0.085068017 -0.11497651 0.86205417 0.07536474615 0.495754838 0.8651862741
-0.056826405 -0.076676078 0.81440002 -0.5947799087 0.4486653805 0.6670354009
0.043691605 -0.008593671 0.81700009 -0.1607385278 -0.8387740254 0.5202127099
0.00770362 -0.0091571333 0.82900012 0.3592509627 -0.7261151075 0.58625561
0.061056454 -0.0081746662 0.84785718 -0.515825808 -0.7064546943 0.4846086502
-0.18367986 -0.14458194 0.88764 0.5409001708 -0.2107049823 0.8142668009
-0.055330027 -0.08589343 0.81440008 -0.2134231478 0.4786459804 0.8516739607
-0.12505268 -0.14596732 0.88236362 -0.1136047319 0.4021257758 0.9085091352
0.025193544 -0.015299562 0.80620933 0.1108755618 -0.6740528941 0.7303144932
-0.051261917 -0.037347753 0.83533335 0.5724545121 -0.3706178665 0.7313947082
-0.084901422 -0.16508883 0.89672238 -0.2128424197 0.6000759006 0.7711076736
0.082306683 -0.015543764 0.87358832 -0.6977030635 -0.3018858135 0.6496732831
-0.1243501 -0.087124765 0.87459105 0.5264207721 -0.7043076158 0.4762687683
-0.054482091 -0.073582374 0.82346654 0.7758132815 -0.6034815907 0.1841837764
0.026950486 -0.0092199035 0.80900002 0.1220076233 -0.7752139568 0.6198043823
-0.0070142099 -0.03039491 0.88900006 -0.04071793705 0.3448877037 0.9377603531
-0.063161924 -0.065380208 0.83603466 0.633089304 -0.1890759617 0.7506319284
0.0052135363 -0.026449256 0.89175016 -0.02266454138 0.3437979519 0.9387701154
-0.13807812 -0.092232727 0.88414288 0.4983849227 -0.7244895697 0.476158917
0.048616048 -0.073188014 0.83842862 0.406624645 0.5276927352 0.7457860112
-0.0079111382 -0.11200069 0.83744454 -0.1444900036 -0.188613683 0.9713637233
-0.01119065 -0.088779159 0.85100001 -0.2257988006 0.6389417648 0.7353695035
0.034250174 0.027442934 0.87172741 0.04070572183 -0.7912890315 0.610085845
0.0036337832 -0.021075943 0.82900006 0.4159567952 -0.6003805995 0.6830249429
-0.05150234 -0.10474785 0.83284628 0.5437572598 0.825271368 0.1524966955
-0.083399057 -0.14191251 0.87646163 0.01313203666 0.6023582816 0.7981178164
0.0144988 -0.10387469 0.84566653 0.2451525182 -0.6204624176 0.7449339628
-0.12748528 -0.092607804 0.87172741 0.5173290372 -0.5714370012 0.6370482445
0.038611908 -0.069055907 0.84700006 0.4645839632 0.2613508403 0.8460835814
-0.015289984 -0.094421759 0.85380954 -0.4464791715 0.5969305634 0.6665809751
-0.031222483 -0.13083987 0.84800005 0.1597357541 0.6959714293 0.7000773549
-0.061048437 -0.048544541 0.83900005 0.6808877587 -0.3121576011 0.6625326276
0.043081321 -0.045362242 0.8956129 0.09179602563 0.1332699805 0.9868194461
-0.042168543 -0.05626503 0.81852955 0.01877374761 -0.1611875892 0.9867452383
-0.014740737 -0.058086231 0.90182352 -0.06025994942 0.3506745398 0.9345566034
-0.067043468 -0.15130419 0.88811117 -0.2297557145 0.7066354156 0.6692373753
-0.066105187 -0.085806698 0.82355982 0.8319377899 0.1582222879 0.5318319201
-0.1462028 -0.093461297 0.89341682 0.5749078393 -0.6910964847 0.4380258024
-0.14348403 -0.18457375 0.8944 -0.1728340238 0.5404949784 0.8234036565
-0.09250395 -0.075359985 0.80155998 -0.006970576476 0.8430560827 0.5377804637
0.022855578 -0.00073727668 0.84100002 0.0935645923 -0.8545145392 0.5109310746
-0.074799351 -0.10464056 0.85584629 -0.007495549973 0.3948755264 0.9187040329
-0.014884098 -0.1118754 0.83664703 -0.1372752786 -0.08748076856 0.9866623878
-0.095683955 -0.13860951 0.88066673 0.05357888713 0.5641152859 0.8239558935
-0.075932443 -0.06810075 0.80084217 -0.4187290072 0.3552024364 0.8357614875
-0.094343118 -0.15819138 0.89209086 -0.1119217798 0.5422554016 0.8327260017
-0.035078064 -0.025701169 0.8341853 0.2432810813 -0.5124200583 0.8235532641
-0.17591852 -0.12494317 0.89450002 0.6990100145 -0.5019232631 0.5093702078
-0.13335758 -0.077657059 0.90392858 0.4754066169 -0.7988322377 0.3685860336
-0.11649191 -0.076220028 0.89483333 0.4719081521 -0.8076603413 0.353535682
-0.031088352 -0.047546893 0.89400005 -0.07504875213 0.3172716498 0.9453604817
0.018668346 -0.015360752 0.81669235 0.3851774633 -0.6361982226 0.6684983969
-0.085899428 -0.10466446 0.85599995 -0.01389669441 0.4244167507 0.9053603411
-0.11132264 -0.10079212 0.85800004 0.331936419 -0.006995872129 0.9432758093
-0.14364161 -0.08445631 0.904625 0.5216990113 -0.7626014352 0.3824515343
-0.13489416 -0.14567688 0.88165778 -0.131315574 0.3536178768 0.9261266589
