# .PCD v0.7 - Point Cloud Data file format
VERSION 0.7
FIELDS x y z normal_x normal_y normal_z
SIZE 4 4 4 4 4 4
TYPE F F F F F F
COUNT 1 1 1 1 1 1
WIDTH 512
HEIGHT 1
VIEWPOINT 0 0 0 1 0 0 0
POINTS 512
DATA ascii
-0.064983897 -0.055679061 0.90554285 0.2351728827 -0.6039950848 0.761500895
-0.23599946 -0.082281671 0.92775011 0.2731247842 0.2840389013 0.9190890789
0.071260728 -0.083165862 0.97000009 -0.9209843278 0.2895986438 0.260615617
-0.12903306 -0.12650299 0.96200007 0.09289932251 0.7396584749 0.6665396094
-0.012832646 -0.14083563 0.94500005 -0.1259958893 -0.813798964 0.5673238039
-0.15483935 -0.025324523 0.94387102 -0.08683100343 -0.8326013684 0.5470240712
-0.0053979065 -0.03348536 0.96423078 0.189389199 -0.8275575042 0.5284698009
0.029128127 -0.079511911 0.89800006 -0.1695635915 -0.5121625662 0.8419843912
-0.074944958 -0.12203488 0.91745466 0.2736987472 0.5773093104 0.7692872882
0.0052007763 -0.095341697 0.98866677 0.03677944466 0.00721029425 0.9992973804
-0.12495071 -0.075248882 0.91538256 0.1011967883 0.3528237939 0.9302013516
-0.1804706 -0.098887995 0.94000006 -0.08204739541 0.5034168959 0.8601393104
-0.21394284 -0.034491826 0.94328582 0.2507441342 -0.7136201262 0.6541205645
0.03121547 -0.13046466 0.91300005 0.7822318077 -0.2405733168 0.5746632814
0.046983309 -0.033477265 0.96273333 -0.3745791316 -0.683950603 0.6260207891
-0.094727546 -0.074149124 0.86675 0.7457687259 0.5929386616 0.3037313819
-0.014475192 -0.04651165 0.91345841 -0.2782151997 -0.6429094076 0.7136272192
-0.10612781 -0.03696724 0.95625001 -0.1226552054 -0.9336161613 0.3366253376
-0.17493236 -0.054391582 0.91632366 0.02830621973 0.02706352808 0.9992328882
-0.051646769 -0.12199751 0.95533341 -0.4698441029 0.5319777727 0.7044474483
-0.032765236 -0.077448122 0.97506672 -0.1585430354 0.3896461427 0.9072155356
-0.037524588 -0.098727189 0.92199999 -0.107944645 0.6641944051 0.7397254705
0.064545356 -0.10497376 0.90412498 -0.06802920997 0.1574038863 0.9851883054
0.05092261 -0.067552105 0.9368751 -0.7669543028 -0.4916166365 0.4124247134
0.031366255 -0.11698766 0.96700007 0.3210035861 -0.8764125705 0.3589675426
-0.067651488 -0.091368392 0.88700002 -0.7125306129 0.5057582855 0.4863215387
-0.092944205 -0.088867702 0.93000007 0.0797149837 0.5167898536 0.8523929715
-0.042061299 -0.039237261 0.96600008 -0.2925562263 0.5824117661 0.7584242821
0.018751901 -0.0513639 0.93000007 -0.2666789889 -0.81054461 0.5214400291
-0.14317381 -0.10333156 0.93764699 0.1428967714 0.5815942287 0.800829947
-0.095360905 -0.043948587 0.92184633 0.1038303077 -0.5967321396 0.7956946492
-0.032496333 -0.11507922 0.98518765 -0.2283475399 -0.6052163839 0.7626076937
-0.09142296 -0.13816814 0.94375002 0.5801483393 0.6638931632 0.4718832374
-0.21462861 -0.10558178 0.94090003 0.0005439431989 0.6088668108 0.7932723165
-0.13615778 -0.042657983 0.92223537 -0.01128001325 -0.6734503508 0.7391464114
-0.037838433 -0.072424695 0.89657152 -0.1950281709 0.1911035031 0.9619997144
-0.044615369 -0.13340485 0.92350006 -0.5959605575 -0.4684896469 0.6521874666
-0.20519391 -0.07432583 0.92150009 -0.0892694816 0.3087554574 0.9469429851
-0.16454656 -0.1227856 0.95494461 -0.002997794189 0.6042581201 0.79678303
0.013935586 -0.1234804 0.94310713 0.5140206218 -0.7384465337 0.4364395738
-0.18443684 -0.026691547 0.94389486 0.08011874557 -0.8183888793 0.5690523386
-0.15530956 -0.074420422 0.92269462 0.1606392115 0.4559992552 0.8753626347
-0.0050740005 -0.11918064 0.9641667 0.1475998908 -0.9218534231 0.3583301902
0.067020677 -0.055977706 0.96218181 -0.7741535902 -0.2736966908 0.5707681775
-0.0058301841 -0.068761885 0.97800004 -0.07461079955 0.4692537785 0.8799057603
-0.085954212 -0.074764393 0.90371442 0.4471384585 -0.3176578879 0.8361582756
-0.062133309 -0.087988622 0.91450006 -0.4122199118 0.6650511026 0.6227212548
-0.22480731 -0.055274688 0.92509675 0.337559402 -0.3507194221 0.87352705
0.030100349 -0.088581033 0.98100007 0.2420092374 -0.08680517972 0.9663831592
-0.064221635 -0.14533216 0.95137507 0.2536010146 -0.9657622576 0.05467944965
-0.11431067 -0.10438336 0.93428129 0.1371565759 0.6004214883 0.7878338099
-0.068764858 -0.068766028 0.86833334 -0.5548208952 0.6397376657 0.5318923593
0.050397374 -0.076793805 0.91250002 -0.6178947687 -0.5799906254 0.5308643579
-0.12881739 -0.029087801 0.94800007 -0.1952438056 -0.8982058167 0.3938351572
-0.071198039 -0.10311573 0.93350005 -0.06068049371 -0.2008800209 0.9777346849
-0.059196915 -0.04135675 0.92500007 0.1769516617 -0.6077546477 0.7741591334
0.038124479 -0.10087102 0.90600002 -0.09630681574 0.3564186692 0.9293496013
-0.10458219 -0.13275786 0.96326315 0.3518014848 0.7249624729 0.5921698809
-0.042188708 -0.048556812 0.90800005 0.05189377442 -0.6473723054 0.7604052424
-0.19398405 -0.037786316 0.92542118 0.1585640162 -0.6722093225 0.723181963
-0.19320746 -0.1147732 0.95181829 -0.07620880008 0.5492267609 0.8321912289
-0.18359795 -0.077300675 0.93033344 -0.07783454657 0.4553703964 0.8868932128
0.025178105 -0.035732232 0.95488453 -0.05538032204 -0.8108998537 0.5825585127
0.0052309637 -0.062801033 0.9151203 -0.2481386214 -0.6715124249 0.6982107759
-0.11551101 -0.054506816 0.91621625 0.0317928046 -0.3828617632 0.9232584238
-0.089345485 -0.11721472 0.93500006 0.6684744358 0.3280651271 0.6674692631
-0.081537887 -0.098953746 0.90300006 0.8115969896 0.3159294724 0.4914254248
0.0053395261 -0.04343345 0.9475714 0.1224917322 -0.9010458589 0.4160674512
-0.073663138 -0.14161567 0.93159997 0.1549895555 0.7615256906 0.6293304563
-0.16441244 -0.038056616 0.92600018 -0.02887862734 -0.7184871435 0.6949405074
-0.024599904 -0.12254142 0.95563644 -0.1210599169 -0.9441303611 0.3065328598
-0.025084179 -0.095152348 0.98666656 -0.107061848 0.0419138819 0.9933685064
0.036848638 -0.050870925 0.94099998 -0.3902853727 -0.7314699292 0.5591324568
0.038364027 -0.060975455 0.92124999 -0.4025798142 -0.7701484561 0.4947735369
-0.055555701 -0.11678136 0.91333342 -0.4771833122 0.006034277845 0.8787830472
0.060668841 -0.081445843 0.94800007 -0.8247871399 -0.1389361471 0.5481084585
0.030822065 -0.11437103 0.92525005 0.8138649464 -0.2186168432 0.538359046
-0.15479301 -0.054731786 0.91707677 0.054361552 -0.07436698675 0.9957481623
0.014865888 -0.111187 0.98100001 0.1360195875 -0.6686919332 0.7309923172
-0.022957271 -0.06095551 0.90300006 -0.3137688637 -0.03135601059 0.9489815235
-0.21424499 -0.090866931 0.92710006 0.08709940314 0.4823066592 0.8716616035
-0.1167083 -0.037990641 0.93533343 -0.1190609932 -0.9093356729 0.3986642063
-0.084742114 -0.058656015 0.86000001 -0.9682340026 -0.04137877747 0.2465983927
-0.20485948 -0.054844253 0.91999996 0.1982097924 -0.2545952797 0.9465168118
-0.0050168023 -0.11284123 0.98258829 0.02058758214 -0.7523314953 0.6584630013
-0.14577068 -0.11817412 0.95407152 0.03822409362 0.6972834468 0.715775609
0.022037648 -0.072335742 0.91425002 -0.1644416898 -0.7219702005 0.6720996499
-0.095607445 -0.061333016 0.91407692 0.1776702255 -0.2909457982 0.9400978088
0.014878173 -0.077142902 0.98100013 0.06468767673 0.2574701011 0.9641185999
-0.027136341 -0.1291032 0.93800002 -0.4088020325 -0.7330764532 0.5435805917
-0.10632231 -0.084233806 0.91740012 0.1157458872 0.527279377 0.841771543
-0.048572809 -0.11102874 0.93125004 0.6375023723 0.7221619487 0.2684637606
-0.10222284 -0.1205066 0.94800007 0.3484337032 0.6977248788 0.625918448
-0.13599205 -0.08821547 0.93000019 0.153711468 0.5379654765 0.8288340569
-0.038233314 -0.083429478 0.9112857 -0.2443286479 0.6057565808 0.757207036
-0.055449747 -0.081470385 0.89644444 -0.4318858087 0.2785545886 0.8578356504
-0.12526786 -0.11397517 0.94518191 0.09414866567 0.7218863964 0.6855771542
-0.024952717 -0.043763272 0.96336365 0.09715058655 0.46540007 0.8797525167
0.060562763 -0.038384851 0.97300005 -0.5164062977 -0.522947669 0.6781226397
-0.16515416 -0.086070716 0.93107438 0.1262433976 0.5072752237 0.8524872065
-0.019618923 -0.12027253 0.97300005 0.0313863419 -0.8921633363 0.4506212175
-0.075969048 -0.039198902 0.92328566 0.1165216714 -0.577060163 0.8083466291
-0.036680054 -0.1169776 0.94509101 -0.4789995849 -0.8674653769 0.1343996525
-0.16508913 -0.10504652 0.94346708 0.06310473382 0.5303304791 0.845439136
-0.19653973 -0.10309759 0.9370625 -0.08784187585 0.5668903589 0.8190965652
-0.14448878 -0.033885252 0.93419045 -0.09515077621 -0.7885856628 0.6075186729
0.052386675 -0.11434656 0.91000003 0.1783961356 0.2699185908 0.9462128282
-0.07323309 -0.076076113 0.88550001 -0.8850619793 0.4654675126 -0.002290477511
-0.068871811 -0.071246698 0.90300006 0.2541787922 -0.4848035872 0.8368743062
-0.081959389 -0.10093291 0.88699996 0.7937846184 0.2689944506 0.5454795957
-0.094197743 -0.10464855 0.92629981 0.5653059483 0.2404868305 0.7890470624
-0.23507817 -0.066582836 0.93000007 0.295217514 -0.04168385267 0.9545203447
0.032550588 -0.10411577 0.98235005 0.1950581074 -0.4946742356 0.8469060063
-0.078763947 -0.062146198 0.91120005 0.3128511608 -0.4529238641 0.8348557353
-0.19571996 -0.087333031 0.93000025 -0.1834784299 0.4536892176 0.8720675111
-0.0048646228 -0.12753309 0.94728571 0.1439672112 -0.7903689146 0.5954749584
0.058601134 -0.064442359 0.95220011 -0.7749062777 -0.2500034273 0.580532968
-0.068590403 -0.10744208 0.90450001 -0.6940851212 0.4093205929 0.5922013521
0.053778078 -0.046220981 0.95709091 -0.5590084195 -0.5047564507 0.6578225493
0.020984478 -0.13245849 0.93266672 0.678143084 -0.5297788382 0.5093685389
0.0059149372 -0.046979897 0.92276931 -0.2402085066 -0.8319950104 0.5000841618
0.016106997 -0.1178354 0.96700007 0.1633936018 -0.940184474 0.2989242971
-0.22394423 -0.074593335 0.92261297 0.2338326573 0.134554714 0.9629212618
-0.19860007 -0.030490467 0.94000006 0.197039023 -0.7511370778 0.6300545335
-0.054285631 -0.066350929 0.89658082 -0.06943462789 -0.3523399532 0.9332927465
-0.18498647 -0.064652845 0.92210823 -0.01942635886 0.317174077 0.9481683373
0.02372821 -0.057467256 0.91640002 -0.2687677741 -0.7563308477 0.5964289904
-0.064520188 -0.1330121 0.92343485 -0.01410055812 0.6574236751 0.7533892393
0.015532712 -0.028529899 0.96376926 0.06874487549 -0.8401587009 0.5379660726
-0.0051834672 -0.085500136 0.98509979 -0.07007189095 0.2732437551 0.9593892694
0.053522371 -0.09590394 0.90760034 -0.1586355865 0.1288744807 0.9788902402
0.042635456 -0.084985323 0.89728004 -0.4170386195 -0.2518590093 0.8732959628
-0.042385079 -0.13047956 0.94800007 0.3325411081 -0.7233972549 0.6050726175
-0.11572099 -0.091655083 0.92740023 0.09547059238 0.5463080406 0.8321255445
-0.13461635 -0.054486107 0.91400021 0.04156115279 -0.1503049582 0.9877657294
0.0016586534 -0.14015621 0.94600004 0.2587199509 -0.7998384237 0.5415925384
-0.11601127 -0.12458678 0.95662934 0.1203876883 0.7476249337 0.6531185508
-0.083373003 -0.10852758 0.91314298 0.8038867116 0.2459110171 0.5415661931
-0.11764692 -0.029033799 0.95720005 -0.1701985896 -0.9196464419 0.3539532423
-0.16486201 -0.064285561 0.91900003 0.09889345616 0.2589043677 0.9608270526
0.033866413 -0.068528645 0.90777779 -0.2222882956 -0.6937971115 0.6850062013
-0.19073285 -0.049091581 0.91800004 0.1157279462 -0.2997488678 0.9469729066
-0.055662688 -0.097884491 0.92181259 -0.205339402 0.6671416163 0.7160710692
-0.15454285 -0.094077982 0.93492579 0.1412547678 0.5324522257 0.8345907331
-0.14437582 -0.064167686 0.91491699 0.1277853251 0.1224867031 0.9842092991
-0.17254838 -0.028757954 0.93725002 -0.004381126724 -0.795514822 0.6059182882
0.040596679 -0.12099402 0.90800005 0.206005007 0.3490197957 0.9141920805
-0.10295457 -0.11144217 0.9370001 0.209816426 0.6495885849 0.7307610512
-0.21453786 -0.064522661 0.91999996 0.2142201364 -0.04939421266 0.9755357504
-0.015576322 -0.10558435 0.98722202 -0.03542787582 -0.3757297993 0.9260517955
-0.06592533 -0.1137212 0.94000006 -0.6538413763 0.1960136741 0.7308009863
-0.21460289 -0.046725765 0.9252609 0.2759919167 -0.567941606 0.775416553
-0.093748979 -0.081730753 0.91400003 0.3932906389 0.4417876899 0.8063163757
-0.034846064 -0.058315869 0.89781821 -0.1137273535 -0.2441984117 0.9630333185
-0.17492522 -0.11306649 0.94716662 -0.01856893301 0.5593308806 0.8287364841
-0.086574234 -0.13639346 0.93162513 0.5987252593 0.6135515571 0.5148617029
0.036683239 -0.04085179 0.95100003 -0.2991840541 -0.7092109323 0.6383641362
-0.0050305924 -0.043334946 0.95559084 0.2329637855 -0.8373348117 0.494568795
0.035162348 -0.028394731 0.96485716 -0.2127003968 -0.8033474088 0.5562297702
-0.011966499 -0.061428029 0.91000003 -0.3207921684 -0.3402727544 0.8839156032
-0.061016001 -0.11308298 0.92800003 -0.09029905498 -0.4426239431 0.8921491504
-0.22497018 -0.040379267 0.94000006 0.3490197361 -0.5889986753 0.7288798094
-0.021311767 -0.14016585 0.93500006 -0.2606696486 -0.8191512227 0.5109232664
0.025290012 -0.043438233 0.9446153 -0.1680971384 -0.8225442171 0.5432903171
-0.017736923 -0.073520027 0.9777692 -0.1014567465 0.3825138807 0.9183624983
-0.084634736 -0.047694813 0.91593343 0.1194617748 -0.5505995154 0.8261773586
-0.025442716 -0.046912283 0.90700001 -0.1776769757 -0.6036324501 0.7772121429
-0.15463087 -0.11190815 0.9475714 0.06394118816 0.6380996108 0.7672942281
-0.064263366 -0.046896897 0.91482627 0.1939761341 -0.5844910741 0.7878727317
-0.15096025 -0.12650299 0.96200007 0.01454282831 0.6763074994 0.7364758253
-0.075087719 -0.084329791 0.89482164 0.5233255029 -0.3218736947 0.7890042663
-0.050428495 -0.11491083 0.94300002 -0.5658859611 -0.8131786585 -0.13606444
0.0073780268 -0.044550449 0.93533343 -0.07042104751 -0.9204909801 0.3843660653
-0.035655785 -0.10522805 0.99200004 -0.07355380803 -0.1204005703 0.9899967313
-0.12388793 -0.04334297 0.92245007 -0.04689902812 -0.7070778012 0.705578804
0.0034844575 -0.12198379 0.95416683 0.3169409037 -0.8227315545 0.4718699157
-0.17433685 -0.042596847 0.92066669 0.01111021731 -0.5120192766 0.8589020967
0.0056959949 -0.1162197 0.97483343 0.08839280158 -0.8825628757 0.4618110359
-0.1358642 -0.077500515 0.92000002 0.1524565369 0.450158 0.8798379302
-0.10559056 -0.039799351 0.92650008 0.04499967396 -0.7825632691 0.6209426522
-0.15499355 -0.043369897 0.92081827 0.008043699898 -0.5420777202 0.8402898908
-0.22435097 -0.093819626 0.93258327 0.1488976479 0.4468475282 0.8821319342
-0.20450149 -0.095027164 0.93234307 -0.06605357677 0.5453395844 0.835608542
-0.1245205 -0.085213386 0.92317855 0.1512308121 0.5107235909 0.8463395238
0.02522287 -0.11774491 0.93488908 0.687235415 -0.6061695218 0.4003323019
-0.037208539 -0.11161755 0.93480003 0.7542411685 0.611677289 0.2386864275
-0.053809799 -0.1361551 0.93000007 -0.2634010911 0.8074322939 0.5278948545
0.0090454463 -0.13650402 0.93800002 0.4300237894 -0.7440481782 0.5113431811
-0.10517345 -0.095142558 0.92459363 0.06326314062 0.4641534686 0.8834927082
-0.18370681 -0.12107863 0.95250005 -0.07512563467 0.5610777736 0.8243469
-0.047330294 -0.12619807 0.91507697 -0.4729465544 0.006887292955 0.8810641766
-0.1847098 -0.033142351 0.93449998 0.09299142659 -0.7554348111 0.6485913992
-0.16497992 -0.048506286 0.91800016 -0.003803014057 -0.3678394556 0.9298815131
-0.033174209 -0.086415127 0.9819231 -0.1043739915 0.1759660691 0.9788472652
-0.15548979 -0.0320931 0.93400002 -0.05855699256 -0.7767315507 0.6271037459
-0.12536344 -0.096386723 0.93035311 0.1550569236 0.5656901598 0.8099086285
0.005207181 -0.036274187 0.95603573 0.1583865583 -0.8429644704 0.5141251087
-0.1741997 -0.07331869 0.92608702 0.04189786687 0.4453857541 0.8943579197
-0.040078569 -0.13005087 0.93300003 -0.5696792006 -0.6759695411 0.4674727619
0.071661234 -0.06554357 0.96515381 -0.8195495605 -0.2202390581 0.5289927125
-0.087889783 -0.11340384 0.92400008 0.7609845996 0.2209387422 0.6099905968
0.063526481 -0.085912451 0.95766664 -0.7959281206 0.24041152 0.5556084514
-0.015646489 -0.12767398 0.94535303 -0.2217891663 -0.7647041082 0.6050100327
-0.063122638 -0.12391549 0.91752642 -0.09862376004 0.4575309455 0.8837074041
0.052298866 -0.057277106 0.94690001 -0.6677036285 -0.4230509996 0.6125354767
-0.045123488 -0.093611345 0.91611123 0.02736077085 0.6707583666 0.741171062
-0.11443668 -0.11429274 0.94468188 0.1227899268 0.7486591935 0.6514844894
0.062214751 -0.074789315 0.9564001 -0.8217968941 -0.1637378037 0.5457470417
0.024791123 -0.12483915 0.92607713 0.7549690604 -0.3957156241 0.5229061842
-0.146754 -0.088460051 0.93000007 0.1692833602 0.5384213924 0.8254971504
0.0055233021 -0.1060903 0.98840642 0.06843476743 -0.4716194868 0.879142642
-0.1086418 -0.038978353 0.94600004 -0.06975388527 -0.9112368226 0.4059333801
-0.082573228 -0.1266375 0.9234286 0.5408141017 0.4672184885 0.6994476318
-0.10425559 -0.048359964 0.91800016 0.08688702434 -0.4234317541 0.9017517567
0.02510659 -0.095241502 0.98763335 0.2222348005 -0.2696215808 0.9369716644
-0.064265296 -0.075065851 0.8942706 0.1157178283 -0.556992352 0.8224164844
-0.11543913 -0.064932138 0.91442883 0.02975551598 -0.003135015955 0.9995523095
0.042561844 -0.057614852 0.93527281 -0.5910869837 -0.6603605151 0.4631848335
-0.015753383 -0.035270609 0.96427274 0.1755387932 0.5232749581 0.8338881135
-0.23113754 -0.048510347 0.93000007 0.3943807185 -0.380227685 0.8365947604
-0.13514693 -0.10960086 0.94000006 0.1031882241 0.6566247344 0.7471252084
-0.015587352 -0.085598148 0.98410708 -0.09454168379 0.3313526213 0.9387583733
-0.070269212 -0.14384785 0.94300008 0.08346744627 -0.9955865145 -0.04290324077
0.041994378 -0.068740316 0.91533345 -0.4968183935 -0.7295815945 0.4699811041
-0.0052003385 -0.095336661 0.9886111 -0.05792537704 0.03583939373 0.9976773858
-0.19809084 -0.062427934 0.9180001 0.07374332845 0.08588062227 0.9935725927
-0.19487846 -0.074398033 0.92240471 -0.1462621987 0.3527001441 0.9242348075
0.02539826 -0.11386179 0.97484016 0.2034710795 -0.8156503439 0.5415847301
-0.0049062292 -0.054581996 0.91310841 -0.3373822868 -0.5983839631 0.7267116308
0.043697368 -0.075994097 0.9047274 -0.4209928513 -0.5394691825 0.729203701
0.016621601 -0.03906076 0.94800007 0.01585319638 -0.8352934122 0.5495758057
-0.16502318 -0.024232008 0.94338471 -0.01989199035 -0.8194545507 0.5727988482
-0.20502365 -0.036315076 0.93454164 0.2269917578 -0.7154111266 0.6608037949
-0.095655508 -0.12514995 0.95433348 0.5049216151 0.6359975338 0.583576262
-0.17509142 -0.08509393 0.93327779 0.005676509347 0.4981054962 0.8670978546
-0.086148925 -0.038462233 0.92300016 0.09723174572 -0.6869398355 0.7201802731
-0.10522795 -0.064662918 0.91356504 0.1914746165 -0.09501414001 0.9768878222
0.052201595 -0.085818574 0.90718192 -0.3554945886 -0.08937101066 0.9303958416
0.036984812 -0.093432099 0.8976 -0.2013860345 0.1478252113 0.9682930112
-0.14325084 -0.048555061 0.91800004 0.0158319138 -0.4075306952 0.9130542874
0.0053348495 -0.085673332 0.98572397 0.02593367547 0.2376159579 0.9710129499
-0.13447469 -0.064836115 0.91304749 0.08814107627 0.07480326295 0.9932953119
0.0038582103 -0.071591228 0.97800004 -0.01069708262 0.3422347605 0.9395535588
-0.015595499 -0.12160552 0.96390915 0.0001109578516 -0.9204005003 0.3909769356
0.036936793 -0.10707976 0.91377777 0.5419586897 0.092681624 0.8352789283
0.043604191 -0.047132123 0.94737506 -0.4428192973 -0.6150481105 0.6524008512
-0.031688869 -0.12076697 0.97700006 -0.1251329482 -0.8531665802 0.5064074993
-0.054461166 -0.045053024 0.91551429 0.1901011169 -0.6498581767 0.7358980179
-0.086463138 -0.10140002 0.93171436 0.131343931 0.03926323727 0.9905590415
0.062950805 -0.04703477 0.96383339 -0.6749213934 -0.3977662325 0.6215006709
-0.14570558 -0.038121801 0.92526317 -0.02757589146 -0.7417521477 0.6701069474
-0.055129461 -0.054744799 0.90450007 0.2248530239 -0.6065221429 0.7626086473
-0.13525279 -0.031338859 0.94075006 -0.1972161382 -0.8606042862 0.4695381224
-0.14557968 -0.076039739 0.92143488 0.1746234745 0.4367739558 0.8824597001
0.066941999 -0.074706495 0.96511763 -0.8328318 -0.1855390966 0.5215039849
-0.20593579 -0.08334551 0.92548257 -0.08570963889 0.3937175572 0.9152269363
-0.045400269 -0.10455948 0.9231292 0.1695728004 0.4294995666 0.8870034814
-0.20505917 -0.045359198 0.92265725 0.2297376245 -0.5431269407 0.8076099157
0.025388898 -0.027923346 0.96527791 -0.07498704642 -0.8145546317 0.5752196908
-0.13612072 -0.11885914 0.95255566 0.05570673943 0.7339617014 0.676902473
-0.14508787 -0.025873275 0.94386232 -0.1486588866 -0.8594460487 0.4891349673
-0.2243818 -0.083858579 0.92566675 0.1679669172 0.3676275611 0.9146786928
-0.06345664 -0.10087979 0.92800003 0.1427842975 0.7286840081 0.6698001623
-0.10689486 -0.075211465 0.91374093 0.1901628673 0.3722166121 0.9084563255
-0.16493171 -0.074300766 0.92355889 0.150376156 0.4606880844 0.8747305274
-0.14434426 -0.11334611 0.94584614 0.09621944278 0.6661917567 0.7395474315
-0.22476733 -0.064597942 0.92271423 0.2711165547 -0.02952862158 0.9620934725
-0.12500703 -0.054491181 0.9140836 0.03568983451 -0.2465958893 0.9684609771
-0.025125267 -0.10569604 0.98826677 -0.1246045306 -0.3069339395 0.9435386658
0.015605297 -0.095367454 0.98894447 0.1268644333 -0.03332160041 0.9913602471
-0.17545627 -0.065145545 0.92116678 0.04676390439 0.3342864513 0.9413106441
-0.042677447 -0.079031944 0.90150005 -0.2937532961 0.488324523 0.8217348456
0.014240733 -0.056450807 0.91636354 -0.2480981797 -0.7274066806 0.6397865415
-0.12499603 -0.064903125 0.91400009 0.05506258458 0.04624886811 0.9974112511
-0.015572912 -0.095187433 0.98705554 -0.07645210624 0.08280214667 0.9936291575
-0.014729461 -0.042505544 0.95820004 0.1755387932 0.5232749581 0.8338881135
-0.23521405 -0.057071 0.93000007 0.4263723791 -0.2503911555 0.8692013025
-0.22414613 -0.099712066 0.94000006 0.1178360656 0.5116339326 0.8510848284
-0.075196683 -0.047297638 0.91610527 0.1503485739 -0.5499033332 0.8215848207
-0.005124019 -0.11698929 0.97411114 0.1119200736 -0.8667384982 0.4860434532
-0.044193208 -0.058354586 0.89750004 0.06824520975 -0.3845667243 0.9205710292
-0.17446604 -0.12159357 0.95130014 -0.0456392616 0.5750790834 0.8168237805
0.02897208 -0.11991222 0.91800004 0.7902130485 -0.2171322256 0.5730766654
0.015242207 -0.085308306 0.98545146 0.1018136144 0.2096264362 0.9724663496
-0.014511979 -0.12430768 0.95394135 -0.1077487469 -0.8609435558 0.497158289
-0.0051992671 -0.10572146 0.98849994 -0.02503319085 -0.473290503 0.8805506229
0.054874033 -0.10498086 0.90719062 -0.09574242681 0.1843450069 0.978187263
0.045265969 -0.095777564 0.90344453 -0.2187839299 0.141166091 0.9655079842
-0.16475596 -0.093604878 0.93621737 0.1049292907 0.5140378475 0.8513253927
0.0039504063 -0.11906287 0.96550012 0.1306534111 -0.9294297695 0.3450941741
-0.024471194 -0.078730002 0.98100001 -0.07870715111 0.305397898 0.9489664435
-0.034158517 -0.09556286 0.98646861 -0.1156746447 0.004272667691 0.993277967
-0.21498141 -0.074595593 0.92118424 0.1315575093 0.235082671 0.9630310535
-0.09280511 -0.065516658 0.86475021 0.9283165336 0.3623290658 0.08334302902
0.0055395737 -0.12628438 0.9450314 0.3562465608 -0.7755493522 0.521163702
-0.20390062 -0.02766519 0.94674999 0.2023879737 -0.7710832357 0.6037133336
0.0066495165 -0.029133761 0.96528584 0.1566025168 -0.8503552675 0.5023659468
-0.11497546 -0.044654675 0.92296791 -0.03430693597 -0.7332322598 0.6791122556
-0.12522505 -0.036468402 0.93280011 -0.1425283104 -0.8698225617 0.4723286629
-0.2149035 -0.054934867 0.92155564 0.2694726884 -0.3310475349 0.9043185115
-0.18389015 -0.11243369 0.94778955 -0.08022577316 0.5335514545 0.8419540524
-0.03278821 -0.044558335 0.95900005 0.100689888 0.4282149673 0.8980498314
-0.08094193 -0.076229677 0.89640009 0.6099450588 -0.2757791877 0.7429083586
-0.15451248 -0.082499847 0.92647624 0.1638911963 0.519087255 0.8388611674
-0.11552105 -0.075343221 0.91562891 0.1429973096 0.346953094 0.9269171357
-0.17453091 -0.092772819 0.93759996 -0.01071317494 0.4900672734 0.8716188073
-0.21571058 -0.041555211 0.9323076 0.2616270781 -0.627301991 0.7335144877
-0.075101517 -0.13429405 0.92693537 0.1865341514 0.6447257996 0.7413054109
0.01486698 -0.034647379 0.95540619 0.05994534865 -0.8424019217 0.5355049372
0.027262537 -0.07464724 0.90504551 -0.145454511 -0.6223217249 0.7691285014
-0.095038444 -0.09545061 0.92467499 0.3211089969 0.4132566154 0.8521196842
0.033830799 -0.11221333 0.97613335 0.2436388582 -0.8064856529 0.538721621
-0.077493832 -0.088563502 0.90200007 0.7619219422 0.01594236679 0.64747262
-0.15533267 -0.10493422 0.94246441 0.1237138212 0.564940989 0.8158042431
-0.12458106 -0.11883187 0.95233345 0.08658718318 0.7595314384 0.6446818113
-0.004993143 -0.12325647 0.95544016 0.1572084874 -0.8551293015 0.4940034151
-0.16544802 -0.032773525 0.93275005 -0.02894148789 -0.7593889236 0.6499929428
0.045878891 -0.10428842 0.90750009 0.05285019428 0.3209120631 0.9456332922
-0.10488411 -0.12387796 0.95544457 0.3092144728 0.7098917961 0.6328033209
0.024747897 -0.054288324 0.92430776 -0.2576621473 -0.7774385214 0.5737591386
-0.096208654 -0.11769301 0.94257152 0.5537551045 0.5639328957 0.6126458645
-0.045244064 -0.07468579 0.89297158 -0.2393839508 0.2372252643 0.941498518
-0.1752338 -0.10519648 0.94387114 -0.04192234948 0.5400983095 0.840557158
-0.18551002 -0.037909649 0.92450017 0.07622949779 -0.6698897481 0.7385369539
-0.085930862 -0.093252771 0.92800021 0.06368260086 0.5208769441 0.8512530327
0.023125077 -0.048021972 0.93641663 -0.2381098419 -0.8641378284 0.4433615804
-0.12491137 -0.1037387 0.93444449 0.1293043196 0.6032300591 0.7870157957
0.056151409 -0.054215327 0.95373088 -0.6536671519 -0.4273795784 0.6245525479
-0.065340459 -0.0636959 0.90215391 0.2178250104 -0.5084828734 0.8330650926
-0.064948395 -0.11626898 0.91465747 -0.4521121085 -0.04004721344 0.8910616636
-0.015011852 -0.11246236 0.98250002 0.07752719522 -0.6547893882 0.751824677
-0.17475703 -0.02456722 0.94413811 0.03048758768 -0.8265475035 0.5620406866
0.015577155 -0.10557245 0.98714715 0.1833832562 -0.5260629654 0.8304386139
-0.1856088 -0.085040964 0.93271428 -0.1221586093 0.4656395912 0.8765027523
0.025059197 -0.1054238 0.98576677 0.2175953686 -0.4315471053 0.8754537702
0.035287313 -0.11522138 0.91380566 0.6153610945 0.1542217731 0.7730112076
0.010855325 -0.11857224 0.95250005 0.2681076527 -0.8822239041 0.3870391548
-0.085446648 -0.082885131 0.90522218 0.6774557829 -0.01701863483 0.7353665829
-0.005011783 -0.076422274 0.98100036 -0.07529143244 0.3440724611 0.9359195232
-0.073400691 -0.064846732 0.90550011 0.3573551178 -0.5084017515 0.7834698558
-0.20454732 -0.10448933 0.93603325 -0.06762240827 0.5883534551 0.8057712913
-0.01664317 -0.055525038 0.90678811 -0.3011954725 -0.3660881817 0.8804889321
-0.16491003 -0.11183961 0.94800001 0.008568774909 0.5795715451 0.814876318
0.004931489 -0.11209538 0.98290914 -0.005858552642 -0.6477769613 0.7618075013
0.054176159 -0.036691085 0.96485728 -0.4607272148 -0.5768094063 0.6745526791
0.01420455 -0.051874116 0.92327285 -0.2832681239 -0.7484508753 0.5996502638
-0.054764491 -0.13298933 0.92257154 -0.1533145308 0.4018034637 0.9028004408
0.048619933 -0.060156867 0.94000006 -0.7145190239 -0.4683541059 0.5197182298
-0.23201948 -0.091335513 0.93300003 0.2264084518 0.3956418335 0.890059948
-0.031762071 -0.11953394 0.95350003 -0.2471553534 -0.9365548491 0.2485542297
-0.075600758 -0.053842563 0.91145158 0.1989753544 -0.5277245045 0.8257818818
-0.058882192 -0.14264418 0.94600004 -0.3903011978 0.9146051407 -0.1056520864
0.05741065 -0.074691243 0.94514292 -0.8247871399 -0.1389361471 0.5481084585
-0.1536659 -0.062639087 0.91771442 0.1110636443 0.1698943526 0.9791837335
-0.054507166 -0.086809993 0.91242862 -0.0671736747 0.7719281912 0.6321507096
-0.19485132 -0.094841585 0.93258357 -0.1780350804 0.492392987 0.8519698977
-0.064672805 -0.082888037 0.89272732 -0.7085091472 0.5073246956 0.4905470908
0.0045019221 -0.054908819 0.91581821 -0.3221960366 -0.6365338564 0.7007241845
0.024446299 -0.064450093 0.9126665 -0.2011628896 -0.7445456386 0.6365416646
0.03138642 -0.058748938 0.91800004 -0.292543292 -0.78107059 0.551676631
-0.2149097 -0.09619759 0.93292326 0.06377217919 0.5353719592 0.8422054052
-0.11825357 -0.10918883 0.94000006 0.147128433 0.6882677078 0.710380733
-0.034558196 -0.046664186 0.90733337 -0.02531452477 -0.6727277637 0.739456892
-0.03492618 -0.12465253 0.94528556 -0.3653827608 -0.8594719172 0.3574961126
-0.23399112 -0.075007595 0.93000019 0.2953115702 0.1607114375 0.9417870641
0.02174221 -0.12461152 0.93342865 0.726721406 -0.4295725226 0.5360442996
-0.11519951 -0.085146055 0.92307156 0.08879753947 0.5323343277 0.841864109
-0.12584446 -0.026905611 0.95490474 -0.2062814534 -0.9061285853 0.3692952096
-0.18500288 -0.10489518 0.94210023 -0.09573263675 0.5224992633 0.8472483754
-0.097251438 -0.13185067 0.958 0.4540173709 0.7172449231 0.5286094546
-0.017885316 -0.1338315 0.93800008 -0.1921108812 -0.7609756589 0.6196849346
-0.072995409 -0.091828957 0.89528579 -0.769579649 0.2922016978 0.5677722692
0.034697313 -0.084779315 0.89662856 -0.3718040884 -0.3074508905 0.8759198785
-0.058236964 -0.0502593 0.91000003 0.2418420166 -0.6110376716 0.7537541986
-0.01290015 -0.067940786 0.98100007 -0.08887859434 0.4360470474 0.8955242038
-0.13492224 -0.035686426 0.93438101 -0.145856142 -0.85573107 0.496437639
-0.19553593 -0.054747485 0.92000002 0.1275085211 -0.1709267795 0.9769982696
-0.1344689 -0.047131579 0.91615808 0.007557927165 -0.4333508909 0.9011935592
-0.025404183 -0.11268498 0.98353851 -0.003188266652 -0.5962702632 0.8027774692
-0.083833463 -0.11558655 0.91607702 0.6964097023 0.4055653214 0.5920559764
-0.15522094 -0.11740636 0.95286387 0.01083422918 0.6442972422 0.7646984458
0.022791317 -0.11711171 0.94210017 0.4383748472 -0.8552051187 0.276499033
-0.1350314 -0.094933107 0.93350005 0.1418655068 0.5521648526 0.8215765953
0.014625197 -0.063930415 0.91491222 -0.2098713666 -0.7021077275 0.6804401278
-0.15080419 -0.030490467 0.94000006 -0.1064125448 -0.8150233626 0.569572866
-0.070868276 -0.083330959 0.88833332 -0.7262526155 0.6613178849 0.1876586974
-0.18448885 -0.053085785 0.91629177 0.05969432369 -0.02087992616 0.9979982972
-0.15048334 -0.10114454 0.93800002 0.148582682 0.5647747517 0.8117589951
0.034599505 -0.074013695 0.90257597 -0.2666547596 -0.5940859914 0.758918345
-0.11206114 -0.13166761 0.96400005 0.2230586559 0.7304823399 0.6454768777
-0.056657039 -0.10775898 0.93120015 -0.2056803107 0.5017873645 0.8401815295
-0.034775868 -0.053218327 0.90351611 -0.05534474179 -0.4639541805 0.8841286302
0.045458287 -0.053665254 0.94399995 -0.5786995888 -0.568154037 0.5850707889
0.046140548 -0.043292604 0.95340014 -0.4431958497 -0.6142091751 0.6529353261
-0.0052161119 -0.047576204 0.91593754 -0.3220619559 -0.617410481 0.7176910043
-0.12641373 -0.047113974 0.91641188 -0.001660924521 -0.4544707835 0.8907600641
-0.075489953 -0.11567855 0.91342455 0.1462486833 0.5880064964 0.795524776
0.035285223 -0.035582863 0.95621216 -0.2731741667 -0.7376418114 0.6174628735
-0.20235658 -0.039820831 0.92700005 0.2087506354 -0.6302005649 0.7478438616
0.053943168 -0.064432867 0.94519055 -0.756911993 -0.3249547184 0.5669997334
-0.095409431 -0.11296536 0.93372226 0.6098358035 0.3547528982 0.7086964846
-0.082507193 -0.13421449 0.92571431 0.4934805334 0.6095641851 0.6204099059
-0.10564209 -0.11564802 0.94345468 0.230752632 0.7329447865 0.6399571896
0.02236026 -0.11094129 0.98100007 0.1777280122 -0.5768692493 0.7972669601
-0.10400704 -0.10183759 0.92766666 0.1190414801 0.4236111343 0.8979881406
-0.091541536 -0.077213295 0.90800005 0.5419343114 0.05831418186 0.8383952975
-0.1447937 -0.09489996 0.93313897 0.1623707861 0.5350176096 0.8290910125
-0.053867221 -0.083167173 0.90350002 -0.3236965537 0.5476357937 0.771566987
0.045372758 -0.11303388 0.90800005 0.1783961356 0.2699185908 0.9462128282
-0.21470505 -0.084492564 0.9234001 0.09090537578 0.4220949709 0.9019823074
-0.22509189 -0.045338616 0.93280661 0.3630804121 -0.5347926021 0.7630003095
0.034606606 -0.045270771 0.94546878 -0.3281726241 -0.737813592 0.589859128
0.031663589 -0.096325569 0.98446167 0.2476228178 -0.1944189519 0.9491491914
-0.023460653 -0.069019623 0.97679996 -0.105030641 0.4202310145 0.9013181925
0.035002433 -0.064514279 0.91380787 -0.3137136698 -0.7788116932 0.5431722403
-0.022842864 -0.12139729 0.96500003 -0.0152583085 -0.955095768 0.2959041297
0.034595553 -0.053973924 0.93478251 -0.4359755814 -0.7556339502 0.4888176322
-0.054515831 -0.12506884 0.91447246 -0.4326974452 0.001122848829 0.9015384912
-0.1849976 -0.094916038 0.9358781 -0.1397458166 0.475046128 0.8687935472
-0.1343881 -0.10464861 0.93470585 0.118909806 0.5893802047 0.7990565896
-0.18524081 -0.044323843 0.91839576 0.06750441343 -0.4198488295 0.9050801396
-0.044825301 -0.086228997 0.91240001 -0.057951767 0.7212190628 0.6902786493
-0.15472864 -0.037400924 0.92491323 -0.04043890536 -0.7252544761 0.6872922182
-0.07119301 -0.073494688 0.87325007 -0.6662428379 0.4478574693 0.5962752104
-0.084888235 -0.054454364 0.91347229 0.1941529661 -0.427946806 0.8827039003
-0.045187064 -0.12432867 0.9531787 -0.4318513572 0.6765698791 0.5964542031
-0.033825442 -0.13354485 0.93235505 -0.4634139538 -0.7170605659 0.5206454396
-0.11675923 -0.1189053 0.95228577 0.1283007264 0.748303473 0.6508309245
-0.04491619 -0.044723682 0.9134286 0.1000145301 -0.6963044405 0.7107441425
-0.045250773 -0.064929686 0.89484125 0.009265304543 -0.2000049949 0.9797510505
-0.13496751 -0.083004683 0.92518526 0.1434140503 0.5201770663 0.8419312835
-0.075136162 -0.10458005 0.9048335 -0.6068713665 0.6181098819 0.4996471703
-0.043675005 -0.11461593 0.94530022 0.3080391884 0.8639028072 0.3984768391
-0.17905039 -0.058876932 0.92000002 0.03046152554 0.1639813334 0.9859930277
-0.025033277 -0.12647356 0.94424146 -0.3059257865 -0.7823896408 0.5424720049
-0.026898239 -0.061979286 0.89720011 -0.2998122871 -0.0283937715 0.9535755515
0.015321152 -0.047101893 0.9345001 -0.1962932944 -0.8813585043 0.4297395945
0.016495563 -0.12736449 0.93730772 0.6468869448 -0.5508258939 0.5273784995
0.024550093 -0.085661732 0.98427278 0.1522717625 0.1243314147 0.9804871082
-0.054055441 -0.092771932 0.91620004 -0.2732129991 0.6991914511 0.6606708169
-0.024925167 -0.085410558 0.98324996 -0.08213660121 0.2530660927 0.9639559984
-0.035504129 -0.064844571 0.89528584 -0.1654117405 -0.1080585644 0.9802868366
-0.045122933 -0.053495795 0.903943 0.0963120237 -0.4753111899 0.8745303154
-0.10495847 -0.054640897 0.91495168 0.06386306882 -0.3413336277 0.9377701283
-0.19541562 -0.032919839 0.93425018 0.1755704135 -0.7312695384 0.6591054201
-0.085828729 -0.068343908 0.9065001 0.3363873959 -0.3356663287 0.8798702359
-0.024527688 -0.11688709 0.97658831 -0.0307441894 -0.844706893 0.534345448
-0.094697468 -0.054569349 0.91541702 0.1198394299 -0.39484182 0.9108998179
-0.0049758875 -0.13433899 0.9459163 0.07782506198 -0.8063998222 0.586227417
-0.057397675 -0.062425122 0.90136373 0.1885049641 -0.4032957852 0.8954431415
-0.074697495 -0.12679853 0.92247379 0.1383770704 0.5724290609 0.8081935048
-0.20468365 -0.064251781 0.91900003 0.07940650731 0.1005904451 0.9917541146
-0.10540951 -0.10630404 0.9327274 0.1796511263 0.5180622935 0.8362636566
-0.062997945 -0.068079375 0.89738464 0.04882270098 -0.5178881884 0.8540539145
0.044073053 -0.036933921 0.95754987 -0.351033926 -0.6813001037 0.6423436403
-0.025260963 -0.054562576 0.90399981 -0.2073796988 -0.2958565652 0.9324497581
-0.12517318 -0.12383363 0.95699996 0.09226937592 0.739611268 0.6666794419
-0.024546148 -0.037237249 0.96540928 0.06109510735 0.4698861241 0.8806102276
0.063223884 -0.098789372 0.90150005 -0.1773124635 0.1045820862 0.9785820842
0.063210584 -0.043935612 0.97000003 -0.6005836129 -0.4522462487 0.6593729258
-0.038646348 -0.13428165 0.92671436 -0.5680323243 -0.5532662272 0.6092911959
0.024372429 -0.13161813 0.92675 0.7457756996 -0.4221448004 0.5153759718
-0.17512332 -0.033417538 0.93300003 0.02323090099 -0.761487186 0.6477634907
0.016067147 -0.11806858 0.94663638 0.4131828249 -0.8380925059 0.3562034965
-0.054853335 -0.075224429 0.8938337 -0.2781538665 -0.1125094816 0.9539245367
-0.0040012416 -0.061297473 0.91353852 -0.3423435986 -0.5582901239 0.7557201982
-0.22209823 -0.049083982 0.92800003 0.3410894573 -0.4468367994 0.8270398378
-0.048700586 -0.08090581 0.89600003 -0.4307727814 0.5111345053 0.7437582016
0.053521082 -0.073760785 0.93600011 -0.7916045189 -0.5089091063 0.3381919563
0.055784173 -0.033178203 0.97042859 -0.4607272148 -0.5768094063 0.6745526791
-0.035322811 -0.039016768 0.96563643 0.100689888 0.4282149673 0.8980498314
-0.19523782 -0.045097668 0.92102867 0.1517138779 -0.4793744087 0.8643975258
-0.12635046 -0.08128278 0.91800004 0.1363410503 0.4613864124 0.8766605258
-0.12219111 -0.032008413 0.9525001 -0.2036736757 -0.9057628512 0.3716324568
-0.072851002 -0.058375131 0.90720004 0.2252756804 -0.5729453564 0.7880256772
-0.054600023 -0.10343906 0.92540008 -0.1198909581 0.6466819048 0.7532786131
0.0130448 -0.10174944 0.99200004 0.1216935217 -0.1828509867 0.9755799174
-0.06557291 -0.042557407 0.92342865 0.1544102728 -0.597356081 0.7869708538
-0.20568696 -0.031363185 0.94150001 0.2081948668 -0.7430946231 0.6359758377
0.034496929 -0.12474932 0.91217858 0.7544255853 -0.1310597062 0.6431682706
0.043485854 -0.064673133 0.92327285 -0.5063378215 -0.7385081649 0.4452276826
-0.081700429 -0.10549913 0.90480006 0.7790439129 0.4040300846 0.4794270098
-0.011981622 -0.053712603 0.911125 -0.3098454177 -0.5204107165 0.7957188487
-0.1545165 -0.12346669 0.95733333 0.01396840811 0.6561499834 0.7545012236
-0.00083108002 -0.045709401 0.94800007 0.1617321819 -0.9047837257 0.3939658403
-0.14467385 -0.084003903 0.92561293 0.1788756251 0.5233841538 0.8331101537
-0.19509409 -0.082082316 0.92610008 -0.18610695 0.4192029834 0.8886129856
0.05919341 -0.070865348 0.95100003 -0.8143543601 -0.1696194708 0.5550280809
0.015432347 -0.11506588 0.97576004 0.08720014989 -0.8544179797 0.5122168064
-0.17463696 -0.038729191 0.92592865 0.04285583645 -0.6680104136 0.742916882
-0.203825 -0.087563232 0.93000019 -0.08095571399 0.4930970669 0.8661994338
-0.17608304 -0.077921398 0.93027288 0.01941372454 0.4663970172 0.8843624592
-0.16481334 -0.098888002 0.94000024 0.08187947422 0.5293925405 0.8444164991
0.036352426 -0.10636679 0.97735709 0.1299271584 -0.6627911329 0.7374461889
-0.19479069 -0.027311526 0.9441666 0.1631616205 -0.8029022813 0.5733464956
-0.063511565 -0.09575589 0.92405015 -0.0004269343044 0.830869019 0.5564678907
0.063756242 -0.11102873 0.90625006 0.03534178063 0.165690586 0.9855443239
-0.16503464 -0.1170068 0.95209116 -0.006390199065 0.5970806479 0.8021557927
-0.18645583 -0.057997074 0.92000002 0.02701376379 0.1252356321 0.991759181
-0.1647388 -0.028532872 0.93757147 -0.04451210424 -0.7826422453 0.6208782196
-0.1161511 -0.039392576 0.92650008 -0.03362319991 -0.8484914899 0.5281398296
-0.12596209 -0.039278463 0.92700005 -0.07652951032 -0.8254182339 0.5593102574
0.062117532 -0.065473862 0.95749998 -0.8185331225 -0.1873106211 0.5430637002
-0.22719693 -0.088324167 0.93000013 0.1678960621 0.4226293266 0.8906151652
-0.15636666 -0.099094018 0.94000006 0.1397501379 0.5438387394 0.8274716139
-0.045050647 -0.098973155 0.92000002 -0.004453096073 0.5998620391 0.8000910878
0.01463356 -0.13371632 0.93655163 0.5830353498 -0.6146327853 0.5313156247
-0.074781597 -0.066646293 0.86780012 -0.7826927304 0.3512383401 0.5138323307
0.0020119499 -0.04868919 0.91800004 -0.3426620364 -0.6774612069 0.6508678794
-0.14366227 -0.030765155 0.94000006 -0.1411667168 -0.8416411877 0.5212600827
-0.14465204 -0.054642927 0.91666669 0.03968738392 -0.1456222385 0.9885439277
-0.16497698 -0.054539528 0.9159233 0.02176338062 -0.01420265716 0.9996622801
