# .PCD v0.7 - Point Cloud Data file format
VERSION 0.7
FIELDS x y z normal_x normal_y normal_z
SIZE 4 4 4 4 4 4
TYPE F F F F F F
COUNT 1 1 1 1 1 1
WIDTH 512
HEIGHT 1
VIEWPOINT 0 0 0 1 0 0 0
POINTS 512
DATA ascii
-0.2550554 -0.16499557 0.80696118 -0.05067640916 -0.01856365241 0.9985426068
0.020569229 -0.11808261 0.86900002 -0.8733474612 -0.3198670149 0.3673544824
-0.10515421 -0.12436542 0.78292012 -0.4821397066 -0.06630033255 0.8735820055
-0.15408292 -0.21112324 0.84500003 -0.1088070944 0.6579182148 0.7451876402
-0.17853895 -0.10868299 0.85500002 0.1123208702 -0.9768273234 0.1821879447
-0.075072333 -0.15550339 0.87380946 -0.03764883801 -0.1334415376 0.9903413057
-0.017983939 -0.10997871 0.78900003 -0.2718019783 -0.3971175551 0.8765964508
-0.053916886 -0.078676254 0.86615378 0.4467690289 -0.5386870503 0.714292407
-0.06879466 -0.18510729 0.80900002 -0.2437281609 -0.8441191316 0.477555722
-0.16480172 -0.1548291 0.80597949 0.101775229 0.3364950716 0.9361692667
-0.21657349 -0.21112281 0.82900006 -0.1224463284 0.3966657817 0.9097599387
-0.24389392 -0.11795572 0.84625006 0.2941463888 -0.8898943663 0.3486630023
-0.070386693 -0.088161111 0.81100005 -0.1154464558 -0.5970185995 0.7938771248
-0.02066128 -0.15852413 0.85699999 0.5508230925 -0.7915285826 0.2647195458
-0.15274109 -0.11759675 0.75523084 -0.3578775525 0.4553050697 0.8152428865
-0.12122142 -0.1930292 0.80300009 0.3260167241 0.6257377863 0.7086362243
-0.0070286747 -0.16040149 0.80250001 0.5085653663 0.101014033 0.8550774455
-0.14508194 -0.10789732 0.8139475 0.2479230464 -0.6343473196 0.7322142124
-0.20494688 -0.12363745 0.81439388 0.194749102 -0.6633943319 0.7224823236
-0.015621459 -0.09415324 0.83653843 -0.4631744921 -0.8007726669 0.3797795177
-0.049518518 -0.12112991 0.86900002 -0.07243993878 0.1722014695 0.9823945761
-0.20478022 -0.16533431 0.81150025 0.08312113583 0.3352373242 0.9384598136
-0.13358812 -0.15310474 0.76575011 0.8532495499 0.17146644 0.4925083816
-0.27707663 -0.1391454 0.83100003 0.4847524762 -0.7209010124 0.4952946603
-0.092142045 -0.11855777 0.86580002 -0.06973659247 0.1646817923 0.9838783741
-0.0031668956 -0.077440605 0.87214291 -0.5486301184 -0.6351902485 0.5436344147
-0.25642404 -0.20375288 0.82162505 -0.08053808659 0.5361577868 0.8402668834
-0.10004608 -0.17599346 0.83300006 0.2424203753 0.8507541418 0.4663150609
-0.17469284 -0.18866462 0.82140005 -0.04748853669 0.5103569031 0.8586505055
-0.1187331 -0.14503923 0.81100005 -0.1625026166 0.279940635 0.9461638927
-0.035393834 -0.16566148 0.82464999 0.5411111712 -0.5108752847 0.6679859161
-0.10442884 -0.09711881 0.80751616 0.2029030025 -0.7340390682 0.6480872035
0.010922682 -0.1308495 0.79533339 -0.003969837911 -0.01903835684 0.9998108745
-0.097941384 -0.16801965 0.79460013 -0.4007287323 -0.2654214203 0.8769081831
-0.28234288 -0.18296799 0.81300008 0.1754395366 0.2310618609 0.9569907784
-0.21144937 -0.11127501 0.84433341 0.0979905054 -0.9385876656 0.3308339417
-0.23583461 -0.13377291 0.81209695 0.146605134 -0.5963711143 0.7892074585
-0.040898547 -0.10047331 0.80900002 0.02620907128 -0.7440245748 0.6676380038
-0.17488521 -0.12518968 0.8072173 0.06672916561 -0.4977314174 0.8647604585
-0.22869243 -0.18347374 0.81776941 -0.2104857862 0.2459493428 0.9461525679
0.007132268 -0.11486116 0.8416667 -0.8506180048 -0.4155249 0.3221615255
-0.1446476 -0.13551985 0.79463655 0.6521360278 -0.2840505838 0.7028754354
-0.14506389 -0.17794427 0.81312513 0.2364685982 0.5461666584 0.8036072254
-0.04611212 -0.17136194 0.86587501 0.2194541097 -0.4951350689 0.8406432867
-0.12043559 -0.12043559 0.75900006 -0.4654965699 0.4998751879 0.730368197
-0.025428222 -0.13511476 0.87509769 0.06854214519 -0.1542162895 0.9856567979
-0.081046082 -0.18102816 0.86400002 -0.2483207881 -0.8279460669 0.5028340816
-0.1891382 -0.2110461 0.83300006 -0.1124317721 0.4923692942 0.8630942106
-0.13525116 -0.19653083 0.83110541 0.2412111759 0.6669524908 0.7049762607
-0.00403179 -0.10649776 0.81166673 -0.5965689421 -0.7458071709 0.2964408696
-0.024660939 -0.077719964 0.85494995 -0.1953577548 -0.8408424258 0.5047963858
-0.076948732 -0.091135532 0.86711115 0.0130408844 0.2472089231 0.9688744545
-0.079502262 -0.16258806 0.81700009 0.5797472 0.7694612741 0.2679973245
-0.12328571 -0.16643091 0.7916801 0.1685958505 0.5933786035 0.7870687842
-0.040453784 -0.088998325 0.83900005 -0.06017256156 -0.9537116289 0.2946410477
-0.090441316 -0.13659549 0.79766673 -0.1827077419 0.4640106857 0.866782546
-0.12388036 -0.11651371 0.79586214 0.3114120066 -0.6483413577 0.6947488785
-0.27627122 -0.15383607 0.81196004 0.4821154475 -0.3556063771 0.8006926775
-0.19485053 -0.14472628 0.80528575 0.1208441928 0.06528504193 0.9905223846
-0.20563065 -0.18660808 0.82202828 0.01124649867 0.3659899831 0.9305508137
-0.09522792 -0.14169914 0.86900002 -0.07024435699 0.08080236614 0.9942518473
-0.12632065 -0.13575712 0.78000015 -0.9798986912 0.1842896789 -0.0763931945
0.0024180904 -0.09667436 0.85561109 -0.7501733303 -0.4914734066 0.4423729479
-0.011120371 -0.13590626 0.80116671 -0.02760619298 0.1282556355 0.9913568497
-0.22545123 -0.11962454 0.82842863 0.2026699781 -0.8666470647 0.4559032023
-0.086668111 -0.10441197 0.79531026 -0.09702046216 -0.4749652147 0.8746399879
-0.071885288 -0.12729914 0.87100017 -0.09990156442 0.17871885 0.9788151979
-0.055205196 -0.14491633 0.87461901 -0.01786179468 -0.01709858887 0.9996942282
-0.25637537 -0.13173722 0.82660007 0.372549206 -0.8141365647 0.4454084933
-0.22483428 -0.1554215 0.81241471 -0.01117563713 0.121629715 0.9925126433
-0.18645535 -0.11512975 0.82300001 0.1522410214 -0.9303619266 0.3335406184
-0.035772517 -0.15424982 0.87381822 0.1914928108 -0.3408941925 0.920392096
-0.12455527 -0.1028121 0.81236845 0.3110812008 -0.690849483 0.6526526213
-0.052879948 -0.18460496 0.82255554 0.04889297858 -0.6218390465 0.7816173434
-0.15511432 -0.19231944 0.82720006 -0.07243339717 0.6531137824 0.7537876368
-0.10503883 -0.16454588 0.81364512 -0.7921304703 -0.1279991418 0.5967792869
-0.23478721 -0.20503464 0.82198012 -0.1590729952 0.4607503712 0.8731579781
-0.061175555 -0.090271242 0.85100001 0.6198935509 0.1171445996 0.7758924961
-0.24687533 -0.18391562 0.80891311 -0.2243469507 0.3026970625 0.9263060689
-0.26657838 -0.12678441 0.84280002 0.3891086876 -0.8340986967 0.3909907341
-0.25460395 -0.14524573 0.80713618 0.165277198 -0.3798038065 0.9101826549
-0.13611259 -0.10754406 0.75491661 -0.4018638134 0.6768374443 0.6167629361
-0.1854957 -0.16519234 0.81257457 0.05191264674 0.3510089517 0.9349319935
-0.26454031 -0.19078107 0.80900002 0.01416056044 0.3519865572 0.9358979464
-0.086048342 -0.18203071 0.79800004 -0.3614225686 -0.5919246674 0.7204158306
-0.16504569 -0.17510636 0.81310809 0.06632590294 0.440233022 0.8954305053
-0.024311358 -0.094155699 0.81405878 -0.1338810176 -0.919731915 0.3690109849
0.009926497 -0.090865619 0.87100005 -0.7276827693 -0.4234592617 0.5395925045
-0.064792342 -0.17386632 0.86105555 0.2336657494 -0.8069865108 0.5423772335
-0.16279262 -0.10924406 0.81660002 0.2322564125 -0.6747962236 0.7005048394
-0.062139362 -0.10394478 0.81100005 -0.1025594398 -0.5847952962 0.8046713471
-0.10955878 -0.18073711 0.79600006 -0.03120841831 0.2908177972 0.9562693238
-0.089091249 -0.091942169 0.81300002 0.03256012872 -0.6992737651 0.7141120434
-0.19439982 -0.1122228 0.84372717 0.04014463723 -0.9602628946 0.2761949003
0.0031325689 -0.14530814 0.8014546 0.1596200764 0.06194954738 0.98523283
-0.11663506 -0.13347407 0.79380006 -0.8080083132 0.3018008471 0.5060027242
-0.091173336 -0.119928 0.80000001 -0.417670995 -0.00550337974 0.9085816741
-0.028862497 -0.11052224 0.80300003 -0.03513019532 -0.7733203173 0.633041501
-0.15309826 -0.12655962 0.80600017 0.240190804 -0.473284483 0.8475317955
-0.025375366 -0.15864173 0.81357145 0.6380453706 -0.09145503491 0.7645483017
-0.21457925 -0.13566461 0.80873889 0.1284614205 -0.2895613611 0.9484997988
-0.148846 -0.1574886 0.80722225 0.1853794605 0.3386379182 0.9224742651
-0.16508321 -0.20434807 0.83525813 -0.1166944876 0.6331681013 0.7651669979
-0.10436015 -0.10762868 0.79521728 0.1345245838 -0.5857214332 0.7992706299
-0.10473799 -0.14525034 0.80304545 -0.00623448845 0.3918714225 0.9199988842
-0.08359722 -0.17343625 0.82804 0.4551334083 0.7975687385 0.3959011436
-0.055042889 -0.088642135 0.81542867 -0.07508658618 -0.9311531782 0.3568133116
0.0082564466 -0.12156972 0.85600001 -0.8823942542 -0.130013451 0.4521912038
-0.015780585 -0.15296985 0.87100011 0.2097907811 -0.3063851297 0.9285020232
-0.050146211 -0.16933431 0.82900006 0.0144596938 -0.2433949113 0.9698194861
-0.00070133334 -0.12133066 0.80000001 -0.258171916 -0.07596692443 0.9631076455
-0.048535552 -0.081016049 0.85175002 0.2167324871 -0.8362725377 0.5036618114
-0.11880382 -0.14936033 0.78033334 -0.7106205225 0.1204865575 0.6931821108
-0.064319976 -0.17437582 0.82559997 -0.07229979336 -0.9189571738 0.3876731396
-0.16574703 -0.13555881 0.80081809 0.1976453662 -0.262471348 0.9444813728
-0.13471702 -0.16919789 0.80620015 0.3901999593 0.5058685541 0.7693120241
-0.0030675491 -0.10361678 0.84205264 -0.7349624634 -0.5947006941 0.3258240223
-0.17915823 -0.11427788 0.84100002 0.1004603505 -0.9669255018 0.2344415486
-0.092705205 -0.15470174 0.87575006 -0.09315571189 -0.06990751624 0.9931943417
-0.055912238 -0.16246369 0.87233347 0.08048371226 -0.3050965369 0.9489143491
-0.22594979 -0.11260043 0.84319049 0.1809925139 -0.9204816222 0.3463456333
-0.074801557 -0.10274673 0.80329025 -0.1510378122 -0.5083902478 0.8477776647
-0.035498235 -0.12519649 0.873923 -0.04064450413 0.06117234752 0.9972993135
-0.086029343 -0.15329236 0.8085556 -0.6222153902 -0.0006754330825 0.7828457952
-0.21448086 -0.17411186 0.8168751 -0.02048993669 0.3259227872 0.9451743364
-0.06184971 -0.11453649 0.87100005 -0.07198769599 0.156273827 0.9850869179
-0.2350582 -0.16510558 0.81214899 -0.2156954259 0.214700371 0.9525645375
-0.24538177 -0.12302234 0.83325005 0.3157871664 -0.8593413234 0.4022572637
-0.24637051 -0.21003267 0.82900006 -0.1142270863 0.5439086556 0.8313335776
-0.19499414 -0.17497949 0.81551266 0.04599142075 0.3642546237 0.9301630855
-0.18512931 -0.13514803 0.80294675 0.1325739026 -0.1345064491 0.9820041656
-0.035340976 -0.16345666 0.86232257 0.240097791 -0.6529185176 0.7183665037
-0.039585885 -0.18137532 0.82100004 0.4458393753 -0.7619141936 0.4698021114
-0.13441323 -0.11354382 0.80420578 0.3593501151 -0.6053605676 0.7102155685
-0.20555128 -0.20304243 0.82761532 -0.07638599724 0.410681814 0.9085733891
-0.045214158 -0.13487601 0.87414289 -0.04854996875 0.0847703442 0.9952170253
-0.28377804 -0.16515569 0.81356001 0.3967314065 -0.2136955559 0.8927140832
-0.26479152 -0.17441133 0.80544901 0.07084745169 0.06968336552 0.9950501919
0.015004994 -0.10581694 0.8670001 -0.8640838265 -0.3444964886 0.3669895828
-0.24526846 -0.15507562 0.80699968 -0.041958455 -0.03236406669 0.9985950589
-0.22504693 -0.12692566 0.81656259 0.2018542588 -0.7006473541 0.6843596697
-0.19511926 -0.19512346 0.82433349 -0.01013720967 0.4429323673 0.8964977264
-0.17495203 -0.14531989 0.80230463 0.1408264339 0.1208855361 0.9826263785
0.02061657 -0.13133518 0.87100005 -0.5065136552 0.5676077008 0.6490496397
-0.065613277 -0.084122658 0.8626802 0.3333810568 0.2141253352 0.9181543589
-0.10822595 -0.16280286 0.78800011 -0.8041066527 0.002415765775 0.5944801569
-0.26846427 -0.14034995 0.82100004 0.3985565603 -0.7392473221 0.5428315401
-0.14461711 -0.20423697 0.83638465 -0.06200804189 0.685657382 0.7252784967
-0.096083254 -0.1148857 0.78788877 -0.268799752 -0.1173706129 0.9560182095
-0.077884823 -0.1702776 0.87100005 0.01152842958 -0.2483756542 0.9685952067
-0.21546896 -0.19533429 0.82304668 -0.1206945404 0.342259258 0.9318215847
-0.12419695 -0.18236652 0.79590911 0.3467880487 0.4427056015 0.8268916607
-0.035033993 -0.073440216 0.86178952 0.02294091135 -0.912453413 0.40853706
-0.013245194 -0.12441756 0.79517645 -0.09801225364 0.05085627362 0.9938849211
-0.24505438 -0.19524482 0.8151952 -0.1912540942 0.4291065931 0.8827736974
-0.1940553 -0.12695558 0.80807132 0.1792968363 -0.5464353561 0.8180837631
-0.0069274716 -0.087615356 0.85594118 -0.5673910975 -0.6453388333 0.5114734769
-0.1738807 -0.11183199 0.82300001 0.2370410264 -0.9054394364 0.3521234691
-0.11751717 -0.13094769 0.76600003 -0.774780333 0.3540685177 0.5237851739
-0.035674412 -0.089459665 0.81800002 -0.08352975547 -0.916441083 0.3913546801
-0.11475393 -0.10466757 0.80427092 0.2947744131 -0.7063280344 0.6435905099
-0.013408616 -0.10091748 0.80500007 -0.3331155777 -0.8061125278 0.4890977442
-0.085144952 -0.1338568 0.8689999 -0.09944006056 0.153339833 0.9831574559
-0.13921222 -0.12600821 0.80120003 0.3921190202 -0.5491166115 0.7380471826
-0.13094769 -0.12020327 0.76600003 -0.2759211659 0.6960469484 0.6628620625
-0.074270323 -0.1757867 0.81552941 -0.2837335169 -0.9085695148 0.3065888286
-0.10073952 -0.12942229 0.79800004 -0.1312089264 0.3677454591 0.9206234217
-0.21470195 -0.12103888 0.82183337 0.16713503 -0.8298441172 0.5323764086
-0.014320187 -0.14800757 0.80156267 0.5002631545 0.1171141565 0.8579167128
-0.1148707 -0.15715699 0.81141394 -0.1726091206 -0.2112469822 0.9620711207
-0.094011575 -0.16854067 0.82318175 0.2424203753 0.8507541418 0.4663150609
-0.026977768 -0.17253931 0.81864721 0.6174849868 -0.4702612758 0.6305288672
-0.20235461 -0.10715124 0.85175002 0.04739908129 -0.9568232894 0.2867796123
-0.23524772 -0.14550351 0.8082689 -0.02289969847 -0.09823842347 0.9948993921
-0.16356671 -0.12098593 0.81300008 0.155759573 -0.5353888869 0.8301190734
-0.020909376 -0.099663846 0.79500008 -0.09115763754 -0.784941256 0.6128274202
-0.18594797 -0.15391934 0.80776459 0.07292363793 0.2902266085 0.9541754127
-0.014822342 -0.076154999 0.862077 -0.3440368772 -0.8178800344 0.4612059295
-0.26508132 -0.1551518 0.80717367 0.1925124675 -0.2272414714 0.9546204805
-0.17514835 -0.20131159 0.82900006 -0.136498332 0.5720664859 0.8087695241
-0.21324928 -0.15378803 0.80900002 0.04998342693 0.1363901943 0.9893934131
-0.18467835 -0.18358003 0.81700009 0.00978237018 0.399987489 0.9164683819
-0.14527243 -0.18796411 0.82187504 0.007074406371 0.6384152174 0.7696596384
-0.27383655 -0.16468823 0.80688238 0.2453404069 -0.08849142492 0.9653897285
-0.15494791 -0.14096449 0.79733342 0.3591247797 0.06826201081 0.9307898283
-0.024477458 -0.083722793 0.84477139 -0.2154331952 -0.864846468 0.4534634948
-0.090253711 -0.18124118 0.83700001 0.3559467494 0.9244362712 0.136819303
-0.25462401 -0.13561088 0.81357157 0.3055721819 -0.6820219755 0.6644333601
0.0104937 -0.11962818 0.79800004 -0.2455128729 -0.06897123903 0.9669365883
-0.084904961 -0.14533633 0.87252361 -0.09104745835 0.06978806108 0.9933981895
-0.15473095 -0.18308546 0.8178184 -0.001386209275 0.5862334967 0.8101409674
-0.14365713 -0.16597337 0.81255561 0.3037385643 0.5347446203 0.7885373235
-0.18523091 -0.12078311 0.81139994 0.172074616 -0.5774387717 0.798094511
-0.11257255 -0.11845191 0.78900003 -0.02811237238 -0.3996653259 0.9162299633
-0.25416166 -0.12226323 0.84525001 0.3545943797 -0.8565745354 0.3748904467
-0.075109534 -0.11697756 0.86833346 -0.07143896818 0.1614809036 0.9842867255
-0.085116044 -0.095865287 0.80336595 -0.06347345561 -0.599070251 0.7981766462
-0.19524048 -0.11897182 0.81715399 0.1882558316 -0.8159895539 0.5465535522
-0.094559893 -0.15996973 0.81099999 -0.6996985674 -0.3531771302 0.6210377216
-0.0085588973 -0.10689854 0.79699999 -0.3302023709 -0.5975844264 0.730656743
-0.22616684 -0.19409664 0.81900007 -0.2263263315 0.3228058517 0.9190064073
-0.16576713 -0.19476867 0.8268919 -0.09040936828 0.6197926998 0.77954036
-0.09525954 -0.10120051 0.80123085 0.03536240011 -0.5820693374 0.8123698831
-0.20563929 -0.21240719 0.83321071 -0.116044119 0.4127352834 0.9034286737
-0.24450475 -0.13953969 0.80900002 0.1152105331 -0.4483726323 0.8863907456
-0.18677647 -0.20131159 0.82900006 -0.08929218352 0.504024148 0.8590614796
-0.23437035 -0.11864631 0.8344 0.2538709044 -0.8658407927 0.4311256409
-0.11444248 -0.13782722 0.80429417 0.02603881992 0.4947400689 0.868650794
-0.13061562 -0.12573119 0.77520007 0.9255206585 0.3155930042 0.2093145996
-0.22520261 -0.13680176 0.80853838 0.08261843771 -0.318087548 0.9444546103
-0.00073201663 -0.11126654 0.83500004 -0.7308078408 -0.65782094 0.1821853966
-0.018738165 -0.16674288 0.81166673 0.6040873528 -0.07181537896 0.7936756015
-0.15212463 -0.1714057 0.80860007 0.1763646305 0.4354655743 0.8827599883
-0.21557915 -0.11458395 0.83521426 0.1195451692 -0.921634376 0.3691869378
-0.20523798 -0.11692108 0.82395655 0.1469194293 -0.8884987831 0.4347235858
-0.17521812 -0.17521463 0.81577551 0.04644970223 0.4114286005 0.9102576375
-0.12651318 -0.15446854 0.77537495 -0.941185534 -0.1699544936 0.2920364439
-0.065106831 -0.13481753 0.87376177 -0.08124756068 0.1524368823 0.984967947
-0.17200506 -0.1620847 0.80825001 0.08424469084 0.357381165 0.9301513433
-0.24341458 -0.12891237 0.81744444 0.2407923043 -0.765196383 0.5970708132
-0.045623705 -0.16130558 0.87100017 0.1705361605 -0.3918019533 0.9041065574
-0.22475724 -0.20464045 0.8248288 -0.1948958188 0.3448786438 0.9181907773
-0.13495295 -0.10565401 0.81299996 0.3131561279 -0.6199746728 0.7194196582
-0.019575089 -0.093525432 0.82700002 -0.4344960451 -0.8751487732 0.2129033506
-0.15486956 -0.20290297 0.83581823 -0.09032330662 0.6626229286 0.743486762
-0.20456183 -0.13519318 0.8074078 0.1584923267 -0.2959904671 0.9419500232
-0.22449031 -0.16516557 0.81509322 -0.06543692946 0.3047560453 0.9501798749
-0.074922167 -0.14501947 0.87384999 -0.06340756267 0.06025175005 0.9961672425
-0.20545208 -0.11368634 0.83666664 0.05403065681 -0.9354094863 0.3494134247
-0.13649394 -0.18270947 0.81516665 0.4859316349 0.5871081948 0.6474368572
-0.044513077 -0.075856872 0.86425 0.1787684113 -0.874303937 0.451258719
-0.026241554 -0.15208666 0.87177795 0.1984427869 -0.3219967782 0.9257097244
-0.045251645 -0.14495906 0.87487751 0.04700373113 -0.08265401423 0.9954692125
-0.065154448 -0.15484279 0.87438083 0.042206496 -0.2124593854 0.9762579799
-0.1974145 -0.1586663 0.81099993 0.06682310253 0.2903949022 0.9545708299
-0.055157293 -0.13482887 0.87383318 -0.07084535062 0.145833835 0.9867691994
-0.2347524 -0.12363238 0.82581478 0.2523897886 -0.8350746036 0.4888249636
-0.27941382 -0.17371529 0.81100005 0.184834227 0.01562148333 0.9826455712
0.0093865963 -0.11338431 0.86142862 -0.8671510816 -0.3362783194 0.3673769832
-0.13039804 -0.16144517 0.78700006 0.4565420747 0.6503763795 0.6071078777
-0.24399586 -0.17503831 0.81209111 -0.2706439495 0.1845348179 0.9448273778
-0.065085411 -0.14471994 0.87344915 -0.04247713089 0.01096729189 0.9990372658
-0.25484619 -0.19482759 0.81454289 -0.1125448048 0.4595368803 0.8809991479
-0.035276484 -0.13497315 0.87477773 0.01720741019 0.01338054892 0.9997624159
-0.18503737 -0.1449365 0.80254781 0.1080350652 0.1209022701 0.9867680073
-0.045419741 -0.08852277 0.81782371 -0.06067721546 -0.9307886362 0.3604868352
-0.095008053 -0.14545751 0.80202085 -0.2058293968 0.3118166029 0.927579999
-0.20446928 -0.14503878 0.80704045 0.1299531758 0.01893004403 0.9913393855
-0.25472918 -0.17476612 0.80685425 -0.1060798168 0.1455764174 0.9836435318
-0.26352382 -0.13130143 0.83325005 0.3927454054 -0.818795979 0.4187173843
-0.10516837 -0.15402366 0.80728573 -0.4147705734 -0.1353002042 0.8998106718
-0.25498644 -0.12617783 0.83448374 0.3682051301 -0.8472331166 0.3829112649
-0.034830589 -0.1448375 0.87600005 0.1851273179 -0.2519525886 0.9498672485
-0.11796562 -0.13724479 0.77536374 -0.8339791894 0.2057526112 0.5120005608
-0.16529554 -0.14512341 0.80234092 0.1754138321 0.1112373397 0.9781903028
-0.25528124 -0.15486634 0.8066324 0.00477969693 -0.09982390702 0.9949936271
-0.18529724 -0.10896529 0.84811115 0.1133752987 -0.9675556421 0.2257922292
-0.20496504 -0.17452009 0.81535006 0.08422970772 0.3709154129 0.9248389602
-0.17519879 -0.13508995 0.80258983 0.1569325775 -0.1773676723 0.9715517759
-0.21511723 -0.18544857 0.82220912 -0.08856282383 0.3195197284 0.9434319139
-0.23457728 -0.17452975 0.81299978 -0.2816496789 0.2013569921 0.9381518364
-0.02529797 -0.088242792 0.83649993 -0.2369068414 -0.9190568328 0.3149756193
-0.23470294 -0.1156184 0.84500003 0.2430262864 -0.9017881155 0.3573743105
-0.21505862 -0.16530178 0.81357145 0.01437055692 0.3309986591 0.9435217977
-0.076477773 -0.17869557 0.80687505 -0.4734378457 -0.7033783197 0.5302032828
-0.2253124 -0.17479408 0.81677777 -0.1428429484 0.2635728121 0.9540048838
-0.12974666 -0.17393066 0.80000001 0.4516197741 0.2967687845 0.8414082527
-0.025340244 -0.097360365 0.80544448 -0.07669503987 -0.8649286032 0.4960004091
-0.0048915124 -0.14462841 0.79697978 0.1634238958 0.1517632902 0.9748131037
-0.006143779 -0.1154037 0.79451436 -0.2342480868 -0.1969872862 0.9520103931
-0.035062838 -0.084368221 0.84480482 0.02029360645 -0.9086797833 0.4170002043
-0.11846835 -0.10123659 0.81900007 0.2868929505 -0.7441120744 0.6033155918
-0.11225336 -0.098011628 0.81211108 0.2594798207 -0.7508069277 0.6074200869
-0.23510492 -0.19429101 0.81723261 -0.2647565007 0.3646663725 0.8927051425
-0.23519531 -0.15457791 0.80814254 -0.09960260987 0.06768043339 0.9927228689
-0.24421547 -0.20532572 0.82155985 -0.1772177517 0.4963076711 0.8498662114
-0.085248135 -0.12482837 0.86822206 -0.08145790547 0.1664989889 0.9826712012
-0.27280813 -0.19160646 0.8125 0.1267765611 0.3525338173 0.9271718264
-0.16505523 -0.18305765 0.81732005 0.01388102304 0.5205674171 0.8537077308
-0.26585901 -0.1443551 0.81343758 0.3515430391 -0.6393874288 0.6838136911
-0.055866309 -0.17345954 0.86084867 0.2990389168 -0.7866702676 0.5401163101
-0.2746774 -0.18344942 0.80843985 0.1351125687 0.2460797429 0.9597861171
-0.045681 -0.17459907 0.8233676 0.2468002886 -0.5818302035 0.7749601603
-0.26501775 -0.16467728 0.80579984 0.1105242744 -0.05432075635 0.9923878312
-0.057271611 -0.17815472 0.81833345 -0.08315508068 -0.7038735747 0.7054411769
-0.065109059 -0.16363247 0.87324989 0.05419477075 -0.3011552989 0.9520338178
-0.10401964 -0.18157835 0.80280006 -0.1127614528 -0.4826091826 0.8685466051
-0.24640872 -0.16365391 0.80856246 -0.1557037681 0.05278387293 0.986392498
-0.0060342839 -0.096159115 0.84564298 -0.6280602813 -0.6197298765 0.4706115127
-0.18496619 -0.1752059 0.81448835 0.05791291222 0.3599455059 0.931174159
-0.094213262 -0.18309113 0.80080003 -0.2831827998 -0.6833747029 0.6729090214
-0.13895211 -0.14173114 0.79250002 0.6270207167 -0.03022354469 0.7784160972
-0.029581362 -0.15945077 0.82300001 0.6246756315 -0.3372760415 0.7042905688
-0.175078 -0.11563287 0.81531578 0.2013965696 -0.7698971629 0.6055557728
-0.065847576 -0.17773829 0.81576931 -0.2476884723 -0.7498774529 0.6134608388
-0.01537717 -0.16232747 0.80505574 0.539378643 0.1139618754 0.8343160748
-0.016696952 -0.087239988 0.84576195 -0.3841257691 -0.7656806707 0.5159268379
-0.28177536 -0.14785269 0.81475008 0.4573487043 -0.5072154999 0.7304550409
-0.025038011 -0.15606514 0.86396873 0.2048853785 -0.3824326098 0.900981307
0.015151662 -0.12384117 0.8656956 -0.8245055079 0.1862050295 0.5343391895
-0.21487267 -0.14537601 0.80891806 0.07431457937 0.02538049035 0.9969118237
-0.14272486 -0.11421915 0.80600005 0.3349489272 -0.5367594957 0.7744020224
-0.10622745 -0.13191904 0.79200006 -0.5773750544 0.2909788787 0.7628691196
-0.11249211 -0.10934663 0.79700005 0.2457781881 -0.5816889405 0.775390923
-0.10220355 -0.16913968 0.82100004 -0.3847842515 0.6726276278 0.6320705414
-0.084724642 -0.094471045 0.86675006 0.01636114717 0.2285811007 0.9733873606
0.0082390876 -0.10496452 0.86199999 -0.8543331623 -0.3630598187 0.3718903065
-0.074879885 -0.1351556 0.87185723 -0.09686572105 0.1672355235 0.9811469316
-0.054271117 -0.087519728 0.84700018 0.1552627683 -0.9609815478 0.2289277762
-0.20557193 -0.19526681 0.82433373 -0.05578248203 0.3592593372 0.9315690994
-0.10458796 -0.11598822 0.7878837 0.01482316107 -0.2412815541 0.9703419209
-0.15878479 -0.16684252 0.81100005 0.1023292765 0.3947638571 0.9130663872
-0.19482724 -0.13482001 0.8051905 0.1612514257 -0.2327471673 0.9590759873
-0.094830103 -0.10565879 0.79371464 -0.008553310297 -0.5449253321 0.8384409547
-0.0021863605 -0.11384924 0.8035264 -0.3633007407 -0.3213259578 0.8745068312
-0.18829396 -0.11547716 0.83900005 0.02859965712 -0.9640037417 0.2643460333
-0.17624374 -0.166252 0.814143 0.07867086679 0.3530235291 0.9323011041
-0.20499521 -0.15475553 0.80822712 0.08271794766 0.1934071779 0.97762537
-0.17440245 -0.15450889 0.80575675 0.08293766528 0.3409920931 0.9364004135
-0.12658893 -0.11484187 0.75866669 -0.2148352116 0.8062907457 0.5511270761
-0.22495998 -0.14510678 0.80867964 0.02048165351 -0.03602578864 0.9991409779
-0.19587821 -0.20241453 0.82822239 -0.05149512738 0.4158275425 0.9079844356
-0.15620308 -0.11420077 0.81637144 0.1912451088 -0.5724547505 0.7973210812
-0.0045882231 -0.084081851 0.86300009 -0.5849802494 -0.633803606 0.506054461
-0.034448732 -0.10464735 0.80608684 0.09894477576 -0.7853076458 0.6111479402
-0.14481947 -0.19722672 0.83212012 -0.04867111146 0.6748478413 0.7363501787
-0.038942412 -0.11835438 0.87100005 -0.03639608249 0.115743719 0.9926120639
-0.14580873 -0.1141006 0.75260013 -0.2775007188 0.5320805311 0.7999272943
-0.035062872 -0.0780316 0.85499996 0.05090264603 -0.8827208281 0.467132628
-0.0040544951 -0.13467415 0.79720008 -0.0386679396 0.09597001225 0.9946328998
-0.1488377 -0.13128449 0.8008334 0.4479388297 -0.3544983566 0.8207811713
-0.13732846 -0.18788934 0.82385719 0.2921343148 0.6071428657 0.7389418483
-0.11684277 -0.15597722 0.78466684 -0.8080071211 0.0184645392 0.5888833404
-0.01307796 -0.082409568 0.85703999 -0.4479255378 -0.7359118462 0.5077365637
-0.0074621863 -0.15227525 0.79800004 0.3462336957 0.1405871361 0.9275545478
-0.10528392 -0.1030587 0.80183858 0.197113052 -0.6930840611 0.6933836341
-0.044915263 -0.085157856 0.84580946 0.1742565185 -0.9044300318 0.389411062
-0.21523684 -0.12549473 0.81510526 0.1998146921 -0.6749857068 0.710259378
-0.055216987 -0.12647146 0.87107712 -0.07607746869 0.1644848138 0.9834414124
-0.14918745 -0.1248368 0.755 -0.3578775525 0.4553050697 0.8152428865
0.01242938 -0.097908176 0.86800003 -0.8262522817 -0.399207592 0.3974171877
-0.19476712 -0.18227549 0.81890023 0.0359002687 0.3848654032 0.9222742319
-0.11532959 -0.16590045 0.79276484 -0.6274333 0.2622533441 0.7331784964
-0.11580849 -0.18761638 0.80061543 0.2101687193 0.2302966565 0.9501539469
-0.18487668 -0.1951005 0.82430267 -0.04722377285 0.4817477167 0.8750365973
-0.10408797 -0.13614233 0.80078042 0.011267744 0.5593721867 0.8288400173
-0.2548295 -0.18426286 0.8081302 -0.1375647634 0.3157797754 0.9388072491
-0.22892834 -0.21003267 0.82900006 -0.1532113254 0.4099163711 0.899163425
-0.085031278 -0.15550521 0.87381637 -0.0780864507 -0.1298956722 0.9884480834
-0.15577908 -0.17606378 0.81423551 0.1058699489 0.4532595873 0.8850690722
-0.27644393 -0.14320248 0.82419991 0.4851678908 -0.6932966113 0.5328713655
-0.054624937 -0.16690992 0.86588895 0.1291879863 -0.3960932195 0.9090768099
0.0038655833 -0.13387237 0.7972942 -0.007531467825 0.05758226663 0.9983123541
0.0040067099 -0.086403161 0.86821741 -0.6704472303 -0.5388759375 0.5100129247
-0.067854002 -0.09122593 0.86000001 0.3180338442 0.2446775287 0.9159625173
-0.075103678 -0.17501178 0.8653096 -0.1627372503 -0.6742079854 0.7203888893
-0.11512391 -0.17512937 0.79587764 -0.06125826389 0.2304191291 0.9711613655
-0.14034908 -0.14907892 0.76600003 -0.9031370282 -0.24991256 0.3491234481
0.00070367119 -0.15269721 0.80266666 0.2414967716 0.1700255573 0.9553902745
-0.026549622 -0.16275075 0.86010522 0.3416247964 -0.807765305 0.4804244936
-0.065190308 -0.12134757 0.86900002 -0.08902447671 0.1876364201 0.9781959057
0.0064899949 -0.094171338 0.8645187 -0.7334473729 -0.4628610909 0.4978097081
-0.16722351 -0.12467029 0.8056801 0.1218612716 -0.5062988997 0.8537044525
-0.016854757 -0.14532022 0.87228006 0.2182993144 -0.1942040473 0.9563630223
-0.22453214 -0.11719999 0.83579993 0.190934822 -0.895377636 0.4022969306
-0.095091321 -0.1751658 0.79592031 -0.3496180773 -0.4143780768 0.8402726054
-0.12393171 -0.17475867 0.79419065 0.383251518 0.4386403561 0.8128424883
-0.034447554 -0.096727192 0.80681819 0.03430171311 -0.8356601 0.5481747985
-0.14671806 -0.21012385 0.84100002 -0.07656800747 0.6740959287 0.7346645594
-0.12501553 -0.14470342 0.78029299 -0.7535340786 0.03005061112 0.6567217112
-0.075276285 -0.095739424 0.8065508 -0.1376408637 -0.5388945341 0.8310521841
-0.026986141 -0.12761754 0.87400007 0.05927059799 -0.06104340777 0.9963737726
-0.16220087 -0.20864929 0.84100002 -0.1270535439 0.6395629048 0.7581666112
-0.19501935 -0.11576328 0.82415396 0.1234903857 -0.9255218506 0.3579936624
-0.060945868 -0.079991452 0.86900002 0.2574368715 0.2216682136 0.9405261874
-0.21037106 -0.18021549 0.81900007 -0.02165961079 0.3372927308 0.9411506057
-0.0089519937 -0.097882807 0.83700007 -0.5705275536 -0.7544316649 0.3245476484
-0.13786614 -0.12881105 0.79425001 0.4704737663 -0.6538025141 0.592618525
-0.19718565 -0.11370506 0.8368001 0.04449516535 -0.9569847584 0.2867061198
-0.024880208 -0.14502735 0.87406665 0.1648828685 -0.2231780887 0.960731566
0.0052115079 -0.12636383 0.79737157 -0.1442586482 0.01337294374 0.9894496202
-0.017045988 -0.095977068 0.81318188 -0.2392434478 -0.9061341286 0.3488316536
-0.084912255 -0.11734407 0.86763644 -0.08263079077 0.155855 0.9843177199
-0.06456133 -0.092830755 0.81175882 -0.104009375 -0.5844186544 0.8047589064
-0.054223686 -0.17453684 0.82415819 -0.06671541929 -0.4219233692 0.9041734934
-0.055102587 -0.15545115 0.87480003 0.05877770856 -0.2529695928 0.9656870961
-0.12127719 -0.13829856 0.80900002 -0.02874421328 0.4699808359 0.8822084665
-0.025060644 -0.073890984 0.86133331 -0.1551900357 -0.8834003806 0.442176193
-0.015516631 -0.15537894 0.80236834 0.5404188633 0.1026009917 0.8351170421
-0.085394599 -0.16727003 0.82429409 0.4502433836 0.7298851609 0.5143427849
-0.045035109 -0.12559605 0.87290227 -0.05297255889 0.1296640784 0.9901419878
-0.11496613 -0.12538475 0.78781801 -0.2871152461 -0.4489994943 0.8461467624
-0.045460202 -0.094105743 0.81294757 -0.09185259044 -0.8294622898 0.5509586334
-0.27452385 -0.14735322 0.81613052 0.4471539557 -0.5466206074 0.7079966664
-0.24975094 -0.13027354 0.82100004 0.2969943583 -0.7974930406 0.5251659155
-0.054509379 -0.11526613 0.87127298 -0.0824611485 0.2137072682 0.9734112024
-0.16485311 -0.18828729 0.82249999 -0.05218816549 0.5787206888 0.8138542771
-0.064658046 -0.16843835 0.86771441 0.08156192303 -0.3410465717 0.9365013838
-0.15489644 -0.13511142 0.80239981 0.3211328387 -0.1941287816 0.9269238114
-0.055301446 -0.083135441 0.85359991 0.4688315392 -0.4172667861 0.7785148621
-0.2738966 -0.17482269 0.80631578 0.1398653984 0.07453579456 0.9873611927
-0.19078107 -0.1609937 0.80900002 0.05948184058 0.3456356525 0.9364816546
-0.23508108 -0.12781212 0.81623828 0.2122911215 -0.7219028473 0.6586264372
-0.055194233 -0.1017445 0.81099993 -0.0870148465 -0.5950183272 0.7989878654
-0.2614173 -0.13820007 0.81400007 0.3491629064 -0.7161422968 0.6043388844
-0.014749299 -0.10520181 0.79340428 -0.346041888 -0.6102600098 0.7126273513
-0.14503297 -0.1725928 0.8076154 0.3866384029 0.5291280746 0.7553371787
-0.021387687 -0.15678991 0.80779999 0.543672204 0.1072672531 0.8324147463
-0.23490673 -0.18497291 0.81434888 -0.2877677679 0.2465561032 0.9254187346
-0.10540136 -0.17480573 0.79578269 -0.221356526 -0.1275892556 0.9668103456
-0.033264019 -0.088577524 0.83850002 -0.120139204 -0.9356127977 0.3319566548
-0.02534947 -0.16535872 0.81620938 0.6359804273 -0.1790558547 0.7506449819
-0.036299925 -0.1749717 0.8213526 0.4974828064 -0.6886934042 0.5274583101
-0.24498607 -0.1270113 0.82726675 0.3012894392 -0.8330278993 0.4639927149
0.013200953 -0.12453379 0.79282373 -0.2412802428 0.0006069716765 0.9704552889
-0.12906724 -0.10921075 0.75500005 -0.1844642162 0.847524941 0.4976690114
-0.12866434 -0.14802518 0.76680005 0.9148582816 0.09482219815 0.3924832344
-0.082378618 -0.16475707 0.87154561 -0.02495559305 -0.1648656875 0.9860002398
-0.17788635 -0.15911658 0.81100005 0.07239727676 0.3317936659 0.940569818
-0.043129373 -0.16829948 0.82820004 0.4235664606 -0.8875296712 0.181335479
-0.033144746 -0.1583419 0.86676937 0.1813902855 -0.3905065954 0.9025531411
-0.1749305 -0.19533567 0.82514626 -0.09014636278 0.5593099594 0.8240424395
-0.0049663531 -0.12494174 0.79562491 -0.2125335038 0.01406820957 0.9770525098
-0.2147591 -0.20465678 0.82673699 -0.1340329945 0.3773294985 0.916328311
-0.12588534 -0.11262539 0.80143481 0.3376188874 -0.6142356396 0.7132517695
-0.24272269 -0.1198903 0.83900005 0.3070446253 -0.8646982312 0.3975179493
-0.027121147 -0.10290863 0.80146676 -0.05692249909 -0.8342403769 0.5484548807
-0.0034640685 -0.092913084 0.85286355 -0.637172401 -0.5952338576 0.489599824
-0.15838054 -0.1463325 0.80192864 0.1763061583 0.2218959332 0.9589986205
-0.20496555 -0.12836942 0.80900002 0.1873348206 -0.4951328933 0.8483802676
-0.092151865 -0.13378628 0.86873341 -0.09778874367 0.1351517439 0.9859874845
-0.094253108 -0.12773415 0.80000001 -0.3238910437 0.2246820778 0.9190280437
-0.13711236 -0.20287043 0.83340001 0.1715411395 0.7019629478 0.6912464499
-0.11643661 -0.14470431 0.77571434 -0.7291505933 0.01065950282 0.6842702627
-0.054850254 -0.094776429 0.81212497 -0.08752573282 -0.7718794346 0.6297153234
-0.26457101 -0.1950399 0.81451732 0.01557699312 0.435413301 0.90009588
-0.21828787 -0.17818788 0.82100004 -0.06002496555 0.2930578589 0.9542086124
-0.12297604 -0.15557238 0.78150022 -0.8026586771 -0.09533217549 0.5887705684
-0.28256911 -0.15506391 0.81452018 0.4970240593 -0.3224247396 0.8056111932
-0.10477822 -0.16732424 0.79408014 -0.4523307681 -0.3815671206 0.8061038256
-0.13282815 -0.12871878 0.78100002 0.8658192158 -0.1004247963 0.4901754558
-0.093540721 -0.12502858 0.86750007 -0.07972170413 0.142724961 0.9865465164
-0.21170317 -0.12943324 0.80900002 0.1265608519 -0.4684360623 0.8743854761
-0.0055886153 -0.10766918 0.80515391 -0.3460190296 -0.605891943 0.7163559198
-0.04623726 -0.18318337 0.82252002 0.1999502629 -0.7346696854 0.6482902765
-0.094925553 -0.1547906 0.80662155 -0.3787796199 0.3535866141 0.8552792072
-0.19538262 -0.16525759 0.81158549 0.04932110012 0.3423569798 0.9382745624
-0.16224381 -0.19839616 0.83140004 -0.09038135409 0.6602926254 0.7455500364
-0.0070733116 -0.078271501 0.86541671 -0.5070954561 -0.7027609944 0.4989801943
-0.046471223 -0.11510458 0.86900008 -0.06021113321 0.3154826462 0.9470191598
-0.17484763 -0.18383445 0.81669712 -0.01009041164 0.4533982277 0.891250968
-0.14439978 -0.19218923 0.82771438 0.0009458416025 0.6746805906 0.738109231
-0.098879524 -0.12224463 0.78388894 -0.4912076294 -0.02969373949 0.8705362678
0.0038441832 -0.11661654 0.80284619 -0.2969763279 -0.1574301422 0.9418178201
-0.087806746 -0.14781775 0.8052001 -0.2474423647 0.3773094714 0.8924179673
-0.23817718 -0.14006241 0.81100005 0.09230984747 -0.4133983254 0.9058591127
-0.15532292 -0.15598056 0.80751264 0.1319936961 0.3533009291 0.926151216
-0.20497268 -0.11098347 0.84286666 0.05929872021 -0.9456526637 0.3197260499
-0.23456122 -0.21094324 0.82500005 -0.1415171623 0.4453274608 0.8841133118
-0.045225002 -0.15559879 0.87434697 0.1152444556 -0.3269174099 0.9379998446
-0.012704414 -0.092031904 0.84354538 -0.4704467356 -0.7201197147 0.5100073218
-0.018274993 -0.078354716 0.85666674 -0.2927996814 -0.8263024092 0.4811368585
-0.15495597 -0.10775594 0.81682622 0.2109993994 -0.569742322 0.794275105
-0.23088747 -0.19774993 0.82175004 -0.2508283257 0.3445964158 0.9046206474
-0.09478303 -0.096542098 0.80583334 0.118191205 -0.691401422 0.7127376199
-0.14500535 -0.18302754 0.81760889 0.09433255345 0.6262635589 0.7738832831
-0.11523327 -0.11434132 0.79331738 0.2927109897 -0.4231565595 0.8574723601
-0.12499951 -0.10691234 0.80732268 0.3444593251 -0.6588162184 0.6688116193
-0.087123349 -0.17590092 0.79608023 -0.4307937026 -0.5303509831 0.7301675081
-0.096063212 -0.16437985 0.81554544 -0.06968582422 0.7785230279 0.6237353683
-0.2622405 -0.14713301 0.80883336 0.2563918233 -0.4844260514 0.8364177346
-0.1848217 -0.12571363 0.80721724 0.1379367709 -0.5225371122 0.8413848281
-0.16529651 -0.11506201 0.81524515 0.2036916167 -0.6758022308 0.708379209
-0.17703319 -0.12039205 0.81100005 0.1324191839 -0.5657557249 0.813870728
-0.031591561 -0.16800967 0.81900007 0.6174849868 -0.4702612758 0.6305288672
-0.12240706 -0.12136266 0.79183334 0.2286529541 -0.6962525249 0.6804044843
-0.18530622 -0.18862811 0.82100004 -0.0009875826072 0.4444519877 0.8958021402
-0.081837013 -0.17776379 0.80339992 -0.5180410147 -0.6411213875 0.5662127733
-0.13068953 -0.1416382 0.78050005 0.6632003188 -0.2328399122 0.7113022804
-0.023457663 -0.10553683 0.79421061 -0.06504268199 -0.6360287666 0.7689192891
-0.26465181 -0.18451691 0.80759525 0.04241713881 0.3005209863 0.9528315067
-0.024856631 -0.092311129 0.8235715 -0.1602469981 -0.9435712099 0.2898175716
-0.019177083 -0.13654083 0.87500006 0.1855786145 -0.1287276447 0.9741610885
-0.20401172 -0.18103607 0.81900018 0.03243155405 0.3676812351 0.9293861985
-0.1550633 -0.18780656 0.8221429 -0.006509039085 0.6390414238 0.7691447735
-0.15538454 -0.19769903 0.83214295 -0.07489962876 0.6562742591 0.7507956624
-0.14542113 -0.12454239 0.80133319 0.34838745 -0.5296689868 0.7733543515
-0.19540045 -0.21155834 0.83192313 -0.0821865201 0.4737651646 0.8768078089
-0.22399954 -0.18543433 0.82159066 -0.184112519 0.3039697111 0.9347218871
-0.26222649 -0.20128822 0.82100004 -0.04449781775 0.4913739562 0.8698112369
-0.077705979 -0.13027179 0.86900002 -0.09688978642 0.1773758829 0.9793621302
-0.083462305 -0.10150518 0.80107695 -0.1784065813 -0.4500073195 0.8750225902
-0.25334468 -0.18983077 0.81100005 -0.1429949999 0.3629949987 0.9207535386
-0.093857482 -0.1764403 0.83192319 0.3157058358 0.948833704 0.006664674729
-0.023068422 -0.11201724 0.7921052 -0.1329676062 -0.3892346621 0.911491096
0.014560801 -0.11532044 0.86444843 -0.8708993196 -0.3175461888 0.3750983179
-0.20286973 -0.11937687 0.81866676 0.1582641453 -0.844796598 0.511146903
-0.11754742 -0.11052881 0.80049998 0.3292481601 -0.6101445556 0.7206380963
-0.11440297 -0.14476661 0.80649996 -0.5919223428 0.3300487697 0.7353202105
-0.26732725 -0.15001607 0.81100005 0.3286771476 -0.4594766796 0.8251378536
-0.19562596 -0.18761219 0.82195997 0.03546907008 0.4234574437 0.9052214026
0.0037497666 -0.10262935 0.8545 -0.7945293784 -0.4351109564 0.423558116
-0.13864045 -0.11020138 0.81100005 0.2967414856 -0.6134153605 0.7318921089
-0.21803285 -0.1310567 0.81100005 0.1683891714 -0.5430938005 0.8226142526
-0.24495266 -0.13474116 0.81286979 0.2099423259 -0.6423295736 0.7371139526
-0.16598862 -0.16341934 0.80825925 0.08487280458 0.3566774726 0.9303643107
-0.014315508 -0.11461683 0.79069602 -0.2320767343 -0.2173825949 0.9480955601
-0.15419483 -0.16446894 0.80766642 0.1293960661 0.3917735219 0.9109172225
-0.010913449 -0.14397356 0.79799998 0.1257906258 0.219195962 0.9675380588
-0.072346039 -0.16905962 0.86866665 0.02228444442 -0.2789897323 0.9600355029
-0.063199013 -0.087611839 0.85613328 0.492447257 0.1528379321 0.8568175435
-0.057463095 -0.1844703 0.81850004 -0.08914794773 -0.7434917092 0.6627765298
