# .PCD v0.7 - Point Cloud Data file format
VERSION 0.7
FIELDS x y z normal_x normal_y normal_z
SIZE 4 4 4 4 4 4
TYPE F F F F F F
COUNT 1 1 1 1 1 1
WIDTH 512
HEIGHT 1
VIEWPOINT 0 0 0 1 0 0 0
POINTS 512
DATA ascii
-0.0015635351 -0.019560624 0.89250004 0.06081405655 0.3431894183 0.9372953773
-0.15244225 -0.14383821 0.89249998 0.2344972342 0.2085399181 0.9494851828
0.093527749 0.0034290364 0.79351723 -0.2412516922 -0.03582747281 0.9698010087
-0.035872031 -0.13143979 0.89599997 -0.1763314009 0.6927340627 0.6993044615
-0.066535346 -0.055646684 0.80346161 -0.55850631 0.4662954211 0.6860315204
-0.10456385 -0.054212756 0.90399998 0.5112372041 -0.7819549441 0.3566272557
0.064793549 0.054495744 0.87411124 0.03602058068 -0.7624490261 0.64604491
0.063326888 -0.071506187 0.8481667 0.467304796 -0.4256033897 0.7749115825
0.025137121 0.0053284192 0.82752168 0.3801010847 -0.5393959284 0.7513821721
-0.0072908467 -0.088227428 0.84100002 -0.1067628935 0.2947812676 0.9495818615
0.038158815 -0.07231725 0.9131667 0.4144810736 0.4149894714 0.8099315763
0.074183583 -0.015381604 0.88711071 0.184836939 0.09642872959 0.9780269861
-0.094014987 -0.11028893 0.87800014 0.08733677119 0.5097987652 0.855848968
-0.055749808 -0.034335058 0.86013329 0.664483726 -0.2938299477 0.6871138215
-0.015227981 -0.034952439 0.81729805 -0.09425019473 0.1513859481 0.9839711189
0.11097175 0.023030691 0.86849999 -0.6735084653 -0.4023951292 0.62005198
-0.10031433 -0.15876521 0.90100002 -0.1852652431 0.3537425399 0.916811347
-0.14744481 -0.094248362 0.91181815 0.7226690054 -0.5507775545 0.4176046252
0.017725483 0.02273109 0.87227285 0.8465554714 -0.5024684072 -0.1756966114
-0.055144142 -0.086193591 0.86243761 0.1271436512 0.5493091941 0.8258897662
0.021431871 -0.049515009 0.84300005 -0.07138096541 0.5768503547 0.8137249947
0.07530953 0.022851191 0.83809996 -0.4513355494 -0.7144898176 0.5346031785
0.082568847 -0.040925428 0.81900007 0.6969740391 0.3138255477 0.644779563
0.023060467 -0.080770679 0.87271434 0.3102791905 -0.6629067659 0.6813820004
-0.09234456 -0.068353698 0.86874998 0.5216501355 -0.3957952857 0.7557957172
0.034611478 -0.0346146 0.89733356 0.1300799251 0.243312642 0.961185813
0.053915661 0.0051758951 0.80068737 0.1297393292 -0.6051220894 0.7854902744
-0.034718372 -0.076257184 0.81574094 0.1948382258 0.9192429185 0.3420972228
-0.016114607 -0.10515351 0.87550008 0.3098366857 0.7454507947 0.5901731849
-0.12509196 -0.084737346 0.8840571 0.5857217908 -0.4683834016 0.6614733338
-0.075280972 -0.13488166 0.89450043 -0.04062926397 0.4671321511 0.8832535148
0.061621774 -0.050795525 0.88233334 0.6542012095 -0.3640545309 0.6629366875
0.04506978 0.0026413964 0.88640004 0.01645679586 0.428031534 0.903613925
-0.12468815 -0.1253977 0.88470453 -0.07599829882 0.2212773412 0.9722451568
-0.027720077 -0.014439576 0.84157145 0.6318746209 -0.3466173708 0.693246603
-0.021677628 -0.057399165 0.84299999 -0.3722494245 0.2965355515 0.8794867992
0.030228343 -0.090685032 0.84100002 0.4440659881 -0.7761375308 0.4476783872
0.044781189 0.034768812 0.85536003 0.4075846672 -0.7168235183 0.5657197237
-0.054401807 -0.11339039 0.87766683 0.03343304619 0.5974987745 0.8011725545
-0.076199651 -0.04310257 0.90500003 0.49465096 -0.81436342 0.3035335541
-0.036739107 -0.048625752 0.80172735 -0.568218708 0.2826300561 0.7728180289
0.08664564 0.03835417 0.86066669 -0.3834952414 -0.6099307537 0.6934809685
-0.0037528351 0.0038511383 0.83373332 0.3494205475 -0.5406319499 0.7652596831
-0.12844044 -0.071001232 0.91000003 0.6538575888 -0.6554096341 0.3780324161
-0.15439391 -0.11547499 0.89228135 0.6591960788 -0.2930553257 0.6925165057
0.094253734 -0.015275804 0.81467754 0.04944187403 0.2934442759 0.9546967745
-0.061708443 -0.06213475 0.85099995 0.5079820156 -0.1569217145 0.8469532728
0.014410147 -0.050946105 0.90600008 0.1657485515 0.3666582406 0.9154720902
0.045214005 0.022643745 0.82581812 0.2608058453 -0.8713922501 0.4155188203
-0.027048724 -0.085847795 0.8612352 0.2408697158 0.5723512173 0.7838340998
-0.12681247 -0.15130652 0.889 -0.07815184444 0.3472419083 0.9345134497
-0.0025822707 -0.11300138 0.85488892 0.1976606846 0.8534240127 0.4822838306
-0.077918135 -0.048602398 0.88000005 0.5596671104 -0.7353554964 0.3821322322
0.065722696 -0.046495572 0.84381479 0.3486474454 0.3398278356 0.8734769821
0.038048211 -0.068635985 0.85100001 0.1751830429 -0.6324763298 0.7545095086
0.02476999 -0.012368053 0.889 0.0203286428 0.2965039909 0.9548152089
0.094936863 0.0096415803 0.84600008 -0.6767722368 -0.4491843283 0.5832775831
0.074180812 0.014394477 0.81188881 -0.1988092065 -0.7392145991 0.6434568167
-0.10329251 -0.13661988 0.89100003 -0.1735910922 0.3194248974 0.9315760136
-0.040666815 -0.043604817 0.83833337 0.7727372646 -0.1812847555 0.6082868576
0.0057680854 -0.073770888 0.85443473 -0.4925237 -0.1709062457 0.8533530831
0.00219605 -0.038796883 0.83500004 -0.1564926505 0.4968737066 0.8535962701
0.011413324 -0.078436241 0.83100003 0.0536274761 0.158419162 0.9859145284
0.036401898 0.043014124 0.87492317 0.5472534895 -0.7000495195 0.4587420821
-0.055797514 -0.1438776 0.9019565 -0.1677575111 0.5588882565 0.8120968938
-0.13478616 -0.10493402 0.88252628 0.4649954736 -0.1207590178 0.8770384789
0.069605581 -0.0105463 0.80200005 -0.1392870843 0.06054838747 0.9883992076
0.054687995 -0.025123488 0.89151454 0.2030949891 0.1159795746 0.9722660184
-0.038766492 -0.07136447 0.84500003 0.3933327496 0.7004175782 0.5955707431
-0.074938037 -0.094045654 0.86805266 0.113237679 0.5067048073 0.8546504974
0.044498701 -0.054906048 0.89553136 0.4933667183 0.2185871154 0.8419079185
-0.10661039 -0.08446268 0.87203228 0.4104637206 -0.1348233223 0.9018548727
-0.015163528 -0.1195903 0.89160001 -0.1652499437 0.7132372856 0.6811644435
-0.111884 -0.068791158 0.88833332 0.5729779005 -0.6549350619 0.4927031994
0.065559007 0.037950303 0.85331821 -0.02755001001 -0.7556369305 0.6544110775
-0.0057127848 -0.014073429 0.82282835 0.2131065279 -0.2481924444 0.9449794292
-0.017279563 -0.07497599 0.8274706 -0.6837683916 -0.6137185097 0.3947281837
0.01111175 -0.10074653 0.84500003 -0.09634849429 0.5931052566 0.7993391752
-0.11484422 -0.10321437 0.8778891 0.2027010918 0.1855930686 0.9614923
-0.053841874 -0.074409328 0.80900002 -0.3158781528 0.4662938416 0.8263117075
-0.034696959 -0.11566381 0.88321882 -0.1358703971 0.6918447018 0.7091474533
0.027508572 0.021918595 0.83900005 0.3787066638 -0.8259566426 0.4175845683
-0.07530728 -0.11617445 0.88207692 0.05827164277 0.5371670723 0.8414605856
0.11148202 0.0035177127 0.87220001 -0.9145751595 0.2168311477 0.3413744569
0.0013164611 -0.037124202 0.90100002 0.09949106723 0.3659159243 0.9253145456
-0.035061542 -0.10237794 0.86799997 0.03903033957 0.6677798629 0.7433348298
-0.075911611 -0.15290296 0.90200007 -0.1178758144 0.4103185236 0.9042919874
-0.014075059 -0.073220253 0.85399997 0.0008311343263 0.0202896148 0.9997938275
0.073967144 -0.034350809 0.88364851 0.3087372184 -0.0883057192 0.9470393062
-0.042100973 -0.056669831 0.81823093 -0.8737494946 0.2774844468 0.3994548321
0.055267908 0.026528887 0.84147978 0.05086367577 -0.8792641163 0.4736111462
-0.093895257 -0.05753075 0.88514292 0.5440208316 -0.7463285327 0.3834514916
-0.072760873 -0.075869888 0.85799986 0.4364925921 0.2018541098 0.8767719865
-0.042014755 -0.025567858 0.84714299 0.7312505245 -0.2914506197 0.6167083979
0.10134424 0.041117597 0.87180007 -0.5177332759 -0.4559022486 0.7239512205
-0.058451749 -0.13015257 0.88900006 -0.08619182557 0.61619699 0.7828615308
0.081253849 -0.050509151 0.83500004 0.6443294287 0.3019526899 0.7026124001
0.028582841 0.024821939 0.85800004 0.5876136422 -0.7447503209 0.3163182139
0.0061450242 -0.058647532 0.84113324 -0.08471179008 0.4328276813 0.8974876404
0.042487472 0.0080108047 0.8160001 0.465723753 -0.5975724459 0.6526933312
-0.054968756 -0.044635072 0.79640013 -0.540391624 0.3872198761 0.7470192313
-0.02986891 -0.032054439 0.83100003 0.6116163731 -0.277924031 0.7407318354
0.043865975 -0.078698002 0.83805877 0.2002393156 -0.6759373546 0.7092339993
0.014910871 -0.025116434 0.89521444 0.0711407885 0.3270527124 0.9423245192
0.061897926 0.022312043 0.82100004 -0.02730705217 -0.9064981937 0.4213257134
-0.13711372 -0.08408834 0.90275002 0.7082555294 -0.59285748 0.3832677007
-0.023577783 -0.063439392 0.8148095 -0.5207290053 0.1860233545 0.8332086205
0.022377703 -0.065777078 0.85649997 -0.04134755954 0.7478179932 0.6626150012
0.093805939 0.023835357 0.85600019 -0.6059747338 -0.4849847555 0.6305429935
0.01354152 0.01852309 0.88780004 -0.08984029293 0.4184994698 0.9037626386
-0.067686118 -0.0452509 0.86750007 0.6278494 -0.4240920246 0.6526492834
0.027921833 -0.059832498 0.91000003 0.3693475127 0.4654018581 0.8043528795
-0.042281631 -0.13960917 0.91000003 -0.1783323884 0.6500168443 0.7386986017
0.054461163 -0.055828914 0.85099989 0.4137742221 -0.05529434234 0.9086987376
0.054599367 0.045826659 0.86232269 0.191517204 -0.7679730058 0.6111780405
0.084545158 -0.0051774438 0.80382931 -0.2731169462 0.02094258741 0.9617528319
0.07659062 -0.024590569 0.80502653 -0.1309769303 0.4465095103 0.8851408362
-0.0127747 -0.04543991 0.83729994 -0.03452250734 0.6438037157 0.764411509
-0.093094811 -0.092383765 0.8690002 0.276514709 0.2849527597 0.9177916646
-0.09507855 -0.12354793 0.88792843 -0.0563028045 0.4086261392 0.9109635949
-0.090533368 -0.049596541 0.89800006 0.4952074885 -0.8071405292 0.3213933706
-0.058795404 -0.098501392 0.87100005 0.09248576313 0.5492967367 0.8304935098
-0.1606667 -0.13088457 0.89400005 0.3766232133 -0.05033737421 0.9249978662
-0.14444818 -0.1248358 0.88526815 0.3189573586 0.02169395983 0.9475207329
-0.021543497 -0.019122146 0.82833338 0.5084939599 -0.3081597686 0.8040344715
-0.031920582 -0.046397444 0.82607704 0.7670444846 -0.4145088494 0.4897194505
-0.11675792 -0.063786313 0.90327781 0.575402379 -0.6976927519 0.4267750382
-0.018651083 -0.093255416 0.85100001 0.5426079035 0.5967825055 0.5911237597
0.084498681 0.051003005 0.86833334 -0.2733283043 -0.6763030887 0.6840363741
-0.082315847 -0.057511084 0.86779994 0.5475406051 -0.5064345002 0.6661255956
-0.014464332 -0.0061036688 0.83340001 0.4418348372 -0.5147119164 0.7347472906
0.026021658 0.035556283 0.88183337 0.7131736279 -0.6335676312 0.2999591231
0.014455619 0.013366359 0.83310014 0.3989221156 -0.6655622721 0.6307836771
0.025592664 -0.078673884 0.8339231 -0.2108602375 -0.1715245843 0.9623498917
0.054215934 -0.044341523 0.89479423 0.4438093901 -0.1040483192 0.8900601864
-0.12504831 -0.075174809 0.89473695 0.6238469481 -0.6348515153 0.4558273852
-0.14351034 -0.095539138 0.89700007 0.7005741 -0.4869595766 0.5215997696
0.090516709 -0.03064739 0.81300002 0.2006857097 0.5992124081 0.7750288844
0.045254644 -0.011378607 0.889 0.06221075356 0.2648121715 0.9622911811
0.0033935767 0.013136148 0.84180003 0.4741271138 -0.8259584308 0.3049526513
-0.049984902 -0.043270513 0.85100001 0.6825469732 -0.2582809627 0.6836816072
-0.11506638 -0.15506737 0.8954739 -0.1772914529 0.3569909036 0.9171288013
-0.11636395 -0.14226256 0.889 -0.1871500611 0.3023712039 0.9346370697
-0.14258705 -0.15331161 0.89450002 0.1256702542 0.2548769414 0.9587725401
-0.13475686 -0.1347598 0.88341677 0.08746138215 0.2021753639 0.975436151
0.033600137 -0.048425511 0.90100002 0.3644794226 0.3069581091 0.8791652322
0.047280092 0.051374126 0.87466669 0.3546737134 -0.7619922757 0.5418249965
-0.0046501686 -0.077931166 0.83175009 -0.2515130937 -0.4325751662 0.8658059239
0.014566811 -0.0032910653 0.82813352 0.3257641792 -0.5565196276 0.7643059492
-0.049065281 -0.057985358 0.84800005 0.5532086492 -0.05150530115 0.8314489722
-0.0048323525 -0.064828575 0.84624308 -0.2080882788 -0.168487668 0.9634890556
-0.0042834566 -0.10316426 0.84571421 0.2365457565 0.721573472 0.6506748796
-0.084795929 -0.14447176 0.89561135 -0.1333365589 0.3786989748 0.9158648849
0.016138557 -0.040149581 0.89800006 0.09766341001 0.3465736806 0.9329247475
-0.10502607 -0.11492952 0.88438457 -0.0003523516643 0.4169536829 0.9089276791
-0.054561805 -0.072202094 0.84560013 0.3289835155 0.3758518398 0.8663170338
0.032234158 -0.072519377 0.86245447 0.3440561593 -0.8664031029 0.3618991375
0.072091304 -0.057863887 0.84157139 0.4769964814 0.05098693818 0.877425015
-0.044871122 -0.12341187 0.88652641 -0.1178092882 0.6519716978 0.7490352988
0.071735874 -0.038796883 0.83500004 0.3766600788 0.6002234817 0.7055912018
0.015054072 -0.076850794 0.86316681 -0.4028306603 -0.125263229 0.9066623449
0.10003994 0.0097783403 0.85800004 -0.7095932364 -0.366356343 0.6018807888
0.063051365 -0.034771569 0.89293569 0.293438375 -0.07525260001 0.9530115128
0.064627491 -0.0068256301 0.88700002 0.1247643083 0.1878580004 0.9742398262
-0.034158163 -0.064759634 0.82417238 -0.9727024436 -0.0379473567 -0.228932187
-0.084747635 -0.084748253 0.86308336 0.2811374068 0.3125381172 0.9073486924
0.075139232 0.045788147 0.8615135 -0.1685069203 -0.7459337115 0.6443510652
0.075240456 0.0047811847 0.80373323 -0.06330924481 -0.4524155557 0.8895572424
0.03509938 0.015273726 0.8240909 0.4219993353 -0.7214534283 0.549018681
0.035012182 -0.0046707117 0.88747615 0.04896254465 0.2343491167 0.970918715
-0.044864476 -0.095453784 0.86523277 0.1000631228 0.5466169119 0.8313827515
0.084962301 0.015596777 0.83725005 -0.5312132835 -0.750413239 0.3933095634
0.074271984 0.031736895 0.84622234 -0.2813003063 -0.6788902283 0.6782169342
-0.15254338 -0.10195821 0.90157145 0.7150657177 -0.476038754 0.5119258761
-0.045121808 -0.10799606 0.87236857 0.05267546698 0.6004613042 0.7979169488
-0.0077600926 -0.024911122 0.81818199 0.01462597772 -0.1001176983 0.9948680997
0.01559327 -0.089846939 0.84700006 0.3906262517 -0.6228061914 0.6778817177
0.053968914 0.018882304 0.81275004 0.1924631298 -0.7676394582 0.611299932
0.007949437 -0.013249064 0.88900006 0.0784047246 0.2686631083 0.9600379467
0.035384506 0.034661647 0.86268979 0.5903453231 -0.6505007744 0.4778504968
-0.10161817 -0.06680309 0.87591672 0.5728737116 -0.5812411308 0.5779052377
-0.076637156 -0.064934403 0.86008012 0.5622467995 -0.2661127448 0.7829831243
-0.025570087 -0.097413629 0.86313337 0.2755346894 0.7496939898 0.6016972661
0.03540099 -0.016833019 0.89225829 0.0424843058 0.2793930471 0.959236443
-0.039022185 -0.075042665 0.85600007 0.08388844132 0.4789839089 0.873806119
0.041737348 -0.067754306 0.90314293 0.4553535283 0.328325659 0.827559948
-0.025457315 -0.12470505 0.89264703 -0.180947125 0.7102394104 0.6803073883
-0.021228483 -0.08272022 0.83500004 0.4629003704 0.8285349607 0.3150445223
-0.075037263 -0.10413641 0.87338889 0.0837880671 0.5435948372 0.8351552486
0.083601266 0.025123321 0.8455556 -0.5112643838 -0.6086448431 0.6067620516
-0.0044297967 -0.053175896 0.83720678 0.05780786276 0.4452058673 0.8935602903
-0.12316991 -0.095554434 0.87684631 0.4171471298 -0.1283719093 0.8997271061
-0.023544308 -0.045741558 0.81843752 -0.7078605294 0.1288010031 0.6945097446
0.067371055 -0.024160055 0.88900006 0.1996758133 0.0005750317941 0.9798618555
0.064557254 0.0026584037 0.79800016 -0.1102304086 -0.5105586052 0.8527480364
-0.078438655 -0.047062755 0.89475 0.5071117878 -0.8047395945 0.3085965514
-0.038409397 -0.065477356 0.83450001 0.8230383396 0.3462403715 0.4502504468
-0.066896461 -0.14146836 0.89775014 -0.1453399956 0.5040850043 0.851336956
0.064792395 0.013137694 0.80603456 -0.04801489785 -0.6299818754 0.7751241326
0.0048726252 -0.084897906 0.83720523 -0.1100496054 0.3334586918 0.9363195896
-0.12359773 -0.16138557 0.89800006 -0.09325838089 0.3971562386 0.9130004644
-0.08562167 -0.12804195 0.89099985 -0.03556440398 0.4425947368 0.8960162401
-0.065070242 -0.11150171 0.87783355 0.1048100069 0.5495991111 0.8288279176
0.051437538 -0.060010463 0.88900006 0.5395453572 0.09010165185 0.8371215463
-0.02540054 -0.11006901 0.87800002 -0.142684862 0.7023310661 0.6974037886
0.075921267 -0.033752076 0.81446671 0.300988704 0.5926997066 0.7470695376
0.01103285 -0.049280062 0.83900005 -0.05913745612 0.5168338418 0.8540407419
-0.02014317 -0.06490577 0.85100001 -0.1709531397 0.3315519989 0.9278191328
-0.0077461014 -0.033168182 0.82499999 -0.2530183196 0.2014465034 0.9462563396
-0.10488712 -0.094935045 0.87328565 0.2308386117 0.2619717121 0.9370615482
0.074983232 0.054824807 0.87100011 -0.1234222054 -0.7972003818 0.5909640789
-0.045824844 -0.13453463 0.89643764 -0.1649376005 0.6600574255 0.7328845859
0.048198607 0.011875326 0.80620003 0.290165633 -0.6244439483 0.7251715064
0.077940695 -0.043492943 0.82809091 0.5484965444 0.4620197415 0.6969141364
-0.1248675 -0.11521386 0.88280427 0.1194872111 0.1951274574 0.973472178
-0.0079210335 -0.11508723 0.88580006 0.09756684303 0.8215538859 0.5617204905
-0.10536787 -0.12451153 0.88807297 -0.1002417058 0.3442462981 0.9335127473
-0.043553852 -0.035606042 0.84564537 0.730629921 -0.2827222645 0.6214885712
0.065011464 0.047387213 0.86185712 0.03432525694 -0.7691933513 0.6380935311
0.044767696 -0.034558795 0.89590472 0.2487289608 0.08442194015 0.9648869634
0.025129648 -0.025131395 0.8957777 0.02463799156 0.3072516024 0.9513093233
-0.084978297 -0.097757481 0.87214297 0.1373975724 0.4658912718 0.8741093874
-0.14143781 -0.095817231 0.88700008 0.6502510905 -0.40589872 0.6421991587
-0.1064538 -0.061876092 0.89345455 0.5397326946 -0.7301388979 0.4190296233
0.054128293 0.038541257 0.85411763 0.2039921731 -0.7600325346 0.6170395017
-0.1351853 -0.14451019 0.88622212 0.08686760068 0.2618576288 0.9611891508
-0.094906971 -0.14432582 0.89471465 -0.1628735363 0.3436255157 0.9248749614
0.055201467 -0.064393543 0.84562242 0.4906648397 -0.4575523138 0.7415482998
-0.14450237 -0.13517648 0.88616669 0.224474147 0.1484937221 0.9630996585
-0.085314423 -0.11549298 0.88331032 0.04513245448 0.5251810551 0.8497928977
-0.035005789 -0.094787925 0.86077791 0.1605613828 0.6512183547 0.7417106628
-0.11160843 -0.078125902 0.87800002 0.5383474827 -0.4215553403 0.7297075391
-0.084503718 -0.074845493 0.8615368 0.4336950481 -0.01621616073 0.900913775
0.013794519 -0.06381654 0.84500003 -0.2808493972 0.5894229412 0.7574326396
0.065754578 0.025643503 0.83735716 -0.2130367756 -0.8589325547 0.4656717181
-0.065528624 -0.082739741 0.85770363 0.1932536513 0.4671036303 0.8628251553
-0.063697562 -0.064506412 0.8070569 -0.3299498856 0.5411055088 0.7735230327
0.084159873 -0.014947992 0.80555558 -0.193917945 0.2698575258 0.9431716204
-0.14751765 -0.10459008 0.89346665 0.6537855864 -0.4296227396 0.6228874326
-0.044412367 -0.074878477 0.81189996 -0.2409686744 0.7040127516 0.6680570245
-0.1148839 -0.11463755 0.88432437 -0.009151397273 0.3125776052 0.9498481154
0.095209114 0.034720473 0.8638711 -0.521240592 -0.458578974 0.7197315693
0.0061255204 0.0016611578 0.82900017 0.3022416532 -0.5319185257 0.7910199761
-0.14435883 -0.11506172 0.88597143 0.4848481417 -0.1958315074 0.8523920774
-0.11507284 -0.12518117 0.8869046 -0.1392103732 0.2792527974 0.950072825
0.054780222 -0.013569308 0.88894117 0.1162241846 0.2176667899 0.9690784812
0.075309508 0.036883663 0.85446155 -0.2464593053 -0.6931538582 0.6773444414
0.045267407 0.043654229 0.86410356 0.4010116458 -0.7537969947 0.5205571055
-0.075275458 -0.085108966 0.86085725 0.2308358997 0.4109909534 0.8819304109
0.044989917 -0.025240846 0.89317977 0.1039068177 0.2304300964 0.967525363
-0.12497555 -0.13507113 0.88547605 -0.09327608347 0.2314724624 0.9683594704
-0.068998046 -0.1283624 0.89100003 -0.02059573494 0.5378228426 0.8428062797
0.045953106 0.02765182 0.84387499 0.2355147898 -0.8787704706 0.4150846601
-0.13492125 -0.12515743 0.8825385 0.1868263483 0.09780335426 0.9775123596
0.034265313 -0.078080177 0.8380909 -0.005730895791 -0.632013917 0.7749358416
0.025754213 -0.04037451 0.89800012 0.09122089297 0.3077231646 0.9470930099
-0.13446604 -0.1150473 0.88252509 0.3137984276 -0.007469097152 0.949460268
-0.085433483 -0.15401438 0.90234625 -0.1489715576 0.3707681596 0.9166997671
0.045116886 -0.044571891 0.89743471 0.3887190819 0.01569116116 0.9212226868
0.081864007 0.0088986047 0.81200004 -0.4245203435 -0.6597422361 0.6200989485
-0.04670218 -0.04662678 0.80044454 -0.540391624 0.3872198761 0.7470192313
-0.10484707 -0.14553674 0.8934328 -0.1977564842 0.327809006 0.923814714
-0.017949751 -0.071081012 0.81900007 -0.3526886106 0.2193192095 0.9096756577
-0.032488391 -0.025609141 0.83721048 0.6652694345 -0.3312048912 0.669118762
-0.085446507 -0.043942183 0.90458345 0.4991940558 -0.8095392585 0.3089521527
0.054316889 -0.073618159 0.84493566 0.4366591275 -0.5570175052 0.7064419985
-0.063823439 -0.046900887 0.80189288 -0.7081841826 0.3129868507 0.6328620911
-0.050396059 -0.02707848 0.85800004 0.6967762709 -0.2975338697 0.6526687145
0.045587163 -0.063256614 0.85099995 0.2942860723 -0.4608789682 0.8372492194
-0.10443309 -0.10335272 0.87711132 0.1429179758 0.3767430186 0.9152262807
0.10393789 0.033124968 0.86793345 -0.6088597178 -0.4146193564 0.6762992144
0.06444864 0.032719966 0.84580016 -0.06616454571 -0.7810887098 0.6209046841
-0.08624848 -0.052429311 0.88470012 0.5210447907 -0.7825941443 0.3406739533
-0.025953345 -0.054360904 0.81633341 -0.8127034307 0.1219495311 0.5697731376
-0.13903889 -0.082302779 0.91150004 0.7033590674 -0.6193987131 0.3487567008
-0.016249336 -0.02292762 0.82200009 0.4597385526 -0.3592406213 0.8121494055
-0.0031595067 -0.029225437 0.90100002 0.08339936286 0.3407629728 0.9364427924
0.10519202 0.015137228 0.86320007 -0.7137015462 -0.3638958633 0.598506391
0.028525637 0.03157074 0.86774999 0.6313568354 -0.6371985078 0.4420029223
0.055093173 -0.0047623958 0.88697547 0.08638075739 0.2353821993 0.9680566192
-0.044909161 -0.086775035 0.86300009 0.1069824323 0.5980302095 0.794301331
-0.12622529 -0.10633218 0.88033342 0.2905144393 0.09116147459 0.9525182247
-0.064262018 -0.093309164 0.86618763 0.09891283512 0.5192164779 0.8488995433
-0.075361513 -0.1441578 0.89711779 -0.09272947907 0.433537513 0.8963517547
0.0047099409 -0.025123321 0.89544457 0.06081405655 0.3431894183 0.9372953773
-0.0095618032 -0.1007667 0.83900005 0.1456697732 0.6153979301 0.77463907
-0.022354562 -0.0091616046 0.83599997 0.5439485908 -0.4352368712 0.7174181342
0.093617871 0.042931985 0.86675006 -0.4228012264 -0.5525231957 0.7183016539
0.090059087 0.020095831 0.84900004 -0.597048223 -0.525396347 0.6062112451
-0.016041685 -0.088683598 0.84125006 0.6061962247 0.3925127387 0.6917079687
0.034960974 -0.024940891 0.89543599 0.05059716478 0.2870292366 0.9565846324
0.080093145 -0.021772893 0.88700002 0.2064780742 0.01371998526 0.9783550501
0.081907846 -0.03189351 0.80842865 0.03622543439 0.6103509068 0.7913023829
-0.054818675 -0.13509291 0.89514315 -0.142008692 0.6189369559 0.7724963427
-0.004215451 -0.0065199337 0.82681262 0.338983655 -0.4924852252 0.8015911579
-0.13246237 -0.087722987 0.88750005 0.6383470893 -0.4845925272 0.5980660915
0.0073442124 -0.043268763 0.90200001 0.09234232455 0.3673598468 0.9254834652
-0.046527755 -0.065173015 0.84396982 0.5428780317 0.01327111851 0.8397066593
-0.14269333 -0.10586119 0.88647836 0.5576999187 -0.3056336045 0.7717246413
-0.10464076 -0.074943312 0.87414283 0.5093160272 -0.3818872869 0.7712063789
-0.038009856 -0.1354084 0.90325004 -0.1781653911 0.6591717601 0.7305817604
0.055613101 0.051042158 0.86900002 0.2319964916 -0.7784929276 0.5832035542
-0.14350112 -0.14408578 0.88800001 0.1510848701 0.242397204 0.9583407044
-0.095157973 -0.13473366 0.89242131 -0.1301807463 0.3473226726 0.9286656976
-0.088891014 -0.06165579 0.87260008 0.5597164035 -0.5640232563 0.6071204543
-0.084478758 -0.065055169 0.86320013 0.4660715461 -0.4025373161 0.787871182
-0.13241008 -0.077155143 0.90322232 0.6648401618 -0.6340777874 0.394883424
-0.077884823 -0.051159635 0.87100005 0.6079941988 -0.5727360845 0.5498331189
0.0051943338 -0.094921298 0.84585714 -0.03827752918 0.3719909787 0.9274467826
0.070770971 -0.041433018 0.88066673 0.3426568806 -0.1340994835 0.9298406243
-0.055709861 -0.10560323 0.87403703 0.06946356595 0.5501638055 0.8321626186
0.017665418 -0.0080533512 0.889 0.02905178815 0.3277330697 0.9443235993
0.096668854 0.015863063 0.85345 -0.6880830526 -0.4092826247 0.5991906524
-0.024804 -0.073651507 0.82420009 0.5138377547 0.8370214105 0.1880582273
-0.026181504 -0.035246719 0.8242777 0.5150997639 -0.3261238933 0.7926635146
0.090469368 0.0095618032 0.83900005 -0.6158930659 -0.6728473902 0.409819603
0.053916875 0.022376167 0.82328576 0.1776026636 -0.8898239136 0.4203220904
0.064424559 -0.055369679 0.84354168 0.3777298331 0.1093296334 0.9194385409
0.015804712 -0.055624459 0.84116191 -0.4301496744 0.1556734443 0.8892339468
-0.048036505 -0.034048796 0.85235709 0.7132208943 -0.2864431143 0.6397392154
-0.11441018 -0.085634857 0.87621224 0.4434186816 -0.2410793602 0.8632847667
-0.01095395 -0.038703956 0.83300006 -0.1053517759 0.4707401395 0.8759593368
0.01559567 -0.084491313 0.83457887 0.003915430978 0.3994689286 0.9167383909
0.035847131 0.026938722 0.85489464 0.5043982863 -0.7933076024 0.3409478366
0.055055186 -0.034793101 0.89447415 0.343914777 -0.02293377556 0.9387207627
0.038270593 0.04080708 0.86733335 0.5520595312 -0.6869761348 0.4725400209
-0.01838861 -0.098332189 0.86680001 0.378580153 0.7882816792 0.4850660563
0.037372883 0.02213525 0.82783335 0.3231134713 -0.8439341784 0.4282204509
-0.0051240446 -0.044641141 0.83475477 -0.1677371264 0.6119348407 0.7729165554
-0.024910124 -0.093000799 0.85613632 0.4745246172 0.6414707899 0.6027782559
-0.074783549 -0.12360371 0.88792837 0.0271947179 0.5244303346 0.8510189652
0.014381515 -0.072369643 0.85646152 -0.4387172163 0.3912472725 0.8089825511
0.034670558 0.0072230026 0.82400006 0.4821909964 -0.6076193452 0.6311026812
-0.097108372 -0.15235144 0.89733338 -0.1699942648 0.3492843509 0.9214675426
-0.024856435 -0.11498988 0.88434356 -0.1430465579 0.7137617469 0.6856251359
-0.034430541 -0.055981312 0.81599998 -0.8092643023 0.1224067658 0.5745500922
0.08460097 -0.024537874 0.8067435 -0.1309769303 0.4465095103 0.8851408362
0.02746349 -0.054417491 0.90411764 0.2915739119 0.4144499004 0.8620997071
0.088072859 -0.0020975713 0.79733342 -0.2731169462 0.02094258741 0.9617528319
-0.1339051 -0.084901586 0.8948462 0.6906473637 -0.5681269765 0.4474795759
0.015814565 0.0045678923 0.82895261 0.3534427583 -0.5494354367 0.7570990324
0.01484109 -0.018333115 0.89099985 0.05191105604 0.323530525 0.9447926879
-0.048891701 -0.081987619 0.85800004 0.1281861961 0.552796185 0.8233982921
0.0018076866 -0.011202924 0.82450002 0.2135757059 -0.3441401124 0.9143046737
0.075364612 -0.0050679906 0.80148929 -0.1412954181 -0.1064613909 0.9842264056
-0.014511597 -0.015915792 0.82643598 0.4564589262 -0.3468252718 0.8193640709
0.0051870691 -0.065231778 0.84547633 -0.310816139 0.6682701707 0.6758759618
-0.11532805 -0.094917476 0.87576312 0.3219959736 0.06702097505 0.9443657994
-0.122295 -0.07810469 0.88740003 0.5879295468 -0.5926337242 0.5505670905
-0.10577969 -0.065452613 0.88452953 0.5608044267 -0.6543255448 0.5073031783
0.051553257 -0.050772149 0.89100003 0.4937609732 -0.0031762172 0.8695918322
0.0014920867 -0.10743024 0.85100001 0.1741155088 0.7753893137 0.6070051193
-0.10979286 -0.060820501 0.90100002 0.5482962132 -0.7314780354 0.4053530395
-0.065171354 -0.10428035 0.87461907 0.1037366912 0.5433987975 0.8330404758
0.083067365 0.0040822932 0.8045218 -0.2409059107 -0.3111025989 0.9193364382
0.065052003 -0.014520272 0.88868183 0.171007961 0.08103109151 0.9819318652
-0.11393954 -0.066437915 0.89556247 0.5757178664 -0.6895035505 0.4394699037
-0.10565816 -0.15517505 0.89650005 -0.1970100105 0.3390039802 0.9199257493
0.057553411 -0.0017245627 0.80154556 0.01463897061 -0.5052521825 0.8628475666
0.0015960593 -0.074783698 0.82820004 -0.3052782118 -0.2612786591 0.9157176018
0.065286659 0.018133437 0.81205887 -0.0361065194 -0.7811282873 0.6233256459
-0.11498552 -0.074933834 0.88457566 0.5759013891 -0.5813857317 0.5747418404
-0.095782407 -0.054015707 0.89422727 0.4968162179 -0.7966612577 0.3442448676
-0.14385872 -0.09373723 0.90460002 0.7191470861 -0.5508307219 0.423571676
-0.094508603 -0.07569018 0.86723256 0.4897673428 -0.2026347518 0.8479782343
-0.13388774 -0.074290194 0.91450006 0.6826253533 -0.6440365911 0.3453106284
0.025417631 0.017312767 0.83310014 0.3807302713 -0.7772554159 0.5009176731
-0.044291243 -0.11776994 0.88122231 -0.0821691528 0.6583897471 0.7481785417
-0.028649468 -0.080934741 0.81700003 0.04891413823 0.8039082885 0.59273839
0.036481958 -0.07369829 0.8441 0.1420364827 -0.5091316104 0.8488879204
0.020095831 -0.061776068 0.84900004 -0.02036549337 0.6949495673 0.7187700272
-0.054775558 -0.094734266 0.86556756 0.08854975551 0.5271704197 0.8451333046
-0.065067783 -0.13484605 0.89423805 -0.08513356745 0.5179286599 0.8511769176
-0.151455 -0.13708018 0.88900006 0.2621145844 0.1110387444 0.9586273432
-0.10845287 -0.071400553 0.88050002 0.5629508495 -0.5369538069 0.6283048391
-0.023306377 -0.026141388 0.82588893 0.5833866596 -0.3487192988 0.7335222363
-0.16105857 -0.11873661 0.89400005 0.6178953052 -0.2225286961 0.7541129589
0.055162109 0.014056106 0.80409294 0.131807372 -0.6569219232 0.7423478961
0.10458092 0.025024574 0.86491442 -0.6617949605 -0.4092887342 0.6281003952
0.060536027 -0.042570494 0.89100003 0.4316381514 -0.1179065257 0.8943078518
-0.034293827 -0.088188551 0.86443764 0.1320405453 0.6249630451 0.7694066167
-0.0066519161 -0.072974153 0.85257894 -0.08930958062 -0.124248907 0.9882236719
-0.13532163 -0.15454596 0.89283341 0.03688059375 0.2971244752 0.9541262388
-0.035413317 -0.12196477 0.88731587 -0.1726945192 0.6948376298 0.6981241107
0.076021701 -0.014437735 0.80275613 -0.1286232769 0.3165027201 0.9398308992
-0.095103167 -0.085211791 0.86783338 0.3648178577 0.1034142971 0.9253180027
-0.084118672 -0.11028893 0.87800014 0.0682355836 0.528033793 0.8464775085
-0.13458665 -0.095195495 0.88397443 0.5952085853 -0.321277082 0.7365512848
0.025331134 -0.073964268 0.86496675 0.4651821256 -0.6524239182 0.5982880592
0.043660857 -0.062342536 0.8953684 0.5026587248 0.2913701236 0.8139027357
0.055373307 0.033002239 0.84520018 0.1069395542 -0.8445415497 0.5247032642
-0.061232537 -0.07412304 0.84833336 0.2789281309 0.3552923799 0.8921694756
-0.12571454 -0.14425293 0.88683772 -0.06657909602 0.295209527 0.95310992
-0.093851984 -0.04766503 0.90437502 0.4917048514 -0.8035097122 0.3355570734
0.084799744 0.044984803 0.86339396 -0.3374691308 -0.6503150463 0.6805916429
-0.097976267 -0.060945865 0.88000005 0.5653650761 -0.6955500841 0.4433648586
-0.055222545 -0.055533618 0.85124993 0.5237528682 -0.2105049938 0.8254517317
-0.054385886 -0.065381832 0.84839422 0.4081048667 0.1134798005 0.905854702
-0.08507812 -0.055401951 0.87428582 0.5779944658 -0.6422252059 0.5034572482
-0.15620643 -0.12520599 0.89261556 0.4444208443 -0.1093679741 0.8891168237
0.091830827 -0.0088986047 0.81200004 -0.2153734267 0.1543260515 0.9642602205
0.022227183 -0.0013078114 0.82860005 0.3747368455 -0.55143255 0.7453149557
-0.038799338 -0.032012187 0.84140003 0.7328721881 -0.2962212861 0.6124959588
0.035218716 -0.064605124 0.90418768 0.4252085388 0.4124578834 0.805652678
-0.068871811 -0.15120132 0.90300006 -0.1611194462 0.4846993387 0.8597133756
0.064647771 -0.065206334 0.84469986 0.3555027544 -0.05441993102 0.9330896139
0.087731801 0.02663772 0.85307693 -0.577224791 -0.5311846733 0.6202051044
-0.034717068 -0.03478862 0.83570272 0.6633247137 -0.1492372006 0.7332997918
-0.045423098 -0.042608537 0.84489483 0.7170116305 -0.2394875288 0.6546297073
0.034815259 -0.055396378 0.90266681 0.3908236623 0.3743821084 0.8408893347
-0.045388397 -0.12834312 0.89266658 -0.1456959993 0.6711179614 0.7268929482
-0.11892729 -0.071981788 0.89250004 0.5865949988 -0.6613224745 0.4675028622
0.040810294 -0.049235646 0.90100002 0.447722137 0.2519680858 0.857937634
0.067870028 -0.035790265 0.88761115 0.3087372184 -0.0883057192 0.9470393062
-0.034252245 -0.11064631 0.87800014 -0.09363498539 0.7003829479 0.707598865
0.097264558 0.027557286 0.86116672 -0.6098319888 -0.4370426238 0.6611343622
0.079163 0.039958466 0.86000001 -0.2620180547 -0.6659694314 0.6984491348
0.025098993 0.025561232 0.86430007 0.6437633038 -0.7028298974 0.3026532233
-0.048727471 -0.14249457 0.90133333 -0.1632776111 0.6265738606 0.7620666623
0.069874719 -0.051486634 0.83900005 0.4742264152 0.2796227932 0.8348175883
-0.12272537 -0.066720538 0.90608335 0.6244590878 -0.6787167192 0.3865157664
-0.014526752 -0.062649012 0.84707999 -0.1701715738 -0.007039266638 0.9853892922
-0.00073552335 -0.090469368 0.83900005 0.01465088036 0.5319556594 0.8466454744
-0.0054703983 -0.094988823 0.84259093 0.0560766831 0.5293368697 0.8465564847
0.064500287 -0.044553433 0.88439995 0.4206364155 -0.1291438043 0.8979904652
-0.025256911 -0.1019185 0.86866683 0.01911598071 0.7613757849 0.6480289102
-0.0041982108 -0.036390066 0.83291674 -0.1469175518 0.4259957969 0.892716527
-0.058691662 -0.040555183 0.86200005 0.6370308995 -0.3135035038 0.7042068243
0.071620159 -0.0077839233 0.88800007 0.1116037145 0.1093173474 0.9877218008
-0.14340959 -0.086779557 0.9149 0.7182656527 -0.5899764299 0.368811965
-0.014163951 -0.078419402 0.83286685 -0.6682283878 0.2595924139 0.6971962452
-0.026625901 -0.066952936 0.82266659 -0.6028179526 -0.1036326811 0.7911199331
0.0044540809 -0.10188725 0.8477 -0.0008819751674 0.4896610975 0.8719124198
-0.063357495 -0.055845469 0.848158 0.5477467775 -0.2676127255 0.7926896811
0.032361273 0.037969019 0.87200004 0.5773637295 -0.6679607034 0.4695525765
-0.11517099 -0.13540684 0.8876664 -0.1959654838 0.2492997348 0.9483919144
0.084413931 0.034171835 0.85540628 -0.4123103321 -0.6044794321 0.6816192865
-0.033649214 -0.01807821 0.84286666 0.6980450749 -0.3656536937 0.6156544685
0.082231507 0.021918593 0.83900005 -0.4549534023 -0.7144982815 0.5315163136
0.045368385 -0.073512517 0.84257901 0.3132312894 -0.6394885778 0.7020972371
-0.064866588 -0.12424497 0.88705868 0.01863447577 0.5654743314 0.8245553374
0.11134957 0.014651605 0.86657149 -0.7137015462 -0.3638958633 0.598506391
0.092494093 -0.023901487 0.81321043 -0.08168680221 0.5423241854 0.8361887932
0.07401672 -0.045376629 0.83405882 0.5217786431 0.4301739335 0.7366800308
-0.052057926 -0.10233828 0.86900002 0.07652153075 0.5618639588 0.823682785
-0.055692699 -0.12435085 0.88615608 -0.04361797124 0.6271553636 0.7776719332
-0.0062011024 -0.058086701 0.84189999 0.148341015 0.371149987 0.9166474938
0.032744378 -0.068418279 0.91100001 0.3876433671 0.4370729625 0.8116032481
0.036423571 0.0021245142 0.88646674 0.007513378747 0.4147561491 0.9099015594
-0.089306913 -0.052334368 0.89100003 0.508009553 -0.7916900516 0.3393422663
0.024839597 -0.084999926 0.83682865 0.07155114412 -0.3487156034 0.9344933629
0.044795718 0.014613498 0.81616133 0.3761313856 -0.7101981044 0.5950998664
-0.14919201 -0.11091762 0.89100003 0.6032325625 -0.3558427393 0.713783145
-0.018076517 -0.012535982 0.83139992 0.5059378743 -0.4047164917 0.7617292404
-0.094916813 -0.11514463 0.88293737 0.04017678276 0.4683803916 0.8826129436
0.052240565 0.0012930833 0.88500005 0.07634562254 0.2285427749 0.9705356956
0.075829767 -0.037785951 0.82468426 0.5207749009 0.4958690703 0.6949154139
0.022235554 -0.055683017 0.83850014 -0.620447576 -0.3353476822 0.7089334726
0.0086372122 -0.089072548 0.84433335 0.05791300535 0.06401501596 0.9962671399
0.0027290632 -0.070707552 0.84900004 -0.1677114218 -0.8565102816 0.4881219268
-0.024218665 -0.015793212 0.83521432 0.5766139627 -0.3507058024 0.7379171848
0.065523237 0.051322013 0.86800003 0.04077263549 -0.757588625 0.6514576674
0.0040671481 -0.045444645 0.83455539 -0.08047885448 0.5827715993 0.8086410761
0.070657581 -0.00139916 0.79800004 -0.03890427575 -0.2878843844 0.956874609
-0.0067500751 -0.0023621011 0.83335298 0.3860780299 -0.5486087203 0.7416011095
-0.12455868 -0.15585896 0.89400011 -0.1096284166 0.3637217581 0.9250341058
-0.065755941 -0.097310051 0.87158841 0.08745229244 0.5400229692 0.8370945454
-0.095292658 -0.064601995 0.87364525 0.5880528688 -0.5691055655 0.5747284293
0.041032381 0.029095691 0.85100001 0.3039917648 -0.858676374 0.4126304686
0.015114106 -0.044993747 0.90272522 0.1101856157 0.3553936183 0.9281995893
-0.012189173 -0.10846821 0.88 0.3036120534 0.7574163675 0.5780485868
-0.014707506 -0.11439147 0.88564855 -0.04939572141 0.7616083026 0.6461523175
-0.085104838 -0.1345136 0.89310038 -0.06975705922 0.4074605405 0.9105547071
0.032741308 0.022500966 0.83475 0.333912462 -0.8414087892 0.4248925745
-0.051943813 -0.12849259 0.89100003 -0.1008593217 0.6531962156 0.7504412532
0.045157492 -0.0046739965 0.88811094 0.05445509404 0.2596934736 0.9641545415
0.057995003 -0.048070479 0.88800001 0.4438093901 -0.1040483192 0.8900601864
0.027414534 -0.067488328 0.86066675 0.07422623783 0.7933966517 0.604162395
0.0049289367 -0.0048927134 0.82789361 0.2685485184 -0.4634605646 0.8444442153
-0.11863872 -0.082866043 0.88066673 0.5586138368 -0.3993566632 0.7269558907
-0.064502753 -0.14617829 0.90200013 -0.1674151272 0.5244760513 0.8348035812
0.025893668 0.012767115 0.82816666 0.4085607231 -0.6475450993 0.6432444453
0.088156722 0.0178438 0.84299999 -0.567340672 -0.5611122251 0.6027251482
-0.11276788 -0.058722351 0.90655559 0.5493735075 -0.7463136911 0.3757720888
-0.12275817 -0.088927604 0.87700003 0.4795330465 -0.3106301129 0.8207051754
-0.15097165 -0.12464235 0.88859999 0.3773288727 -0.07476820797 0.9230561256
-0.032571297 -0.071028404 0.82557154 0.6005805135 0.7419143319 0.2981041968
0.025562443 -0.0058862548 0.8879599 -0.007231459022 0.4039511383 0.9147520065
-0.066251375 -0.076562226 0.85550016 0.2580266297 0.377741605 0.8892319798
-0.015589524 -0.054919206 0.8425135 -0.2568151951 0.4033822417 0.8782532215
0.022092877 0.019045584 0.86900002 0.7956387997 -0.5091061592 -0.3282831907
-0.10988929 -0.14106356 0.88900006 -0.2060426176 0.3114690781 0.9276494384
0.004695463 -0.017032137 0.89329189 0.05876931176 0.3306300342 0.9419288635
0.11232379 0.0082399352 0.86766678 -0.7137015462 -0.3638958633 0.598506391
-0.074456938 -0.11109529 0.8780002 0.07024340332 0.5459757447 0.8348510861
0.027514344 0.034065273 0.87409097 0.6199210286 -0.6677327156 0.4121055603
-0.12177847 -0.14804269 0.89160001 -0.1309942752 0.3299989402 0.934848249
-0.02146518 -0.03633919 0.81863648 -0.1511048228 -0.3486970663 0.9249744415
-0.02766604 -0.024823787 0.83288902 0.6122736931 -0.3217768967 0.7222053409
-0.037123285 -0.023876781 0.84317392 0.7098795176 -0.3418569267 0.6157962084
-0.0020200906 -0.025027333 0.89600003 0.06081405655 0.3431894183 0.9372953773
-0.15255606 -0.10668304 0.89700001 0.7279834151 -0.4458452761 0.5208283067
-0.084838219 -0.048017584 0.89527279 0.5036180615 -0.8041152358 0.3158600628
0.070041284 -0.040550217 0.84100002 0.3862794638 0.5203422904 0.7615983486
-0.064818658 -0.11657447 0.88184214 0.07199093699 0.565649271 0.8214975595
0.034453005 -0.072669968 0.8545 0.4378850758 -0.711314261 0.5498078465
-0.045815066 -0.11294605 0.87642115 -0.02423934266 0.6226245761 0.7821452022
0.02516727 -0.045934856 0.90117174 0.1460085362 0.3135661483 0.9382738471
0.084746875 -0.035033494 0.81325805 0.2789876461 0.5926809311 0.7555760741
-0.084881328 -0.10426109 0.87592316 0.08590387553 0.5233716965 0.8477632999
-0.12910013 -0.08137089 0.89250004 0.6375573277 -0.6101427078 0.4703685343
-0.035837054 -0.043199226 0.83415377 0.7138800621 -0.2926018834 0.6362070441
