# .PCD v0.7 - Point Cloud Data file format
VERSION 0.7
FIELDS x y z normal_x normal_y normal_z
SIZE 4 4 4 4 4 4
TYPE F F F F F F
COUNT 1 1 1 1 1 1
WIDTH 512
HEIGHT 1
VIEWPOINT 0 0 0 1 0 0 0
POINTS 512
DATA ascii
-0.21516715 -0.035312731 0.87505114 0.1653188914 0.547822535 0.8200976253
-0.019184388 -0.043737486 0.87533331 -0.6751276851 -0.5699138045 0.4684024453
-0.12251855 0.034899224 0.84700006 -0.3851924837 -0.3667313755 0.8468381763
-0.27398726 0.04251527 0.82900006 0.05971777067 -0.1978925765 0.9784029126
-0.11590884 -0.066406317 0.85568982 -0.07774558663 0.6362500787 0.7675555348
-0.19473952 0.060595199 0.85333329 -0.2713740468 -0.2877299786 0.9184593558
-0.067889065 0.010029066 0.88000005 -0.4378173947 -0.5944590569 0.6744881868
-0.075034834 -0.065266356 0.90538466 -0.1969851702 -0.2759771943 0.9407621622
-0.16441335 -0.015179173 0.84588253 0.3425774872 -0.06143315509 0.9374789
-0.26427004 -0.013699258 0.84613329 -0.1606989503 0.6265488267 0.7626351714
-0.053087629 -0.084448032 0.85672003 0.4535005689 0.1273670793 0.8821082115
-0.16144238 0.026812324 0.81340009 -0.742162466 -0.6140474081 -0.2685900927
-0.062723346 -0.033763703 0.84900004 -0.3403147459 -0.5592079759 0.7559578419
-0.22279403 0.013300826 0.85433334 -0.4483378232 0.4425023496 0.7766497731
-0.11415848 -0.035853073 0.89607996 -0.2384442091 -0.03851014748 0.9703923464
-0.11464199 -0.013677462 0.85099989 -0.1132263839 -0.1390624791 0.9837893248
-0.16037478 -0.060045529 0.86700004 0.2921815217 0.5707454085 0.7673849463
-0.23519495 0.05638501 0.84385717 -0.1638042927 -0.5662456155 0.8077958226
-0.17525408 0.023742918 0.85370755 -0.1498702168 0.1079867408 0.9827908278
-0.077579737 -0.029290309 0.90300006 -0.2163892239 0.03411062807 0.9757111073
-0.03474525 -0.055444315 0.84328562 -0.2868165076 -0.2298299372 0.9300078154
-0.15380239 0.050513532 0.86000001 -0.2065348625 -0.2070307434 0.9562852979
-0.13428554 -0.04202991 0.83900005 -0.1190587729 0.1573558152 0.9803388119
-0.24818739 0.019259052 0.82900006 -0.3265873194 0.2498111129 0.9115564227
-0.045601789 -0.015391856 0.87525004 -0.5511654019 -0.5815022588 0.5983909965
-0.086370088 -0.071737006 0.87185723 -0.2449507415 -0.943484962 0.2232380062
-0.1945474 -0.0072451713 0.85772723 0.2173902094 0.0683767572 0.9736868739
-0.27901933 0.01092765 0.83100003 0.1440986246 0.3085207045 0.9402396083
-0.18580222 -0.037318617 0.86038107 0.3559171259 0.3857681155 0.8511791825
-0.046919204 -0.07358893 0.89493334 0.02370527573 -0.9106197953 0.4125646949
-0.14492224 0.013731112 0.84806699 -0.4731648862 -0.1241251156 0.8721857071
-0.095292218 0.014439365 0.86675853 -0.3892967105 -0.5049384832 0.7703799009
-0.23526148 -0.017531689 0.86012495 -0.2915311754 0.4674722552 0.8345533609
-0.078477442 -0.0092768865 0.85800004 -0.2997987866 -0.5775084496 0.7593448758
-0.10517267 -0.063269258 0.89339298 -0.359775573 -0.738570869 0.5701531172
-0.20521823 0.035878878 0.84685737 -0.2890287936 0.2618724406 0.9208068252
-0.057095215 -0.046370957 0.90612507 -0.07002795488 -0.09565783292 0.9929479957
-0.15741515 -0.039540295 0.85100001 0.3279733658 0.470431298 0.8192239404
-0.13044538 -0.053896591 0.89100003 -0.6133936048 -0.3384581506 0.7135785818
-0.12676644 -0.040618163 0.86200005 -0.9096120596 0.3876466751 0.149452284
-0.24078791 0.0012293789 0.8416667 -0.4756478667 0.5127291679 0.7147502303
-0.22504978 0.034559216 0.83535296 -0.3827507794 0.2349079996 0.8934875727
-0.09351588 -0.045354653 0.90217251 -0.2685573697 -0.01891838759 0.9630779028
-0.12354839 0.0082156816 0.85183328 -0.2916662991 -0.318601042 0.9019002914
-0.17756172 0.045466412 0.84900016 -0.198679015 -0.1203498989 0.9726471901
-0.02610063 -0.025709054 0.88649994 -0.6507236958 -0.5442341566 0.529497683
-0.24588601 0.041425131 0.82900006 -0.1435213387 -0.3148090839 0.9382413626
-0.19574116 0.015055749 0.85265714 0.0854261294 0.2296714485 0.9695119262
-0.11495657 0.02474666 0.86607713 -0.3850170374 -0.3370034397 0.8591801524
-0.041891079 -0.031890068 0.86100006 -0.5099040866 -0.6176118255 0.5987933278
-0.13657619 -0.066277467 0.8623333 0.2900312245 0.6536331177 0.699031949
-0.095250435 -0.022436256 0.84748006 -0.09245407581 -0.2915950716 0.9520633221
-0.14438739 -0.023770332 0.84444189 -0.01176587865 -0.01404216606 0.9998321533
-0.21595484 0.06316413 0.85433334 -0.1637764722 -0.586032629 0.7935634851
-0.21510538 -0.0052835802 0.86093885 -0.02906137705 0.1660785377 0.985684216
-0.16708629 0.0045845122 0.854963 0.2276370674 -0.0717201829 0.9711012244
-0.14898512 0.031977296 0.82900006 -0.8255836964 -0.530366838 0.1926722378
-0.034119621 -0.074915938 0.84700024 0.5106873512 -0.2208827883 0.8309087157
-0.048361316 0.0012930833 0.88500005 -0.4739133716 -0.6066855192 0.6382309794
-0.13689275 0.042112559 0.86000007 -0.2564620674 -0.3114544749 0.9149990678
-0.21768643 0.051932383 0.8386364 -0.2087412477 -0.3969527185 0.8937872648
-0.14536127 -0.0051913382 0.84603578 -0.109405607 -0.08272978663 0.9905484319
-0.23390901 -0.032579269 0.87100011 -0.1891029626 0.4991523027 0.845628202
-0.26503542 0.025192408 0.82404202 0.04311275855 -0.01065021288 0.9990134239
-0.25084737 -0.027425349 0.86100006 -0.2500339746 0.5330193639 0.8083150983
-0.17058618 0.05812037 0.86100006 -0.2521591187 -0.2315758765 0.9395682216
-0.11564384 -0.031900436 0.8488667 -0.1148820668 -0.122695893 0.9857727289
-0.095438249 -0.028227316 0.89630765 -0.2445347905 -0.007566411979 0.9696109891
-0.15450932 0.015067575 0.83239132 -0.8603482246 0.2909626365 0.4184993505
-0.20519197 -0.025096646 0.8642354 0.3175825775 0.3909909427 0.8638677001
-0.065838173 -0.0770436 0.86619252 -0.04487643391 -0.9942561984 0.09716311842
-0.095483802 -0.0057247728 0.85579562 -0.2375402749 -0.4515615702 0.8600388169
-0.028810775 -0.047099207 0.85733336 -0.6683165431 -0.407959193 0.6220307946
-0.18443505 -0.01801182 0.8490001 0.2780596912 0.06014252454 0.9586791396
-0.20035954 -0.041138463 0.86900002 0.366078943 0.4546800256 0.811943531
-0.054992683 -0.065115564 0.90719521 -0.156939894 -0.2800904512 0.9470582008
-0.15048334 0.028449588 0.85400003 -0.2184272408 -0.4466202259 0.8676519394
-0.12686233 -0.055360824 0.84548002 0.1347774565 0.4723607898 0.8710398078
-0.24755085 -0.011759781 0.8490001 -0.3115912676 0.5803864002 0.7523712516
-0.065636799 -0.0074686813 0.8678636 -0.4201596677 -0.6260783076 0.6568803191
-0.054288924 -0.021384005 0.8609333 -0.4581274092 -0.6024338007 0.6535998583
-0.28327969 0.029462891 0.83128566 0.1298074275 -0.005454505328 0.9915242195
-0.13481587 0.024774432 0.85508525 -0.3532026708 -0.3380852342 0.8723223209
-0.26465383 0.0040120641 0.83279991 -0.06429811567 0.5000923276 0.863581717
-0.080939129 0.0076357666 0.87100005 -0.4120011628 -0.5777751207 0.7045785785
-0.169635 -0.049005665 0.86000001 0.2901869714 0.479311794 0.8282824159
-0.077260241 -0.023545131 0.85099989 -0.2567008138 -0.5244776607 0.8118053079
-0.090979591 -0.070761904 0.88700002 -0.3269442022 -0.8935793042 0.3076093495
-0.25417477 0.052657474 0.83651996 -0.06379981339 -0.4575696886 0.8868819475
-0.066016257 -0.075913072 0.89800012 -0.1043198332 -0.8357105851 0.5391708016
-0.1015557 -0.067958325 0.87100005 -0.2325489968 -0.9394501448 0.2517029345
-0.16935183 -0.029095691 0.85100001 0.3859571218 0.3103552759 0.8687443137
-0.09162569 -0.060820501 0.90100002 -0.3245446682 -0.2281252742 0.9179486036
-0.075367652 -0.044430591 0.90500003 -0.2181270719 -0.02263428643 0.9756578803
-0.10756174 0.0112827 0.85800004 -0.3291051388 -0.3947407901 0.8578283787
-0.23538747 0.015732214 0.83679622 -0.5106109381 0.4087401032 0.756444335
-0.14460444 -0.054786444 0.85603136 0.3170752823 0.5963428617 0.7374540567
-0.044796627 -0.044966944 0.84802341 -0.4290066957 -0.4268167317 0.7961034775
-0.23197156 0.064563282 0.85633332 -0.1414167732 -0.5941528678 0.7918230295
-0.21630085 0.025765417 0.8471821 -0.39008075 0.4129124582 0.8230068684
-0.18650043 0.032559622 0.85137492 -0.1252219379 0.1345974058 0.9829562306
-0.18503146 0.0054324176 0.85315222 0.09436926246 0.04598113894 0.9944748282
-0.20461753 0.055110224 0.84452385 -0.2326231748 -0.2913456857 0.9279031157
-0.23271535 0.0031224284 0.8532353 -0.5145956278 0.4374430776 0.7374516129
-0.12610571 0.032517735 0.86258835 -0.2873566747 -0.3330865502 0.8980420232
-0.12493718 -0.0053032413 0.84746528 -0.1716291308 -0.166850999 0.970929563
-0.19527453 0.045289338 0.84695917 -0.2647510171 -0.04976497218 0.9630318284
-0.035644993 -0.024744608 0.87494749 -0.6306653023 -0.5500950217 0.5474090576
-0.19433506 -0.024406329 0.85571057 0.3437210023 0.2643510103 0.9010962248
-0.20548588 0.0065864236 0.8568002 0.07722342014 0.2558125556 0.9636371136
-0.13521752 -0.014773184 0.84835172 -0.2068605125 -0.1441627741 0.9676909447
-0.028593987 -0.037509184 0.8681429 -0.6531325579 -0.5824394226 0.4839237034
-0.11532985 -0.054921173 0.89495265 -0.1813629121 -0.2987041175 0.9369543195
-0.04242453 -0.08559335 0.84900004 0.4741672277 -0.139545694 0.8693057299
-0.14640157 -0.03777016 0.84199995 0.2811386585 0.3280414045 0.9018591046
-0.067245387 -0.016820241 0.85623521 -0.3546649814 -0.5994127393 0.717577219
-0.16719826 0.038994715 0.85355562 -0.254044801 -0.02717961185 0.9668104649
-0.2252057 -0.024384417 0.86465776 -0.1244666874 0.5027447343 0.8554272652
-0.035261571 -0.015130553 0.88335133 -0.6112752557 -0.5518295765 0.5672976971
-0.17532438 -0.0050413795 0.85408902 0.3015848398 -0.07266008854 0.950666666
-0.20534584 0.024886852 0.8534224 -0.1507645845 0.3510375917 0.924144268
-0.10527227 -0.044780437 0.89614284 -0.2528375089 -0.04188637063 0.9666016102
-0.12548244 -0.024502316 0.84695923 -0.2101806998 -0.09598409384 0.9729394317
-0.1568906 -0.0062707965 0.84216672 0.2923343778 -0.006631997414 0.9562931657
-0.22294509 -0.041496139 0.88200003 0.09478008747 0.5843280554 0.805963695
-0.027011776 -0.064771883 0.84309107 -0.04757274315 -0.1291354299 0.9904851913
-0.13476855 0.0051156776 0.84875017 -0.3115353286 -0.2054667175 0.927754879
-0.084959514 -0.071585096 0.89733338 -0.3609577119 -0.7241379619 0.5876510739
-0.12315618 -0.044703703 0.89319056 -0.3419564664 -0.05614690855 0.9380369186
-0.083241761 -0.081938781 0.86657149 -0.2217750549 -0.9609766603 0.165346995
-0.056430932 -0.0066655334 0.87534618 -0.4426526427 -0.6201329827 0.6476833224
-0.27375749 -0.0033188572 0.83392304 -0.01533751283 0.5349104404 0.8447695374
-0.23490481 0.044820357 0.83129168 -0.2316096872 -0.3143801391 0.9206095934
-0.20397322 -0.014121932 0.85785174 0.2862013876 0.1907850206 0.9389833808
-0.18593629 0.053550996 0.84838486 -0.278441757 -0.2253511101 0.9336418509
-0.065135755 -0.054810125 0.90609503 -0.08102180064 -0.1473063529 0.9857668877
-0.04080094 -0.064544581 0.84620011 0.2786435485 -0.09887817502 0.9552909732
-0.15523522 -0.025115512 0.84177405 0.3044660687 0.1428608 0.9417490363
-0.25470158 0.035272479 0.82570595 -0.062597543 -0.1315089613 0.9893366098
-0.18651907 0.021584408 0.8490001 -0.02833548002 0.2019303739 0.9789898992
-0.22561739 0.060908973 0.84807694 -0.1698596328 -0.549030602 0.8183600307
-0.019341459 -0.035586968 0.88249999 -0.6686518788 -0.5693199039 0.4783090353
-0.1652908 0.052936997 0.85314816 -0.2636184096 -0.2530861199 0.9308344126
-0.25835806 -0.0023692404 0.83855563 -0.2405755967 0.5914459229 0.7696201205
-0.15002309 0.0059122397 0.84300005 -0.2830352783 0.1681815088 0.9442489147
-0.23485322 0.025610738 0.83307296 -0.4193179011 0.2473613918 0.8734900355
-0.17561428 0.034614712 0.84890282 -0.1946613491 0.06940449774 0.9784119725
-0.04459298 -0.076404162 0.85367745 0.4741672277 -0.139545694 0.8693057299
-0.22199911 0.0044550602 0.86000001 -0.2712724805 0.3132004142 0.9101191163
-0.15446733 -0.051258292 0.85692304 0.3394593 0.5629783869 0.7535401583
-0.094620861 -0.074795969 0.86610824 -0.2561180294 -0.9501380324 0.1778799891
-0.10487316 -0.073405564 0.86264521 -0.2360225469 -0.9664022923 0.1017836779
-0.12688479 -0.070238099 0.86150008 0.1551299095 0.7741401196 0.6137114763
-0.12288447 -0.062150177 0.89586663 -0.3683027923 -0.5915472507 0.7172341943
-0.20445046 0.045021728 0.84193856 -0.3625417054 0.03055775724 0.9314664602
-0.21497692 -0.023140388 0.86700022 0.04396929219 0.4699467421 0.8815989494
-0.10492685 -0.016371246 0.84885746 -0.1355885565 -0.2637642026 0.9550100565
-0.086675957 -0.01711867 0.84900004 -0.1902856231 -0.5046557188 0.842089057
-0.094822153 0.0052957297 0.8622666 -0.3480490148 -0.4958488345 0.7956103086
-0.26508415 0.015171712 0.82586288 0.03833936527 0.1994130164 0.979165256
-0.16785783 0.01438575 0.85759991 0.06951566041 -0.04580648988 0.9965286255
-0.26478824 0.034986239 0.82678956 0.004324564245 -0.1721934378 0.9850536585
-0.19506723 -0.034644883 0.86341178 0.410020858 0.3714200854 0.833024621
-0.27525747 0.025047518 0.82710266 0.1141264513 0.03379257396 0.9928913116
-0.22475137 -0.015177527 0.86064708 -0.1005876884 0.3763056993 0.9210190773
-0.17509842 0.0550231 0.8524375 -0.2251817882 -0.1944844574 0.9547088146
-0.10532235 -0.0052345418 0.85381645 -0.2151383162 -0.3440642059 0.9139668345
-0.15342864 0.030969419 0.80900002 -0.8274406195 -0.5586229563 -0.05729224533
-0.22495595 0.044485118 0.83385187 -0.2569059432 -0.1945913881 0.9466432929
-0.22739974 -0.0041885464 0.85742849 -0.3656805456 0.3606209457 0.8580386043
-0.19545223 0.025183603 0.85239536 -0.02498897538 0.2612915933 0.9649363756
-0.065122969 -0.0651218 0.90591675 -0.1319738626 -0.2504231334 0.9590991139
-0.26357907 0.051091451 0.83388895 0.04779146612 -0.4153191447 0.9084194899
-0.18553071 0.06084137 0.85679996 -0.2193089724 -0.2104993314 0.9526770711
-0.11464503 0.0052515729 0.85475534 -0.3066382408 -0.3512077332 0.8846616149
-0.18520309 -0.0054531405 0.85528886 0.1972459704 -0.02488536574 0.9800381064
-0.084653176 -0.055033222 0.90469551 -0.308273375 -0.1434604228 0.940418303
-0.17532365 -0.035261605 0.85569066 0.3024254441 0.3294109404 0.8944424391
-0.14473589 0.036422163 0.85872221 -0.2079090327 -0.3511253595 0.9129539132
-0.20541799 -0.004348421 0.86052954 0.1342967004 0.1381741017 0.9812605977
-0.17584255 -0.014735357 0.85221207 0.3398288786 -0.001394046587 0.9404862523
-0.12349191 -0.036824998 0.85369998 -0.2308222055 0.005414215382 0.9729808569
-0.19481531 0.005976689 0.85591441 0.1446675956 0.1452980042 0.9787542224
-0.13480954 -0.0051169931 0.84900016 -0.2167153507 -0.141515255 0.9659233093
-0.075089268 -0.076105386 0.86879486 -0.199558109 -0.9731448889 0.1147414446
-0.085422389 -0.034803573 0.90222222 -0.236217171 0.01633718982 0.971562922
-0.05569797 -0.073093206 0.90196002 -0.1720949113 -0.7120655179 0.6806952357
-0.12540206 -0.014943386 0.84714639 -0.1568618566 -0.1041280851 0.9821159244
-0.21363358 0.034001093 0.84280479 -0.3991212249 0.3194960952 0.8594326377
-0.20499612 0.062087383 0.85099995 -0.1626250148 -0.5119352341 0.8434900045
-0.074660428 -0.054803934 0.90599978 -0.1723484248 -0.1104269475 0.9788268209
-0.25498447 0.025353858 0.82632148 -0.08590165526 0.01041570306 0.9962491989
-0.099148549 -0.056184869 0.8976 -0.2380998582 -0.2219178677 0.9455479383
-0.22439402 -0.035127446 0.87311101 0.02398788743 0.5875977874 0.8087975383
-0.1353544 -0.024664141 0.84686375 -0.2211404294 -0.1073234454 0.9693186283
-0.071576029 -0.0012732121 0.87166673 -0.424043268 -0.607952714 0.6712532043
-0.22666626 0.016170165 0.84631443 -0.5170449615 0.4704321027 0.7150930762
-0.068226583 -0.024809664 0.84900004 -0.3021971881 -0.5525658727 0.7767546773
-0.28363541 0.018513154 0.82816672 0.1102238297 0.07585269213 0.9910081029
-0.15474281 -0.014767046 0.83900005 0.1925889999 -0.03359648213 0.9807041883
-0.12608317 -0.033683814 0.84534281 -0.2005947828 -0.06061732396 0.9777971506
-0.15411587 0.024821907 0.83196974 -0.7085655332 -0.6974576712 -0.1071805805
-0.13315463 0.016160058 0.85205257 -0.3230074644 -0.3052745163 0.8958089352
-0.12430345 -0.049280062 0.83900005 -0.137793377 0.2219830602 0.965264976
-0.038093578 -0.038844883 0.85625005 -0.535941422 -0.6033347249 0.5905539393
-0.2156371 -0.01542481 0.86147368 0.02489017695 0.288543433 0.9571432471
-0.18226299 0.014195585 0.85226321 0.03114150651 0.1623314321 0.9862447381
-0.23452608 0.034569256 0.83142853 -0.3233706951 0.05046733096 0.9449256063
-0.20922001 -0.02977949 0.87100005 0.2124916017 0.5071822405 0.8352326155
-0.25320736 0.012022606 0.83116668 -0.2927155793 0.3794826567 0.8776733279
-0.14529632 -0.01486202 0.8458333 -0.07100179046 -0.09581278265 0.9928638935
-0.11983069 -0.061776068 0.84900004 -0.0691459924 0.5196996927 0.8515462875
-0.055365823 -0.055188797 0.90693229 -0.08102180064 -0.1473063529 0.9857668877
-0.10632981 0.02242524 0.86712486 -0.3863102496 -0.3574043512 0.85030967
-0.10526288 -0.034563608 0.89605552 -0.265221715 0.01655620337 0.9640452862
-0.14488643 -0.0630816 0.8614738 0.3531914949 0.634757936 0.6872686148
-0.24335466 -0.03127145 0.86399996 -0.2608889043 0.5021333694 0.8244993091
-0.08412119 -0.0028523684 0.86043483 -0.3310543895 -0.5363720655 0.77634269
-0.036222082 -0.046945266 0.84707409 -0.4772069752 -0.3740720749 0.7952003479
-0.25407675 -0.016068809 0.85311997 -0.2870139778 0.5764439106 0.7650721669
-0.24547258 0.053650793 0.83756268 -0.1195727438 -0.5250678062 0.8426186442
-0.11478952 0.017444285 0.86115795 -0.3812320232 -0.3301801085 0.8635063767
-0.054408513 -0.032346521 0.85149992 -0.418964237 -0.5878648758 0.6920143366
-0.030087199 -0.030087199 0.88000005 -0.6578264832 -0.5496531725 0.5149230361
-0.057641707 -0.078011587 0.86060011 0.3724911511 0.3109165728 0.8744033575
-0.23497391 -0.024991238 0.86474991 -0.2654009759 0.4856441915 0.8328937888
-0.22663648 0.0264464 0.83799988 -0.4807729721 0.3535247743 0.8024198413
-0.15321964 0.036362942 0.85624015 -0.1317961514 -0.402196914 0.9060173631
-0.28380039 0.0060563046 0.83633322 0.1669217497 0.3477489054 0.9226092696
-0.14516307 0.044563603 0.86153358 -0.2155040354 -0.3122203052 0.9252440333
-0.20511185 0.014879641 0.85448664 -0.01998528838 0.3402876854 0.9401089549
-0.19537584 0.054397509 0.84738898 -0.2287072837 -0.1461672634 0.9624593854
-0.11444015 -0.063479908 0.89472437 -0.2738874555 -0.4186469316 0.8658639789
-0.039434221 -0.0077322 0.88200003 -0.5478595495 -0.5716298223 0.6108103395
-0.11346122 -0.0047250288 0.85109991 -0.2077222615 -0.2600587606 0.9429851174
-0.045574959 -0.035048306 0.8539412 -0.4629560411 -0.5901955366 0.6613175869
-0.065436088 -0.044787057 0.90590918 -0.1097632796 -0.0571885854 0.9923111796
-0.12679441 0.022992162 0.85703993 -0.3267252445 -0.3195156455 0.8894719481
-0.14463058 -0.044685178 0.84647381 0.3445672989 0.3964907229 0.8509221077
-0.26453942 0.044332158 0.82900006 0.01381090935 -0.2981317937 0.9544247985
-0.039679687 -0.069626622 0.85400003 0.5106873512 -0.2208827883 0.8309087157
-0.19478393 -0.014979213 0.85455567 0.2619118989 0.06983171403 0.9625620246
-0.18494114 -0.02461574 0.85408884 0.3067487478 0.2194413245 0.9261482954
-0.23507188 0.051280618 0.83653843 -0.1690146178 -0.5470973253 0.8198283911
-0.24808857 -0.021206349 0.85625005 -0.2661152482 0.5535112619 0.7891818285
-0.25487337 0.0049446211 0.83511788 -0.2659368515 0.5020473599 0.822937429
-0.027098747 -0.056677986 0.84617662 -0.5631168485 -0.2278224528 0.7943527699
-0.11518291 -0.044906557 0.89536178 -0.228492856 -0.05327045172 0.9720870852
-0.11378968 -0.072414324 0.86094117 -0.1475772262 -0.945721209 -0.2895380855
-0.048556812 -0.059700999 0.90800005 0.1848316789 0.01624441706 0.9826359153
-0.060926579 -0.086500697 0.85800004 0.01051353384 -0.9966248274 -0.08141484112
-0.21513535 0.015186762 0.85643601 -0.2295237631 0.4281480908 0.874075532
-0.17504525 0.0052394904 0.85331279 0.2602728605 0.007751039695 0.9655039907
-0.16616102 -0.036387157 0.85264516 0.3708634675 0.39386639 0.8410288692
-0.042627361 -0.054538153 0.84490925 -0.2068011761 -0.1966952831 0.9584071636
-0.19509315 0.033201322 0.85138696 -0.1080980599 0.2040258795 0.9729790688
-0.12793697 0.037211992 0.85628569 -0.279253155 -0.3391481042 0.8983296752
-0.075427979 -0.015346169 0.85372978 -0.3043884337 -0.574855268 0.7595321536
-0.049109112 -0.017891889 0.86849999 -0.5015948415 -0.6108702421 0.6125684977
-0.2294894 0.0091795772 0.84900004 -0.5427735448 0.4367479086 0.717389822
-0.035207283 -0.034906175 0.86446685 -0.6379491091 -0.5909227133 0.4937927723
-0.084528804 -0.064098537 0.90269703 -0.3118769228 -0.2532911301 0.9157381654
-0.21956556 0.018607249 0.84900004 -0.4078485966 0.4527667165 0.7928819656
-0.087770239 0.012507154 0.86842859 -0.4097061157 -0.5356611609 0.7383820415
-0.12454624 -0.066062368 0.85374075 0.09561663866 0.6576107144 0.7472653985
-0.0944703 -0.012088533 0.85119992 -0.1703741699 -0.4440737665 0.8796426058
-0.085695602 -0.044767454 0.90317935 -0.2735908031 -0.02943358012 0.9613957405
-0.24506301 -0.0049766693 0.84404767 -0.3931958973 0.5521605015 0.7351977825
-0.15419491 0.0052941097 0.83631837 0.06537652016 0.3075847626 0.9492720962
-0.27038592 -0.0088893995 0.84500003 -0.07588566095 0.6091969013 0.7893798351
-0.27194026 0.0084750289 0.82866669 0.12592493 0.3319585025 0.9348510504
-0.17581682 -0.024729319 0.85170579 0.3045710027 0.1720854193 0.9368154407
-0.11933099 0.031162869 0.86700004 -0.3313388228 -0.3262925148 0.8852953315
-0.048111029 -0.028565746 0.85750008 -0.4537852407 -0.613007009 0.6467621922
-0.13280484 -0.033191305 0.84138089 -0.1832672805 -0.05039490387 0.981770575
-0.21489948 0.0053680232 0.85687816 -0.1516099721 0.286111325 0.946126163
-0.15078229 -0.030891979 0.83900005 0.2123819441 0.1694704741 0.9623791575
-0.16756387 -0.004757565 0.85344005 0.3334188759 -0.09934338182 0.93753016
-0.093140952 -0.03556424 0.90147638 -0.2494021207 -0.003743688343 0.9683927894
-0.13514434 0.034627415 0.85768408 -0.3460231125 -0.4068214595 0.8454373479
-0.036728431 -0.027874732 0.86790919 -0.5875000358 -0.6095950603 0.5322007537
-0.15497591 -0.056616474 0.86260009 0.3227880597 0.5880872607 0.7415937185
-0.05135601 -0.040935948 0.84900004 -0.4270534217 -0.5251046419 0.7361321449
-0.24187158 -0.0088721169 0.85342866 -0.4156898856 0.5318648815 0.7377815843
-0.26549134 -0.0034546936 0.83574295 -0.09717425704 0.5723805428 0.8142098784
-0.15498625 -0.034799993 0.84543246 0.3276537359 0.3158937693 0.8904235959
-0.044891637 -0.025582859 0.86422592 -0.5365550518 -0.594150424 0.599244535
-0.093972094 -0.069143578 0.87150007 -0.2967936099 -0.9236835837 0.2423265278
-0.074996047 -0.0054924316 0.86371052 -0.4019328058 -0.6024156213 0.6895980239
-0.13455777 -0.063306421 0.85554993 0.2895116806 0.659044683 0.6941491961
-0.24307528 0.024497099 0.83130765 -0.3813835084 0.2166123986 0.8986799717
-0.1622925 -0.0057228287 0.8475883 0.3486587107 -0.1339960098 0.9276217818
-0.042247005 -0.021601066 0.87225008 -0.5746497512 -0.5903770924 0.5667738318
-0.23450316 -0.0054354616 0.85485411 -0.4305672944 0.4609814882 0.7759560943
-0.25498611 0.04621705 0.83248389 -0.05422196165 -0.374447614 0.9256613851
-0.10518581 -0.023882568 0.84752393 -0.09894908965 -0.1543211341 0.9830534458
-0.18514952 0.045355309 0.84818387 -0.1590909809 -0.06098553911 0.9853785038
-0.27285627 0.034970455 0.82887518 0.07562991232 -0.12179517 0.9896696806
-0.22357772 0.022987647 0.84422576 -0.4886433482 0.4328014851 0.7575688362
-0.11983069 0.0022328701 0.84900004 -0.2370283604 -0.2662938535 0.9342939258
-0.095072448 -0.064823188 0.89557159 -0.3354450166 -0.7774089575 0.5320826769
-0.20618214 -0.042001616 0.87375003 0.2781925499 0.5078067183 0.8153166771
-0.063727148 -0.014029908 0.86230433 -0.4019139707 -0.6111174226 0.6819095612
-0.21184415 0.043990843 0.84099984 -0.3595883846 -0.04259417206 0.9321383834
-0.071246698 -0.011685967 0.86000001 -0.359308213 -0.6012734175 0.7137001753
-0.16856942 0.02177421 0.85650003 -0.07219783962 0.03581526503 0.9967470765
-0.065925263 0.0032982077 0.8773573 -0.4398167133 -0.603327632 0.6652495861
-0.055323619 0.0027082793 0.88270837 -0.4473947287 -0.6082107425 0.6556810737
-0.11521108 -0.024527071 0.84785712 -0.09145433456 -0.1092534363 0.9897978306
-0.12510288 0.014987241 0.85452396 -0.3028115034 -0.2972115874 0.9055222273
-0.10201368 0.0069677462 0.86047041 -0.3260738254 -0.4164928198 0.8486516476
-0.27483851 0.01536117 0.82675016 0.08755490184 0.174673304 0.980725944
-0.20815308 0.050751109 0.83900005 -0.2505938411 -0.2733575106 0.9286971688
-0.21308504 0.022707222 0.85313642 -0.2952453792 0.442630291 0.8467045426
-0.25451618 -0.0058274306 0.84386951 -0.276692003 0.6054662466 0.7462252975
-0.19839974 -0.028289596 0.8605001 0.3972583413 0.3620096147 0.8432881236
-0.085604697 0.0050678146 0.86588895 -0.3947516084 -0.5620138645 0.72685045
-0.23811902 0.0090638557 0.83833337 -0.50018996 0.4633922279 0.731490016
-0.28538054 0.013490215 0.83369231 0.1475217789 0.2867253423 0.9465864301
-0.13848294 -0.05654208 0.85233331 0.3533803523 0.6106658578 0.7086674571
-0.07506001 0.0042762556 0.87500006 -0.429397881 -0.6037733555 0.6716213226
-0.047420211 -0.070338033 0.90150005 0.1880417466 -0.8176428676 0.5441511869
-0.13099504 -0.06028749 0.84900004 0.2468352169 0.5959377885 0.7641534805
-0.038742241 -0.01872969 0.87800002 -0.5962992907 -0.5662568808 0.5690169334
-0.16492465 -0.024517121 0.84740007 0.3751953542 0.1449676901 0.9155396223
-0.074988946 -0.072182246 0.90299994 -0.2008418143 -0.412299037 0.8886349797
-0.16500513 -0.044927027 0.85608578 0.3282653391 0.4915825129 0.8065906763
-0.02415392 -0.0513262 0.861 -0.7184745669 -0.3885839581 0.5768854618
-0.22480574 0.052316833 0.8372727 -0.1867065281 -0.5012276769 0.8449328542
-0.055623718 -0.015838182 0.86610007 -0.4478901625 -0.6191790104 0.6449897289
-0.24518651 0.0053764898 0.837735 -0.4121122658 0.4935863018 0.7658563852
-0.17488575 0.015013292 0.85619074 0.02648233064 0.08340787143 0.996163547
-0.13149211 -0.070686512 0.86700004 -0.2675358951 -0.956269443 0.1182086393
-0.16935183 -0.011936693 0.85100001 0.3278283179 -0.01893851906 0.9445474744
-0.21992147 0.02868541 0.83900005 -0.4621437192 0.3662287295 0.8076507449
-0.23608902 0.0054118419 0.84505129 -0.5233136415 0.4764421284 0.7065024972
-0.033642627 -0.043682463 0.85285705 -0.5541738272 -0.4959596097 0.6685173512
-0.055075735 -0.026278779 0.85514712 -0.4251451492 -0.5985412002 0.6789698005
-0.15684089 0.034227591 0.8142941 -0.7556836009 -0.6527218223 -0.05381964147
-0.027658932 -0.071812734 0.84255558 0.2786435485 -0.09887817502 0.9552909732
-0.24018475 0.06133949 0.84300005 -0.1357187331 -0.5857322812 0.7990607619
-0.022850692 -0.041615866 0.8814286 -0.6686518788 -0.5693199039 0.4783090353
-0.025732249 -0.044908229 0.86345834 -0.6235463023 -0.5885495543 0.5145866871
-0.21321058 -0.041410573 0.87800008 0.2464598566 0.5504386425 0.7976683378
-0.16504188 -0.053885214 0.86217874 0.3104207218 0.5320908427 0.7877298594
-0.03190051 -0.023800625 0.8825295 -0.6430753469 -0.5598165989 0.5225509405
-0.063892834 -0.0031507048 0.87308007 -0.4402937889 -0.6202999353 0.6491296887
-0.24150106 0.034422096 0.83099997 -0.2624204755 -0.04949347675 0.963683486
-0.21439953 0.060663052 0.84800005 -0.1609964818 -0.4831735492 0.8605948091
-0.17582239 -0.04580291 0.86026669 0.308175981 0.4686105549 0.8279080391
-0.092356831 -0.0011309 0.86000001 -0.3176428676 -0.5091831088 0.7998971939
-0.031510908 -0.040586159 0.86266667 -0.6085566878 -0.61168015 0.5054761171
-0.069100618 -0.038918741 0.90600002 -0.1694063395 0.0006396828103 0.9855461121
-0.24521729 -0.015070478 0.85486865 -0.3365580142 0.5208575726 0.7844973207
-0.098327897 -0.04444446 0.89730006 -0.2513635457 -0.06546671689 0.9656761885
-0.20235337 -0.034579553 0.86821443 0.3338800669 0.4784978032 0.8121353984
-0.089256063 -0.029225437 0.90100002 -0.2268313617 0.0114502972 0.9738667607
-0.19481118 -0.041994475 0.86506265 0.4043913186 0.4290577471 0.807698667
-0.028771322 -0.019440083 0.88700002 -0.643445909 -0.5469607711 0.5355476141
-0.14467002 0.024868308 0.85391504 -0.4243142009 -0.4069287777 0.8089292049
-0.13399523 -0.054567751 0.84678602 0.284191817 0.4916397035 0.8231193423
-0.23889142 -0.0024995359 0.84700006 -0.4712001681 0.5161951184 0.7152013779
-0.14697054 -0.049089652 0.85100001 0.3707809448 0.5572085977 0.7429940104
-0.14859839 0.016938202 0.83500004 -0.8413037062 0.1654238552 0.5146290064
-0.22325614 0.063040398 0.85400009 -0.1258152276 -0.6233888865 0.7717232704
-0.05242094 -0.011476881 0.87300014 -0.4753342569 -0.6159287095 0.6282429099
-0.15639743 0.044857915 0.85757571 -0.1948169619 -0.2859433591 0.9382338524
-0.045623228 -0.0055315066 0.88318521 -0.5137431622 -0.5966808796 0.6164737344
-0.21827571 0.035685692 0.83833331 -0.4366885722 0.2258953601 0.8707895279
-0.20158423 -0.02030886 0.85800004 0.375271678 0.2390742451 0.8955526948
-0.13055758 0.0096985633 0.85100001 -0.3095488548 -0.2759218812 0.9099706411
-0.21570201 -0.028170547 0.87123549 0.1168146506 0.5730552673 0.8111485839
-0.052825052 -0.0033484909 0.88185722 -0.4739133716 -0.6066855192 0.6382309794
-0.09447629 -0.055025637 0.90231264 -0.3322659433 -0.222914502 0.9164652228
-0.064730518 -0.083040327 0.86376178 -0.03389890492 -0.9949007034 0.09499174356
-0.12331045 0.026017575 0.86168015 -0.3314204514 -0.3241426945 0.8860541582
-0.23131394 0.013004825 0.84300005 -0.5616989136 0.4483789504 0.6953061223
-0.19742285 0.0016155714 0.86000007 0.173109591 0.1390320957 0.9750400782
-0.1577062 0.01962243 0.82900006 -0.7675969601 -0.5914091468 -0.2470428348
-0.24487984 0.015099411 0.83276486 -0.4032641351 0.3506390452 0.8452398181
-0.10496426 0.015268097 0.86240554 -0.3421459198 -0.4345878363 0.8331083655
-0.21136259 -0.01203488 0.85800004 0.06469484419 0.2111658901 0.9753068686
-0.25872537 0.0094478363 0.82900006 -0.1937699616 0.3819363415 0.903646946
-0.10523637 -0.054973561 0.89583331 -0.2314723432 -0.2551065385 0.9387977719
-0.15158707 -0.041432142 0.84900004 0.3675890267 0.4649744034 0.8054049015
-0.16534187 0.045132224 0.85310912 -0.1864066869 -0.2322586328 0.9546247721
-0.26446939 -0.0081276726 0.84266669 -0.1408159435 0.6069297791 0.7821809649
-0.25700355 -0.013080847 0.84829414 -0.2766796947 0.5896393061 0.7587976456
-0.20352061 0.031333819 0.85099995 -0.1838904172 0.2940959036 0.9379189014
-0.034689896 -0.065060154 0.84446347 0.2786435485 -0.09887817502 0.9552909732
-0.079042397 0.0022842176 0.86814296 -0.4009104669 -0.5934658647 0.6979033351
-0.16071579 -0.050897513 0.85800004 0.3195224702 0.5161480308 0.7946676016
-0.21185526 0.00075393333 0.86000001 -0.05399700999 0.201117754 0.9780777097
-0.10483144 -0.067134783 0.88840008 -0.3949221671 -0.8440217972 0.3628548682
-0.27508712 0.0045374315 0.83244431 0.1315211654 0.3956505358 0.9089350104
-0.074722536 -0.082071781 0.86683339 -0.2004517764 -0.9728579521 0.115613617
-0.16297232 -0.032530967 0.84885722 0.4176661074 0.3256580234 0.8482345343
-0.15283532 0.035027593 0.82514292 -0.8028239608 -0.5960502028 -0.0140662808
-0.076102354 -0.035257399 0.90402859 -0.2304783016 0.005277079064 0.9730631709
-0.20724116 -0.035449088 0.87266678 0.3102832735 0.4894037545 0.8149897456
-0.22347462 -0.029223904 0.87150013 -0.05639459938 0.5393899679 0.8401655555
-0.24447018 -0.025256764 0.86311626 -0.3023244739 0.4906117916 0.8172515035
-0.23519622 0.061565194 0.84722233 -0.1145737171 -0.6314629316 0.7668946385
-0.047338679 -0.065791093 0.90562499 0.2341208607 -0.1900778711 0.9534452558
-0.027187385 -0.051628649 0.8535555 -0.6229834557 -0.360321492 0.6943054199
-0.097657502 -0.033827145 0.89733344 -0.2596678436 -0.006680928171 0.9656748772
-0.085252516 -0.076183081 0.86654842 -0.2266020626 -0.959743619 0.1659630686
-0.15578885 -0.045151304 0.85272729 0.3296965659 0.5356175303 0.7774407268
-0.14528497 0.0051693446 0.84670365 -0.2201389372 -0.06838778406 0.9730682969
-0.25572413 0.016297981 0.82773179 -0.1967138499 0.2545264065 0.9468473792
-0.22515216 0.057191819 0.84335297 -0.1698596328 -0.549030602 0.8183600307
-0.24125867 -0.0180944 0.86000001 -0.3111397028 0.4957031608 0.8108454943
-0.26594165 0.0089151422 0.82863641 -0.02540103905 0.3738039136 0.9271598458
-0.21433471 0.055293135 0.8422727 -0.1474917382 -0.4723739028 0.8689701557
-0.17528029 0.028655166 0.84900004 -0.1450070739 0.1079562753 0.9835234284
-0.0379107 -0.081869021 0.84785718 0.5024642944 -0.2292175144 0.8336600065
-0.22582673 0.0054575764 0.85555816 -0.3760230541 0.3623728156 0.8528145552
-0.096179321 -0.069031149 0.88475007 -0.3418649435 -0.8731987476 0.3473503888
-0.10402644 -0.028823048 0.89666671 -0.2651559114 0.01580999605 0.964075923
-0.14416257 -0.03322836 0.83900023 0.07345979661 0.1121134907 0.9909763932
-0.14065766 -0.060926579 0.85800004 0.3044578433 0.5956351757 0.7433196902
-0.052941587 -0.076115295 0.85764694 0.4195694625 0.03582515195 0.9070159793
-0.23910294 0.041425131 0.82900006 -0.2351632416 -0.2649465203 0.9351478815
-0.20438904 0.00203036 0.86030769 0.1067826077 0.1667660177 0.9801971912
-0.17118669 -0.01711867 0.84900004 0.3740962744 0.00344427838 0.9273834825
-0.15397702 -0.061740302 0.86519992 0.3284810781 0.6167346835 0.7153589725
-0.14853635 0.024481244 0.83362514 -0.9179294109 -0.2070084065 0.3384569287
-0.22839466 -0.034282051 0.86900008 -0.08464509994 0.5743503571 0.8142216206
-0.25545496 0.041606821 0.82900006 -0.04877998307 -0.2609161735 0.9641282558
-0.25363681 -0.022532962 0.85538089 -0.2424896657 0.5886118412 0.7711905837
-0.085916713 -0.0073996065 0.85738462 -0.2711914778 -0.5292313099 0.8039710522
-0.19485287 0.038319319 0.84875005 -0.2060246766 0.05116662011 0.9772081971
-0.1258661 -0.051047862 0.88900006 -0.4794642627 -0.4730748236 0.7391307354
-0.1255192 0.0036151228 0.84900033 -0.2407014221 -0.2452537119 0.9391024709
-0.27756232 0.02986891 0.83100003 0.1254827231 -0.0404128544 0.9912723303
-0.063731693 -0.024451038 0.8525278 -0.3521042168 -0.5824210048 0.7326720357
-0.18507533 -0.014295388 0.85329407 0.2604160905 -0.003467003349 0.9654902816
-0.083943836 -0.013826534 0.85278565 -0.2250141948 -0.5495660305 0.8045780063
-0.1156119 0.013107766 0.85756516 -0.3810900748 -0.3217859268 0.8667318821
-0.18401383 -0.032799516 0.85747355 0.3186683953 0.3248962462 0.8904453516
-0.10597891 0.0043701837 0.85737503 -0.2966726124 -0.3937359452 0.8700329661
-0.12738915 -0.045121554 0.84127259 -0.07119611651 0.2059105933 0.9759774208
-0.12221469 -0.039378114 0.89480001 -0.3751327395 0.05359709263 0.9254203439
-0.28379634 0.024141897 0.82844019 0.127736941 0.05590796471 0.9902310967
-0.18473236 -0.042575944 0.86209536 0.3698141277 0.4151869416 0.8311782479
-0.11824331 -0.0057267374 0.8483001 -0.1553901434 -0.2063333094 0.9660643935
-0.22374752 -0.0060943989 0.86121428 -0.1777877063 0.3150912821 0.9322601557
-0.039106607 -0.074480116 0.85129994 0.4220290482 -0.1164479852 0.8990724683
-0.19202682 0.02084012 0.84900004 0.01136528049 0.2397972196 0.9707564712
-0.18654509 0.015372047 0.84893137 0.03667005152 0.1980733424 0.979501009
-0.1108282 -0.067854002 0.86000001 -0.1018299684 -0.9109044671 -0.3998545706
-0.21665862 0.045129288 0.83855581 -0.3354867399 -0.1288466603 0.9331919551
-0.078648396 -0.072539784 0.87100005 -0.2354530096 -0.9617224932 0.1401844919
-0.082660459 -0.02369904 0.85137492 -0.2232844681 -0.5093755126 0.8310719728
-0.20764503 -0.016807135 0.86072731 0.1352612972 0.284271121 0.9491544962
-0.042856291 -0.01171066 0.88083339 -0.5369977355 -0.5845431089 0.6082292199
-0.10598994 -0.068166725 0.86309093 -0.2153327763 -0.9762064219 0.02555127256
-0.087520778 -0.022350922 0.84817648 -0.159315899 -0.457837373 0.8746446967
-0.072225235 0.0069444268 0.88020003 -0.430834204 -0.5920051932 0.6811106205
-0.14768924 -0.058683716 0.86040008 0.3400094509 0.6343283057 0.6942774057
-0.051171035 -0.074001193 0.89800006 -0.1018086001 -0.8675472736 0.4868231118
-0.1843529 0.036675531 0.84900033 -0.1463309973 0.03649386764 0.9885622859
-0.12497292 -0.055181928 0.89203155 -0.4749383926 -0.5068395138 0.7194075584
-0.24573535 0.03585336 0.82834882 -0.1769997478 -0.114443019 0.9775345922
-0.23537375 -0.01315409 0.85733342 -0.3791767955 0.482604146 0.7895050049
-0.15348367 -0.0048420718 0.83851731 0.1579738706 0.03330981359 0.9868813157
-0.1714844 -0.023966137 0.8490001 0.3751189113 0.1538229287 0.9141249061
-0.15817346 0.051006723 0.85742855 -0.2480375469 -0.28355968 0.9263213873
-0.17158997 0.036929145 0.85099995 -0.2431046665 -0.009215620346 0.9699562788
-0.055325557 -0.036656279 0.84900022 -0.4097779393 -0.5851147175 0.6998019814
-0.13638498 0.013881484 0.84891319 -0.4306303859 -0.2407695204 0.8698203564
-0.15139997 0.046121307 0.86042851 -0.2082048059 -0.2205703408 0.9528900981
-0.17296728 0.045451261 0.85099989 -0.2466407716 -0.1131320819 0.9624809027
-0.13464035 -0.046024464 0.84190315 0.07796727866 0.3316465318 0.9401764274
-0.12473246 -0.061192609 0.8488462 0.1677169949 0.6283895373 0.75960356
-0.1051921 -0.011936693 0.85099989 -0.1541030109 -0.3078307807 0.9388782978
-0.064156957 -0.073336817 0.90176922 -0.1926501691 -0.5999589562 0.7764890194
-0.19656435 -0.0032225465 0.86027265 0.2207783908 0.08200032264 0.97187078
-0.20365272 -0.0092142057 0.85799992 0.1915752441 0.09804923832 0.9765681028
-0.1775876 0.052546877 0.8490001 -0.2253821492 -0.1520676017 0.9623296261
-0.2470682 0.026192315 0.82900029 -0.2949488461 0.1548293829 0.9428854585
-0.094690233 -0.016457077 0.84900028 -0.1420034915 -0.3857081234 0.911627233
-0.17264386 -0.043349765 0.85746658 0.3059114516 0.4447429478 0.8417968154
-0.13622947 -0.035672884 0.83900017 -0.08247095346 -0.04559131712 0.995550096
-0.023990218 -0.034320191 0.88273537 -0.6772872806 -0.5495288968 0.4891829789
-0.24541651 0.045349512 0.83175665 -0.1556137353 -0.3763930798 0.9132976532
-0.02828536 -0.034653168 0.87200004 -0.6560611725 -0.5701187849 0.49451828
-0.045581665 -0.08413326 0.85229993 0.4408334196 -0.06278654188 0.8953902721
-0.030698676 -0.031468388 0.87550002 -0.6517994404 -0.5669547915 0.5037059784
-0.16125844 0.032537986 0.81442863 -0.7414830923 -0.6485340595 -0.1720649749
-0.18460552 0.025050489 0.85158324 -0.07538473606 0.1503396332 0.9857560992
-0.24264501 0.057408955 0.84225011 -0.09516203403 -0.6087098718 0.7876651883
-0.057747252 -0.082701221 0.86061549 0.0785023421 -0.9968955517 -0.006049945951
-0.083993435 0.01145365 0.87100005 -0.4115257263 -0.5494766831 0.727132678
-0.13044538 -0.04920993 0.89100003 -0.6079956293 -0.2648629248 0.7484577298
-0.11851159 -0.033862714 0.852 -0.1968858093 -0.03425191715 0.9798279405
-0.14488162 0.017308205 0.85099995 -0.4759127498 -0.4045252204 0.7809394598
-0.22847469 -0.01466751 0.85799992 -0.2460834533 0.4060246646 0.8801062107
-0.14767674 -0.027541263 0.83900011 0.1254370958 0.1103977785 0.9859400988
-0.22090772 -0.040794805 0.87800002 0.09478008747 0.5843280554 0.805963695
-0.064566836 0.0049676946 0.88133329 -0.4398167133 -0.603327632 0.6652495861
-0.087837063 -0.068186805 0.89662504 -0.3483052254 -0.7514439225 0.5603708625
-0.097924545 -0.068989284 0.86860001 -0.3134203255 -0.9182520509 0.2420348525
-0.18448065 0.057817321 0.85368747 -0.2536339462 -0.2142088711 0.9432838559
-0.12643562 -0.046701446 0.889 -0.7256883979 -0.08349454403 0.6829385161
-0.19425969 0.06028749 0.84900004 -0.2646181583 -0.2314500362 0.9361667037
-0.15274425 0.031811602 0.83100003 -0.8126092553 -0.5811442733 0.04401755333
-0.27646956 0.035696995 0.83100003 0.07562991232 -0.12179517 0.9896696806
-0.084207438 -0.071737923 0.90144455 -0.3483380675 -0.6169162989 0.7057442069
-0.047820631 -0.03870308 0.84900004 -0.4405841827 -0.5540801287 0.7063149214
-0.15469244 0.027111575 0.80850005 -0.8652114868 -0.4884813428 -0.1131151915
-0.071823984 -0.022948941 0.84900004 -0.291128099 -0.5425435305 0.7879663706
