# .PCD v0.7 - Point Cloud Data file format
VERSION 0.7
FIELDS x y z normal_x normal_y normal_z
SIZE 4 4 4 4 4 4
TYPE F F F F F F
COUNT 1 1 1 1 1 1
WIDTH 512
HEIGHT 1
VIEWPOINT 0 0 0 1 0 0 0
POINTS 512
DATA ascii
-0.2517261207 -0.03368934244 0.8388053775 0.1034144387 0.0447582975 0.9872252941
0.01304501109 -0.04371413589 0.9040010571 -0.1294495314 -0.3619560301 0.677652657
0.003551012604 -0.05861367285 0.9157315493 0.2589669824 0.1000054628 0.9090020657
0.01703014225 -0.04007306322 0.8972199559 -0.2342338562 -0.6441901922 0.5579721928
0.01932483725 -0.03890880197 0.8891528845 -0.3602751791 -0.6883308291 0.5261964798
0.00061038899 -0.04293483496 0.9119608402 -0.1432604939 -0.09056055546 0.8508104086
0.006889795884 -0.04933465272 0.9113485813 0.0249423869 -0.02854018286 0.8337827921
-0.0006868048222 -0.05038898811 0.9154480696 0.03206383064 0.1019627377 0.9282923937
0.02064259909 -0.02948128618 0.8959208727 -0.447765559 -0.7076880932 0.5014576316
-0.07245902717 0.004240755457 0.878103137 -0.1423332393 -0.566342473 0.8075096011
-0.2332687378 -0.05727571622 0.8457608223 -0.2160368711 0.4727615714 0.8526197672
-0.2302404046 -0.06769453734 0.8588137627 -0.3132148683 0.5037584901 0.8042734265
0.01299532223 -0.05208706483 0.8951411843 0.02342958562 -0.5613611341 0.656658113
0.0164097026 -0.04661982879 0.8887129426 -0.1705893874 -0.6316597462 0.6051028967
0.02048700862 -0.05450327694 0.8572939038 -0.1688861996 -0.3375135064 0.9021811485
-0.2474332899 -0.01916993409 0.8368093371 0.09143530577 -0.179203406 0.9777973294
0.01113835815 -0.0214505773 0.892606914 -0.4548296332 -0.7371704578 0.4996501803
-0.005045373924 -0.06251200289 0.9186580181 -0.1276377738 -0.1025749668 0.9701373577
-0.009627137333 -0.04950270802 0.9195646644 -0.1916742623 -0.09286786616 0.9759578705
-0.06378822029 0.004073570017 0.8761283755 -0.1900952458 -0.6189853549 0.7537692785
-0.05731091648 -0.07992494106 0.9047751427 -0.1689524502 -0.7133129835 0.6265209913
-0.1160087436 -0.07190901041 0.8680434823 0.2020133138 0.5096852779 0.8354453444
-0.2274918407 -0.04847919568 0.8435267806 -0.2995536923 0.3557195067 0.873314023
-0.1553356647 0.02555687539 0.8755273223 -0.2002182752 -0.2481648773 0.9472238421
0.001793841948 -0.02549749613 0.9024777412 -0.3704425693 -0.5403605103 0.6434832215
0.009407528676 -0.02821691148 0.9014630318 -0.3521359563 -0.5197930932 0.6184000969
0.005332232919 -0.03502278402 0.906350255 -0.261838764 -0.3231529891 0.7264130712
-0.02224476077 -0.01189226191 0.9083046913 -0.2804249227 -0.6025967002 0.5972306728
-0.02274181135 -0.02476505935 0.9123109579 -0.2487794012 -0.3156033158 0.7720271349
-0.01897974312 -0.03919477388 0.9173372984 -0.2132735848 -0.06172233075 0.9441225529
-0.01397267915 -0.02463244461 0.9119115472 -0.2557820082 -0.4211989343 0.7290885448
-0.03607449681 0.00149707438 0.898901403 -0.336689651 -0.8441514969 0.4171691537
-0.08509016037 0.006289537065 0.8765103221 -0.124519147 -0.4697663188 0.8734201789
0.02022057772 -0.04328043759 0.8757300973 -0.3435026109 -0.6645342112 0.5980626941
0.0158801917 -0.05854610726 0.864443481 0.109163031 -0.3058266342 0.8133536577
0.01812335849 -0.05137552321 0.8691359758 -0.1175554022 -0.4728964269 0.7209101915
-0.1196003258 -0.0146368593 0.8663707376 0.05753000826 -0.2363669872 0.8655480742
-0.1075660139 -0.01376105566 0.8649636507 -0.3464081883 -0.3508784175 0.8570190072
-0.05324492231 -0.06814944744 0.9085682631 -0.1739452481 -0.3318117857 0.8687171936
-0.05130287632 -0.07554551214 0.9073939323 -0.1869514138 -0.4826454222 0.7787593603
-0.04641228169 -0.06229021028 0.9117643833 -0.2185367942 -0.1666752398 0.9599094391
-0.166940704 -0.08030843735 0.8891542554 0.07350385189 0.5615278482 0.8240445256
-0.1714172214 0.005112052895 0.8671301603 -0.2233783752 0.01292125881 0.9593393207
-0.188231945 -0.06988377869 0.8780715466 -0.2177748531 0.3314839005 0.9039567709
-0.219683826 -0.07284985483 0.8666048646 -0.354496181 0.4162619412 0.8325959444
-0.1093073934 -0.07274582982 0.8755070567 0.1329198033 0.392904222 0.8446339965
-0.2462621778 -0.02038557455 0.8477039337 0.09158810228 -0.1418232471 0.9587173462
-0.2381048799 -0.006110892165 0.848641336 0.02711385675 -0.4182415903 0.9027311802
-0.2428370267 -0.05097745731 0.8424616456 -0.05905834958 0.3335042596 0.9306487441
-0.2505947351 -0.03739151731 0.8458408713 0.07236488163 0.1425246596 0.9674297571
-0.2502850294 -0.04889289662 0.8461863995 0.0001357905712 0.3264190257 0.9346972704
-0.2322815955 -0.04199742153 0.8452970982 -0.219673872 0.2787076235 0.8985009789
-0.1037190855 -0.04336094111 0.8534988761 -0.002324248198 -0.0481165722 0.9788442254
-0.09861339629 -0.04944934323 0.8517127633 -0.08698777854 -0.05135303363 0.9849461317
-0.1076560393 -0.04981511086 0.8490000367 0.04003191367 0.05781313404 0.9907252192
-0.1259486228 0.01915443316 0.8771702647 -0.2096207589 -0.4619615674 0.8477725387
-0.1376003474 0.02340944298 0.8788645864 -0.1763504595 -0.3287564516 0.9198393226
-0.1163857579 0.01097747777 0.8649920225 -0.2220988274 -0.5699561238 0.7853603959
-0.1249788627 0.01154767536 0.8609132171 -0.2196284384 -0.5942916274 0.7673985362
-0.1176853254 0.006595766637 0.857673645 -0.2330588102 -0.6065015793 0.7536101937
-0.1141974926 0.01596159302 0.875104785 -0.2167049348 -0.5312483907 0.8184425235
-0.1340647191 0.01418062486 0.8651216626 -0.1698379666 -0.41964674 0.8733606935
-0.1279857904 0.007505774498 0.8552187681 -0.2134474814 -0.5630764365 0.7762989998
-0.1417438239 0.0102705555 0.8586185575 -0.2160929143 -0.3674170375 0.8688800931
-0.144154951 0.01561883371 0.8665755391 -0.17279993 -0.2437978089 0.9537017345
0.001977042761 -0.01878106967 0.8891047835 -0.4372393787 -0.736010015 0.5167950392
-0.0008827986312 -0.02326985821 0.8805325031 -0.4144430459 -0.7346432805 0.5361068249
0.005671267398 -0.02830060013 0.8798263669 -0.4436736107 -0.714794755 0.5393437743
-0.02572481148 -0.0001329672668 0.8989323974 -0.2958715558 -0.840565443 0.4535361528
-0.03488053754 -0.002848384436 0.8865199685 -0.3360066414 -0.7901130319 0.5047594309
-0.04196663201 0.00228185975 0.8807435632 -0.2764645517 -0.7438554764 0.5940195322
-0.04201191291 0.001245403662 0.8915891647 -0.3238449991 -0.829303503 0.4536040425
-0.07286747545 -0.02230245806 0.8926192522 -0.1405224204 -0.3091086149 0.9071320891
-0.07088060677 -0.03504609317 0.9007321596 -0.1505208611 -0.1732241213 0.9491097331
-0.0696702376 -0.02800613269 0.89718014 -0.1507059932 -0.2342105359 0.9266624451
-0.06547871232 -0.0432311222 0.9060127139 -0.1591743082 -0.06058269739 0.9804213047
-0.1101687104 -0.02214013599 0.8638268709 -0.1592708379 -0.1401631236 0.9204038978
-0.08980520815 -0.05350939929 0.8522589207 -0.0783733204 0.006880101282 0.9913457036
-0.07903208584 -0.04721622914 0.8566778302 -0.01873845793 -0.02191416547 0.9940129519
-0.00294843805 -0.08071999997 0.8802989721 0.1819976717 0.08073408157 0.9461259246
0.0009713066393 -0.07308844477 0.8954716921 0.3811229169 -0.1373512745 0.8536617756
0.0009334892966 -0.06766938418 0.9145559072 0.2987918854 -0.3134079278 0.8319371939
-0.003365547163 -0.07468349487 0.9026623368 0.0605485253 -0.1182001978 0.927765429
-0.004391128663 -0.07281070948 0.9122403264 -0.04819961265 -0.1866518706 0.9360249043
-0.03097163886 -0.03011458367 0.8621477485 -0.1850229055 -0.5844407082 0.789190352
-0.1382904798 -0.01794728823 0.8669145107 0.3166621625 -0.02105193585 0.94285357
-0.1540563256 -0.07510242611 0.8788668513 0.1950703412 0.5248849988 0.8268779516
-0.1503488868 0.02156445384 0.8681012392 -0.1953369081 -0.2241128534 0.9545256495
-0.1672142893 0.0243604742 0.8708598614 -0.2115497738 -0.216898188 0.9526500106
-0.1739980131 0.02078518271 0.8658556342 -0.1984243244 -0.1848831177 0.9623337984
-0.1584876478 0.01980574243 0.8662409186 -0.2091930658 -0.1977172792 0.9573205709
-0.164452523 0.01413261611 0.8628021479 -0.1983200014 -0.1587317288 0.9670121074
-0.2141916007 0.005113025196 0.8525758982 -0.05400461331 -0.4083560407 0.9089686275
-0.1806790382 -0.03816229105 0.871688962 -0.1251062304 0.1336926967 0.9806787372
-0.1008490995 -0.07250561565 0.8868362308 0.0213268809 0.1859717965 0.8690966964
-0.08857405931 -0.06795172393 0.8988589048 -0.1247151941 -0.1023761928 0.9062908888
-0.1236968562 -0.08045943081 0.8743087649 0.1860538125 0.5323105454 0.8257836699
-0.1385543495 -0.07869559526 0.8753861785 0.1933493763 0.5342116952 0.8224404454
-0.1310578734 -0.07601222396 0.8728894591 0.1739037335 0.5171632767 0.8380253315
-0.1588114351 -0.0544863604 0.8657907248 0.1702104956 0.1614351124 0.9690870643
-0.1496222615 -0.06997069716 0.872599721 0.2364002913 0.4437426925 0.8588297367
-0.2316092104 0.0005357466871 0.8538914919 -0.01437780634 -0.4849549532 0.8743025661
-0.2230431437 0.009459541179 0.8572343588 -0.003125557909 -0.4866142273 0.8735828996
-0.1253021806 -0.009051980451 0.8402902484 0.4626527727 -0.1024643853 0.7467923164
-0.0746031031 -0.0371956192 0.8579173684 0.04778691754 -0.119093962 0.9907141328
-0.08352669328 -0.06077471748 0.8995004296 -0.1782155186 -0.2513303757 0.9451425076
-0.07818376273 -0.05490802228 0.9012674093 -0.1005265117 -0.1390676349 0.9821189642
-0.0799613893 -0.06394926459 0.9064105749 -0.2076173723 -0.2734716833 0.9364283085
-0.09031436592 -0.05057131127 0.8829821944 -0.07457052171 -0.1522314101 0.9813233614
-0.08430160582 -0.0475035347 0.8903148174 -0.09177138656 -0.1068940908 0.9880360961
-0.07579532266 -0.04660834745 0.9027943015 -0.1380819082 -0.08101413399 0.9862903357
-0.08630724996 -0.04133556038 0.8809919357 -0.1177073866 -0.1579518467 0.9762285948
-0.09230650216 -0.04276942089 0.875135541 -0.08175612241 -0.142149657 0.9827888012
-0.09390851855 -0.03943841532 0.867941618 -0.09240896255 -0.1894931346 0.9740365744
-0.1100993231 -0.03743989021 0.8515185118 0.1446203142 0.05708624423 0.9510805011
-0.1131584868 -0.02891325206 0.8508622646 0.2645584047 0.1184838414 0.9105533361
-0.1068968177 -0.03900127858 0.8608729243 -0.04868851975 -0.1646841764 0.9737144709
-0.1098244563 -0.04592230543 0.8605610132 0.06539131701 -0.05719987303 0.9741626382
-0.1442533433 0.02392725646 0.8738445044 -0.1709995568 -0.2718107104 0.9469246268
-0.13269113 -0.01632311381 0.8464930654 0.4737392962 0.07144761086 0.8315535188
-0.143118307 -0.02144795656 0.8553091884 0.2587067783 0.1098837256 0.9150707126
-0.127731353 -0.02244421653 0.8497458696 0.4444893599 0.2100188583 0.8480574489
-0.1493989974 -0.02269040234 0.8590148091 0.1575299352 0.0992327854 0.9532586336
-0.1238688156 -0.01653755456 0.8432421684 0.6229529977 0.1027078703 0.745582819
-0.1493522525 -0.03937664628 0.8642291427 0.1849930733 0.07685817033 0.9743491411
0.01242618728 -0.02950208448 0.8844894171 -0.4637668729 -0.7291799784 0.5028504133
0.01850473881 -0.03550649434 0.8819327354 -0.4648830593 -0.730917871 0.4993574917
-0.006123786326 -0.01429487299 0.8882749081 -0.3822099566 -0.7708076239 0.5084047318
-0.0120249344 -0.009177363478 0.8913292289 -0.3409434855 -0.8021883368 0.4890091717
-0.04246949777 -0.07525219768 0.9083968997 -0.216704905 -0.3947722316 0.8467977047
-0.02717078477 -0.07641655207 0.9095981717 -0.1201390848 -0.5326192975 0.7764289975
-0.05613232777 0.002399654593 0.8814511299 -0.2654494345 -0.7706106901 0.5715874434
-0.04445556924 0.003868802451 0.9045090675 -0.3223991096 -0.8325385451 0.4388635457
-0.05151343718 0.00370923942 0.8983073831 -0.2757812738 -0.7610146999 0.5355547071
-0.06079121679 0.003785712179 0.8892937303 -0.2160962373 -0.668738842 0.6687959433
-0.04965668544 0.003668953432 0.8719380498 -0.2647208273 -0.6942797303 0.6669457555
-0.002691521076 -0.04972605035 0.8610149026 -0.0589531064 -0.3329327106 0.8825508356
-0.07352802902 -0.07874561101 0.860955894 -0.04804618657 0.359300971 0.92858845
0.002704973333 -0.05883863196 0.8605123758 0.129819423 -0.1040240228 0.9614645839
0.001279360033 -0.06688591093 0.8611424565 0.2844568491 0.06817179173 0.9484326243
5.456684084e-05 -0.03674676269 0.8632109761 -0.3331535161 -0.6659424901 0.6622277498
0.006725160871 -0.04353921115 0.8591498137 -0.2516184747 -0.524338901 0.7981942892
-0.01983497478 -0.006835777313 0.8910101056 -0.3114148974 -0.8166923523 0.4854777455
-0.0268848706 -0.006480735261 0.8873409629 -0.3038623929 -0.8157799244 0.4910939634
-0.08235513419 -0.0008337371401 0.873098135 -0.1056906432 -0.4624667168 0.879810214
-0.1006983593 -0.02805458568 0.8622879982 -0.1562774628 -0.2097937465 0.9595399499
-0.105129607 -0.02842923999 0.855691433 0.1144764945 -0.04601329938 0.9258733392
-0.1023358479 -0.04662880301 0.8650135398 -0.03272840753 -0.1308126897 0.978548646
-0.1007561833 -0.05715258792 0.8745222092 -0.01219351124 0.003447669791 0.929605186
-0.1010421067 -0.06658975035 0.8808187246 0.0262348447 0.1591389477 0.8823747039
-0.1062637568 -0.05874131247 0.8684298992 0.05845489353 0.1428362131 0.9109414816
-0.09410202503 -0.0669868961 0.8901914954 -0.05387446284 0.02156817168 0.894028604
-0.0887267068 -0.05980689824 0.8921581507 -0.1437444687 -0.203809768 0.9400832057
-0.09899464995 -0.05023559183 0.871940434 -0.05860392004 -0.1428399682 0.9672681689
-0.01166693773 -0.07132078707 0.9162846208 -0.1919053197 -0.2124334723 0.957171917
-0.0144139342 -0.05996710807 0.9193626642 -0.1802675575 -0.151635319 0.971763432
-0.01962696947 -0.07465858757 0.913634181 -0.1931587756 -0.2882432044 0.9319357276
-0.01824610308 -0.06575185061 0.9161997437 -0.1886680871 -0.1633808315 0.967912972
-0.07210824639 -0.05510375276 0.9056876898 -0.1043810695 -0.1126981229 0.9871466756
-0.0613810271 -0.05239960551 0.9071446657 -0.1541549414 -0.0650433749 0.9855422378
-0.05345110968 -0.04773086309 0.9095731378 -0.2029032409 -0.05838543177 0.9771536589
-0.05155667663 -0.0564002879 0.9104409814 -0.189984858 -0.08012739569 0.9776346684
-0.07645811886 -0.07845143229 0.8930306435 -0.2506918311 -0.2126862854 0.7836921811
-0.07452516258 -0.08473217487 0.886066556 -0.03219022602 -0.1080151126 0.735535264
-0.07857535034 -0.08649266511 0.8774856329 0.02528830618 0.2882497013 0.782150805
-0.07646629959 -0.07352364063 0.9022102952 -0.3856271207 -0.4456040561 0.7661696672
-0.08845411241 -0.07965669036 0.8820754886 -0.03483185917 0.2079070508 0.8226813674
-0.08341452479 -0.07853010297 0.888528645 -0.1538250595 0.01108988468 0.8243083954
-0.161740616 -0.08029428869 0.8824416995 0.1017428711 0.5642737746 0.8107591271
-0.1763515919 -0.08069642633 0.8824437261 -0.07365115732 0.5234912634 0.8392081261
-0.163404122 -0.07430794835 0.8779596686 0.09554548562 0.523843348 0.830845058
-0.172024399 -0.07276252657 0.878031075 -0.0275278613 0.5173989534 0.8444824815
-0.1720208377 0.01288972702 0.8604877591 -0.2147484571 -0.166214332 0.9617857933
-0.1816698313 0.02043066733 0.8640711904 -0.2016327083 -0.2368790209 0.9497985244
-0.2420201749 -0.03328192979 0.846483171 -0.04219924659 0.1060833484 0.9397749901
-0.2188036144 -0.004621415865 0.8557696939 -0.1162326932 -0.3231695592 0.8580246568
-0.211977154 -0.008967994712 0.8581807017 -0.2267294824 -0.1691047549 0.8347279429
-0.183725372 -0.05319652706 0.8694171906 -0.2236976326 0.189023748 0.9367791414
-0.2195762545 -0.06180981174 0.8592376113 -0.411788106 0.453781724 0.7878649831
-0.1949660629 -0.04111779109 0.8675276637 -0.4860473871 0.257247299 0.8296569586
-0.198761344 -0.06150669605 0.8704843521 -0.3821329176 0.2604679167 0.8853020668
-0.1856818348 -0.04479820654 0.8724684715 -0.1751876324 0.1420917064 0.9691473842
-0.09501225501 -0.08055795729 0.87688905 0.07076564431 0.3873459995 0.8120017052
-0.09157686681 -0.07567030936 0.8917404413 -0.1574828923 -0.01936659403 0.7834764123
-0.1105343178 -0.08179738373 0.8730870485 0.1823791116 0.5714718699 0.799814105
-0.1388835013 -0.07095298171 0.8716793656 0.2028559595 0.4447377324 0.8709880114
-0.1298042387 -0.06988651305 0.86768502 0.1860443354 0.4468794465 0.8747601509
-0.1859085411 -0.06257333606 0.8723824024 -0.2499818802 0.311707437 0.9128569961
-0.1931192726 -0.05609769747 0.8673309088 -0.372995317 0.2385875881 0.889539659
-0.200114429 -0.05950829759 0.8630049229 -0.4187004566 0.3319278657 0.8348520994
-0.2068356127 -0.05487629399 0.8577990532 -0.4882093072 0.388995409 0.7792640328
-0.234434098 -0.03053950518 0.8373903036 -0.06309656054 0.0179067757 0.9931166768
-0.240746662 -0.01527395379 0.8393364549 0.04788602144 -0.2848276496 0.9530385137
-0.2401691079 -0.04082344845 0.8386526108 -0.01535255555 0.1849882156 0.9812594056
-0.2428345978 -0.0304315649 0.8386557102 0.04821642116 0.05124874786 0.9931915998
-0.1199462339 -0.007599388715 0.8495236039 -0.7813325524 -0.1824434847 0.5487360954
-0.06757057458 -0.03433449194 0.8583678007 0.0710561052 -0.2330791354 0.9688194394
-0.082234703 -0.02132295631 0.8634542227 0.003014608985 -0.3307514191 0.9407922029
-0.07693358511 -0.01153954864 0.8674747944 -0.05639154837 -0.4474009573 0.8922183514
-0.08198129386 -0.03422959894 0.8860375285 -0.1142740473 -0.1918257922 0.9650948644
-0.083629556 -0.02718694322 0.8783031702 -0.09069676697 -0.2657676637 0.9481877685
-0.08588038385 -0.02289761603 0.8721234798 -0.07767961174 -0.3078458011 0.9398451447
-0.0916512683 -0.0263083186 0.8681297898 -0.09617084265 -0.2564627826 0.9583303928
-0.07751429081 -0.02303849719 0.8832595944 -0.09798282385 -0.3114533126 0.9246811867
-0.0754654184 -0.03311800957 0.8935292363 -0.1213076413 -0.2103679925 0.9502757192
-0.0760185346 -0.01398479473 0.8788225651 -0.09465221316 -0.3993572295 0.8946652412
-0.09032656252 -0.001097316272 0.8720085025 -0.1173706949 -0.4225464463 0.8983089924
-0.07161147147 -0.04603363946 0.8575630188 -0.003590765176 -0.05991818756 0.9810131788
-0.1100443006 -0.05549419299 0.862534225 0.115725942 0.1652717888 0.9199932218
-0.1186888665 -0.06002075598 0.8614347577 0.2729915679 0.360634625 0.8896368146
-0.1178354546 -0.02256742306 0.8645396233 0.08581959456 -0.06969569623 0.9197554588
-0.1302774101 -0.02784689702 0.8641080856 0.3648949564 0.06127590314 0.9264987111
-0.1307308078 -0.01969769597 0.8669228554 0.4488073885 -0.04820016772 0.8908542991
-0.1473673731 -0.04999740049 0.8644953966 0.2414352596 0.1045749858 0.9627535343
-0.1443547457 -0.003910110798 0.8547449708 0.144017607 -0.01674053632 0.901915431
-0.1305525601 -0.00280737807 0.8465480208 0.1019396707 -0.3017245233 0.7773225904
-0.1355692893 0.002088001231 0.8521220684 -0.1933561563 -0.4307880402 0.8057881594
-0.1478898078 0.003722121241 0.8592826724 -0.1539500356 -0.1934877783 0.9151180387
-0.1593002677 -0.01924807765 0.8639332056 -0.01276545506 0.1572484821 0.9840710759
-0.1538854986 -0.0105935093 0.8653376698 -0.0235815905 0.08853727579 0.9865238667
-0.217869848 -0.00406398112 0.8472731709 -0.08251917362 -0.3977825344 0.9131863713
-0.2218064368 -0.01184505876 0.8424171209 -0.1503673941 -0.3318490982 0.9293487668
-0.1994533837 0.01551941875 0.8586013913 -0.1021324694 -0.3558760881 0.9252957702
-0.1918162555 0.01672716439 0.8602361679 -0.1539045423 -0.3253510892 0.9282808304
-0.1843588352 -0.003171523102 0.8608252406 -0.3390639126 0.05835957453 0.9127320647
-0.001527419663 -0.01066132542 0.8952764869 -0.3905134499 -0.7791799307 0.4876135886
-0.001321518212 -0.01771287061 0.8994263411 -0.3722603023 -0.652667284 0.5716766119
-0.005829575006 -0.02503834292 0.9061968923 -0.3078475595 -0.4702633321 0.6968315244
-0.01053413469 -0.03213477507 0.9130279422 -0.2474959046 -0.2970066071 0.8148428798
-0.01525779348 -0.006862041075 0.9042822123 -0.3086515665 -0.7470678091 0.5070926547
-0.01374613587 -0.01567759551 0.9074333906 -0.2866467834 -0.5894309878 0.6148164272
-0.01063742116 -0.004641545005 0.8986793756 -0.3411138654 -0.8169782758 0.4641219676
0.01794692874 -0.04303866997 0.8667700291 -0.4133841693 -0.6101090312 0.6677787304
-0.02556511015 -0.05114200339 0.9164928198 -0.2227841467 -0.07756473124 0.9697284102
-0.02466499619 -0.06092689559 0.9157945514 -0.2159171104 -0.1539674848 0.9638101459
-0.01786285825 -0.04779549316 0.9184590578 -0.2091841847 -0.06604275107 0.9745485187
-0.02621645294 -0.06946805865 0.9135479927 -0.2086271942 -0.2441457659 0.9444993734
-0.03242821619 -0.06496920437 0.9135927558 -0.2457876951 -0.2112073451 0.9453813434
-0.04060120508 -0.06816648692 0.9114127159 -0.2351144701 -0.2254951 0.9450955391
-0.0376589708 -0.05648174509 0.9133651257 -0.2461958677 -0.09248232841 0.9625483751
-0.004954474512 -0.03070092387 0.8668009639 -0.3484738469 -0.6828213334 0.6419891119
-0.01300752722 -0.01685789786 0.8814252615 -0.3514495492 -0.7556017041 0.5505337119
-0.02151111886 -0.01212168112 0.8827836514 -0.3064637482 -0.787837863 0.5321204066
-0.04896103591 -0.01855742186 0.8657264709 -0.1435174346 -0.5380006433 0.829687655
-0.05182277039 -0.02454729192 0.8609441519 -0.07667060941 -0.4852916002 0.8691627979
0.008641103283 -0.06485698372 0.8582977653 0.3720294237 -0.04857746884 0.9032310247
0.01026295684 -0.06487310678 0.8799102306 0.3973590434 -0.2367056906 0.8401033282
0.01285023708 -0.05534629151 0.8881235123 0.108244963 -0.4662910402 0.7097792029
0.01672239602 -0.05061024427 0.8774784803 -0.08346506208 -0.519991219 0.6749611497
0.008568974212 -0.06361070275 0.892599225 0.3968424499 -0.3147283792 0.7992283702
0.008802458644 -0.05969351158 0.9007054567 0.2933732271 -0.4285330474 0.7360191345
-0.01153147221 -0.0470210351 0.8628585935 -0.1513371915 -0.440431118 0.7900959253
-0.005246744957 -0.06240365654 0.8627753258 0.1698750854 -0.05976435915 0.8933801055
-0.01506629586 -0.07012040168 0.8678153157 0.2006610185 0.07616320252 0.9123487473
-0.01135149691 -0.05685247853 0.8643084168 0.01540466398 -0.2134144306 0.8463934064
-0.01987427287 -0.05285451561 0.8645887375 -0.01033647917 -0.2608645558 0.8459538221
-0.0255168099 -0.04366991296 0.8628283143 -0.08840024471 -0.4118030965 0.8253316283
-0.02001005784 -0.0605727993 0.866110146 0.1034904644 -0.09290305525 0.8845139146
-0.01952413283 -0.03697407246 0.8618751764 -0.2347679138 -0.5951089859 0.7663270235
-0.02137821168 -0.0267491173 0.8650211096 -0.2464384735 -0.6406300068 0.7267193198
-0.01115060505 -0.03865790367 0.8622203469 -0.281178534 -0.6180856824 0.7326601744
-0.0127256969 -0.03084464185 0.8644787073 -0.2816070318 -0.6575695276 0.6976180673
0.01795865409 -0.06250055134 0.854614675 0.4836494923 -0.1917445213 0.8361377716
0.009468520992 -0.05628762767 0.8566658497 0.09078850597 -0.2276177555 0.9419395328
-0.09717195481 -0.05692260712 0.8502219319 -0.09599912167 0.04939752072 0.9827991724
-0.1131358445 -0.06537785381 0.8615651727 0.2447760105 0.4869692922 0.8380426168
-0.05061130971 -0.006894777995 0.8968316913 -0.2831322253 -0.6344336867 0.596283257
-0.04669594392 -0.006312371232 0.9048160315 -0.3005192876 -0.6499990225 0.5577281117
-0.05123031512 -0.01892439276 0.9030224085 -0.2629582882 -0.4080991149 0.730242908
-0.0522916913 -0.02842626348 0.9066917896 -0.2446056753 -0.228644684 0.8407789469
-0.05373626202 -0.006538073067 0.8899462223 -0.2704543769 -0.6374174953 0.618255496
-0.04829631001 0.001475314028 0.8863786459 -0.3211610019 -0.8100382686 0.4896881878
-0.05904543027 -0.02677660435 0.8998059034 -0.2022707313 -0.1908481717 0.9175719023
-0.06141166016 -0.003482152242 0.885192275 -0.2168359756 -0.5895413756 0.7101381421
-0.05789304897 -0.01896645315 0.895070672 -0.2229348123 -0.3551462591 0.813908875
-0.06563562155 -0.01458736509 0.8914384842 -0.1688904017 -0.3366256058 0.8855677843
-0.061335098 -0.0351279825 0.9033873081 -0.1840799749 -0.1095291749 0.9571899772
-0.07090560347 -0.003535531927 0.8839159012 -0.1443050206 -0.4795466363 0.844470799
-0.1174957827 0.009371538647 0.8740208745 -0.2062391788 -0.5128509402 0.8237805963
-0.1851676553 -0.07888622582 0.8831033111 -0.1984264255 0.450840354 0.8621274233
-0.1564479917 -0.06221970543 0.8686203957 0.2008637488 0.3291219771 0.9194796085
-0.1723587066 -0.06165487692 0.8723745942 0.0465686582 0.3133755028 0.9420434833
-0.1892073452 -0.07095657289 0.8702968359 -0.2287237793 0.3649353683 0.8903274536
-0.1808971167 -0.07073773444 0.8745529652 -0.114866443 0.4409506023 0.8771772981
-0.1631071717 -0.06718724221 0.873580873 0.1347243339 0.4357214868 0.8788831234
-0.1712604314 -0.05327632278 0.8744997978 0.04420355335 0.2448692024 0.9397115111
-0.17597197 -0.04678178951 0.8720061779 -0.02514003776 0.1216489747 0.9843459129
-0.1644698679 -0.05819218606 0.8765447736 0.1247111484 0.3398880959 0.9032589197
-0.1576389074 -0.04768075421 0.8732269406 0.1464123428 0.1513092667 0.9618970752
-0.1705354899 -0.04027176276 0.8689779043 0.04419612512 0.08963506669 0.9945828319
-0.1707358956 -0.02940586023 0.869761169 0.001984409522 0.1860233694 0.9781662822
-0.1675802916 -0.02063237131 0.8662487864 -0.04264910519 0.2182914913 0.9739202261
-0.1847567409 0.01216506213 0.8577884436 -0.2320124805 -0.2120552957 0.9484187961
-0.1963825524 0.003116785781 0.8506571651 -0.2025402486 -0.2625914216 0.9432080984
-0.2179911435 -0.04193602875 0.8486748338 -0.4879514575 0.3173870146 0.8103201985
-0.2276203483 -0.03322478756 0.8471521139 -0.2829532325 0.1571208537 0.8878425956
-0.2488866001 -0.02849330381 0.8460245132 0.09124941379 0.008009118959 0.9811626673
-0.2372090667 -0.01485823654 0.8462070227 -0.03048122488 -0.2541101873 0.9248845577
-0.2300194651 -0.01391047239 0.8491027951 -0.1403197348 -0.2306294292 0.8834068179
-0.2248742878 -0.0207468085 0.848670125 -0.2610419989 -0.07907337695 0.868113637
-0.2290373445 -0.05849862099 0.8539991379 -0.2977801859 0.4728165269 0.8154546618
-0.2410468012 -0.05754472315 0.8515227437 -0.1539027095 0.4486367702 0.8623113036
-0.2364160419 -0.06311963499 0.8560225368 -0.2312407792 0.4815807939 0.8315995336
-0.2115439624 0.01246787142 0.8589453101 -0.02239606343 -0.4187245071 0.907613337
-0.1875791103 -0.03216313198 0.8696117997 -0.3635189235 0.2597821355 0.8859750032
-0.2020392418 -0.007863219827 0.8610316515 -0.2975836694 -0.03968856856 0.8424246311
-0.2065788209 -0.001238846453 0.8595395088 -0.1935146153 -0.185528338 0.8702047467
-0.2006567419 -0.05053857341 0.8609912395 -0.4546363056 0.2999554276 0.8269721866
-0.1907759905 -0.04868900031 0.8614572287 -0.2786165774 0.2514281571 0.8745762706
-0.2038764209 -0.04480525479 0.8565395474 -0.5110808015 0.3194414973 0.7919813395
-0.2014597803 -0.07091662288 0.8646832705 -0.3789542615 0.3888053596 0.8368827105
-0.2069707513 -0.0631563738 0.8616600633 -0.4263131917 0.4104038477 0.8035272956
-0.1979412138 -0.07012303919 0.874446094 -0.3406277299 0.3259895146 0.8793954849
-0.2104517072 -0.07641323656 0.8705980182 -0.376595825 0.3559885919 0.8550909162
-0.2026633769 -0.07695521414 0.8751165867 -0.339476794 0.3727200925 0.8622040749
-0.2323806733 -0.0167398788 0.8392288089 -0.0774955973 -0.2732245326 0.9565230608
-0.2085144073 -0.02249514498 0.8473396301 -0.4443576336 0.1270126849 0.881619215
-0.09375153482 -0.04276411608 0.8560141325 -0.1010852009 -0.1459257603 0.9777414799
-0.08472956717 -0.0372896716 0.8583956361 -0.04474114999 -0.1546571553 0.9854525328
-0.1009055227 -0.01990953833 0.8563452959 -0.3727926314 -0.1551638395 0.769433558
-0.1111472324 -0.005180055276 0.8672632575 -0.2708924711 -0.4767353237 0.8360500336
-0.09874480963 0.002955268137 0.8732360005 -0.1624356806 -0.4504256546 0.8768312335
-0.09570752084 0.009369084612 0.8766605854 -0.1513922215 -0.4493584335 0.8798637986
-0.1027774662 0.01276067179 0.8758183122 -0.1972413808 -0.4952889979 0.8441290855
-0.08320148289 -0.06090637669 0.856341064 -0.03053988516 0.160269767 0.9789598584
-0.0987207368 -0.0646224916 0.8562987447 0.04781807587 0.3521941304 0.9279208183
-0.09997046739 -0.07326511294 0.8627530336 0.1394089609 0.5108053088 0.8458603621
-0.07642289251 -0.08376755565 0.8669977784 0.02199781872 0.4716956913 0.8770128489
-0.1123819202 -0.03023181483 0.8620713949 -0.04621677846 -0.1162807122 0.9485144019
-0.1202677339 -0.03407204524 0.8617085218 0.1938272715 -0.1005530655 0.9452285171
-0.1209027916 -0.04909618199 0.8541861176 0.1981555223 0.1307334453 0.9657113552
-0.1326152533 -0.06043533608 0.8640684485 0.2451068163 0.3182151616 0.9077211618
-0.1560687572 -0.0003529515525 0.8641906381 -0.1527398378 -0.02258372866 0.9852318168
-0.1641158909 0.01545488089 0.870377481 -0.1943302453 -0.1292619109 0.9604306221
-0.161704883 0.004873239435 0.8663037419 -0.1730335057 -0.04407248646 0.9753335714
-0.1435742378 0.001819275203 0.8696476221 -0.01103612129 -0.0899111107 0.9855005145
-0.1422412097 0.01577903144 0.8758012056 -0.1026181653 -0.198977679 0.9626594782
-0.1486399323 0.009995182045 0.8698801994 -0.1372317076 -0.1411707997 0.9713151455
-0.1361751854 -0.001921980409 0.8689996004 0.01198745798 -0.1615479141 0.9683362842
-0.1296027601 0.01236639451 0.8726637959 -0.135902822 -0.3120201826 0.9381964207
-0.1497253627 -0.009019076824 0.8590544462 0.05712109432 0.05498055369 0.9464757442
-0.1397992522 -0.009609052911 0.8507586718 0.2986944914 0.03436396644 0.8707489967
-0.145594269 -0.01135641988 0.8667189479 0.08967863768 0.04633007944 0.9915272593
-0.1774201989 -0.01210741606 0.8649624586 -0.264680773 0.2265294194 0.9294360876
-0.2044440508 0.007029734552 0.860869348 -0.1093824059 -0.268845886 0.8982448578
-0.1940128356 -0.01324615628 0.8620244265 -0.3806892633 0.1326865405 0.8395448327
-0.1916360408 -0.02190029435 0.8622825742 -0.4967426956 0.2738180757 0.8068967462
-0.193593815 0.001470711781 0.8609600067 -0.2306149006 -0.09088005126 0.902579248
0.008866572753 -0.03760727495 0.8664788604 -0.3659292758 -0.6876371503 0.6269060373
0.002403440885 -0.0324665755 0.8708975911 -0.3853697181 -0.7078062296 0.5913105011
0.009871645831 -0.0341725722 0.8738880157 -0.4087964296 -0.7311806083 0.5445617437
-0.03308599442 -0.07892304659 0.9033073783 -0.04074910656 -0.8372099996 0.5359717607
-0.0466761291 -0.08068262786 0.9019542933 -0.1226051152 -0.8425143361 0.5158604383
-0.02043582499 -0.02064944617 0.8706474304 -0.2793563902 -0.6857732534 0.6679466963
-0.02776214667 -0.02230160683 0.8665321469 -0.2283792496 -0.6355050802 0.7362601757
-0.007500491571 -0.02203805931 0.8767427206 -0.3684509695 -0.7328740358 0.569596827
-0.05247092247 -0.004740285687 0.8694055676 -0.1957998276 -0.6147654057 0.7531428933
0.01281747315 -0.07142614573 0.8598746061 0.3704873025 -0.001845486928 0.9249036312
0.01027604844 -0.06735324115 0.8719980717 0.4217094779 -0.1471255571 0.8810049891
0.005534234457 -0.07151803374 0.8776239157 0.3825888932 -0.04730128869 0.8901404142
-0.03805364668 -0.0466578193 0.9128873944 -0.2429825813 -0.0182517413 0.9696181417
-0.04541903362 -0.045643989 0.911477685 -0.2230395079 -0.02814166993 0.9742752314
-0.1053617969 -0.05795230716 0.8530740142 0.07803677768 0.1861936003 0.9513722658
-0.06625466049 -0.007053765003 0.8705831766 -0.1005124524 -0.5235776305 0.8446643949
-0.05912417173 -0.001991992118 0.8715090752 -0.1732899845 -0.597551167 0.7727914453
-0.1578327417 -0.02903832868 0.8643790483 0.06388553232 0.09885475039 0.9927442074
-0.1630988717 -0.04106697068 0.8712243438 0.1331722587 0.07594012469 0.9878680706
-0.1623539329 -0.0333676897 0.8705464005 0.08195094019 0.1175665632 0.9876154661
-0.1451474875 -0.02182382531 0.8661957979 0.1741916835 0.06959810108 0.9816616178
-0.1530303061 -0.03515057266 0.870580852 0.1459299177 0.04591930658 0.9874564409
-0.1525920182 -0.02536297962 0.8688861132 0.1130278036 0.08846906573 0.9878082275
-0.2178157419 -0.03437235206 0.8444781303 -0.4123619795 0.1884626597 0.8849728107
-0.2076224536 -0.03049079515 0.8483647108 -0.5037218332 0.2220592201 0.8314257264
-0.2235021591 -0.04118632898 0.8421971798 -0.3187803328 0.2569662035 0.9001192451
-0.2037503272 -0.01206941064 0.8482348919 -0.3537602425 -0.03337303177 0.9251547456
-0.2045033276 -0.003455650294 0.8483199477 -0.1688265055 -0.2590199113 0.9500190616
-0.2123030275 -0.009267185815 0.846333921 -0.1899209917 -0.265847981 0.937435329
-0.2270738482 -0.02579479292 0.838563025 -0.1710399389 -0.03047818318 0.9818556309
-0.2158915102 -0.01771692373 0.8444257975 -0.275527209 -0.1165311188 0.9487371445
-0.2264045328 -0.006696463563 0.851665318 -0.08668248355 -0.3589501381 0.8763174415
-0.2190178186 -0.0255265329 0.8488564491 -0.3615448475 0.03415315598 0.8524912
-0.2140435278 -0.01770407148 0.8525561094 -0.3112387061 -0.07436537743 0.8430203795
-0.2200793922 -0.01144434884 0.8505620956 -0.1860190034 -0.2268068492 0.8823794723
-0.2003759295 -0.03696236014 0.8593755364 -0.600117147 0.2850347161 0.7472681403
-0.1911532134 -0.03719576821 0.8609056473 -0.3929613531 0.217327863 0.829646349
-0.1822579652 -0.03590847924 0.8637505174 -0.2028692812 0.160585627 0.922580719
-0.1199077815 -0.005902270321 0.8678028584 -0.06467954814 -0.4315342307 0.8345441222
-0.1278865337 -0.01211479492 0.8684217334 0.3004917204 -0.1625610143 0.8861790895
-0.1259214431 -0.001546124811 0.8710240722 0.07049461454 -0.2669709027 0.9128028154
-0.07976825535 -0.03000788949 0.8603406549 0.04036850855 -0.2199409455 0.9732652307
-0.0800948292 -0.04051443562 0.8927478194 -0.1334248632 -0.1327638626 0.9779773951
-0.08847012371 -0.03530618176 0.8752164841 -0.1165405512 -0.1999384165 0.9689836502
-0.08757670224 -0.02927687019 0.8612257838 -0.0154289389 -0.2457276434 0.9674931765
-0.08965045214 -0.009895178489 0.8674660921 -0.1096786261 -0.4055865109 0.9066694975
-0.09792617708 -0.003936612513 0.869377017 -0.1498797238 -0.4155007303 0.89691782
-0.09661953151 -0.01418174151 0.8655033112 -0.1560713351 -0.3635708392 0.9144616127
-0.1068276837 0.004833394196 0.8728763461 -0.2224308401 -0.5182759166 0.8250501752
-0.1144930273 -0.004769344814 0.855142951 -0.47671628 -0.4323335588 0.7369475961
-0.120185256 0.001625937759 0.8509680629 -0.2471150309 -0.6315633059 0.7291867733
-0.1113694608 0.001810187008 0.8643431664 -0.2541280985 -0.5281006098 0.8047721982
-0.09095724672 -0.07035847753 0.8575758934 0.0482714735 0.403568238 0.9064333439
-0.08102342486 -0.07422345132 0.8590079546 -0.01363482606 0.3399534822 0.9396709204
-0.07081098855 -0.06690604985 0.8571072817 -0.1094403863 0.1935721636 0.9600503445
-0.07423466444 -0.05510613695 0.8574032187 -0.05876582488 0.06733866781 0.9792451859
-0.09033688158 -0.07667414844 0.8631812334 0.1144873351 0.4794892371 0.8692622185
-0.09840872139 -0.07958514988 0.868094027 0.1540743262 0.5380673409 0.8267353773
-0.08931117505 -0.08418242633 0.8702100515 0.121232681 0.5102984905 0.849203825
-0.1179389358 -0.03602438793 0.8493540287 0.3157410026 0.1634543538 0.9098117948
-0.122347191 -0.04086979106 0.8551960588 0.3540816009 0.1343129128 0.9210762978
-0.1331688464 -0.02682705969 0.8553920984 0.3651961088 0.1269610077 0.8915534019
-0.1407432407 -0.02917129174 0.8603758216 0.2599447966 0.06193465739 0.9374793768
-0.1297821999 -0.03888626397 0.8625732064 0.34628582 0.008514866233 0.9365918636
-0.126827091 -0.03067518584 0.8532769084 0.4322203696 0.1615809053 0.8740079999
-0.1303051412 -0.04715315998 0.8621748686 0.3032639027 0.07336807251 0.9421429038
-0.1470088214 -0.04341911525 0.8706002831 0.1857567728 0.02936687693 0.9744955301
-0.1394753903 -0.04799252003 0.8664008379 0.258683145 0.08478033543 0.9469075203
-0.1397039145 -0.05521615222 0.8630565405 0.2643771768 0.1849675477 0.9447172284
-0.1438262761 -0.06221904978 0.8713083267 0.2109643668 0.3352209926 0.8974231482
-0.1496188194 -0.05615765974 0.8717364669 0.19861947 0.2682852149 0.9196056724
-0.1748364419 -0.003287123749 0.8605729938 -0.2598971725 0.06387586147 0.9533048272
-0.1769212335 0.004513754975 0.8588839173 -0.258013308 -0.0347799398 0.9623115063
-0.1690525562 -0.0104255164 0.8633134961 -0.1580077559 0.1571690887 0.9642288685
-0.1969510019 -0.007242033724 0.8498580456 -0.3711287677 -0.02758609317 0.9228623509
-0.1897951365 -0.002932242583 0.8542957306 -0.3430581093 -0.01760320552 0.9182115197
-0.184549123 -0.01760806702 0.8635729551 -0.4087239504 0.2854772508 0.8657577634
-0.05916422606 -0.05988315493 0.9074100256 -0.1484563351 -0.1194758937 0.9798158407
-0.07174488902 -0.06372516602 0.9062123299 -0.159103632 -0.2081791013 0.9598677158
-0.06703730673 -0.07310874015 0.9048326015 -0.1748761237 -0.4997675121 0.7597670555
-0.04040060192 -0.005798924249 0.8758882284 -0.3221316934 -0.7270373106 0.6036738753
-0.03302762657 -0.00796956569 0.8806273937 -0.342315048 -0.7691664696 0.5368834138
-0.03130762652 -0.04055172205 0.9139510989 -0.2312802225 0.02111884207 0.9723848104
-0.02446323261 -0.003867262276 0.9062806368 -0.2940582633 -0.7543827295 0.5030617714
-0.03322808072 -0.02444177866 0.9125415087 -0.2600581646 -0.2621385157 0.7851932645
-0.03662879765 0.001389031997 0.9075023532 -0.3168384433 -0.8094424605 0.4472746253
-0.02903548442 -0.03024486452 0.9146906137 -0.238306731 -0.1405776441 0.8631644249
-0.03373406082 -0.007278565317 0.9092927575 -0.2934562862 -0.6287906766 0.56171
-0.02812234685 -0.01798105426 0.9110552669 -0.2599186599 -0.412271589 0.7042193413
-0.04015330225 -0.0380791463 0.910777092 -0.2329485863 -0.0008103721193 0.9658253193
-0.04034519196 -0.01858701184 0.9096276164 -0.2809489071 -0.3915599585 0.7078176141
-0.04109307379 -0.01626415551 0.8683382869 -0.2042990327 -0.6018753052 0.7697069049
-0.0442715399 -0.007131459191 0.8695858717 -0.2312984169 -0.6477761865 0.7221714854
-0.03177331761 -0.01485095825 0.8693397641 -0.2422647476 -0.6611491442 0.7097085118
-0.05254780501 -0.03738816828 0.9089835286 -0.2206137478 -0.02649933472 0.9654532075
-0.04692374542 -0.01350851264 0.9081781507 -0.2867539227 -0.5068742633 0.6429017782
-0.04672141001 -0.02440753765 0.9093584418 -0.2577711642 -0.2728865147 0.7939345837
-0.05730584264 -0.01883904263 0.8638646603 -0.07918834686 -0.4989683926 0.8596084714
-0.06773670763 -0.01401042845 0.8666008115 -0.05656397343 -0.4859710336 0.8713336587
-0.06516690552 -0.02162608318 0.8627098799 0.009945818223 -0.4233145714 0.9027870893
-0.07442679256 -0.01955083944 0.8636393547 -0.0007537553902 -0.3916222751 0.9173091054
0.002845619339 -0.07786791027 0.8648290038 0.3269000351 0.09565365314 0.9401628375
-0.0098577803 -0.07665073127 0.8658838868 0.2621837258 -0.3370546401 0.4748553634
-0.03358632326 -0.07225984335 0.8735999465 0.01397947688 -0.8274331689 0.2861428559
-0.02820689604 -0.05558927357 0.866163075 0.03700096905 -0.3409024477 0.7597738504
-0.02756752074 -0.06578241289 0.8694414496 0.08005417138 -0.4032261074 0.6271982789
-0.01330689713 -0.08152190596 0.8794448376 0.2138251811 -0.5653779507 0.3627369702
-0.01030308194 -0.07553036511 0.9073033929 -0.0945975706 -0.1348502785 0.9478640556
-0.0101695396 -0.07881189883 0.8909759521 0.1015192345 0.02505662479 0.9284171462
-0.01956260391 -0.08118131012 0.8863809109 0.1496356726 -0.8789978623 0.2382786721
-0.01589072682 -0.07733238488 0.9021539092 -0.04776744172 -0.5030389428 0.6398474574
-0.0235056188 -0.07897444069 0.9011543393 0.01005064789 -0.7592112422 0.5230355263
-0.02301837318 -0.08230614662 0.8789746165 0.1370682418 -0.9523316026 0.1531177163
-0.009498959407 -0.08253075927 0.8723323345 0.3156853318 -0.1016400158 0.6507294178
-0.1134975702 -0.05288463086 0.8538920283 0.2174785286 0.166584596 0.9554383159
-0.1273393184 -0.05484815314 0.8600811362 0.2877450585 0.1967299432 0.9369683266
-0.1942392141 -0.01563502289 0.8535884619 -0.5015407205 0.1971409917 0.8378250003
-0.2008105516 -0.02212242037 0.8503016233 -0.5234336853 0.2001758069 0.8227923512
-0.1750687808 -0.02420186438 0.8629550338 -0.1690435112 0.2233786881 0.9131692648
-0.1869141608 -0.02902378328 0.8614803553 -0.349494487 0.2116228044 0.86496526
-0.1973038465 -0.02839599364 0.8546991944 -0.5215253234 0.2575608492 0.7923327088
-0.2022625804 -0.02185225673 0.8589312434 -0.4384464324 0.1207354888 0.796115756
-0.2113459557 -0.042417299 0.8527533412 -0.5393410325 0.3128312826 0.7802376151
-0.213902235 -0.04971554875 0.854070425 -0.5015321374 0.3923894763 0.7691227198
-0.06287463009 -0.06646355987 0.8570131063 -0.1312408298 0.1231549457 0.9311761856
-0.05131256953 -0.0456135571 0.8589565158 -0.07361406088 -0.4124062955 0.7049690485
-0.05762753263 -0.07673020661 0.8658720255 -0.01281878818 -0.8012169003 -0.2903355658
-0.06487796456 -0.07437626272 0.8582965136 -0.1245433018 0.08211036772 0.7442217469
-0.05500632152 -0.05284729972 0.858533144 -0.09033290297 -0.2568672299 0.749855876
-0.06042910367 -0.02813507989 0.859244287 0.01804557629 -0.3766356111 0.9250721931
-0.06591359526 -0.05716254935 0.8572638035 -0.05113825202 0.04126591235 0.9543812871
-0.05622314289 -0.03581455722 0.856834054 -0.008171540685 -0.3017549217 0.9406645894
-0.0625936389 -0.04749879241 0.8571951389 -0.02279205248 -0.1054481044 0.951520741
-0.1038114727 -0.007060595788 0.8620377779 -0.2967034578 -0.4173845053 0.824947238
-0.1173953563 -0.01512416918 0.8494877219 -0.7997232676 -0.02257335745 0.5507775545
-0.1104372889 -0.01506405044 0.8544134498 -0.5888822079 -0.1295649111 0.6671499014
-0.02513949387 -0.0163368769 0.8746084571 -0.2794361413 -0.7196596861 0.6350695491
-0.03637552634 -0.02374194376 0.8637191653 -0.1796451956 -0.5862508416 0.788667798
-0.04182596132 -0.03210302815 0.8592579961 -0.106663242 -0.5067889094 0.8523756862
-0.03728619218 -0.03878997639 0.8626438975 -0.1221766248 -0.608125627 0.731759131
-0.03764729202 -0.05331047624 0.8675451875 -0.07211096585 -0.7450029254 0.5109141469
-0.04567563161 -0.05762650445 0.8658528328 -0.05994830653 -0.7467333078 0.2744822204
-0.03828281909 -0.06300156564 0.8705803752 -0.03940263018 -0.834161222 0.3488023281
-0.04387465119 -0.06913453341 0.8699281216 -0.02415813133 -0.8634240031 0.09431186318
-0.04038117453 -0.04582286626 0.864751339 -0.09248381853 -0.6629356742 0.6320257187
-0.0452381745 -0.04015152901 0.8609856367 -0.1047281101 -0.5803923607 0.6420929432
-0.05287024751 -0.06431472301 0.8646508455 -0.04096518829 -0.7711564302 -0.02284852974
0.004275573418 -0.07270940393 0.887005806 0.4096538723 -0.1137221605 0.8649682403
0.0001206431334 -0.08150240034 0.8716174364 0.3168672919 0.1032607108 0.9290843606
-0.04705918208 -0.08202739805 0.8890501857 -0.07017668337 -0.927667737 0.2997144163
-0.05444323644 -0.08180928975 0.8964362741 -0.1584990323 -0.835570097 0.4563132524
-0.05335409567 -0.08218983561 0.8773201108 -0.1018263251 -0.9578091502 0.09991614521
-0.05608760566 -0.08194478601 0.8879814148 -0.1259925365 -0.898086071 0.2869895101
-0.07130683959 -0.08587241918 0.8735358119 -1.987326868e-05 0.2503221929 0.5127584338
-0.06546189636 -0.08352132142 0.8867457509 -0.07405748963 -0.3870410025 0.4610360563
-0.06628002971 -0.082926929 0.8954281211 -0.09966777265 -0.4798720181 0.5554792285
-0.06324522197 -0.0842640698 0.8731169105 -0.0384693481 -0.3065731823 0.287085861
-0.0477161333 -0.07945475727 0.8710561395 0.003850451903 -0.9378857613 -0.1932777613
-0.01925249025 -0.0770297721 0.8699207306 0.2334085405 -0.02723051608 0.7809510827
-0.02811913379 -0.0839304626 0.8731087446 0.08557165414 -0.984973073 0.05100228265
-0.03451284021 -0.08167947084 0.8870956898 -0.01315986551 -0.9252955914 0.3019645512
-0.02918379381 -0.08056334406 0.8940350413 0.005828207824 -0.8769324422 0.4074792862
-0.04425655678 -0.08244721591 0.879922092 -0.0247055795 -0.9753759503 0.161660552
-0.03641494736 -0.08368478715 0.8752412796 0.004746596795 -0.9902895689 0.1273552477
