# .PCD v0.7 - Point Cloud Data file format
VERSION 0.7
FIELDS x y z normal_x normal_y normal_z
SIZE 4 4 4 4 4 4
TYPE F F F F F F
COUNT 1 1 1 1 1 1
WIDTH 512
HEIGHT 1
VIEWPOINT 0 0 0 1 0 0 0
POINTS 512
DATA ascii
-0.04190951586 -0.08134564012 0.6873236299 0.6411164403 -0.5201057196 0.5639485121
-0.04339648783 -0.07809655368 0.6932301521 0.6247007251 -0.5326113701 0.5705547333
-0.04631404579 -0.08310741186 0.6919671893 0.6585539579 -0.5113013387 0.5515857339
0.08190283179 -0.1185252443 0.6439250112 0.6177982688 -0.5058372021 0.6017569304
0.05453557149 -0.1785591543 0.6901928782 0.8192926049 -0.3938910961 0.4158091843
0.05392437056 -0.1821624935 0.6830387712 0.8169035316 -0.3890479505 0.4244067669
0.05743381381 -0.1771487445 0.6819739938 0.8279922009 -0.388425827 0.4039801955
0.05776033178 -0.1685063392 0.6956161857 0.8077655435 -0.4097476304 0.4210392535
-0.01513613947 -0.06613951921 0.6757550836 0.3557191491 -0.6725448966 0.6475960016
0.07935167849 -0.1113344058 0.6427733302 0.5762635469 -0.4790444672 0.6575987935
-0.0391186364 -0.1305113584 0.6391438842 0.6089766622 -0.5085275173 0.6082735062
-0.02283280157 -0.07160767168 0.6753075123 0.465737313 -0.6359474659 0.6143863201
0.009221343324 -0.06431592256 0.6708497405 0.008792972192 -0.6722208261 0.7368702292
0.01582310349 -0.06489273161 0.6708104014 -0.09630490839 -0.659727037 0.7433124781
0.02125842869 -0.07618203014 0.6630616784 -0.2253271192 -0.6066455245 0.7580664754
0.01420682669 -0.07289551198 0.6644599438 -0.09867737442 -0.6381736398 0.7618094683
0.007415512111 -0.07105837762 0.665843308 0.004969513044 -0.6568173766 0.7507956624
0.0844662562 -0.09780246019 0.6520183086 0.6437860727 -0.4726791978 0.6006408334
0.02427327819 -0.1595668942 0.7415412664 0.2727732658 -0.5908050537 0.7544237971
0.03240188584 -0.1613169461 0.7353085876 0.4028019011 -0.5645478368 0.7065623999
0.03897383064 -0.1619654298 0.7308354974 0.5059568882 -0.5376948714 0.6695706248
0.052112367 -0.1814190298 0.6965804696 0.7941797376 -0.4047836959 0.4515855312
0.05376248807 -0.1755295396 0.6981599927 0.7955560088 -0.4200795591 0.4340015948
0.06143641472 -0.1780005097 0.6769093871 0.8398949504 -0.3809172213 0.3865159154
-0.0538405925 -0.1776376665 0.6822142601 -0.8148194551 -0.3111156523 0.4891587198
-0.06078555435 -0.1723839194 0.6757128239 -0.9335640669 -0.009282444604 0.3460910916
-0.04942046478 -0.1757467836 0.6946034431 -0.8138394356 -0.3156571984 0.4878525734
-0.05282619596 -0.1744305789 0.6884877682 -0.830897212 -0.2702069283 0.4693512321
-0.05475056916 -0.1691983789 0.6844204068 -0.847807765 -0.2271419317 0.448125124
-0.05511590093 -0.1729874164 0.6791765094 -0.8713307381 -0.1674706787 0.4210640192
-0.04914265499 -0.1691192538 0.6963945031 -0.8125873804 -0.3145816922 0.4906505048
-0.02839459293 -0.07191605121 0.6799872518 0.5374868512 -0.5988403559 0.5925788283
0.08188035339 -0.1038196161 0.6462686658 0.6259747148 -0.4835878313 0.6095021963
0.07555603236 -0.09073188156 0.670209229 0.649148941 -0.2836846709 0.6917499304
0.04525173828 -0.1154574975 0.6481203437 -0.5576316714 -0.5668731928 0.6031882167
0.05085290223 -0.1230662242 0.6503381729 -0.5287049413 -0.5679716468 0.6240359545
0.04911750555 -0.1254369169 0.6457471848 -0.5062307119 -0.5654441714 0.6468365788
0.06180378795 -0.1704708487 0.6779312491 0.9197032452 -0.2598305047 0.2405508012
0.05887239799 -0.1437793225 0.6461597085 -0.4212791622 -0.311078012 0.6107874513
0.06073560193 -0.150421828 0.6534628272 -0.1207007095 -0.1190313473 0.5178412199
0.05978071317 -0.1410555989 0.6648318768 0.01617125422 -0.4759600759 0.3933619857
0.06297488511 -0.1662944257 0.6713252664 0.8500587344 -0.2406769991 0.1860712469
0.05837656185 -0.1439259201 0.6543344259 -0.08276262134 -0.6366999745 0.4602671862
0.06202479452 -0.1617750823 0.667758584 0.6592839956 -0.322922349 0.2425472885
0.05997217447 -0.152394399 0.6598434448 0.2544677556 -0.5021805167 0.3638961017
0.05858368054 -0.1368697584 0.6595128179 -0.1952850968 -0.585770905 0.4619013071
0.06017718837 -0.1472480744 0.6639633179 0.178316161 -0.4593120515 0.3623257577
0.05859921873 -0.1307032853 0.6629864573 -0.311761111 -0.5588169098 0.4718001783
0.06091846526 -0.1319023967 0.6681727171 -0.106093131 -0.6252321601 0.439233005
0.06273462623 -0.1574052423 0.672540009 0.6255179048 -0.3339610994 0.2519046068
0.06261102855 -0.1578946561 0.6806486249 0.5509541631 -0.4463579059 0.3949473798
0.06137593091 -0.1388795078 0.6713631749 0.07202788442 -0.5748873949 0.4244503081
0.06337800622 -0.1688450426 0.6831743121 0.8579102159 -0.3308564425 0.3263992667
0.05888447911 -0.1617608666 0.688446939 0.6385080218 -0.4419780672 0.4182025194
0.06035118178 -0.149155587 0.677402854 0.3435731828 -0.4922373593 0.3930731416
0.06078730896 -0.164077729 0.6821807623 0.7554770112 -0.3446562588 0.3121933341
0.06236241385 -0.1645835042 0.6763840914 0.8145151138 -0.2763881087 0.2299938798
0.06219581142 -0.1517319977 0.6714709997 0.4658062458 -0.395015955 0.2890072167
0.06244661659 -0.1571585387 0.663049221 0.2943478823 -0.05659359694 0.3775578439
0.06073168293 -0.136069119 0.6533325315 -0.5559902787 -0.104569532 0.6373494864
0.06139587983 -0.1432123184 0.6591745615 -0.170802325 -0.1671528816 0.5092276335
0.06036799029 -0.1243664548 0.6659383178 -0.3422765136 -0.6873931289 0.4983914793
0.06162659079 -0.1457083821 0.6695170999 0.2750985026 -0.4444726408 0.3297324181
0.004541475791 -0.07558904588 0.6610034704 0.05814794078 -0.6448763609 0.7607008219
0.08210048825 -0.1016572788 0.6551771164 0.4898251593 -0.4413241744 0.6023570299
0.07033091038 -0.1064513177 0.6671534181 -0.04535776004 -0.3923484385 0.5902950168
0.07240918279 -0.09555471689 0.6731336117 0.4975162148 -0.2098906338 0.6818519831
0.07732924074 -0.1011978611 0.6619675756 0.3800691664 -0.3757785857 0.6188482642
0.07417106628 -0.09983320534 0.667316556 0.3547351062 -0.3122259378 0.6392011046
0.07824157923 -0.09291959554 0.665846467 0.659555614 -0.3197675347 0.6699724793
0.08200397342 -0.09595239908 0.658641994 0.6490979195 -0.4047684073 0.6370956302
0.07139156014 -0.1109047234 0.6622413993 -0.1792324334 -0.479575038 0.5538827181
0.07545807958 -0.1091421545 0.6583243608 0.05785052851 -0.4811344147 0.5668962002
0.08296021819 -0.1114007235 0.6476009488 0.5792509913 -0.4960046411 0.5968161821
0.07366839796 -0.1141805425 0.6573429704 0.01850451156 -0.4897260964 0.5657423735
0.0771112144 -0.115130879 0.6524766088 0.2564676702 -0.4963626862 0.5793805718
0.0799080804 -0.1093711257 0.6526685357 0.3501913249 -0.4875373542 0.5834519863
0.06786497682 -0.11635831 0.6631473899 -0.3249901831 -0.4867657721 0.5468082428
0.06146121398 -0.1270788163 0.6732623577 -0.3532693684 -0.5262116194 0.5012053847
0.06127529591 -0.1566600055 0.6859528422 0.4765534103 -0.433807075 0.4354991317
0.06128745154 -0.1426728368 0.6796968579 0.09018161893 -0.4887057543 0.4665779769
0.06209633127 -0.1339176297 0.6751171947 -0.1655375808 -0.5040529966 0.4862892926
0.06175232306 -0.1482406706 0.6827777624 0.2214092612 -0.4267333746 0.4542508125
0.06151447073 -0.1690781415 0.6908307672 0.8221729994 -0.3930101395 0.4080381691
0.07748615742 -0.08771684021 0.661136806 0.538005352 -0.5223613977 0.6608246565
0.08160234988 -0.09178943932 0.6547608972 0.6035956144 -0.4980219305 0.6186318994
0.02528790198 -0.06591327488 0.6726008058 -0.2433793992 -0.6413758993 0.7258421779
0.02393899858 -0.0731818676 0.6671723127 -0.2759317756 -0.6122701764 0.7333284616
0.01912237145 -0.0698729977 0.6681513786 -0.1940212399 -0.6350624561 0.7391757965
0.05467876047 -0.1666111499 0.705080092 0.7508187294 -0.4640112817 0.4696923196
0.05194329098 -0.1707902253 0.7072851062 0.7434934378 -0.4677829146 0.4773621559
0.06000979245 -0.1084059477 0.6751938462 -0.6012972593 -0.2829307616 0.7193072438
0.06155230477 -0.1045709774 0.6841759086 -0.4354950488 -0.293050766 0.8465748429
-0.05025728792 -0.1828262955 0.687420845 -0.8012009859 -0.3244121075 0.5009949803
-0.04613858834 -0.1868802309 0.6921780109 -0.7639921904 -0.3404529691 0.5430334806
-0.03974006698 -0.1597149372 0.7187714577 -0.6683007479 -0.4462909102 0.59494102
-0.04246189073 -0.1617059112 0.7128058672 -0.7317646146 -0.3922359943 0.5566896796
0.03557593003 -0.2016624957 0.7023243308 0.6163549423 -0.4871821404 0.6112749577
0.03803078085 -0.1971973181 0.6989632249 0.6353811622 -0.4631752968 0.5895893574
0.05636838078 -0.1311634928 0.6530742049 -0.4506282806 -0.6821809411 0.5490014553
0.05701690167 -0.1382126212 0.6488882303 -0.339805454 -0.7556921244 0.5392142534
0.05678352714 -0.125887841 0.6576763391 -0.5260273814 -0.6400365829 0.5442991853
0.05225089937 -0.1332684755 0.6447899342 -0.4536417425 -0.6425074935 0.6036581397
0.06357933581 -0.1281816065 0.6424784064 0.2162045091 -0.7645365596 0.5709015131
0.05769983679 -0.1316323876 0.6400888562 -0.0533375293 -0.7308713198 0.5848694444
0.05226682499 -0.1323441714 0.6371727586 -0.237691462 -0.6520760059 0.6249083877
0.05817523971 -0.1381286383 0.6433477998 -0.153853938 -0.7930827737 0.5469094515
0.05317198485 -0.1398149133 0.6415972114 -0.3414928317 -0.7166286707 0.5844288468
0.0215478763 -0.1287747025 0.6159859896 -0.2674515247 -0.7207507491 0.6371706128
0.02116441168 -0.1244697198 0.6210331917 -0.2861191034 -0.708099544 0.641894877
0.05258429423 -0.1926195621 0.6881924868 0.7992542982 -0.3934659362 0.452809453
0.05662499741 -0.1891471446 0.6843376756 0.8207011223 -0.3897889853 0.4173644483
0.05403451622 -0.1856525838 0.6895898581 0.8160613775 -0.3907427788 0.4256397784
0.05050167441 -0.1870210171 0.6857229471 0.8061854839 -0.3904185593 0.4434038401
0.05899260193 -0.181972757 0.6856964827 0.8287433386 -0.3898160458 0.401484251
0.06176182255 -0.174860701 0.6869552135 0.8262588978 -0.3909553289 0.4054852426
0.05736014992 -0.1734835207 0.6937980056 0.8182486296 -0.4012309313 0.4107030034
0.05445273221 -0.1709914207 0.7014227509 0.7711582184 -0.4483878016 0.4505416155
-0.03337570652 -0.1011863649 0.657374084 0.6259765625 -0.5232025385 0.5760776401
-0.02840378135 -0.1015925333 0.6512160897 0.4973407686 -0.5717098713 0.6514307261
-0.03238376975 -0.1067303494 0.6514418125 0.5994400382 -0.5259031653 0.6012355685
-0.02650290355 -0.1065414995 0.6468985081 0.4946594834 -0.5664817691 0.655531466
-0.0267312564 -0.1216805801 0.6334367394 0.5146504641 -0.5205678344 0.679889679
-0.03178781644 -0.1254488826 0.6343203187 0.5457416177 -0.5029551387 0.6695924997
-0.01998736151 -0.1190924495 0.6315152049 0.4097768664 -0.5624614954 0.7098495364
-0.01593537629 -0.1233794242 0.6266377568 0.3336091936 -0.5951558948 0.7300867438
-0.02141731419 -0.1238921806 0.6285663843 0.4186573327 -0.5503478646 0.7157751918
-0.001502075 -0.07805621624 0.6594179869 0.1666434258 -0.6390786171 0.7503113151
-0.01350933593 -0.07454844564 0.6675822735 0.3303933442 -0.6474767923 0.6852042675
-0.02894915082 -0.07774184644 0.6754995584 0.555409193 -0.5764132738 0.5982992649
-0.01823877543 -0.07444414496 0.67135638 0.4140905738 -0.6308538318 0.6512925625
-0.02345254645 -0.07866439968 0.6707146764 0.4831248224 -0.6031104326 0.6268651485
-0.02444058098 -0.09700950235 0.6525439024 0.4659926593 -0.586586833 0.6618618965
-0.02705516294 -0.09164113551 0.6597076654 0.5218327045 -0.5794289708 0.6209653616
-0.006013406906 -0.1059826538 0.638238728 0.1763698608 -0.633364141 0.7513493299
-0.01793114841 -0.1045008749 0.6438251734 0.3476723731 -0.6077899933 0.7105529308
0.06665774435 -0.1222218126 0.6419612169 0.3539486229 -0.6412033439 0.6709299088
-0.04499082267 -0.1205285117 0.6569505334 0.6836825609 -0.4957408011 0.5350160599
-0.04060133547 -0.1190271899 0.651697278 0.6599369049 -0.5029364824 0.5572100878
-0.03727740049 -0.1133615226 0.6513507962 0.6667892337 -0.5018267035 0.5505843163
-0.03922766447 -0.1223497465 0.6464663148 0.6398385763 -0.5071923733 0.5767745972
-0.03600950539 -0.1176788583 0.646841526 0.6248863935 -0.5138254166 0.5869934559
9.115957801e-05 -0.07057465613 0.6676736474 0.1229555234 -0.6591284871 0.7338534594
-0.003107040189 -0.06450939924 0.6718284488 0.1923128814 -0.6926742792 0.6927939653
0.003241119208 -0.0655856654 0.6697346568 0.09716696292 -0.6776775718 0.7266744971
-0.00936490763 -0.06508861482 0.6737661362 0.2772456706 -0.6860726476 0.669510603
-0.003126749536 -0.07629968971 0.6643323898 0.1752271056 -0.6501700878 0.7311180234
-0.006863513496 -0.07354003936 0.6676899195 0.2345668674 -0.6540033817 0.714962244
0.02663605474 -0.16380997 0.7373066545 0.3168076575 -0.5872310996 0.7399201393
0.06797475368 -0.1010873541 0.6813008785 0.036081817 -0.2547349632 0.7418673635
0.06370168924 -0.1122446805 0.6726802588 -0.5026805997 -0.4221340418 0.5746607184
0.06659288704 -0.101940617 0.6873701215 -0.1085299179 -0.2489437014 0.8097569346
0.06306339055 -0.1104676723 0.6824640036 -0.5461356044 -0.3722309768 0.7021381855
0.06536521018 -0.107670188 0.6767786145 -0.2904556692 -0.3519423008 0.6499768496
0.06006729975 -0.1189624369 0.6669771671 -0.4961539209 -0.6418673992 0.5338246822
0.07326561958 -0.1197087169 0.6534654498 0.1423195451 -0.5597938895 0.5712654591
0.06901498139 -0.1196698025 0.6577974558 -0.06065671146 -0.6186175942 0.5564963222
0.07426658273 -0.1229191422 0.6425251365 0.4921187758 -0.5188540816 0.6980495453
-0.02806089818 -0.2001211643 0.7056099772 -0.5207253098 -0.4783830047 0.7051219344
-0.02065049484 -0.200765267 0.7071145177 -0.4249514341 -0.5176038146 0.7413056493
-0.02427930571 -0.1950733364 0.7096347213 -0.4907733798 -0.4829639792 0.724979043
0.0299135223 -0.2025098801 0.70574826 0.4948778152 -0.5077342391 0.6895483136
0.02584525011 -0.2071406394 0.7075349689 0.4336158335 -0.5143188834 0.7149189711
-0.03274412453 -0.1951803714 0.7055287957 -0.5950520635 -0.452196449 0.661963582
-0.04747005925 -0.1610147208 0.7036340833 -0.7657023072 -0.3582516611 0.5327643156
-0.05154392868 -0.1644362062 0.6919026375 -0.8108090758 -0.3164148331 0.4921679199
-0.04981038347 -0.1623313874 0.6972272992 -0.7887676358 -0.3371979892 0.5116631985
-0.04428659379 -0.1726590395 0.7029020786 -0.7716920972 -0.3446063995 0.534034133
-0.04646798968 -0.1678787321 0.7026689053 -0.7832840085 -0.3392689824 0.5200251341
-0.04360975325 -0.1660657078 0.7081763744 -0.7499319315 -0.3719988763 0.5457317233
0.04585846141 -0.1823416054 0.7062829733 0.7036024332 -0.4648792446 0.5361666679
0.0465471074 -0.1749443114 0.7118270993 0.6744933724 -0.498594135 0.5410321951
0.04929111153 -0.175999105 0.7054505944 0.7357267737 -0.4761477411 0.4809871316
0.01572480798 -0.1217978671 0.621799469 -0.2035339177 -0.7258809805 0.6533703208
0.01290016714 -0.1248622388 0.6159632206 -0.1542332917 -0.7390238047 0.6552978158
-0.009869803675 -0.122361742 0.6255213022 0.2262639552 -0.6408814788 0.7253485322
0.02094889618 -0.1205698177 0.6281068921 -0.3060183525 -0.6775702834 0.6638450027
0.04825344309 -0.130844906 0.6405107975 -0.4800246954 -0.5897223353 0.6485321522
0.05355687812 -0.1255417168 0.6371843219 -0.1486786753 -0.5449640155 0.7060541511
0.06151164323 -0.122339271 0.6395062208 0.1417266428 -0.5605559349 0.7245995402
0.04547636583 -0.1265385896 0.6357181072 -0.434071362 -0.5239667296 0.6878731847
0.04737849161 -0.1318719089 0.6341987848 -0.3831778169 -0.5558626652 0.6776622534
0.0371154137 -0.1186784357 0.6363098621 -0.4182097912 -0.5620210171 0.6897419691
0.04817254096 -0.1204759181 0.6377952099 -0.1827581078 -0.5564733148 0.7043260932
0.03376280144 -0.1227942705 0.632101357 -0.4665152431 -0.6028858423 0.6441870928
0.02795669436 -0.1242648959 0.6267998815 -0.4114462733 -0.6516067386 0.6352878213
-0.03553527221 -0.08560933173 0.6755763888 0.6479990482 -0.5184093714 0.5578864217
-0.03769919649 -0.09209177643 0.6727737188 0.6834962368 -0.4898871481 0.5408019423
-0.03173870966 -0.09636946023 0.6599940062 0.6092134714 -0.5357826352 0.5831586719
-0.04118648916 -0.102605924 0.6687062979 0.7031503916 -0.4923829138 0.5127173662
-0.03946981579 -0.09750410169 0.6705995798 0.6963495016 -0.4881486893 0.5258573294
-0.03520832583 -0.09541033953 0.6662105322 0.6681056023 -0.508118391 0.5432729721
-0.03066580929 -0.1205312014 0.6379060745 0.5639526248 -0.5122324824 0.6447915435
-0.02587529272 -0.1143480167 0.6401947737 0.4695036411 -0.557856679 0.6842764616
-0.0320536308 -0.1174966246 0.6428614259 0.5624260902 -0.5310295224 0.6285545826
-0.03536871448 -0.1231489107 0.640671432 0.5946224332 -0.5105721951 0.619884491
-0.01170785818 -0.08747967333 0.6552197933 0.2874150872 -0.6305245757 0.7169589996
-0.0170616433 -0.0931096822 0.6533158422 0.3593143225 -0.6144861579 0.6986542344
-0.05043468624 -0.1270129085 0.6590433121 0.6820113063 -0.4914638102 0.5206426382
-0.05057819933 -0.1376782507 0.6661710143 0.2884169519 -0.4463840425 0.517736733
-0.05133890733 -0.1387295723 0.6721583605 0.1594063789 -0.4276316464 0.5027719736
-0.04898678139 -0.1330964118 0.6522801518 0.6423584223 -0.4950700998 0.5490621328
-0.05169474334 -0.1532697976 0.6830095053 -0.3965432048 -0.3631035686 0.4956608713
-0.0497056134 -0.137642622 0.6599738002 0.3951153159 -0.4632496238 0.5348930955
-0.05159103498 -0.1582913995 0.6851530075 -0.5611636043 -0.345161289 0.4976602495
-0.05149390921 -0.1301465034 0.6649821401 0.4819507003 -0.4441409111 0.4956843257
-0.05391716212 -0.1598732769 0.6797308922 -0.6365978122 -0.1952028126 0.4240019321
-0.05205336586 -0.1482209861 0.6775138378 -0.2027984262 -0.3539181054 0.4823548198
-0.05196350813 -0.1558175087 0.6763164997 -0.4035620689 -0.3041257262 0.4780438542
-0.05554454774 -0.1671945602 0.6792299747 -0.9055281281 -0.06445676833 0.3720914721
-0.05017676204 -0.1432973444 0.6630176902 0.1792027205 -0.4164233208 0.5212606788
-0.05066135153 -0.1499594152 0.6722781658 -0.1374614835 -0.3894436657 0.5141445994
-0.05367022008 -0.1471441835 0.6665424109 -0.06674918532 -0.2218872011 0.4264278412
-0.05434136838 -0.1534937918 0.6673973203 -0.265999943 -0.1463465989 0.4050964117
-0.05141277239 -0.1387777179 0.6532026529 0.5915029049 -0.2880173028 0.4902863503
-0.05144978315 -0.1325562298 0.6585432887 0.5865541697 -0.3789322376 0.4931017458
-0.0516183041 -0.1428034157 0.6569922566 0.3109743595 -0.2957633138 0.4795950651
-0.05566087738 -0.1633004844 0.6722521782 -0.6978312135 -0.04848897085 0.3642178476
-0.04713446647 -0.1256079972 0.6545851827 0.6972736716 -0.4682657421 0.5367465019
-0.04987699911 -0.1150605232 0.6655624509 0.7084047198 -0.4893286228 0.5086249709
-0.04960972816 -0.1117473915 0.6701681614 0.7105304599 -0.4867140651 0.5081421733
-0.04877924919 -0.1067804918 0.6767853498 0.7145918608 -0.4824558198 0.506483078
-0.04705830291 -0.102183871 0.680368185 0.7148292661 -0.4813016355 0.5072761178
-0.0449530147 -0.1317061484 0.6463600993 0.6416909099 -0.5067062974 0.575622201
-0.0439565666 -0.1257830411 0.6501377225 0.6610979438 -0.5004196167 0.5587859154
0.06417980045 -0.1378673762 0.6465025544 -0.2912945747 -0.132080093 0.6609687805
0.06530879438 -0.128932178 0.6523447633 -0.06373120844 -0.5757571459 0.5821915865
0.06762779504 -0.1322518885 0.6440662146 0.2136116773 -0.6661339998 0.5818783045
0.07196044177 -0.1287114769 0.6437911987 0.4253460765 -0.6632117629 0.606518805
0.06527402252 -0.1237380654 0.6572644114 -0.07735253125 -0.7122796774 0.5463063121
0.07763694972 -0.1208562255 0.6474933624 0.4371194541 -0.5547168255 0.5862293839
0.07142760605 -0.1248020753 0.6495349407 0.2575983107 -0.6525607109 0.5750730634
0.0452180095 -0.1228889152 0.642429769 -0.4905503988 -0.54025352 0.6833443046
0.04028499871 -0.1198109165 0.6408239603 -0.4659069479 -0.5532765388 0.6889538765
0.03052339703 -0.1163969785 0.6350648403 -0.4106920362 -0.5936636329 0.689832747
0.02834622748 -0.1197065935 0.6312517524 -0.391210109 -0.6436932087 0.6567860246
0.04428206384 -0.1006217003 0.6509458423 -0.297902137 -0.5310747027 0.6896139979
0.07482788712 -0.1028116643 0.6464022994 0.4858255088 -0.4996244013 0.6654087305
0.05931855366 -0.1036648899 0.6472071409 0.09626170248 -0.5097365379 0.6816098094
0.05202591419 -0.1029002592 0.6484767199 -0.09187813103 -0.5179656744 0.6869074702
0.07247812301 -0.09894456714 0.6495788693 0.4097909033 -0.5130661726 0.6599096656
0.06768208742 -0.1034983248 0.646548748 0.3075866997 -0.5034086704 0.6734574437
0.07861233503 -0.09555692226 0.6515919566 0.5508851409 -0.5181566477 0.6474313736
0.06617250293 -0.09878280759 0.6502948999 0.2492407411 -0.5186933279 0.6654842496
0.05277551338 -0.09858667105 0.6530082226 -0.1425437331 -0.5211818814 0.6687273383
0.05344481394 -0.1196007952 0.6541509032 -0.4989900589 -0.6444613338 0.5768297315
-0.02477356978 -0.161103338 0.7336657643 -0.5053348541 -0.5072069764 0.6953153014
-0.02978974581 -0.1590781361 0.7308104634 -0.5474975705 -0.4985019267 0.6713001728
0.04169492051 -0.1646005511 0.7258712053 0.5436068773 -0.5337827802 0.6475659609
-0.008238481358 -0.1569331735 0.7432460785 -0.2223222256 -0.5304038525 0.8106805682
-0.01603616588 -0.2023768723 0.7095593214 -0.3122046292 -0.5149555802 0.7893204093
-0.01785722934 -0.1950624883 0.7121035457 -0.3750990927 -0.5104946494 0.7676678896
-0.03766249865 -0.1946790516 0.6997385025 -0.6713428497 -0.4037511051 0.6166869998
-0.03339572623 -0.2002773881 0.7023774981 -0.5854441524 -0.4473975301 0.674511373
0.01558943465 -0.1153866649 0.6295899153 -0.1942348331 -0.6884093285 0.6948313117
0.008689094335 -0.125160858 0.6199011207 -0.1010407507 -0.7275884151 0.6676035523
0.01554748882 -0.1292608827 0.6115835905 -0.2258199751 -0.734236896 0.637331903
0.003339705523 -0.1260828078 0.6158831716 -0.02337970026 -0.7183979154 0.679575026
0.00417153025 -0.1169142351 0.6272342205 -0.01675074361 -0.7294460535 0.6808932424
-0.002918487182 -0.1182740852 0.6269435883 0.1080821902 -0.6807003021 0.7197969556
-0.004286196548 -0.1230125204 0.6233566403 0.124077715 -0.6935769916 0.7093197107
0.001784290769 -0.1210860312 0.6242781281 0.02191402018 -0.7221152186 0.6873616576
0.008097245358 -0.1194936559 0.6235295534 -0.08516263962 -0.7390047312 0.6654303074
-0.008288695477 -0.1141199842 0.6315731406 0.2050882578 -0.6244433522 0.7498432994
-0.02168576419 -0.1152604222 0.6363682747 0.4307141006 -0.5679449439 0.6982005835
-0.01868430711 -0.1103121787 0.6394532919 0.3636806011 -0.6054196954 0.7065278888
-0.01440223306 -0.1128893122 0.6349497437 0.2908775806 -0.6092460155 0.7352706194
-0.01105461922 -0.1091937497 0.6372237206 0.2499397099 -0.6199973822 0.7362802029
0.03559352458 -0.1315680891 0.6259745359 -0.5213811398 -0.5788520575 0.6256992817
0.03197082877 -0.1321270913 0.6192641258 -0.4540101588 -0.6408062577 0.6179862022
0.0412812382 -0.1328281015 0.6296842098 -0.4887830019 -0.5596573353 0.6667369008
0.03392953053 -0.1268123388 0.6280530691 -0.4805138111 -0.6010856628 0.6373718381
0.0398943685 -0.1266204715 0.6328812242 -0.502838254 -0.5474488735 0.6668044329
0.02527824976 -0.1285537034 0.6205371618 -0.3383688033 -0.6843218207 0.6350185871
0.02612891421 -0.1313595176 0.6155127883 -0.3569065034 -0.6906664968 0.6279036999
-0.04453960806 -0.09615437686 0.6796424985 0.6993821263 -0.4884521365 0.5217667222
-0.04403156787 -0.1017336324 0.674526751 0.7078670263 -0.4859807789 0.5125003457
-0.04026030377 -0.0911744833 0.6778092384 0.6738583446 -0.5030266643 0.5397114754
-0.03938482702 -0.08576317132 0.681247592 0.6513927579 -0.520937562 0.5505152941
-0.04409190267 -0.09146810323 0.682992816 0.6824114323 -0.4997973144 0.5321936011
-0.04073643312 -0.1138331667 0.6565468907 0.6860849261 -0.4959750772 0.5314967036
-0.0451994352 -0.1087400764 0.6669723392 0.705915153 -0.4917124808 0.5097827315
-0.04377195239 -0.1117906123 0.6614963412 0.6962658763 -0.4961402416 0.5184760094
-0.04780094326 -0.1171305329 0.6601261497 0.6990695596 -0.4930888712 0.5175682902
-0.03892790154 -0.108019501 0.6593226194 0.688986659 -0.4988829494 0.5252302289
0.03672182932 -0.08738043904 0.6624041796 -0.4726661146 -0.5389930606 0.6948234439
0.01811800152 -0.07919903845 0.6598755121 -0.1764376163 -0.6133800745 0.763219893
0.02436577901 -0.0810822919 0.6609835029 -0.2822348773 -0.5906884074 0.7515348196
0.01213579811 -0.08008660376 0.6581037045 -0.08614169061 -0.6251574755 0.7713891864
0.007582577411 -0.08298839629 0.6551024318 -0.01150417142 -0.6204932928 0.7804940939
0.01399867143 -0.08484617621 0.654178679 -0.1298843175 -0.6044891477 0.7842600346
-0.009344113991 -0.08193869889 0.6592686176 0.2669143081 -0.6369252205 0.7176809311
-0.009457589127 -0.07715091854 0.6637331843 0.2624212503 -0.6503634453 0.7091364264
-0.01720248349 -0.07974394411 0.6652470231 0.3774883151 -0.6276628375 0.6750199795
-0.02696737088 -0.08288291097 0.668931365 0.5242253542 -0.5836573243 0.6139286757
-0.02263986878 -0.08271179348 0.663724184 0.4457048774 -0.6122485399 0.6529511213
-0.01889586821 -0.08773323894 0.6576881409 0.3903381824 -0.6200115085 0.6784164906
-0.02807464451 -0.08773556352 0.6650062203 0.5502309203 -0.5737356544 0.6034203172
-0.04987289757 -0.1210521981 0.6640484333 0.7127276659 -0.4874590039 0.5042183399
0.03144684806 -0.08293133229 0.6616582274 -0.4049774706 -0.5667073727 0.7155758739
0.03087206557 -0.07610604912 0.6665275693 -0.3906247914 -0.5840139985 0.7058222294
-0.008814719506 -0.09370633215 0.6491495967 0.2181835473 -0.6269139647 0.743224442
-0.01070821378 -0.1035310999 0.6408259869 0.2391398996 -0.6279688478 0.7383585572
-0.01268463023 -0.09907002002 0.6455914378 0.2738212347 -0.6271534562 0.7282283306
-0.006165642291 -0.09792726487 0.6450411677 0.1762486696 -0.632717967 0.7526694536
0.001214650227 -0.08589726686 0.6551740766 0.09936381876 -0.6274267435 0.7605683804
-0.003512290772 -0.08338712901 0.6583197117 0.1770471632 -0.630640924 0.7453822494
-0.005450192373 -0.08710034937 0.6534051299 0.182488367 -0.6295841932 0.7551627755
0.007445991039 -0.0880356729 0.6516227126 -0.006773877889 -0.6209415197 0.7831451297
-0.003370265244 -0.09153023362 0.6496423483 0.1344023645 -0.6292279363 0.761023283
0.002132793656 -0.08941117674 0.6490225196 0.04792884365 -0.6320648789 0.773012042
0.03670042753 -0.1727866083 0.7232570648 0.5042595863 -0.5616929531 0.6527718902
0.04425408691 -0.1681782305 0.7197741866 0.6035891771 -0.5115751028 0.6064659953
0.03909732774 -0.175758183 0.7189965844 0.543648541 -0.5454960465 0.6375895739
0.04936823994 -0.1678399593 0.7131119967 0.7059374452 -0.4727803767 0.5259568691
0.04311484098 -0.1735857278 0.7160565853 0.6144580841 -0.5181438327 0.5902308226
-0.03324548155 -0.1601180285 0.7260960937 -0.6001701355 -0.4769458771 0.6413326859
-0.02726309933 -0.1653220206 0.7282444239 -0.5554483533 -0.5028207898 0.6620494723
-0.03758468851 -0.1752520651 0.7090482116 -0.6999475956 -0.3990884721 0.5918062329
-0.03874706477 -0.1668828726 0.7143021226 -0.6963771582 -0.4165209532 0.5836470127
0.03556922823 -0.09711591899 0.6533890367 -0.4561803043 -0.5375252366 0.7086830735
0.04316867143 -0.1081560105 0.6512956619 -0.5728556514 -0.5180348754 0.6313394308
0.05476123467 -0.1084161401 0.6454133987 -0.0945385173 -0.5122221708 0.662314117
0.04417609423 -0.1100996509 0.6452581882 -0.3828904033 -0.5255332589 0.6604547501
0.0667027384 -0.1079128683 0.64341259 0.2743431628 -0.5005609989 0.6682139039
0.06090774387 -0.1110229716 0.6424868107 0.1373893023 -0.5199803114 0.6792626977
0.06708972901 -0.1148646623 0.6420791149 0.3268896341 -0.5425775647 0.7101726532
0.07221251726 -0.1103076115 0.6428508162 0.4443582892 -0.5134079456 0.6886770725
0.03905392066 -0.1134688705 0.6416306496 -0.4505942762 -0.5392631888 0.6675329804
0.04655069858 -0.1140511408 0.641720593 -0.2416266203 -0.5414428711 0.6802070141
0.05399571732 -0.1168798134 0.64148736 -0.02259913459 -0.5575321913 0.706489861
0.04787942022 -0.1082816571 0.6564561129 -0.6325019002 -0.5279502273 0.5579163432
0.04372005165 -0.1020155549 0.6565980911 -0.5937755108 -0.4795733392 0.6446838975
0.04970721528 -0.08375283331 0.6687863469 -0.2973710001 -0.5168979168 0.6857137084
0.06098375842 -0.08394024521 0.6685107946 0.06471080333 -0.5198542476 0.686416924
0.03570593894 -0.08157431334 0.6656071544 -0.4416750073 -0.5625231862 0.6986801028
0.04057919979 -0.0844970271 0.6663745642 -0.5102595687 -0.5197857022 0.6833354831
0.04302558303 -0.07724496722 0.6745563149 -0.4659792185 -0.5342836976 0.7030627131
0.03606015071 -0.07468406856 0.6711236238 -0.4398286939 -0.5799990296 0.6855009794
0.03511435911 -0.1955775172 0.7048251033 0.5683628321 -0.5144249201 0.6338919997
0.04204618558 -0.1923720539 0.6945066452 0.6897293329 -0.4352943897 0.5412185788
0.04401258007 -0.1936309934 0.7012599111 0.6827840209 -0.4683143497 0.5602092743
0.04275239259 -0.2001820058 0.6998459101 0.6477989554 -0.4954350889 0.578163445
0.04766234383 -0.1916297525 0.6980652809 0.7236868739 -0.4425247014 0.5240271091
0.04623321816 -0.1986281723 0.695017159 0.707239449 -0.4453796446 0.5438509583
0.03804316744 -0.1911775619 0.7012078166 0.6137286425 -0.4541962147 0.6129438877
0.04648884386 -0.1899079382 0.6900659204 0.7762746811 -0.4027567804 0.4762822986
0.03113464452 -0.1933048069 0.7094680071 0.4797420204 -0.5005941987 0.7192373872
0.04439852387 -0.1866587996 0.6999664307 0.7209367156 -0.4490712583 0.516377151
0.04906845465 -0.1796696931 0.7014569044 0.752691865 -0.4556927979 0.4729035199
0.04867748916 -0.1861333102 0.694031775 0.7853109837 -0.4115729928 0.4616716504
0.04080739245 -0.1841575503 0.7087730765 0.6339084506 -0.4962803125 0.5904870629
0.0425276272 -0.1888227016 0.7052149773 0.6629915833 -0.4738417864 0.5777406693
0.03758173808 -0.188606739 0.7079005241 0.6171370745 -0.5011362433 0.6052324176
0.03271056712 -0.1658608168 0.7319477797 0.414252311 -0.5827972293 0.6984585524
0.0281302724 -0.1689808518 0.7319634557 0.3655961454 -0.5935609341 0.7147920132
0.0364998281 -0.1812066585 0.7158670425 0.5222206712 -0.5373020172 0.6611293554
-0.01776054129 -0.1634045839 0.7370563149 -0.3792699277 -0.5370767713 0.752700448
-0.0225900989 -0.166698128 0.7312465906 -0.5033324957 -0.5202516317 0.6890876293
-0.01473819092 -0.1568842381 0.7424943447 -0.3173814118 -0.5288079381 0.7870563269
-0.01157088205 -0.1655602157 0.7373621464 -0.2955453098 -0.5448672771 0.7805206776
-0.02188928798 -0.1562562138 0.7398157716 -0.4226311743 -0.523522079 0.7365754843
-0.03485087678 -0.1897128224 0.699821949 -0.6518843174 -0.4009594023 0.6215378046
-0.02719466574 -0.1947150081 0.7037751675 -0.5229049921 -0.4660267532 0.6886350513
-0.03985917568 -0.1902699322 0.6961815953 -0.702214241 -0.3821287751 0.5966882706
-0.04328596592 -0.1781820953 0.698225975 -0.7653074265 -0.3420695662 0.542185843
-0.04046990722 -0.1836523265 0.6982116699 -0.7411041856 -0.3554346561 0.5686474442
-0.0465102233 -0.1803736985 0.6911116838 -0.780044198 -0.3376366496 0.5236535668
-0.002797043882 -0.2087210119 0.7108409405 -0.1074080914 -0.5551743507 0.8203769326
-0.01052850671 -0.2054091245 0.7092089057 -0.2653726637 -0.5415085554 0.7829980254
-0.0114647774 -0.1954032332 0.7139260769 -0.2781735361 -0.5443731546 0.7874367237
-0.005362766329 -0.2008585632 0.7131627202 -0.1858055294 -0.5634555221 0.8048215508
-0.0002974630333 -0.1973241568 0.7155396342 -0.09590642899 -0.5575500727 0.8188304901
0.02296329476 -0.1154240742 0.6320688128 -0.3314718008 -0.649117887 0.6824337244
0.02369727753 -0.1065098271 0.6409698725 -0.3024404645 -0.605030179 0.7309830189
0.01623788103 -0.1048813239 0.6390590668 -0.1896720976 -0.626046598 0.7553579807
0.01504234411 -0.1091786474 0.6350230575 -0.1737553328 -0.6387699246 0.7488097548
0.02529066056 -0.1106454432 0.6370937228 -0.3309577107 -0.6031342149 0.7215778828
0.006969382986 -0.1049763411 0.6379081607 -0.02832303755 -0.6410281062 0.7635067105
0.009311114438 -0.1109951213 0.6328209639 -0.08437106013 -0.6623128057 0.7402662635
-0.003920087125 -0.1011679471 0.6413508654 0.1426551044 -0.6332210898 0.7592871189
0.0008985253517 -0.1060496196 0.6366273761 0.06571933627 -0.6400024891 0.7612426877
0.004279327113 -0.09944514185 0.6418842077 0.01988494955 -0.6300580502 0.7750143409
-0.0008931874763 -0.09576243162 0.6456983685 0.100121811 -0.6272244453 0.7693158388
-0.003374887398 -0.1109012887 0.6329218745 0.1311735958 -0.6361136436 0.7581679225
0.02676991746 -0.08643900603 0.6580497026 -0.3312115669 -0.5760659575 0.7414460778
0.03119334765 -0.09003119171 0.657761693 -0.403463304 -0.5539720058 0.7178513408
0.02763667889 -0.09311427921 0.6523227692 -0.3489415944 -0.5734654069 0.7397504449
0.01528638322 -0.100586012 0.6424251199 -0.1663396955 -0.6219412684 0.7642511725
0.01053469349 -0.09315758944 0.6481029987 -0.06158762053 -0.6217803359 0.7777704597
0.009931871668 -0.09786903113 0.6444994211 -0.0622511059 -0.6268211007 0.7716108561
-0.02875141427 -0.171020925 0.7233684063 -0.5841463804 -0.4865434468 0.6460103393
-0.03378789499 -0.1681152135 0.7200946212 -0.6400897503 -0.4560034871 0.6172095537
0.02161997743 -0.1730987877 0.7313881516 0.2889798284 -0.6079134345 0.7375113368
0.01726873964 -0.1762895733 0.7299414277 0.2374347746 -0.6224570274 0.7445929646
0.01144115254 -0.1849874705 0.724360466 0.136664018 -0.6184127927 0.7688123584
0.01460225973 -0.1803712845 0.7269387841 0.1998446286 -0.6231239438 0.7517796159
0.01180623472 -0.1759589165 0.7316311598 0.137358591 -0.618259728 0.7661538124
0.03513620421 -0.1033856496 0.6481897235 -0.4594039917 -0.5477623343 0.6987723708
0.03041417338 -0.105012089 0.6442656517 -0.392326653 -0.5805549026 0.7094994187
0.02996792458 -0.1003216207 0.6483653784 -0.3966632187 -0.5733048916 0.7168121934
0.03889522329 -0.1076286212 0.6478031278 -0.5192694068 -0.5332504511 0.6661714911
0.03374998271 -0.1130868793 0.6392295957 -0.4473099709 -0.567330122 0.6911721826
0.05500186235 -0.1179765835 0.6602572799 -0.5997245312 -0.600092113 0.5279237032
0.04946323857 -0.1146042421 0.6542989016 -0.5913267136 -0.6038871408 0.5341569781
0.05277787894 -0.111207664 0.6597941518 -0.6617585421 -0.5112000108 0.5434890985
0.05856926739 -0.1131789163 0.6680302024 -0.7138251662 -0.3667668104 0.5756777525
0.05425534397 -0.106748268 0.6654158235 -0.6891030073 -0.3606542945 0.6245574355
0.07520858943 -0.114835225 0.6415504217 0.4757104516 -0.4624941945 0.7472546697
0.05290718004 -0.08528003097 0.6785889864 -0.441227138 -0.3013802469 0.8405823112
0.04710865766 -0.08378189802 0.6733586192 -0.5192643404 -0.4324234426 0.7343256474
0.0527876392 -0.09266328067 0.67312783 -0.5070911646 -0.3470775187 0.782359004
0.02674141526 -0.1979847848 0.7088026404 0.3956216872 -0.5188838243 0.7538150549
0.02182319015 -0.2050413042 0.7106897831 0.322999388 -0.5284246206 0.7831596732
0.01807906106 -0.2103181481 0.7110359073 0.2737454474 -0.5310793519 0.8010187149
0.0245468691 -0.1766888797 0.7276362181 0.33433339 -0.6067062616 0.7210550904
0.03150771186 -0.1743205339 0.7263488173 0.4193010032 -0.5880439281 0.6897428036
0.02925414778 -0.1782942712 0.7230329514 0.4070692956 -0.5887023807 0.6918775439
0.02477166615 -0.1931285262 0.7123304009 0.3768110275 -0.5113835335 0.7593300343
0.02865508012 -0.1886535138 0.7150506973 0.4242715538 -0.5371086001 0.7264595628
0.03322377428 -0.1876716018 0.7125121951 0.4926770627 -0.5122569799 0.7029529214
0.02615463547 -0.1846880764 0.7198617458 0.3717597425 -0.5871825218 0.7168169618
-0.03802093118 -0.1798635721 0.7054098248 -0.7056754827 -0.3826197088 0.5952627063
-0.03771655262 -0.1853731424 0.702819109 -0.6984255314 -0.3806414306 0.6046398282
0.04585616291 -0.0937698856 0.6644806862 -0.5827545524 -0.4534941018 0.6738193035
0.04826853424 -0.09013945609 0.6691199541 -0.5630638599 -0.4347480536 0.7015576363
0.05530017242 -0.100409098 0.67251724 -0.6234617233 -0.3132055104 0.7051061988
0.04994713888 -0.09548329562 0.6685082316 -0.5602493286 -0.3858037889 0.7206220627
0.04842569679 -0.1009070948 0.6627218723 -0.6686874032 -0.4296260774 0.6035217047
0.05182363093 -0.1012700498 0.6673258543 -0.6651368737 -0.3742210865 0.6390939951
0.04817912728 -0.08940505236 0.6618794799 -0.3208700418 -0.5147883892 0.6692157388
0.07231122255 -0.08943122625 0.6562652588 0.3562247455 -0.5311579704 0.6419112086
0.04944866151 -0.09397162497 0.658459425 -0.2996385694 -0.5150737762 0.6567789912
0.04138290882 -0.09389147907 0.6599618196 -0.5027640462 -0.5122081637 0.6672382355
0.05519766361 -0.09346809983 0.6576222777 -0.1449481398 -0.5181079507 0.6510868073
0.06624870747 -0.08779146522 0.6602631807 0.1674922258 -0.5215304494 0.6550806761
0.06916192919 -0.08672696352 0.6655614972 0.3097453713 -0.5115965009 0.6790888906
0.05579215288 -0.08655248582 0.6657984853 -0.1202590689 -0.5080478191 0.6779181361
0.0609077476 -0.08733427525 0.662238121 0.0127794994 -0.5163497329 0.662961185
0.06645525992 -0.0938052088 0.6552298069 0.1676122248 -0.5204306245 0.6435440183
0.0599292703 -0.09634724259 0.6552337408 -0.02236676961 -0.512709856 0.6486153007
0.05986826494 -0.1009307355 0.6797800064 -0.4256437421 -0.2963074148 0.854829669
0.06249456108 -0.1027830541 0.6917515397 -0.4119203985 -0.2734815776 0.8691914678
0.05915517733 -0.09683519602 0.6854385138 -0.4179600477 -0.2749237716 0.8658234477
0.05596015975 -0.08699296415 0.6831682324 -0.4230050743 -0.273981303 0.8636946082
0.05676523969 -0.09647881985 0.6767121553 -0.4488220215 -0.2956228554 0.8430089951
0.05905116722 -0.0843732506 0.6793450117 -0.219816938 -0.3810516 0.8036032915
0.06503414363 -0.08428025246 0.6728881001 0.1291751713 -0.5600335598 0.7014178038
0.04929934442 -0.07853046805 0.6774154902 -0.3978828788 -0.4753000438 0.7603666782
0.05350418761 -0.07953481376 0.6728003621 -0.1605033278 -0.532549262 0.6998656988
0.0008483081474 -0.2036424875 0.7122083306 -0.05466295779 -0.5608403087 0.8190919757
-0.01320553757 -0.1908549815 0.7167782187 -0.3171923161 -0.5467213392 0.7731867433
-0.02679056861 -0.1907381415 0.7119852901 -0.504401803 -0.4831267893 0.7113892436
-0.02196052298 -0.1885822266 0.7153612971 -0.4437496662 -0.5134158134 0.7295506597
0.01687594503 -0.09018585831 0.6509181261 -0.1655596048 -0.6090317369 0.7731915116
0.02083403803 -0.08586420119 0.6556776166 -0.2383962572 -0.5939462781 0.7651166916
0.01559170615 -0.09519335628 0.6467353106 -0.1587109268 -0.6132024527 0.7734397054
0.02212536708 -0.09712409973 0.6469332576 -0.2637661695 -0.6056867838 0.7485638261
-0.02293002047 -0.1726084799 0.7264176607 -0.4944274426 -0.5277644396 0.6901912689
0.006033937912 -0.1640345156 0.7415084243 0.001722589717 -0.5949673057 0.8018814921
0.006508026738 -0.1689171195 0.7381196618 0.02631962672 -0.6066839099 0.7928547263
0.01135617774 -0.1592903137 0.7444471717 0.08601371199 -0.5794894099 0.8040627241
0.002665292472 -0.1566037536 0.7461341619 -0.07084484398 -0.5662558675 0.8188961744
-0.003278161632 -0.1605122238 0.7423071265 -0.1437730789 -0.550916791 0.8179059029
0.0006187197869 -0.1658262014 0.7415184379 -0.092446208 -0.5731709003 0.8087471128
-0.004096531309 -0.172590062 0.7352547646 -0.1593054533 -0.5886946917 0.790814817
-0.00546442531 -0.1667529494 0.739076972 -0.2047238797 -0.5510474443 0.8082470298
0.001879447955 -0.1722604334 0.7362340093 -0.05497530103 -0.6010047197 0.7934347987
0.007120678667 -0.1734064817 0.7348291278 0.04011363909 -0.604965508 0.7917383909
0.01119826455 -0.1662394255 0.7409756184 0.09867759049 -0.5875473619 0.800077498
0.01306610461 -0.1708760113 0.7365539074 0.1456196904 -0.603995204 0.7796829343
0.01962240413 -0.1596764028 0.7438102365 0.2077962458 -0.5881605148 0.7805431485
0.01789870299 -0.1652123779 0.7404288054 0.2074230015 -0.5768361092 0.785349369
0.02251527645 -0.1682638824 0.7349849343 0.2925575674 -0.5877376795 0.7518217564
0.02296827175 -0.1903554052 0.7167437673 0.3419169486 -0.5466051102 0.7626879215
0.01741644926 -0.1916281432 0.7177421451 0.2616071105 -0.5515834093 0.7908226848
0.01645254903 -0.1992174387 0.7159588337 0.2479533106 -0.5480242372 0.796980679
0.01554155257 -0.2054466456 0.7138164639 0.2330856025 -0.5398989916 0.80730021
0.02101306804 -0.199437961 0.7133575678 0.318985939 -0.526446104 0.7861218452
-0.001177517464 -0.1775631905 0.7320705056 -0.09887439013 -0.6146095395 0.7799130678
-0.006876292173 -0.1774523407 0.7303884625 -0.2288493812 -0.6045321226 0.7598283887
-0.004827025812 -0.1825726181 0.7262806296 -0.193143338 -0.6120047569 0.7566263676
0.001814173767 -0.1840125322 0.7256394625 -0.05143012851 -0.6146104336 0.7710219026
0.006813860033 -0.1779387444 0.7293310165 0.0356720984 -0.6158074141 0.7539078593
-0.03187926859 -0.1890506595 0.7089012265 -0.5863853693 -0.4438391626 0.6742056608
-0.03317434713 -0.177426964 0.7123884559 -0.6426756978 -0.4329428673 0.6248424053
-0.03369390965 -0.1834630817 0.7083501816 -0.6417398453 -0.4164787233 0.6420013309
0.07039476186 -0.08943826705 0.6737943292 0.4512134492 -0.3750264943 0.7307006717
0.06478983909 -0.09624776989 0.6842787862 0.0607880652 -0.1188331097 0.8825083971
0.06442324817 -0.09046349674 0.6790369749 0.2645038962 -0.05161801353 0.887178123
0.06080870703 -0.09075478464 0.6831339002 -0.1227589101 -0.1773521602 0.8747791648
0.06843165308 -0.09429044276 0.6795766354 0.3787018359 -0.08924998343 0.8338012695
0.007369169034 -0.2104895711 0.7103298306 0.06876783073 -0.5455177426 0.8296698928
0.01049433183 -0.205761984 0.7102159858 0.1342754066 -0.5471951962 0.8174974918
0.005378126167 -0.2013822198 0.7137480378 0.03483070806 -0.5563444495 0.8291805983
0.009879782796 -0.1978501678 0.7147916555 0.116395846 -0.5454770327 0.8239332438
-0.01929454878 -0.1786759347 0.7233440876 -0.4366157651 -0.5458908081 0.7094984055
-0.01736564748 -0.1861259341 0.7189198136 -0.3813512027 -0.545622766 0.7438791394
-0.02568968385 -0.1759828627 0.7217262983 -0.5286222696 -0.5038253069 0.6773719192
-0.02936936915 -0.1787401736 0.7174932957 -0.5766240358 -0.4793555737 0.6598467827
-0.02287501842 -0.1819281429 0.7200344205 -0.4769354165 -0.5215774775 0.7056066394
-0.03299166262 -0.1735794544 0.7167716026 -0.6498629451 -0.4437127113 0.6159837842
-0.02619769424 -0.1835106611 0.7143145204 -0.5225111842 -0.4861308932 0.6975544095
-0.01308024209 -0.1788597852 0.7266373038 -0.3483995497 -0.5822984576 0.7317681909
-0.01724271104 -0.1682977378 0.7330430746 -0.4003854394 -0.5385576487 0.7360281944
-0.01427898556 -0.1732226312 0.7313503623 -0.3516359031 -0.5625127554 0.7472217083
-0.002186925383 -0.1924104691 0.719397366 -0.1156531796 -0.5825397968 0.8012465835
0.004450837616 -0.1941900402 0.7181996107 0.004436683375 -0.5631804466 0.824518621
-0.002213296015 -0.1872640848 0.7226888537 -0.1244767308 -0.6001721621 0.7783716917
0.003357292619 -0.188610673 0.7223663926 -0.008826760575 -0.5977967381 0.7950171232
-0.008640053682 -0.1890658736 0.7202550173 -0.237142235 -0.5790029168 0.7769996524
-0.01283878833 -0.1847036183 0.7226147652 -0.2966828942 -0.583090961 0.7548559308
