# .PCD v0.7 - Point Cloud Data file format
VERSION 0.7
FIELDS x y z normal_x normal_y normal_z
SIZE 4 4 4 4 4 4
TYPE F F F F F F
COUNT 1 1 1 1 1 1
WIDTH 512
HEIGHT 1
VIEWPOINT 0 0 0 1 0 0 0
POINTS 512
DATA ascii
0.03035758436 -0.100681968 0.5916044116 0.3171927333 -0.7080656886 0.6292493939
0.0313684009 -0.09528870881 0.5944511294 0.3440344632 -0.7229739428 0.5978118777
-0.06769845635 -0.1918972284 0.6283417344 -0.2151080817 -0.6590818763 0.713899672
-0.08563426137 -0.18731682 0.6259756684 -0.5248981714 -0.5856772661 0.6064298749
-0.1010749117 -0.171814993 0.6220320463 -0.7789391279 -0.4558324814 0.4251829386
-0.02661125921 -0.1905955523 0.6276478171 0.4163748622 -0.6729648113 0.6094244123
-0.01828609034 -0.1846762747 0.6218643188 0.5410616398 -0.6048187613 0.5613716841
-0.02173158154 -0.1882817596 0.6252835393 0.4908027947 -0.6351523995 0.581220746
-0.0559643209 -0.04842880368 0.6134190559 0.07778656483 -0.8148007989 0.5717619658
-0.06316187233 -0.04760444909 0.6157915592 0.2030642033 -0.8054594398 0.5540619493
-0.08010329306 -0.13050583 0.6896955967 -0.4399469495 -0.6726520061 0.5948112011
-0.0005086081219 -0.1733807772 0.6126199365 0.7464373708 -0.5002622008 0.4380672276
-0.005454878788 -0.1787594855 0.6153405905 0.7017216682 -0.5199846029 0.4847698808
-0.09568624943 -0.1752966642 0.6193423867 -0.7323858142 -0.489059031 0.456559211
-0.09455836564 -0.1779873818 0.6266092658 -0.6462885737 -0.5231857896 0.5452574492
-0.1037818938 -0.1687431931 0.6117734313 -0.8497345448 -0.4073488116 0.3294413686
-0.1033119485 -0.1611066312 0.6268174052 -0.8254689574 -0.4076593518 0.3866569698
-0.101439476 -0.1679299325 0.62879318 -0.7640911341 -0.4514891803 0.4564335942
-0.1001180038 -0.1646161228 0.6229947209 -0.8135473728 -0.4207054973 0.3948149085
-0.1025094464 -0.1717122942 0.616465807 -0.8186754584 -0.4349187315 0.371809274
-0.1078299955 -0.1661816388 0.6083843708 -0.8828699589 -0.3568322062 0.2865178585
-0.106007494 -0.1597703993 0.6199015975 -0.8594366908 -0.3762138188 0.3365577161
-0.1080065295 -0.1619052738 0.6133846641 -0.8814780116 -0.3498753905 0.3009711504
-0.0796129778 -0.1865207553 0.6300460696 -0.4179350734 -0.5909782648 0.6856164336
-0.1020157263 -0.1577816308 0.6323033571 -0.81031847 -0.4143258035 0.4072912037
-0.09648226947 -0.1645100862 0.6314166784 -0.723852098 -0.4786558151 0.4920614958
-0.0889268443 -0.1817719191 0.627266705 -0.5612226725 -0.5618721843 0.6059789658
-0.1017218679 -0.1638176441 0.6164489985 -0.8509852886 -0.3983713388 0.3347635567
-0.1053137109 -0.1570666581 0.6148689389 -0.8898527026 -0.3443931937 0.2890199721
-0.1178461015 -0.1452310532 0.5964343548 -0.973033011 -0.09571251273 0.1332005709
-0.1121560335 -0.1499782652 0.6090937853 -0.9267385602 -0.2995638251 0.224952355
-0.01676663198 -0.1517411768 0.6589477658 0.5452360511 -0.6489064693 0.5296133757
-0.02695638686 -0.1470441818 0.6737792492 0.3621446192 -0.6907883883 0.6240110993
0.0178721305 -0.07962349057 0.626339972 0.06103245914 -0.8599033356 0.457036823
0.01232467778 -0.0756893456 0.6305314302 -0.2194293737 -0.7287650704 0.4943100512
-0.05020556599 -0.05006769672 0.6116685271 -0.0326737985 -0.8090847135 0.5786493421
-0.09742213041 -0.1351754963 0.6580451727 -0.7061323524 -0.5266866684 0.4729806483
-0.09945194423 -0.129838407 0.6613698006 -0.7036403418 -0.5261480808 0.47713691
-0.08730377257 -0.1338140517 0.6741977334 -0.6110675931 -0.5911456347 0.5254922509
-0.09115358442 -0.1267551929 0.6728076935 -0.6377595663 -0.5678417683 0.5178249478
-0.09599145502 -0.1282663941 0.6661819816 -0.6761102676 -0.5434428453 0.4941767156
-0.08038531989 -0.1330776364 0.6818047166 -0.4993714094 -0.638543427 0.5770190358
-0.0785465613 -0.1382972449 0.6807228923 -0.4864144921 -0.6530323029 0.5781939626
-0.1043192521 -0.1479322612 0.624447763 -0.8421486616 -0.3727197647 0.3573151231
-0.1019599587 -0.1522058696 0.6280769706 -0.8095790148 -0.4060607553 0.3960448503
-0.1094292179 -0.1404569745 0.6157723665 -0.915084362 -0.29757303 0.2695134878
-0.09428583831 -0.1450896114 0.6555866599 -0.6729935408 -0.5651406646 0.4769349396
-0.05403278768 -0.1921569854 0.6290622354 -0.007990407757 -0.6949343085 0.708255887
-0.04026519507 -0.1903855652 0.6286212802 0.2082134038 -0.7001866698 0.6553740501
-0.09204659611 -0.1632659137 0.6394017339 -0.6395858526 -0.5311164856 0.5536885262
0.03083639778 -0.0848839283 0.5946133137 0.3255936205 -0.7678740025 0.5513022542
0.01141310204 -0.1114847139 0.5864731669 -0.06031775847 -0.7338915467 0.6604762077
0.006373100914 -0.1088672653 0.5850768089 -0.1774763167 -0.7480359674 0.622715652
0.01199040003 -0.1055327654 0.5840161443 -0.09274748713 -0.5964611173 0.7802383304
-0.0254513789 -0.05371703207 0.6166771054 -0.4570067525 -0.6843730807 0.5666665435
-0.1080992967 -0.1563292593 0.6068276167 -0.9245654345 -0.3007023036 0.2284750491
-0.1098674312 -0.1619901061 0.6044549346 -0.9095190763 -0.3281131983 0.2505805194
-0.1153805703 -0.1342834085 0.5804612637 -0.9628466964 0.2583428025 0.003394494997
-0.1049736515 -0.112486586 0.607162416 -0.02111880854 -0.46383214 0.4023433328
-0.1090895161 -0.1272771209 0.6174927354 -0.6084166169 -0.3485560417 0.3169511855
-0.1080575436 -0.1181864664 0.6133112311 -0.3065708876 -0.4060852826 0.3565821946
-0.1098053381 -0.1446729898 0.6258642077 -0.8896558285 -0.3376634717 0.3046268523
-0.1104728505 -0.150450483 0.6155363917 -0.9120199084 -0.312908709 0.2618467212
-0.1081007719 -0.1540699303 0.619725585 -0.883415401 -0.3452213109 0.3065920472
-0.09830448031 -0.148090452 0.6429906487 -0.7467089295 -0.4832957089 0.4503973722
-0.1015208662 -0.1484833658 0.6366517544 -0.7972869873 -0.4310361445 0.4056906998
-0.09658414871 -0.1529701054 0.639729619 -0.7267202139 -0.4771992266 0.4845770299
-0.1052859277 -0.1430530399 0.6372926831 -0.8372941613 -0.4096283317 0.3594860137
-0.1066791043 -0.1468222439 0.6320308447 -0.8537912965 -0.3842076361 0.3504996598
-0.1105880067 -0.1368312538 0.6262905002 -0.8932853341 -0.3247262836 0.3048371971
0.009797285311 -0.1059773862 0.5963377357 -0.2717455029 -0.7149592638 0.5306993723
0.01641955413 -0.1074629202 0.5909878612 -0.01178660989 -0.7227513194 0.6206042767
0.02199470811 -0.1033391878 0.5935869217 0.08143178374 -0.7157623172 0.5853078961
0.01794962958 -0.1068463027 0.5857176185 0.06637360901 -0.6519436836 0.7405718565
0.02516366728 -0.1005898714 0.587233901 0.203765437 -0.6443684697 0.7343720198
0.01832703315 -0.09913503379 0.5841342211 0.07103335857 -0.5280972719 0.8436957598
0.00166632561 -0.08579858392 0.6237328053 -0.6349539757 -0.5014436841 0.5875301361
0.001543072984 -0.07912427932 0.6279383302 -0.6316120625 -0.5001004338 0.5922804475
0.004846978933 -0.07811044902 0.6348075867 -0.6165798306 -0.5147048235 0.5922584534
0.01235754788 -0.08206745237 0.6292958856 -0.07033672184 -0.7217106819 0.6065610647
0.007007628214 -0.08785331249 0.6317508817 -0.6006550193 -0.5159154534 0.5956844091
-0.09137949347 -0.1412852854 0.6603117585 -0.6674086452 -0.5583547354 0.4894521236
-0.08733890951 -0.1483476013 0.6609408259 -0.6082018018 -0.6042007804 0.5119808316
-0.08048084378 -0.1543124318 0.6604055762 -0.5046619177 -0.6596517563 0.5499703288
-0.0746389553 -0.1550214887 0.6654033661 -0.4101850986 -0.6967318058 0.5828850865
-0.0233949516 -0.1417481899 0.6757676005 0.3752003014 -0.6846093535 0.6245208979
-0.07594045997 -0.1301487386 0.6857703924 -0.3947803676 -0.6310259104 0.626968503
-0.06256818771 -0.1355208009 0.6927208304 -0.1693906933 -0.6802656054 0.7107890248
-0.0730894804 -0.1393190622 0.6840088964 -0.3799365461 -0.6823478937 0.6210370064
-0.07341446728 -0.13449049 0.6904240251 -0.3243018985 -0.6843346953 0.6521149874
-0.1022543162 -0.1335560679 0.6519924998 -0.7540536523 -0.4901799858 0.4305713773
-0.1059130207 -0.1379992664 0.6402211189 -0.8320823908 -0.4165160358 0.3649500906
-0.1020866409 -0.1434747875 0.6426587105 -0.8145902157 -0.4361279607 0.3822393417
-0.1016744301 -0.06477323174 0.6298191547 0.5571316481 -0.6465184689 0.5209238529
-0.0935652703 -0.136072278 0.6697201729 -0.6586176157 -0.5543981791 0.5082609057
-0.08426325768 -0.1283637583 0.6844092607 -0.562455833 -0.6146711111 0.5481926799
-0.08833192289 -0.1297680736 0.678832531 -0.6182659864 -0.5812498331 0.5276321173
-0.02753791027 -0.1634202749 0.6547014117 0.3829955459 -0.7063938975 0.5923781991
-0.01176390797 -0.1818162203 0.6189125776 0.6429970264 -0.5549716353 0.5273731947
-0.06650574505 -0.1620994657 0.6568388939 -0.2855402529 -0.7060846686 0.6213896275
-0.09206420183 -0.1416932344 0.6666107178 -0.6549239755 -0.5619487166 0.5042279363
-0.09905470908 -0.1399396658 0.6550574303 -0.7109654546 -0.5301327109 0.4602091014
-0.09717246145 -0.1434991062 0.6503237486 -0.7201469541 -0.5158976316 0.4626446962
-0.1019619107 -0.1402037144 0.64880234 -0.7550740242 -0.4959689677 0.4237858951
-0.06005493179 -0.1925929636 0.6288061738 -0.09501007199 -0.6854008436 0.7203102708
-0.06929572672 -0.1866334975 0.6319524646 -0.2555398643 -0.6415441632 0.7178544402
-0.08232238889 -0.1807449907 0.6287369728 -0.4878100157 -0.5712519884 0.6452158689
-0.09489014745 -0.148740828 0.6495277286 -0.6911850572 -0.5360738039 0.4802077711
-0.08727531135 -0.1526762545 0.6547184587 -0.5971484184 -0.5985639691 0.5254107714
0.006015214603 -0.07243756205 0.624204874 -0.4330159426 -0.6813910604 0.4755864739
0.02102152631 -0.07633342594 0.6121816635 0.1049737707 -0.8289276958 0.4627385139
0.0113422228 -0.07334439456 0.6185224652 -0.2428000271 -0.6972150803 0.5032587647
0.01427112892 -0.07627671957 0.6226274371 -0.1343196481 -0.8927333951 0.3537167311
0.01526166499 -0.07388944924 0.6075100303 -0.03065388091 -0.6656781435 0.57534343
0.0003987443051 -0.07099661231 0.6163855195 -0.4959144294 -0.5628495216 0.5623310804
0.006754056551 -0.07196877152 0.613905251 -0.320910871 -0.5974724293 0.5717052817
0.02144575305 -0.07500123233 0.6042732596 0.1546252966 -0.7052206397 0.5820791721
-0.006199119613 -0.07078526169 0.6149986982 -0.605461359 -0.5550672412 0.5411180854
0.008162204176 -0.07479855418 0.6032285094 -0.1097364351 -0.6747342944 0.5560417175
-0.006859995425 -0.07325482368 0.6061862111 -0.4740310907 -0.612840116 0.5288801789
-0.007003875915 -0.08388919383 0.6078684926 -0.6814239025 -0.5369318724 0.493411541
-0.003674671054 -0.08606570214 0.6129252315 -0.6632338166 -0.5186495781 0.5373392701
-0.03012573719 -0.04923028871 0.6180489659 -0.3751041293 -0.7377912998 0.5600447655
-0.03639495 -0.04801130295 0.6162272096 -0.2470778674 -0.786937654 0.5637789965
-0.04448274896 -0.04825956374 0.6142068505 -0.1311937124 -0.8022007942 0.5806723237
-0.07149803638 -0.07310340554 0.5889462829 0.3271027207 -0.7158109546 0.615691483
-0.04918708652 -0.09798010439 0.5598196983 -0.1008444205 -0.6716422439 0.7218620777
-0.04336905852 -0.1000299901 0.5607398748 -0.2067563832 -0.6434130073 0.7157071233
-0.03755129501 -0.09941837937 0.5626224875 -0.3115685582 -0.6318189502 0.7034671903
-0.1114610434 -0.1490520835 0.5999807119 -0.9434273839 -0.2771919668 0.1814341247
-0.1145486087 -0.1526503563 0.5967795253 -0.9404183626 -0.2867326438 0.1824248433
-0.1129534617 -0.1571190059 0.6010329127 -0.9332107902 -0.2914516032 0.2090324759
-0.08800445497 -0.1013655737 0.5703154206 0.538171351 -0.6401785612 0.5465300679
-0.1101592556 -0.130095467 0.5826032758 -0.6287139654 0.04374813661 0.2036918402
-0.1061269343 -0.121288158 0.5807558894 -0.2119388282 -0.1691291183 0.3066914976
-0.1062860265 -0.1171038821 0.5774857998 -0.1226572394 -0.1875139773 0.2559175491
-0.101055719 -0.1107664034 0.5758066773 0.169249773 -0.380682081 0.3580649793
-0.111900419 -0.125642091 0.578695178 -0.5573573709 0.06499127299 0.105214119
-0.1018879339 -0.098301135 0.595140934 0.5839133263 -0.585354805 0.4926477075
-0.1042610109 -0.1107564121 0.6000733972 0.2053995878 -0.5158253312 0.4426755011
-0.1029181704 -0.1033482775 0.5993057489 0.3691892624 -0.5422068834 0.4609292448
-0.09878321737 -0.09899462014 0.5891358852 0.6235578656 -0.5991498232 0.5021156669
-0.1032394022 -0.1057909578 0.5885822773 0.4705393612 -0.5090672374 0.4701993167
-0.1079789177 -0.1192893907 0.5878107548 -0.1576042473 -0.193864733 0.3165376782
-0.1044943556 -0.1130246669 0.5822364092 0.2408323139 -0.3614481986 0.4184152484
-0.1028641909 -0.1073319241 0.5820898414 0.4830687046 -0.4780017436 0.4619540572
-0.1054535881 -0.104046464 0.6069741249 0.1813511103 -0.4992240071 0.4206998348
-0.103118673 -0.09374371916 0.6010106802 0.5743231773 -0.5759244561 0.4749217033
-0.1110434905 -0.1448111385 0.6193740368 -0.9157557487 -0.3031699061 0.2611422837
-0.1115143672 -0.1342988312 0.6191622615 -0.8502030969 -0.3019583523 0.2839136422
-0.1083221957 -0.133384183 0.6132313013 -0.690930903 -0.3245665133 0.3108999431
-0.1094554663 -0.1262723804 0.5922656655 -0.4527596831 -0.1225285605 0.2691619694
-0.1068404317 -0.1182852462 0.5942230821 -0.1002777144 -0.310957253 0.3561775684
-0.1073566526 -0.1281787306 0.6096608043 -0.4773584306 -0.3684500456 0.3421689272
-0.1094395742 -0.1298624128 0.5992006063 -0.5851478577 -0.1651003212 0.2710770965
-0.1039107591 -0.1080616415 0.5939891934 0.34177351 -0.5075366497 0.4531771839
-0.1105797291 -0.1373378038 0.6059446335 -0.886464715 -0.1284070462 0.2346595377
-0.1113462374 -0.1360827386 0.5985284448 -0.8568184972 -0.03223154321 0.2077838033
-0.1129075512 -0.1348226815 0.5858888626 -0.8443640471 0.1489109397 0.1535337716
-0.1066772118 -0.1157976761 0.6000688672 -0.01097508986 -0.4406971037 0.3891982436
-0.1078121662 -0.1202192679 0.6042690873 -0.1955250204 -0.4191209674 0.368457675
-0.1139651909 -0.1328623742 0.5928458571 -0.8684885502 0.039606601 0.09476456791
-0.1067033783 -0.1119562164 0.5882623196 0.09879438579 -0.321231395 0.3325872421
-0.1116232425 -0.1243533939 0.5860348344 -0.5054529309 -0.02346536517 0.1463148147
-0.11147964 -0.1304609627 0.605627954 -0.6748812199 -0.2273307145 0.2438407093
-0.1123806015 -0.1434777826 0.5949261189 -0.9517634511 -0.07923652977 0.1605245471
-0.1109432876 -0.145433262 0.6049876809 -0.9356107116 -0.2758411765 0.2066696733
-0.1144021004 -0.1391053647 0.6106946468 -0.9409848452 -0.2115977407 0.2185071409
-0.1160781011 -0.1412010044 0.6045725346 -0.9569861293 -0.1481101662 0.1788422763
-0.1164815873 -0.1401873976 0.5867863297 -0.9779945612 0.1430789381 0.1098044813
0.0278997235 -0.08003456146 0.6103358865 0.2689245045 -0.807692647 0.4927312732
0.02287191711 -0.07929680496 0.6200130582 0.158954218 -0.8793693185 0.4230776727
0.03240633756 -0.08009660989 0.6010639668 0.3715876639 -0.7386513948 0.5615274906
0.02684889175 -0.07663366944 0.6052770019 0.2943304479 -0.7688962221 0.5517742038
-0.01982626505 -0.1479301751 0.6668909192 0.4278925359 -0.6814134121 0.5917595625
-0.01799471304 -0.1400272548 0.6716841459 0.4152473807 -0.6691516638 0.6150699258
-0.002555150073 -0.09098065645 0.609295547 -0.687222302 -0.5234357119 0.4953989983
-0.006832163315 -0.08739484847 0.6026719213 -0.7191859484 -0.5431178212 0.4317286909
-0.002029863652 -0.1490320563 0.6393136978 0.7088294029 -0.5517399907 0.4393066764
-0.006381925661 -0.1539765745 0.6410437822 0.6981120706 -0.5650495291 0.4393732846
-0.04261728004 -0.1406811774 0.6855088472 0.134401843 -0.7286310196 0.6702544093
-0.04438719153 -0.1353326142 0.6923310161 0.09142608941 -0.7104671001 0.6966375709
-0.03685261682 -0.1370288879 0.6871874928 0.1888938695 -0.716869235 0.6701409817
-0.06730969995 -0.1437807232 0.6813639402 -0.2776113153 -0.7132728696 0.6402803063
-0.0558713451 -0.1504079103 0.6765415668 -0.05741488189 -0.7519429326 0.6547629237
-0.05993979424 -0.1483362913 0.6797644496 -0.1302128583 -0.7372046113 0.6564736962
-0.02816815674 -0.1395961046 0.6806432605 0.2852390409 -0.7050772309 0.6490104198
-0.03319454193 -0.1451781094 0.6782848239 0.2811279595 -0.7008690238 0.6534946561
-0.0480071418 -0.05727639049 0.6016511917 -0.07273123413 -0.7775683403 0.6226629019
-0.08570118248 -0.06632971764 0.6079069376 0.5028913021 -0.666846931 0.5485182405
-0.05656386539 -0.05522777513 0.6055089831 0.0705370754 -0.7911199927 0.6035443544
-0.06311590225 -0.0561039336 0.606000483 0.1972590238 -0.774702549 0.5962939858
-0.06158728153 -0.05252362415 0.610217154 0.1712071598 -0.7917730808 0.5784137249
-0.09335057437 -0.06505267322 0.618561089 0.5635631084 -0.645344615 0.5145116448
-0.08754712343 -0.06132623926 0.6153262854 0.5022447705 -0.6946747303 0.5148242712
-0.09024400264 -0.05950409546 0.6209641099 0.5140316486 -0.6862946749 0.5145478845
-0.09609650075 -0.06293819845 0.6250528693 0.5463488102 -0.6578396559 0.518257618
-0.09405848384 -0.08753132075 0.594144702 0.615537107 -0.5987070203 0.5113498569
-0.0242793411 -0.1582110077 0.6569714546 0.4224088788 -0.7004376054 0.5718041062
0.005561311264 -0.1102555245 0.5957964063 -0.3337164521 -0.7659865022 0.4706211388
0.006565075833 -0.1173695102 0.5875247717 -0.1308940053 -0.8334205747 0.5263206959
-0.08315870911 -0.1563137323 0.6518778205 -0.5414272547 -0.6115038395 0.5607146621
-0.09278015047 -0.156506151 0.6425782442 -0.6645280719 -0.5208472013 0.5346084833
-0.07479722798 -0.161340639 0.6580470204 -0.4143780768 -0.6826484799 0.5974003077
-0.09087190777 -0.1547473222 0.6497060061 -0.6363908052 -0.5649630427 0.5239086151
-0.0847671926 -0.1639472693 0.6456050873 -0.5167028308 -0.6219466329 0.5876085758
-0.03010467254 -0.0866767168 0.5755591393 -0.3990750909 -0.6652292609 0.6291493177
-0.0437723957 -0.08053572476 0.576903224 -0.1738099754 -0.7362626791 0.6490550041
-0.03790663183 -0.08027545363 0.5793633461 -0.260605216 -0.7206332684 0.6324341297
-0.03756417334 -0.08415634185 0.5749015212 -0.2941795588 -0.7047258615 0.6425290704
-0.00140634214 -0.166931048 0.6172408462 0.7614596486 -0.4837319851 0.4310206771
0.002539563226 -0.1681973934 0.6091294885 0.7605298162 -0.4913019836 0.4242209494
-0.05732967705 -0.165862456 0.6574006081 -0.1291780621 -0.740716517 0.6570932865
-0.05945743248 -0.1696718037 0.6516293287 -0.1576782912 -0.7323912978 0.6494190693
-0.059868671 -0.1886623502 0.6341077089 -0.1205391064 -0.6886509657 0.7114691734
-0.08642190695 -0.1760977954 0.6296122074 -0.5701694489 -0.5395691395 0.6094999909
-0.09570420533 -0.1701315045 0.6222597957 -0.7511402369 -0.4642300904 0.4490261674
-0.07986386865 -0.1685571969 0.644918263 -0.4596388042 -0.6326870918 0.6210976839
-0.08008436114 -0.1625499278 0.6490679383 -0.4787034094 -0.6460834146 0.5886818171
-0.08834369481 -0.1580674201 0.6462647319 -0.5814028382 -0.5956058502 0.5531457067
-0.07827806473 -0.1596197188 0.6538550854 -0.4673154056 -0.6606182456 0.5849170685
-0.0075056348 -0.06040973589 0.6269980073 -0.6277334094 -0.5843100548 0.5128276348
-0.001435378217 -0.06626818329 0.6324212551 -0.6234787703 -0.5465188026 0.5561416745
0.002553529805 -0.07032866031 0.6347671151 -0.6222115159 -0.5182209015 0.5863829851
-0.0001637923997 -0.06855144352 0.6251884103 -0.6302978992 -0.5180728436 0.5771135092
-0.002023053821 -0.07463305444 0.6029983759 -0.3259553611 -0.6454801559 0.540076077
0.003271552036 -0.0765588209 0.5991966724 -0.1771307588 -0.6648252606 0.5613766909
-0.00178355712 -0.08318047225 0.6188108325 -0.6478459239 -0.5046911836 0.5690798163
-0.0936883539 -0.101621598 0.5737107992 0.5757886767 -0.6340405345 0.515050292
-0.09782077372 -0.102091819 0.5770341158 0.6216911674 -0.590438664 0.5127884746
-0.09499469399 -0.09988895059 0.5827971697 0.5923798084 -0.6147118211 0.5179765821
-0.08830241114 -0.09550741315 0.5749306083 0.5566054583 -0.644998014 0.5224283338
-0.08463054895 -0.09148561209 0.5757346153 0.5227543116 -0.6594374776 0.5390281677
-0.06300688535 -0.1004113108 0.5594690442 0.1368770301 -0.6676006913 0.6949526668
-0.07019712776 -0.09923157841 0.5618858933 0.2752442062 -0.6649155617 0.6581180692
-0.0298857037 -0.09186833352 0.5693792701 -0.3983432055 -0.6530518532 0.6430525184
-0.02500462346 -0.09603434801 0.5685677528 -0.4646659195 -0.6170395613 0.6309840083
-0.04113444313 -0.09463825822 0.5611367822 -0.2404380143 -0.6690337062 0.6985396147
-0.1010892913 -0.1010893956 0.5844786167 0.631709218 -0.5821440816 0.5113502741
-0.09983126819 -0.0914337635 0.5946019888 0.6269111037 -0.5974760652 0.4999323189
-0.09961588681 -0.08718287945 0.5999543071 0.6374720931 -0.5936070681 0.4910900593
-0.08231689036 -0.08745957911 0.580159843 0.5008975863 -0.652788341 0.5592272282
-0.01204467565 -0.1449155807 0.6598786116 0.5716719031 -0.6066575646 0.5354674459
-0.01563451625 -0.1435148865 0.665659368 0.4877351224 -0.651457727 0.5723122954
-0.0005944881123 -0.09596476704 0.605840981 -0.6783522964 -0.5813260078 0.4315956235
0.004304359201 -0.09807445109 0.6129596829 -0.6111065149 -0.644559145 0.4411363304
0.00677582901 -0.09224209934 0.6278594136 -0.6214268804 -0.5286713243 0.5705753565
0.0009079132578 -0.09097894281 0.6184195876 -0.6398649216 -0.5135119557 0.5703536868
0.02555378154 -0.09175794572 0.5893331766 0.2262115926 -0.659889102 0.6986618638
0.01071258076 -0.09367541969 0.6211590171 -0.4641100466 -0.5673879385 0.5684874058
0.009415515698 -0.09759582579 0.6080641747 -0.4349550605 -0.6701146364 0.4553065598
0.01537385583 -0.09809754789 0.6052898169 -0.230803296 -0.6698708534 0.513866663
0.0202747602 -0.09682329744 0.6087425351 -0.09369245172 -0.6266878843 0.6040784717
0.01148593985 -0.09611048549 0.6127422452 -0.3943279386 -0.6277416945 0.5170205832
0.02013608813 -0.09972970933 0.5988869667 -0.04514817148 -0.701045692 0.5299860239
0.02057653293 -0.08675085008 0.6190971136 0.1122832671 -0.7660580277 0.524571836
0.02773828246 -0.09989532083 0.5968691707 0.2081153244 -0.6901620626 0.6152504683
0.01647619903 -0.09443735331 0.616255343 -0.2411717176 -0.5954982638 0.6002984643
0.02217618003 -0.09159532934 0.6121791005 0.09622717649 -0.7222557068 0.5608400106
0.01646398194 -0.08682399243 0.6240617633 -0.09233815968 -0.702421248 0.536449194
0.0120695252 -0.1007631272 0.6016719341 -0.3055102229 -0.7026744485 0.4588344097
0.0277097635 -0.09487223625 0.6019138694 0.2976830602 -0.7555467486 0.5750099421
0.03095909208 -0.09096498042 0.5986027122 0.3411126435 -0.7366298437 0.5798653364
0.02429380827 -0.08390190452 0.6160523295 0.2700316608 -0.8106456995 0.5101362467
0.026498558 -0.09122137725 0.6067581177 0.2875933051 -0.7745253444 0.5529545546
0.02965510823 -0.08710356057 0.6037691832 0.330167532 -0.756900847 0.5563944578
-0.01121035498 -0.08610609919 0.5956991315 -0.6579575539 -0.5668537617 0.4904741347
-0.007725966163 -0.09145341069 0.5957967043 -0.68942523 -0.5559487939 0.4590909183
-0.005190009717 -0.08691517264 0.591145575 -0.5093489289 -0.6049799919 0.5102430582
0.001682441565 -0.08270812035 0.5948212743 -0.2978777885 -0.637296319 0.5374519825
0.01054732874 -0.08097785711 0.5966539979 -0.09310026467 -0.6720596552 0.5519891381
0.01808469556 -0.07764184475 0.5996491909 0.1148068085 -0.705501616 0.5744379759
-0.003851544112 -0.08203585446 0.5950492024 -0.3935887814 -0.6189647317 0.5380601883
-0.01083061006 -0.07759946585 0.5968774557 -0.4698352218 -0.6190926433 0.5468316078
0.007923779078 -0.08529601246 0.5929242969 -0.1836367846 -0.6612097025 0.5353405476
0.01781703159 -0.0825586766 0.59553653 0.07379934937 -0.7038201094 0.5591459274
0.02501820587 -0.07855800539 0.5991822481 0.263941884 -0.7329970598 0.5801185369
0.002221912146 -0.08758272976 0.5908027887 -0.3329811394 -0.6373009086 0.5203335285
0.0232703723 -0.08655872196 0.5923190117 0.2088118494 -0.7229048014 0.5775092244
0.007513651159 -0.09325160831 0.5872321725 -0.1985873878 -0.575733006 0.666754961
0.01288549416 -0.08791659772 0.5909587145 -0.05899010971 -0.6719492674 0.56308043
0.01826220192 -0.09197150916 0.5885583758 0.0785638988 -0.626583159 0.6846956611
-0.0007191256154 -0.09159654379 0.5879361033 -0.4102607667 -0.5765278935 0.5897856355
-0.00846863538 -0.1608260125 0.6349624395 0.7044379711 -0.5456013083 0.4531692266
-0.0343811959 -0.1506539434 0.6724187732 0.2661887109 -0.7078460455 0.6532328129
-0.04263498634 -0.1508238167 0.6742709875 0.1512850374 -0.7340898514 0.6589617133
-0.04888656363 -0.149338156 0.6764268875 0.05754361674 -0.7453241944 0.6582885981
-0.04023807123 -0.1466066837 0.6783986688 0.1860158741 -0.7220479846 0.6625911593
-0.03781311214 -0.1422792673 0.6823248267 0.2105725408 -0.7151115537 0.6646671891
-0.07397494465 -0.1485701501 0.6699995995 -0.4047166109 -0.696983099 0.5777825117
-0.07339297235 -0.143659845 0.6791989803 -0.3830500841 -0.697825253 0.6048771739
-0.08123224229 -0.1412294656 0.6763694286 -0.5237779021 -0.6367786527 0.5587211251
-0.0879104659 -0.1415053755 0.6718720198 -0.6057818532 -0.587023735 0.528636694
-0.07739026845 -0.1465709656 0.6735339761 -0.4483031631 -0.6765539646 0.5743489265
-0.06445104629 -0.1398549974 0.6868286133 -0.2074735016 -0.6998836398 0.6775132418
-0.05139995739 -0.141379118 0.6861310601 0.02042092942 -0.7370083928 0.6741907597
-0.05357411131 -0.1457742006 0.6809078455 -0.02031020075 -0.746830225 0.6631287336
-0.05715256929 -0.1422404498 0.6861635447 -0.07733497769 -0.7279322147 0.6761519313
-0.05645212531 -0.1375062466 0.690145731 -0.08070572466 -0.705506742 0.6959097981
-0.04753576964 -0.1451371312 0.6821005344 0.07379869372 -0.7373648882 0.6690388322
-0.06826488674 -0.1504964828 0.6719809175 -0.302170217 -0.7284795046 0.6021741629
-0.0641945973 -0.1501967013 0.6764809489 -0.2152891755 -0.7424418926 0.6323724985
-0.005787516013 -0.07759238034 0.6155437231 -0.6698741913 -0.5183526874 0.5287312269
-0.008530645631 -0.07710660249 0.6100516319 -0.6899189949 -0.5295725465 0.4934414923
-0.004305589013 -0.07451295108 0.6210573316 -0.6473476887 -0.5144091249 0.5604364276
-0.04379250854 -0.05347431824 0.6083186269 -0.152766645 -0.7861827016 0.5964869857
-0.03689567 -0.05290748551 0.6109437943 -0.2659079731 -0.7569811344 0.5920478106
-0.09611554444 -0.07630395144 0.608828187 0.6009984612 -0.610358417 0.5154795051
-0.09467225522 -0.08148623258 0.6011902094 0.6086019874 -0.6027011275 0.5158491135
-0.09065001458 -0.06705540419 0.6125286818 0.5511119366 -0.6513172388 0.5188725591
-0.09160407633 -0.07146977633 0.6085709929 0.5610325336 -0.6283466816 0.5370836854
-0.08783044666 -0.07136448473 0.6027292609 0.5395586491 -0.6331908107 0.5543518662
0.0006073839613 -0.1597174853 0.6183615923 0.7809123993 -0.4665133953 0.4153636098
-0.01340499427 -0.09330697358 0.5831668973 -0.5937139392 -0.6051466465 0.5298782587
-0.01125504449 -0.08914494514 0.588138938 -0.6317668557 -0.5887030363 0.503369689
-0.05025336519 -0.08093896508 0.5757204294 -0.0733994469 -0.7402855754 0.6586187482
-0.01061759237 -0.1727459431 0.6246861219 0.686342299 -0.5271410346 0.4965029359
-0.005740560591 -0.1712199748 0.6189709902 0.7379475236 -0.4953025877 0.4553218484
-0.02085074969 -0.1784380674 0.6322233677 0.5261113644 -0.6196446419 0.5786790252
-0.0154846767 -0.1753385812 0.6298135519 0.6006039381 -0.5771972537 0.5511548519
-0.05127558857 -0.1891355067 0.634310782 0.002463601995 -0.7077819705 0.7034196258
-0.05217688531 -0.1837835014 0.6387352347 -0.003488856833 -0.7067856193 0.7047926188
-0.05865943432 -0.1843052059 0.6383216381 -0.1004500166 -0.6939595342 0.7103943825
-0.06880331039 -0.1781616807 0.6380167007 -0.2824161053 -0.6440933943 0.7103582025
-0.05613888428 -0.1755809039 0.6472465396 -0.1156276539 -0.7218147516 0.677688241
-0.06291278452 -0.1767274737 0.6451166272 -0.1889211982 -0.7065616846 0.679607749
-0.0692608133 -0.1670415998 0.65282166 -0.2997407615 -0.715642035 0.6259512901
-0.06539521366 -0.1715671867 0.6499873996 -0.2336873412 -0.7188441753 0.6541513801
-0.04660956934 -0.1680656821 0.6548269391 0.07634515315 -0.7510992289 0.653719008
-0.05346757174 -0.1705070883 0.6522768736 -0.03727211431 -0.7469926476 0.6595910788
-0.05073484406 -0.1642282903 0.6588678956 -0.01091651618 -0.7481235862 0.6548871398
-0.04484455287 -0.1628475487 0.6615672112 0.1127680838 -0.7567988634 0.6432833076
-0.03471109271 -0.1658382416 0.6549526453 0.2637409866 -0.7347640395 0.6245780587
-0.03914579377 -0.1686362475 0.6513832211 0.202270031 -0.730540514 0.6417421103
-0.04042493924 -0.1653332263 0.6574258804 0.1787591875 -0.7454128861 0.6381683946
-0.0868896544 -0.1673669517 0.639582634 -0.5445554256 -0.5752213001 0.6077976823
-0.08562850952 -0.1735498011 0.6349546909 -0.5136384964 -0.5564005971 0.6519575119
-0.09099786729 -0.1694901139 0.6348657608 -0.6045430303 -0.5251116157 0.5906685591
-0.09561239183 -0.1719353348 0.6305913329 -0.6630253196 -0.4956208766 0.5406826735
-0.09540095925 -0.1586254984 0.6367713213 -0.7035401464 -0.4807627201 0.5142270327
-0.01590177044 -0.07170578092 0.6043421626 -0.5868933201 -0.6113773584 0.5302869081
-0.07791825384 -0.08954490721 0.5738725662 0.4033950567 -0.6898300052 0.5966949463
-0.05824653804 -0.09281145036 0.5620732307 0.06075347215 -0.7087908983 0.6969358325
-0.05542198569 -0.09882386774 0.5576438904 0.005627585109 -0.6803414822 0.7322613001
-0.0574943237 -0.08767483383 0.5666404963 0.05380837247 -0.7327554822 0.6708992124
-0.06464207917 -0.09044726193 0.5652509928 0.2038959414 -0.7151676416 0.6681344509
-0.05160081759 -0.0885791555 0.5655871034 -0.06320276111 -0.7238023877 0.6829482317
-0.05013983697 -0.09250058979 0.5610591769 -0.103934072 -0.7027463913 0.6989813447
-0.04475939646 -0.09197574109 0.5644373894 -0.1733284891 -0.6938043237 0.6981388927
-0.05357141048 -0.08442417532 0.5705967546 0.005259170197 -0.7441229224 0.6632320881
-0.03968021646 -0.0868435204 0.5697243214 -0.258295387 -0.7000851035 0.6631045341
-0.04486476257 -0.08465208113 0.5718595982 -0.1860493571 -0.7233005762 0.6644562483
-0.03502737731 -0.09417438507 0.5683177114 -0.3432889879 -0.6491931677 0.6764391065
-0.09014229476 -0.09196534008 0.5811998248 0.5960965753 -0.6213196516 0.5085270405
-0.09362953901 -0.0921760574 0.5868917108 0.6078572869 -0.6101634502 0.5080808997
-0.08436315507 -0.07987097651 0.5915775895 0.5288097262 -0.6305584311 0.5621142983
-0.07877622545 -0.07392153144 0.5924856663 0.4331817627 -0.6818448305 0.5879021287
-0.009549835697 -0.1489961594 0.653121233 0.6521342993 -0.5809298754 0.4865283668
-0.009540644474 -0.1535921842 0.6456525922 0.6656782031 -0.5903967619 0.4514451325
-0.0137765659 -0.1557357907 0.6495345831 0.6108656526 -0.6245405078 0.484103322
-0.009483704343 -0.1589409113 0.6420924664 0.6863067746 -0.5676208138 0.4545637965
-0.02416249923 -0.1633240432 0.6499689221 0.4434902966 -0.684340179 0.5681854486
-0.01753106713 -0.1554067582 0.6543235779 0.5355867743 -0.6622988582 0.518553257
-0.01987798326 -0.1639824808 0.6457572579 0.5211057663 -0.6545692086 0.5376195908
-0.01920490339 -0.1603268534 0.6509631276 0.5221108794 -0.6681161523 0.5281279683
-0.0143912863 -0.160921514 0.6452756524 0.606782794 -0.6182171106 0.4913945496
-0.03086384013 -0.1608939618 0.6610640287 0.3339531422 -0.7279509306 0.5949162245
-0.03982520476 -0.1548757702 0.6692271829 0.1799167246 -0.7388839126 0.6433007121
-0.03248651326 -0.156006068 0.6667302251 0.3073821664 -0.7168109417 0.622159481
-0.03687013686 -0.1613081992 0.6617506742 0.231738463 -0.7456909418 0.6241090894
-0.07966012508 -0.1488292366 0.6652359962 -0.5102772117 -0.6608438492 0.5491170287
-0.09450755268 -0.1353496909 0.6638714075 -0.6655704975 -0.5529662967 0.4995786548
-0.08485152572 -0.1443039775 0.6665479541 -0.6019999385 -0.6017221808 0.5232115388
-0.06015089154 -0.1538776755 0.6721234918 -0.1413189173 -0.7569614649 0.6305975914
-0.05350248516 -0.1533353031 0.6720666885 -0.02272636816 -0.7612572312 0.6444271803
-0.05282339081 -0.1610184163 0.6638797522 -0.02074086107 -0.7636401057 0.6410714388
-0.04706123471 -0.1590289772 0.6663606167 0.07708080858 -0.7552232146 0.6485286355
-0.05839658901 -0.1577934772 0.666780293 -0.116958864 -0.7661842108 0.6253373623
-0.06261583418 -0.1618396342 0.6622222066 -0.1939770877 -0.7393618226 0.6417575479
-0.06701917946 -0.1545710266 0.6681231856 -0.2812722623 -0.7362173796 0.6066531539
-0.07052575797 -0.1587063223 0.6606963277 -0.342946142 -0.7073355317 0.6068360209
-0.006950798444 -0.06684650481 0.624640882 -0.6294864416 -0.5584636331 0.5373546481
-0.05746466294 -0.06076702476 0.5996240377 0.1155895516 -0.7716067433 0.6211934686
-0.04383467138 -0.06858444214 0.5898984075 -0.1662819833 -0.7322206497 0.6555274129
-0.03693034127 -0.07073424011 0.5904833078 -0.2751181126 -0.7163313031 0.6353282332
-0.03730215132 -0.06671245396 0.59437114 -0.2735544443 -0.7180297375 0.6368772984
-0.04292638972 -0.07343056053 0.5852999687 -0.2011137009 -0.7322064042 0.6479356885
-0.03565496579 -0.07515775412 0.586156249 -0.3169050813 -0.7130643725 0.6242467165
-0.04898525402 -0.06519930065 0.5924322009 -0.06871736795 -0.7541385889 0.6498810053
-0.03308067843 -0.05920410529 0.6050378084 -0.3355240822 -0.7152386308 0.6098038554
-0.02411385067 -0.05881310627 0.6121470332 -0.480956614 -0.6652468443 0.5702257752
-0.03171144426 -0.05442673713 0.611176908 -0.3601195216 -0.7248438597 0.5840021372
-0.07664687932 -0.06521712989 0.6002973318 0.3867278099 -0.710526228 0.5862957835
-0.07614446431 -0.06855078042 0.5957510471 0.3851209879 -0.7020431757 0.5976306796
-0.08316940814 -0.05292068794 0.6208115816 0.4551670253 -0.7329677343 0.5051009655
-0.09107207507 -0.08122341335 0.5960235596 0.5931146741 -0.607589066 0.5278285146
-0.09125227481 -0.07631649822 0.6005197167 0.5802925825 -0.6144078374 0.5340476632
-0.0855108723 -0.07494021952 0.5966829062 0.5257285237 -0.6407663822 0.559166491
0.005246750079 -0.1572185308 0.6071828604 0.8840597868 -0.345605433 0.2900141776
0.004616908729 -0.1573859602 0.6139431596 0.772163868 -0.4847895503 0.410138458
0.004475096241 -0.1631188691 0.6061822176 0.7789849043 -0.4748443663 0.4028265476
0.005125774071 -0.1517443955 0.6187184453 0.8072479963 -0.4428210855 0.3719468415
0.001518724486 -0.1636594683 0.61359936 0.7774693966 -0.4743264914 0.4129377902
0.002431309316 -0.1139401793 0.5897957683 -0.3424134254 -0.7927698493 0.4664971232
0.002057359088 -0.1058987156 0.5986340046 -0.5295901895 -0.7258386612 0.4175559878
-0.00569008477 -0.1617509127 0.6291402578 0.7334941626 -0.5099656582 0.4480771422
-0.00381327956 -0.1558209062 0.6337675452 0.7226746082 -0.5304654241 0.4426625073
-0.0002112861548 -0.1504225433 0.6332105398 0.7318766713 -0.526573658 0.4303703308
0.002548720688 -0.1509009749 0.6262536049 0.765506506 -0.4909210205 0.4144878387
-0.002145801671 -0.1563376635 0.6263299584 0.7698674202 -0.4785268009 0.4213348627
-0.06903519481 -0.08018645644 0.5804207921 0.2897182107 -0.7281193137 0.6205562949
-0.06223705038 -0.0795840919 0.5791318417 0.1630059332 -0.7378947139 0.6403388381
-0.05039303377 -0.0744491294 0.5828089714 -0.05854887515 -0.7468339801 0.6550252438
-0.05520504713 -0.07773701847 0.5789968967 0.03370298818 -0.7495823503 0.6603410244
-0.08084075898 -0.1781391799 0.635366559 -0.453016758 -0.5890551805 0.6673635244
-0.07505571097 -0.165773049 0.6507591605 -0.394438237 -0.6884337068 0.6078341007
-0.06936056167 -0.1722178161 0.6447786689 -0.3338660896 -0.6773623824 0.652449429
-0.07458247989 -0.1907010525 0.6304211617 -0.3288804293 -0.6176198125 0.7127385736
-0.07335448265 -0.1759180129 0.6418366432 -0.3509424329 -0.6519760489 0.6697999835
-0.06531760097 -0.182129249 0.6396682262 -0.1991692334 -0.6736644506 0.7090598345
-0.07447781414 -0.1794112176 0.6352880001 -0.3700411916 -0.6038869023 0.7041842341
-0.02455465309 -0.185189575 0.629856348 0.4687594771 -0.6452467442 0.6020706892
-0.01554304827 -0.1805823743 0.6246476769 0.6209860444 -0.5754432082 0.5310348868
-0.01225555316 -0.07054261863 0.6105363369 -0.6268998384 -0.5770352483 0.5222509503
-0.01849273965 -0.05902730674 0.6165192127 -0.5225901008 -0.6446257234 0.5578225851
-0.01506585721 -0.0649857372 0.6141214371 -0.5972396731 -0.5976430774 0.5346989632
-0.01089436468 -0.06754989177 0.617927134 -0.651406467 -0.5602541566 0.5096386671
-0.01585582085 -0.05519425124 0.6238769889 -0.5650633574 -0.6456737518 0.5128003359
-0.02149489522 -0.05365218967 0.6213449836 -0.5081588626 -0.653881669 0.5583930612
-0.01644096337 -0.08373322338 0.5906553268 -0.5940703154 -0.5997436643 0.5343343616
-0.01666666567 -0.07850911468 0.5954954624 -0.5875023603 -0.6018885374 0.5403904915
-0.0403066501 -0.05808601528 0.6041395068 -0.2114299983 -0.7517662644 0.6176792979
-0.04347094521 -0.0640597716 0.5956912637 -0.1767731756 -0.7469444275 0.6388239264
-0.03839851171 -0.06200233474 0.5995615125 -0.2576560676 -0.7319527864 0.6283191442
-0.05560448766 -0.06480623037 0.5928007364 0.05275281519 -0.7628529072 0.6423447132
-0.06266581267 -0.06548504531 0.5936488509 0.1906099916 -0.7459217906 0.6324223876
-0.05828396231 -0.06864479184 0.5888535976 0.09920492023 -0.7456767559 0.6502895355
-0.06898402423 -0.06700820476 0.593587935 0.2805956304 -0.7270289063 0.6211415529
-0.06435647607 -0.07079552114 0.5877511501 0.2115455568 -0.7386825681 0.6384258866
-0.05736511946 -0.07336684316 0.5836536288 0.07811258733 -0.7498953342 0.6530921459
-0.06439417601 -0.07480785996 0.5838999152 0.2127791047 -0.7422226071 0.6351336837
-0.07752984017 -0.09841986001 0.5649977922 0.3947577775 -0.6589480042 0.6207857132
-0.08222135901 -0.09820630401 0.5686502457 0.4667060375 -0.6624690294 0.5780641437
-0.07045333087 -0.093574889 0.5656461716 0.280213207 -0.6994609833 0.6461128592
-0.07821291685 -0.09365618974 0.5690087676 0.3960727155 -0.6742294431 0.6211064458
-0.07833398879 -0.08186160028 0.582382381 0.4170467556 -0.6978519559 0.5796676874
-0.08045967668 -0.07939415425 0.5874606967 0.4629170299 -0.6704732776 0.5784425735
-0.08347796649 -0.08409163356 0.5852761865 0.538104713 -0.638307035 0.5446110368
-0.07416109741 -0.07821821421 0.5851870775 0.3654111028 -0.7049114108 0.6052796245
-0.02441141568 -0.1544320881 0.6629417539 0.4177221358 -0.695420444 0.5830898285
-0.02786527947 -0.150902003 0.6688503027 0.3405362368 -0.7004278302 0.6221055984
0.0003833255032 -0.1120174751 0.5840660334 -0.3320372701 -0.7635707259 0.5243573189
-0.001150768134 -0.1058370918 0.5794132948 -0.3907146752 -0.5882205963 0.6533626318
-0.0111927921 -0.09863390774 0.5820437074 -0.610848546 -0.5826331377 0.5336979628
-0.05936793238 -0.08255410194 0.5732932687 0.1237778291 -0.7467601895 0.6480401158
-0.07240314782 -0.08821807802 0.5719026327 0.3176252246 -0.7117026448 0.6211704612
-0.06661818177 -0.08481921256 0.5723004341 0.2421783507 -0.7262954712 0.6409265399
-0.07192255557 -0.08365321159 0.5763821006 0.3197937012 -0.7156950831 0.6164578199
-0.00573007809 -0.1653048545 0.6243676543 0.7500729561 -0.4841330647 0.4499003291
-0.01349864528 -0.1695672274 0.632664144 0.6456510425 -0.5540072918 0.5191087127
-0.0483206436 -0.1745647788 0.6481869817 0.04827036336 -0.7293165326 0.6739761829
-0.0566781871 -0.1791874319 0.6411787271 -0.070238702 -0.6889545918 0.7006080151
-0.04679035023 -0.1782610863 0.644092679 0.08472251892 -0.7163843513 0.6872364283
-0.04257996008 -0.1737742871 0.6480201483 0.1725697517 -0.7230257988 0.6668460965
-0.01941410825 -0.1727010012 0.6346994638 0.560005188 -0.5964435339 0.5531212687
-0.02307073772 -0.1684756428 0.6460433602 0.4648233652 -0.662044704 0.5835451484
-0.02122807503 -0.1715256721 0.6414270401 0.5004484653 -0.639467299 0.5801623464
-0.01725964062 -0.1668331623 0.6372570992 0.5960749984 -0.5812791586 0.5195444226
-0.02588741481 -0.1749694943 0.6363550425 0.4454618692 -0.6307892203 0.6043127775
-0.02782240883 -0.1729719937 0.6435835361 0.3995595276 -0.6704210639 0.6209276915
-0.03012508899 -0.1688449979 0.6494753957 0.3480590582 -0.6995488405 0.6173580885
-0.01887689158 -0.07474552095 0.6002367139 -0.5677075982 -0.6205532551 0.5293223262
-0.01383969281 -0.07862578332 0.6018486619 -0.6463653445 -0.5810385942 0.4823316038
-0.02339877002 -0.07508870959 0.5941625834 -0.4850094914 -0.6585345864 0.5732547045
-0.02564278618 -0.06993313879 0.5973789692 -0.450422287 -0.6658755541 0.5896351337
-0.03088973276 -0.07129580528 0.5934938788 -0.3736557662 -0.6922605038 0.609423399
-0.02055553161 -0.06404532492 0.6101022959 -0.5294756293 -0.6341873407 0.5595961213
-0.02266602218 -0.06878139824 0.6026432514 -0.5166323781 -0.645819962 0.5612503886
-0.03083353862 -0.06423970312 0.6016782522 -0.3747860193 -0.696269691 0.6042109728
-0.02592227422 -0.06287354976 0.6067730188 -0.457118392 -0.667201519 0.5821576118
-0.07079095393 -0.06346869469 0.5996294022 0.3279688358 -0.7306523323 0.5971720815
-0.01733889058 -0.08833858371 0.5850103498 -0.5862162709 -0.6038697958 0.5381772518
-0.02078770287 -0.08992802352 0.580750823 -0.5469996333 -0.6141095161 0.5670387149
-0.02504543215 -0.0912777856 0.5749845505 -0.4667496979 -0.6295585036 0.6200351715
-0.004006438423 -0.09644716978 0.5841065645 -0.4806548953 -0.5884800553 0.5778414607
0.01130749378 -0.09865675867 0.5832328796 -0.08235370368 -0.5306252837 0.7887908816
-0.03184207529 -0.1008079797 0.5649309158 -0.3909205496 -0.6099136472 0.6836393476
-0.01510738768 -0.1032035127 0.5726078749 -0.5769394636 -0.5625206828 0.5912233591
-0.02148669958 -0.1022661254 0.5670489073 -0.5143516064 -0.5714483857 0.6358778477
-0.007430038415 -0.1065489724 0.5777465701 -0.5288990736 -0.6119711995 0.5787172318
0.004184528254 -0.09860505164 0.5804808736 -0.1902383566 -0.5348149538 0.7508164048
-0.007157885004 -0.09993363172 0.5770180821 -0.4220511317 -0.5515121818 0.6531203985
-0.0207782872 -0.09685986489 0.5737124681 -0.5104842186 -0.5993862748 0.6128049493
-0.0179201588 -0.09508628398 0.5786958933 -0.5658103824 -0.5955437422 0.5693188906
-0.03592141718 -0.1732358038 0.6465988755 0.2614298761 -0.707418859 0.6553738117
-0.03257304803 -0.1755802184 0.6414250731 0.3192770779 -0.686537683 0.652287662
-0.02655133978 -0.08432432264 0.5810146332 -0.4437242746 -0.6593809724 0.6062486172
-0.0277574826 -0.07517151535 0.590195775 -0.4218260646 -0.6772906184 0.6021004319
-0.0261937473 -0.08049719036 0.5859698653 -0.444653213 -0.6694884896 0.5938660502
-0.03147338703 -0.07888446003 0.5847693682 -0.3766523004 -0.69458884 0.6082361341
-0.006066159811 -0.09958837926 0.5886051059 -0.6114735007 -0.6215391159 0.4748105407
-0.006162918638 -0.1043636948 0.5838143229 -0.5402456522 -0.6605847478 0.5069698691
0.001113791019 -0.1006363407 0.6025797129 -0.619879961 -0.6726145744 0.3958055675
-0.002525429241 -0.09899254888 0.5954859257 -0.6238468885 -0.6439443231 0.4259116352
-0.0007513963501 -0.1056957617 0.591127336 -0.5033913851 -0.7356626987 0.4470136166
-0.0397098884 -0.1778921485 0.643453002 0.2105629146 -0.7003619671 0.6806226373
-0.03763815388 -0.1807092428 0.6383629441 0.2302773595 -0.6897267699 0.6749365926
-0.04407572001 -0.1823994815 0.6396472454 0.1095431149 -0.7094947696 0.6924648881
-0.03725481778 -0.1866727173 0.6345741749 0.2258395553 -0.7054699063 0.6699681282
-0.02962083369 -0.1839454174 0.6336762309 0.3879610598 -0.6571201682 0.6380543709
-0.03315989673 -0.1907421798 0.6296146512 0.3165926635 -0.7272972465 0.6061736941
-0.04342886433 -0.187335819 0.6355571747 0.1210642755 -0.7057221532 0.6951810718
