# .PCD v0.7 - Point Cloud Data file format
VERSION 0.7
FIELDS x y z normal_x normal_y normal_z
SIZE 4 4 4 4 4 4
TYPE F F F F F F
COUNT 1 1 1 1 1 1
WIDTH 512
HEIGHT 1
VIEWPOINT 0 0 0 1 0 0 0
POINTS 512
DATA ascii
-0.07563111931 -0.05020276457 0.6893875003 -0.7106170058 0.4366147816 -0.5498425364
-0.07962123305 -0.0622821413 0.6930186152 -0.7500880361 0.4142936468 -0.5141732693
-0.08080339432 -0.06492107362 0.6983469725 -0.7558346987 0.4132089615 -0.5074542165
-0.06186101213 -0.1226941794 0.7379848361 -0.5868245363 -0.4843191803 0.6456391811
-0.06686747074 -0.1270970255 0.7313750982 -0.6628746986 -0.4398207963 0.5981202722
0.02962930501 -0.06746656448 0.6280806661 -0.3141992986 0.1352019906 -0.8064072132
-0.07432451844 -0.06008329242 0.6862558126 -0.7392201424 0.4163560569 -0.5278898478
-0.07472985983 -0.04975487664 0.6960072517 -0.7038270235 0.4504694045 -0.5481616259
-0.07044617832 -0.04537300393 0.6897358894 -0.6616638303 0.4718332887 -0.5773863792
-0.0618532598 -0.04425377771 0.6858838797 -0.580958724 0.5190608501 -0.6195936799
0.01979660615 -0.06016337499 0.6281974316 -0.6734852195 0.3056025803 -0.6664064527
0.02404365689 -0.06656428427 0.6278098226 -0.4200432003 0.184878692 -0.7406124473
-0.07293983549 -0.05753555149 0.6917763352 -0.7336058021 0.4211914539 -0.533049345
-0.07786659151 -0.06051979214 0.7015169859 -0.7403083444 0.4218130112 -0.5232233405
-0.07591914386 -0.05517056212 0.6989018917 -0.7313759327 0.4252246022 -0.5324507952
-0.07281711698 -0.08090142906 0.6687839031 -0.7070149183 0.4725453258 -0.5257250667
-0.07013124973 -0.08333087713 0.6637744904 -0.6946958899 0.478340596 -0.5370650887
0.03241339698 -0.1456475854 0.6934840083 0.782494545 -0.4046097696 0.4731486738
-0.02952146716 -0.126796186 0.7528895736 -0.1157880425 -0.5478531122 0.8237810135
-0.01153404824 -0.1780011654 0.7145572305 0.1852312088 -0.5721952319 0.7967873812
-0.01809525862 -0.1813713461 0.7142391205 0.07708287984 -0.5762839317 0.8053702116
-0.07838436216 -0.06930327415 0.6952443123 -0.7629032731 0.4095433056 -0.4997286499
-0.07523525506 -0.06673310697 0.6897552609 -0.7572089434 0.4101213217 -0.5074626207
0.0315271318 -0.07255226374 0.6522407532 0.2582308054 0.2034098655 -0.5813114643
0.03145593777 -0.06694808602 0.6449205875 -0.2895809412 0.3147212267 -0.5375642776
0.02974302135 -0.07116126269 0.6405266523 0.2628433406 -0.03375515342 -0.6164966226
0.02840942517 -0.07123153657 0.6331413984 0.3759189844 -0.2351935953 -0.6518296003
0.01858410053 -0.07113833725 0.6278874874 -0.07802974433 -0.03428227827 -0.7885929346
0.02250209637 -0.05395343527 0.6315842867 -0.7885814309 0.2811842263 -0.5275809169
0.02685275115 -0.06111637875 0.6291568875 -0.6394176483 0.2759854794 -0.6905764341
-0.001545397914 -0.03808754683 0.6779510379 0.1572619379 0.6156603694 -0.7713617682
0.03323798254 -0.09107135981 0.6716729999 0.72720474 0.4087324739 -0.5512684584
0.03325967118 -0.08796045929 0.6776252985 0.7171642184 0.4141415656 -0.5603181124
0.03291381896 -0.0850507468 0.6688202024 0.7403827906 0.3867086172 -0.5433773398
0.0301660262 -0.07717568427 0.6485154629 0.6590837836 -0.03972384334 -0.6273672581
0.02907840535 -0.07680689543 0.6412743926 0.6464778185 -0.171203658 -0.642374754
0.03085182421 -0.08235481381 0.6542127132 0.7040933967 0.1048185453 -0.5837456584
0.02991877683 -0.08909300715 0.6496143341 0.7461332679 0.07992941886 -0.5479049683
0.03191299364 -0.08175808936 0.6610589027 0.7092262506 0.221181795 -0.5757085085
0.02935377136 -0.08513951302 0.6449922323 0.7113995552 -0.03524871916 -0.5816790462
-0.06427880377 -0.05314836651 0.6828366518 -0.6702198386 0.4611033797 -0.579067409
-0.06904000044 -0.05266040936 0.6884279251 -0.709225893 0.4328649044 -0.5560177565
-0.0187502373 -0.09706933796 0.6267401576 0.07055252045 0.5528572798 -0.8185620904
-0.01026150119 -0.1005688682 0.6281902194 0.1570379883 0.4532168508 -0.8598944545
-0.02314492315 -0.1005266607 0.6238420606 -0.03295895457 0.474732101 -0.8672356606
-0.004134541843 -0.1017384157 0.6255940199 0.2139019519 0.3958301246 -0.8876360655
-0.008644472808 -0.1015607864 0.6199433804 0.1285754591 0.3861197829 -0.9054294825
-0.01655101962 -0.1001795381 0.6217628717 0.04661312699 0.443051368 -0.8813722134
-0.06680691987 -0.10857784 0.64537853 -0.6218588948 0.444691658 -0.6442435384
-0.08008839935 -0.148510918 0.6849975586 -0.8530884981 -0.3257226348 0.4075799882
0.03162075579 -0.1423417032 0.6787711978 0.775672555 -0.2623615265 0.2460207045
0.03058642708 -0.1312171221 0.6676742435 0.7676224709 -0.03729188442 -0.1054511294
0.03130609915 -0.1384164095 0.6734544635 0.7697950602 -0.1646624804 0.09075366706
0.03102571331 -0.1253238022 0.6649650931 0.793299675 0.03501200303 -0.2215342075
0.032402426 -0.1487555951 0.6804736257 0.7704876661 -0.3309412599 0.3439305127
0.0311479941 -0.1142366678 0.6590415835 0.8244365454 0.1855390221 -0.4579765797
-0.05755728111 -0.1223288029 0.7452380657 -0.4969311059 -0.5106965899 0.6911443472
-0.05576865748 -0.1200248301 0.739118278 -0.5342945457 -0.5025867224 0.6726648211
-0.006660849787 -0.1346601844 0.7437998652 0.2499032915 -0.5981749296 0.7466922998
0.002644137479 -0.1293290555 0.7431860566 0.3756879568 -0.5729547143 0.7264739275
-0.01314180158 -0.1326234639 0.7479624748 0.1248943955 -0.6024481058 0.785656631
-0.02377671562 -0.1388231665 0.744448185 -0.02374917455 -0.6120135784 0.788790822
-0.01772084087 -0.1417615861 0.741926074 0.08080019057 -0.6319668889 0.7679118514
-0.02089918032 -0.1339202523 0.7482094765 0.003775277175 -0.5964081287 0.8000565767
-0.04841195419 -0.1261270642 0.7371703386 -0.441075772 -0.5343710184 0.6900763512
-0.03344647214 -0.1366021335 0.7422723174 -0.1870718449 -0.5952863693 0.7603951097
-0.03950460628 -0.1330857724 0.7401027679 -0.2889674604 -0.5744811296 0.7321773767
-0.02736116573 -0.1326252371 0.7470129728 -0.08699125797 -0.5793153644 0.7951493859
-0.03229857236 -0.1275274754 0.7469956875 -0.1658040881 -0.553471148 0.7800596952
-0.04188049585 -0.1233232543 0.7426988482 -0.3285530806 -0.5263875127 0.7318295836
-0.03813460842 -0.1246749833 0.7492336035 -0.2710204422 -0.5243952274 0.7875187397
-0.07151333988 -0.1602073014 0.6951754689 -0.7896473408 -0.3604334295 0.4922131896
-0.07825592905 -0.1542769372 0.6878021359 -0.8457813263 -0.3246158659 0.4214489758
-0.05853561684 -0.09904420376 0.6378803253 -0.5574411154 0.4577088654 -0.6910542846
-0.05267991126 -0.09518446773 0.6354163289 -0.4730173647 0.4743901789 -0.7412512898
-0.04609004408 -0.0880676657 0.6362830997 -0.3949903548 0.5390467048 -0.7425707579
-0.04801111668 -0.09871001542 0.6311513186 -0.4303184748 0.4842179716 -0.7596850395
-0.05373206362 -0.1014406681 0.6337147355 -0.4959168434 0.4456993937 -0.7443181276
-0.07026730478 -0.06029140949 0.6798076034 -0.70236063 0.4508697689 -0.5498594046
-0.07103830576 -0.05464022234 0.6822637916 -0.6958628893 0.4539277852 -0.5557858944
0.01231476665 -0.07586290687 0.6275606155 -0.4476376176 0.1511383057 -0.865557313
0.004298343789 -0.08638995886 0.6242745519 -0.2185883224 0.2631404698 -0.8697123528
-0.0002445216232 -0.09645436704 0.6209946275 0.05994216725 0.2885095179 -0.9145879745
-0.002163795754 -0.09079735726 0.6246747971 -0.06355784088 0.369163245 -0.855720818
-0.001821821555 -0.08346618712 0.6288999319 -0.20056656 0.3973187506 -0.8097703457
-0.009756138548 -0.09434749186 0.6265546679 0.120796293 0.498852402 -0.8353577852
0.005817427766 -0.07950592041 0.6272417307 -0.3930268586 0.2686687112 -0.8277221322
-0.007789711002 -0.082404688 0.6319818497 -0.07430443913 0.483348757 -0.8011566997
-0.00393184647 -0.04381910712 0.672388792 0.1958351135 0.5987118483 -0.7766103148
0.001550158602 -0.04605746269 0.6730497479 0.2146496475 0.5841385126 -0.7821398973
0.008134584874 -0.04124908149 0.6809490919 0.2011942118 0.5651443601 -0.7999744415
0.01050335914 -0.04718502611 0.6759722829 0.1706249267 0.575491786 -0.7989356518
0.01308056805 -0.04781931266 0.6679618955 -0.4544659853 0.2513478398 -0.7494127154
0.01634712517 -0.05609827861 0.6704676747 0.09325300157 0.4774625599 -0.7430198193
0.02357321233 -0.06577830762 0.6718549132 0.3736742139 0.4701307416 -0.6770157814
0.03142312542 -0.05262125656 0.6422488689 -0.650752902 0.2591752112 -0.4045021534
0.01793604344 -0.05223025382 0.6658840179 -0.4640268981 0.1077616215 -0.6317147017
0.02647108026 -0.06434158981 0.6669272184 0.04543768987 0.2621854544 -0.5823125243
0.02707664855 -0.05097354203 0.647813499 -0.67107898 0.202862367 -0.4656197131
0.03052762151 -0.06614728272 0.6620950699 0.07858011127 0.3160652518 -0.5274031162
0.020036906 -0.04897383973 0.6577284932 -0.6686077714 0.1149603277 -0.5699307323
0.02892296389 -0.05866927281 0.6548846364 -0.2923485339 0.2613407373 -0.4953140616
0.03138748184 -0.05747641623 0.6488606334 -0.3933542967 0.2827634811 -0.443736732
0.02397412248 -0.05015863851 0.6522727013 -0.6664773822 0.1644505262 -0.512119472
0.02593664825 -0.05985895172 0.6618391275 -0.183486551 0.2341190428 -0.5557769537
0.03311797231 -0.07616350055 0.6709627509 0.5686281919 0.3942527175 -0.5628522038
0.03257596865 -0.06477016211 0.6565681696 -0.02577368356 0.3319651783 -0.481466949
0.01633948088 -0.04709289595 0.6618157625 -0.711253643 0.06468904763 -0.6181087494
0.03196119517 -0.07177887857 0.6671218276 0.3544600308 0.3597727716 -0.5477244854
0.02441100031 -0.05480167642 0.6577519178 -0.4275672138 0.1922280639 -0.5415970683
0.02229805849 -0.05801000446 0.6658641696 -0.2253445238 0.1846579313 -0.6032047272
-0.02768028155 -0.1744380742 0.7151011825 -0.08332758397 -0.5411800146 0.8336119056
0.0233558137 -0.08239581436 0.6655474305 0.6754590273 0.4124987721 -0.6005949974
0.02712038346 -0.08219777048 0.6720172167 0.6860769987 0.4160573483 -0.5902471542
0.01250246912 -0.06753860414 0.6625810862 0.5303432941 0.4252096713 -0.7326228023
0.02268755436 -0.07628837973 0.6713986397 0.629057765 0.4140461683 -0.647361517
0.01673343591 -0.06927037984 0.6671025157 0.5626047254 0.4325620234 -0.696667552
0.03273761645 -0.07085835934 0.6581741571 0.1116506532 0.366951555 -0.5184838176
0.03152149916 -0.06118142232 0.6413636804 -0.5632476211 0.3091570735 -0.4439378083
-0.05412806198 -0.05100674182 0.6752948165 -0.5106261969 0.5554717183 -0.6489790678
-0.05716225877 -0.04628643766 0.6812853813 -0.5473188162 0.5322809219 -0.6444621086
-0.06169764325 -0.04940223321 0.678597331 -0.5818254948 0.5317368507 -0.6055924296
-0.0669176504 -0.04757934809 0.6824199557 -0.6306170225 0.4952141941 -0.588138938
-0.01582720876 -0.08757794648 0.6333975196 0.1017188579 0.6099088788 -0.7834637165
-0.03074237145 -0.07632607967 0.6411517859 -0.1231280416 0.6413062215 -0.7540099621
-0.04041168094 -0.0774409622 0.6434087753 -0.2867705822 0.6152833104 -0.7290501595
-0.03710931912 -0.09750062227 0.6266230941 -0.2410372496 0.5265133977 -0.8083603382
-0.03153552487 -0.0989402011 0.6250658631 -0.1502366662 0.5099859834 -0.8418520093
-0.02492865734 -0.0938635394 0.6255285144 0.000322492735 0.5711085796 -0.8202179074
-0.004797024652 -0.1769676208 0.7131009698 0.3016170859 -0.5670673251 0.7622917891
0.003240269842 -0.1738702357 0.7102386355 0.454854995 -0.5380048752 0.707849443
-0.04516649246 -0.1373402774 0.7385815382 -0.4113642573 -0.5543518066 0.7067238688
-0.04820913821 -0.1425025612 0.7337446213 -0.4611488879 -0.5628044009 0.6839538813
0.02951432578 -0.1442941129 0.6845672727 0.7823114395 -0.3360199332 0.3655815721
0.02975328639 -0.1330943555 0.6747286916 0.7908208966 -0.1352909207 0.05055979639
0.03189393133 -0.1538584232 0.6853793859 0.7717189193 -0.4184109569 0.4789111018
0.03294872493 -0.1298926324 0.6834642887 0.8024403453 -0.1956481338 0.1452087313
0.03209365532 -0.1225222349 0.6722981334 0.8166233301 -0.02116733976 -0.1313103437
0.03115456924 -0.1369751245 0.6834080219 0.7966086864 -0.2604193389 0.24589248
0.03335307539 -0.1335447133 0.6885156631 0.795729816 -0.2779290974 0.2755316198
0.03279038519 -0.1409996748 0.688339889 0.789247632 -0.3507974446 0.3890742958
0.0326741524 -0.1259240955 0.6780557632 0.809628129 -0.1076288149 0.005829221103
-0.06750591099 -0.09521278739 0.6483954787 -0.637398839 0.4566369057 -0.6203431487
-0.06186245754 -0.09730372578 0.6449069977 -0.6034784317 0.4625827968 -0.648427546
-0.06079535559 -0.08958856016 0.6464099884 -0.6084973216 0.4710606039 -0.6378363967
-0.06694677472 -0.1013915464 0.6441877484 -0.6330401301 0.4413049817 -0.6358284354
-0.06190928817 -0.1073081344 0.6408696771 -0.5812781453 0.4422947168 -0.6804215908
-0.05752494186 -0.09394259751 0.6403110623 -0.5506788492 0.4750795662 -0.6860583425
-0.04692516103 -0.1316670179 0.744440794 -0.418182075 -0.5428661108 0.7277753353
-0.05248504132 -0.1253675371 0.7441568971 -0.4899855852 -0.5257926583 0.694206357
-0.0005496783415 -0.1349346638 0.7425125241 0.3383016586 -0.5936861634 0.7252785563
-0.01677449606 -0.1274527013 0.7529441714 0.04094936326 -0.5730461478 0.8177062273
-0.003623285098 -0.1279340684 0.7486771345 0.2465857714 -0.5862795115 0.7690774798
-0.0705499351 -0.1076192632 0.6506639719 -0.6489775181 0.4210092127 -0.5931687951
-0.07173532248 -0.1205987707 0.6623558402 -0.7261236906 0.1053230539 -0.1854958087
-0.07534074038 -0.1197130606 0.667160809 -0.7521294951 0.07392504066 -0.1273443103
-0.07606041431 -0.1278586686 0.6742532253 -0.7993484735 -0.1208965629 0.1239171401
-0.06730348617 -0.1140371338 0.6485993266 -0.6450017691 0.3485530317 -0.5199685097
-0.07565207034 -0.1282245368 0.6606520414 -0.7347120643 0.06420308352 -0.1307820976
-0.07483073324 -0.1261118203 0.6682688594 -0.7666450739 -0.02363535017 -0.009641635232
-0.07854429632 -0.1320609003 0.6780703664 -0.8271094561 -0.2085378617 0.2438948154
-0.07223753631 -0.1141673476 0.6531462669 -0.6730155349 0.3178851306 -0.4599773288
-0.08130975813 -0.1366547197 0.6674665213 -0.787240088 -0.09486013651 0.08958143741
-0.07479348034 -0.1091248319 0.655240953 -0.6783930063 0.3681642711 -0.5084036589
-0.07976249605 -0.1307542175 0.6646720767 -0.7628939152 0.005767435301 -0.04103983939
-0.07880177349 -0.1226811036 0.6621852517 -0.7373896241 0.1327983141 -0.2009139061
-0.07617308944 -0.1179653183 0.6583428383 -0.7085331082 0.226041913 -0.3279947639
-0.0763098076 -0.1030999646 0.6572710872 -0.6757001281 0.4356396198 -0.5793288946
-0.08471637219 -0.1371750534 0.6745042801 -0.8228701949 -0.1695590019 0.2047240883
-0.08294138312 -0.130640164 0.6737137437 -0.8052488565 -0.08751573414 0.1007895991
-0.08038036525 -0.1138621941 0.6663137078 -0.7351109385 0.217799291 -0.2866502702
-0.08653623611 -0.1442695856 0.6756506562 -0.843336761 -0.2637096345 0.3240318894
-0.07939229161 -0.1084353775 0.664349854 -0.7144168019 0.3089784384 -0.4023187757
-0.080495812 -0.123371549 0.6741024852 -0.791526854 -0.01861261576 0.01365697384
-0.08210057765 -0.1230202615 0.6673862934 -0.7607075572 0.09302491695 -0.1316438019
-0.07194400579 -0.155983448 0.7024214864 -0.7814260721 -0.3769534826 0.4938259125
-0.07197616994 -0.1519000679 0.707598567 -0.7561870217 -0.3919425309 0.5213742852
-0.06772845984 -0.07730511576 0.6661108136 -0.6820026636 0.4906948805 -0.540974021
-0.06777697057 -0.06650817394 0.6758623123 -0.7024028301 0.4622535706 -0.5391857028
-0.07371079177 -0.06617443264 0.6835670471 -0.7450250983 0.4134713411 -0.5229082704
-0.07368598878 -0.07220952958 0.6818996668 -0.762247622 0.4081514776 -0.500505805
-0.06945833564 -0.07352039218 0.6713195443 -0.7072741985 0.475779742 -0.5224929452
-0.07421033829 -0.07687580585 0.6745764613 -0.7260614634 0.4611515403 -0.5097587109
-0.07982143015 -0.06947912276 0.687936604 -0.7616502643 0.411038816 -0.5005124807
-0.06370288134 -0.0605645068 0.6756976843 -0.6499226093 0.4803864956 -0.5868179202
-0.06003048271 -0.05597264692 0.675583899 -0.5937745571 0.509953618 -0.619776845
0.03358520195 -0.09733838588 0.6698862314 0.7420074344 0.3903020918 -0.543864727
0.03295204043 -0.1023531854 0.663875401 0.7610931993 0.3654191494 -0.5351879597
0.028463725 -0.09096512198 0.6658675075 0.7245734334 0.4120482802 -0.5524163842
0.02606425434 -0.09378806502 0.6596916914 0.7375096679 0.3930955231 -0.5486072898
0.02787278593 -0.1115553677 0.6520320177 0.7825136185 0.2230891287 -0.5773968697
0.02655071765 -0.1057696864 0.6528640389 0.8119367361 0.2212778479 -0.5367466211
0.02446390875 -0.1079080105 0.64716506 0.7814577818 0.1807176173 -0.5953117013
0.03179709241 -0.1065932661 0.6592792869 0.8190432787 0.250136584 -0.511847198
0.02806305513 -0.09973261505 0.6587969661 0.7845549583 0.3100327253 -0.5263563991
-0.02323545143 -0.07994241267 0.6405424476 -0.03544352204 0.6330352426 -0.756693244
-0.02352300286 -0.0836546272 0.6351128817 -0.003432414029 0.6210676432 -0.7790911794
0.0189450942 -0.04402378574 0.6388252974 -0.8709418774 0.2535793483 -0.4167128503
0.02342234738 -0.04765963927 0.6361667514 -0.8817311525 0.2430001795 -0.397389859
0.01506834477 -0.06315023452 0.6682693958 0.3990750909 0.5165123343 -0.7331477404
0.03001477011 -0.07970151305 0.67912817 0.6621865034 0.4305894673 -0.590552032
0.01875125989 -0.06211919338 0.6736286879 0.3116753995 0.5345759988 -0.7290332317
0.02736594155 -0.0710061267 0.6727321744 0.5278819203 0.4698063433 -0.6429142952
0.008842239156 -0.05273580179 0.6701890826 0.2279019803 0.5735356808 -0.7853512764
0.03236376122 -0.06423099339 0.6507499814 -0.2470036745 0.3316829503 -0.4358174205
0.03138333932 -0.0543971099 0.6364914179 -0.8507549763 0.2746207714 -0.3516945243
0.02223567665 -0.04466681555 0.6476261616 -0.8572143316 0.1185133457 -0.4708673656
0.02632566728 -0.04551816359 0.641500175 -0.8860374689 0.1679807603 -0.4118835032
0.03055485524 -0.04741708934 0.6367231011 -0.8997974992 0.2239256799 -0.3731099963
-0.02173942327 -0.1567327231 0.7291117907 0.007281071041 -0.6445769668 0.7577694058
-0.01492212527 -0.1562262177 0.7300028205 0.1363770813 -0.6433626413 0.7531383634
0.02005618624 -0.1476498991 0.7125168443 0.7246360183 -0.4450407326 0.5253074765
0.02514787391 -0.1452203691 0.7064103484 0.7754827738 -0.4113117754 0.4781333804
-0.009220659733 -0.08728366345 0.6351906657 0.06687472761 0.5763587356 -0.8109073043
-0.0429331176 -0.07329700887 0.6475139856 -0.3366963267 0.6041932702 -0.7212702036
-0.03598024324 -0.07310362905 0.6452565193 -0.2152962387 0.6283589602 -0.7453298569
0.006393122952 -0.0664408803 0.6601771712 0.3976904452 0.4832471311 -0.7646576762
0.001054339111 -0.0616796203 0.6611761451 0.2854529917 0.5379915833 -0.7893468738
-0.000457805203 -0.1015449017 0.6301398277 0.3033089936 0.3472070992 -0.8745714426
-0.04693646729 -0.0477530621 0.6720634699 -0.4161549509 0.6196995974 -0.6652044058
-0.04630941525 -0.04259172827 0.6760545969 -0.4080539644 0.6315172911 -0.6552812457
-0.05044354126 -0.04109228775 0.6802427173 -0.4501788616 0.6096771955 -0.6431177855
-0.02389883623 -0.0464329347 0.6648356318 -0.04307750612 0.6594545841 -0.7492162585
-0.01748903841 -0.04577114061 0.6660368443 0.05413219333 0.6494999528 -0.7559095025
-0.01920665987 -0.05061215907 0.6625049114 0.06627002358 0.635130167 -0.7607281804
-0.05970291048 -0.08373174816 0.6505298615 -0.586183548 0.5084158182 -0.6292116642
-0.06284373254 -0.07954738289 0.6563107967 -0.6153183579 0.5059704781 -0.6033167243
-0.06638555229 -0.08568248898 0.6565691233 -0.663621664 0.4770521224 -0.575737834
-0.05077516288 -0.08624441922 0.6405480504 -0.457498759 0.5430182815 -0.7033621073
-0.05252354965 -0.08155020326 0.6463936567 -0.4700066149 0.5513117909 -0.6881101727
-0.02753345668 -0.08754578233 0.6308276653 -0.04204773158 0.6017007232 -0.7966120839
-0.02066359855 -0.09054999799 0.6300680041 0.04944160208 0.5914940238 -0.7980419993
-0.03320428357 -0.09084220976 0.6291593313 -0.1602998078 0.5753368139 -0.7976254225
-0.06646725535 -0.1667868644 0.703169167 -0.6854133606 -0.3944189548 0.5990723372
-0.0512118414 -0.1359835714 0.7354345322 -0.5159130096 -0.5261284709 0.6750035882
-0.05433998257 -0.1255982518 0.7348558307 -0.5522835255 -0.5066599846 0.660870254
-0.05434189737 -0.139361307 0.7318643332 -0.5373576283 -0.5312606692 0.6548073888
-0.05629973114 -0.132130295 0.7313452959 -0.5666780472 -0.513191402 0.6438187361
-0.0617123507 -0.1294722706 0.7356221676 -0.5835009217 -0.5003157258 0.6391710043
-0.05590666831 -0.1301061958 0.7394095063 -0.5163656473 -0.5215566158 0.676522553
-0.002588902833 -0.1689516008 0.7127030492 0.3744517267 -0.5479251146 0.7161037326
0.005006781779 -0.1673880517 0.7112631798 0.5001568198 -0.5369303226 0.6706749797
-0.08429044485 -0.1495038271 0.6789013743 -0.8570740819 -0.324013114 0.400539279
-0.08093503863 -0.1370588541 0.6834580302 -0.8621948361 -0.3182182312 0.3941177726
-0.08184475452 -0.1438673586 0.6820307374 -0.858754456 -0.3218685389 0.3985979855
-0.08360909671 -0.1369525939 0.6901948452 -0.8585475087 -0.3215606213 0.3992499411
-0.08105689287 -0.1259107888 0.6848400831 -0.8305736184 -0.1782512963 0.2167513967
-0.08096580952 -0.1314017475 0.6874969602 -0.8582453132 -0.294918865 0.3648876846
-0.07913862169 -0.1166992262 0.6729099154 -0.77040416 0.07661961764 -0.1070678756
-0.08280721307 -0.1256360412 0.6910063028 -0.8407773972 -0.2222737372 0.2728183568
-0.07959351689 -0.1150202602 0.6789521575 -0.7723321319 0.06572559476 -0.09378481656
-0.0820197463 -0.09694475681 0.6932927966 -0.8102424145 0.1020866856 -0.1183730364
-0.08151558787 -0.1062941253 0.6908324957 -0.8158061504 0.008181123994 0.004881821573
-0.08051716536 -0.08343935013 0.6896755695 -0.7814974785 0.3001660109 -0.3549881577
-0.07725792378 -0.07957334071 0.6795457602 -0.7470076084 0.436040014 -0.4969980121
-0.0765908584 -0.08704038709 0.676730752 -0.748996675 0.36844033 -0.4055004418
-0.0827113837 -0.1196700782 0.697408855 -0.8489993215 -0.2054482102 0.2560741901
-0.08217573911 -0.1136175022 0.6971997619 -0.8392282128 -0.1268472075 0.1596913487
-0.08033189178 -0.07681012899 0.6920998693 -0.7794234753 0.3609522581 -0.4370588958
-0.0809597224 -0.1073402241 0.6976453066 -0.8291233182 -0.04698778316 0.06146702543
-0.08088620752 -0.09070168436 0.6947404146 -0.8020774722 0.1750066727 -0.2098228335
-0.07778204232 -0.09624209255 0.6850891709 -0.7817289233 0.1906263977 -0.2036910057
-0.08108340204 -0.1252330393 0.7000681758 -0.8559650183 -0.2790964842 0.3470809162
-0.07827308774 -0.0917551145 0.6891510487 -0.7889433503 0.2070456743 -0.2363553643
-0.07736343145 -0.07750891894 0.6863280535 -0.7657663226 0.3978404105 -0.4696099758
-0.0770740509 -0.08575972915 0.6827657819 -0.7639533281 0.3331855536 -0.3773493171
-0.07643799484 -0.08824312687 0.6699000597 -0.7184096575 0.4483905733 -0.5233552456
-0.07933244109 -0.1055396125 0.6707085967 -0.7302630544 0.267351687 -0.3412486315
-0.08053494245 -0.1100026816 0.684650898 -0.7975758314 0.03153336421 -0.02357781492
-0.07999173552 -0.1081347987 0.6776120663 -0.7637724876 0.1468021572 -0.1802533567
-0.07924086601 -0.1027748957 0.6817643642 -0.7806982398 0.1422792375 -0.1499089599
-0.08164157718 -0.1163881198 0.6860970855 -0.8073212504 -0.05110442638 0.06627119333
-0.07614029199 -0.09195642173 0.6650806069 -0.7044533491 0.4526365697 -0.5459707379
-0.08025854826 -0.1198151857 0.6912290454 -0.8181986809 -0.1210329011 0.1470129043
-0.07727079093 -0.0981060192 0.6628136039 -0.6940085888 0.4329497814 -0.5453000665
-0.07668472081 -0.0965160802 0.6706747413 -0.7295604944 0.3386210203 -0.4038949013
-0.07724364847 -0.09813383967 0.6775897145 -0.7566344738 0.2467420101 -0.2802426815
-0.07685388625 -0.09232363105 0.6799952388 -0.7626959682 0.2811925709 -0.3034367859
-0.04410971701 -0.1211731657 0.7536380291 -0.3145701587 -0.5382866263 0.7795373201
-0.04835154861 -0.1199130714 0.7494421601 -0.3893493414 -0.5299631357 0.7439373732
-0.04828901961 -0.1216244474 0.7417985201 -0.4405343533 -0.5080106854 0.7162894607
-0.04364781082 -0.126952365 0.7497848272 -0.3401354849 -0.550224781 0.7616132498
-0.03816841915 -0.1311176866 0.7490654588 -0.2573218048 -0.5595346093 0.7816879153
-0.01394599862 -0.1511113495 0.7331222892 0.1448487788 -0.6388225555 0.7437204719
-0.008102562279 -0.1525007933 0.7305113673 0.2409115434 -0.6315290928 0.7297343612
-0.07851979882 -0.1436704099 0.6891140342 -0.8546218276 -0.3252098262 0.4046919346
-0.07456494868 -0.154107824 0.6947065592 -0.8331804276 -0.3415411711 0.4347260594
-0.07223973423 -0.1495812833 0.7012851834 -0.8086689711 -0.3688931763 0.4558461308
-0.07383789867 -0.09710296243 0.6569749117 -0.6782265902 0.4454428852 -0.5843708515
-0.07168852538 -0.1015442759 0.6530365944 -0.6608109474 0.4441905618 -0.6038299799
-0.07121603936 -0.08980463445 0.6585543156 -0.682559371 0.4535836875 -0.5729640126
0.02303990535 -0.09710621834 0.6535944343 0.7807838917 0.3321295083 -0.5231536031
0.01925780252 -0.1000348926 0.6400131583 0.667976141 -0.06060024723 -0.7040509582
0.02511695772 -0.08349771798 0.6346917748 0.6243237853 -0.2368731797 -0.6815429926
0.0234127529 -0.1024808735 0.6444302201 0.7487491369 0.1315448135 -0.6193206906
0.02345983312 -0.09280055016 0.6390033364 0.65764153 -0.07925619185 -0.667475462
0.02799059264 -0.07801463455 0.6352245212 0.6447835565 -0.2675194144 -0.6486617923
0.03011716902 -0.09487437457 0.6533466578 0.7900514007 0.1957503855 -0.5085821748
0.02704607695 -0.09593382478 0.6472798586 0.755189538 0.1103432253 -0.5726081133
0.02556893229 -0.1382344663 0.7120187879 0.7507041693 -0.4519462287 0.4809713662
-0.02510029823 -0.05293450132 0.6596077681 -0.06396532059 0.6352727413 -0.7694610953
-0.02113705315 -0.05814055726 0.6556552649 0.02925296687 0.6323906779 -0.7672322989
-0.0155699579 -0.06045990065 0.6545725465 0.1511172354 0.6259551048 -0.7643297911
-0.02409158275 -0.0620630458 0.6514838934 0.02281881869 0.6390564442 -0.7680178285
-0.004748991691 -0.0525977239 0.6646722555 0.2183935344 0.5648552179 -0.7954064012
0.003907428123 -0.05491930246 0.6665797234 0.255646497 0.5675467253 -0.782384932
0.01787530072 -0.03874803707 0.6427434087 -0.8465374708 0.2944051921 -0.4200922251
-0.005019265693 -0.04596826807 0.657699883 -0.1961996108 0.5248040557 -0.6481804252
0.00623463653 -0.04554837942 0.6485994458 -0.5206781626 0.3937300742 -0.5251206756
0.0009469918441 -0.04724836349 0.6519811153 -0.3465812504 0.4518924057 -0.5855110288
-0.01065074373 -0.04653684422 0.662040472 -0.02866744809 0.5895773172 -0.710373044
0.02223245427 -0.1353141963 0.7204110622 0.7185040712 -0.4452290535 0.5335533023
-0.03707721457 -0.1484600008 0.7353101373 -0.2569039762 -0.6272634268 0.7328724861
-0.03551600873 -0.1435874254 0.7392283082 -0.2189295888 -0.6228144765 0.74815768
-0.04542917013 -0.1466104686 0.7312962413 -0.3870268464 -0.6017588973 0.6935210228
-0.04186017066 -0.1420577168 0.7403357029 -0.3412693143 -0.6002186537 0.722401917
-0.009723553434 -0.08234851807 0.6395332217 0.07595725358 0.6131738424 -0.7829781175
-0.006527128629 -0.07814240456 0.6435704231 0.1042647213 0.6731209755 -0.7260318995
0.004904854111 -0.08551307768 0.6452864408 0.338838309 0.5304880738 -0.6656898856
-0.02834640816 -0.06824272871 0.6481984258 -0.08356892318 0.6359751225 -0.7577742934
-0.02568484843 -0.07238722593 0.6441735625 -0.03792002425 0.6387637854 -0.7625575662
-0.01834624074 -0.06641746312 0.6497729421 0.1135231256 0.6320497394 -0.7623886466
-0.01816240326 -0.07261364907 0.6446859837 0.09205698967 0.630739212 -0.7665786147
0.01208087616 -0.05250036716 0.6380066872 -0.651263237 0.3409236372 -0.5329577923
0.004084443673 -0.05672643334 0.6415199637 -0.3985955417 0.4268541336 -0.6183928847
0.01071382593 -0.04774021357 0.6427015066 -0.6539176106 0.3467333019 -0.4897550046
-0.001730465563 -0.05701720715 0.6462772489 -0.2424499393 0.4834135473 -0.6264589429
-0.007980729453 -0.057652127 0.650827229 -0.06230507791 0.5489982367 -0.6910172105
-0.009497947991 -0.05791976303 0.659212172 0.1931262016 0.5946872234 -0.7770816684
-0.008028397337 -0.05275500193 0.6547157764 -0.07665298879 0.5472897887 -0.6861320138
-0.01244945917 -0.05220292509 0.6625638604 0.1776295751 0.6124756932 -0.7695453167
0.02004384995 -0.08294397593 0.6314208508 0.4656314254 -0.3866422474 -0.7817180753
0.01768085361 -0.08959755301 0.6334704757 0.5374161601 -0.2350549251 -0.7643041611
0.009460167959 -0.1020943448 0.6352491379 0.5990943313 0.100610137 -0.7826385498
-0.006785083096 -0.04670369625 0.6680523753 0.1804597825 0.6117086411 -0.7696387768
-0.02016259916 -0.0360634774 0.6744183302 -0.008265398443 0.6934530735 -0.7180592418
-0.009983596392 -0.03663082421 0.6759997606 0.09857551008 0.6593764424 -0.742467761
-3.587225365e-05 -0.04163257778 0.656453073 -0.3320694268 0.4901090264 -0.6054000258
-0.02415063977 -0.04069576412 0.6696668267 -0.05287438259 0.6797488928 -0.7303553224
-0.01678959094 -0.04061684385 0.6704217196 0.04338492081 0.6646931767 -0.7425731421
-0.005809738301 -0.06634845585 0.642190814 -0.09448545426 0.5237164497 -0.7521923184
-0.01066788845 -0.07263902575 0.6414581537 0.02299154364 0.575609386 -0.7676174641
-0.01258441992 -0.06841462106 0.6491350532 0.2083853334 0.6281180382 -0.7475173473
0.001554917893 -0.06351874024 0.6386061907 -0.2669374645 0.4452973902 -0.7465437651
-0.008548902348 -0.06314814836 0.6475103498 0.008901211433 0.5556045175 -0.7553866506
0.01574915834 -0.05492263287 0.6329366565 -0.7200118303 0.3101973236 -0.5889555812
0.008567039855 -0.05886207521 0.6363402605 -0.4746103883 0.3777862787 -0.6804366708
0.0008909399621 -0.07696656883 0.6307764649 -0.3257713616 0.350249052 -0.8042728305
-0.01701317169 -0.07713901997 0.6401337981 0.1135348827 0.6276990175 -0.769682169
-0.00482961908 -0.07117509842 0.6356940866 -0.1601473391 0.5023521781 -0.7564375401
0.01280475035 -0.06159171462 0.630863905 -0.5483115315 0.3235077262 -0.7389501929
0.005489577539 -0.06540025026 0.6332830787 -0.3817938864 0.3991102874 -0.746759057
0.01198647637 -0.06823491305 0.6290798187 -0.5662677288 0.2576096058 -0.7801802158
-0.009529792704 -0.07580266148 0.6352879405 -0.08152350783 0.5268549323 -0.769972682
0.006325285416 -0.07166292518 0.630307436 -0.4463152885 0.3111556172 -0.787135005
-0.03268198296 -0.08430043608 0.6344839931 -0.1623816043 0.6068028212 -0.7740638852
-0.03820945323 -0.08301185817 0.6377012134 -0.2591144443 0.6010274887 -0.749175787
-0.04433729872 -0.09332369268 0.6318997145 -0.3598671556 0.5414113998 -0.7573199868
-0.0377917178 -0.0876217708 0.6334623694 -0.2536992431 0.5773268342 -0.7715299726
-0.06805422902 -0.1256880909 0.7249939442 -0.7056590319 -0.402885586 0.5703933835
-0.07392270863 -0.1286857575 0.7169677615 -0.7711057663 -0.3686065972 0.515373528
-0.06174699217 -0.122995846 0.7292755246 -0.6408308148 -0.4517633319 0.6068240404
-0.07866869122 -0.1286539137 0.705534935 -0.8441090584 -0.347034663 0.4056090117
-0.06946814805 -0.1325048953 0.7220072746 -0.7382258177 -0.3976764977 0.5411584973
-0.06204468012 -0.1708488166 0.7044936419 -0.6162315607 -0.4057949483 0.6670754552
-0.05857609585 -0.1647454798 0.7100445628 -0.5844892859 -0.437804848 0.6816466451
-0.05598735809 -0.1594391763 0.7137148976 -0.5656400919 -0.4609743953 0.6829978824
-0.05845858529 -0.1752083004 0.7071730494 -0.5463021994 -0.4191649854 0.7205085158
-0.05345224589 -0.1774289161 0.7094249725 -0.4738354981 -0.4349220693 0.7636924386
0.0223912131 -0.164613232 0.6953041553 0.7451063395 -0.4343284667 0.5022206903
0.008870096877 -0.1720894873 0.7062484622 0.5768420696 -0.5208917856 0.6240150928
0.02321782894 -0.157830283 0.6969448328 0.7483337522 -0.427231431 0.5049068928
0.02140068263 -0.1561980844 0.7021023035 0.7602552176 -0.4137305021 0.4983853102
0.01801433414 -0.1643306911 0.7012799978 0.710712254 -0.4447788596 0.5427294374
0.02516568266 -0.152109161 0.6966423988 0.7781400084 -0.4053709507 0.4796460867
0.02895168774 -0.1494371593 0.6889802217 0.7806903124 -0.4072780311 0.4738385081
0.02516825125 -0.1488820612 0.7021435499 0.7825512886 -0.4020381868 0.47531721
0.0286586415 -0.161844641 0.6897761822 0.7644612789 -0.4217879772 0.4875136912
0.02978894301 -0.154973045 0.6932069063 0.7733889818 -0.4132736921 0.4804755151
0.02914030664 -0.1438079476 0.70065099 0.7855205536 -0.4015407562 0.4708729982
-0.007019044831 -0.1420994848 0.7407981753 0.2505915165 -0.6114615798 0.7502324581
-0.008601009846 -0.1464995444 0.7366976142 0.2384114414 -0.6172260046 0.7456891537
-0.01409222279 -0.1451841146 0.7393398285 0.1461484432 -0.6302405596 0.7616072297
-0.001701542526 -0.1419302225 0.737473011 0.3400387466 -0.5962554812 0.7242916822
0.00460009044 -0.1356819272 0.7388312221 0.4276020229 -0.5678755045 0.7017505169
-0.02032265067 -0.1518966407 0.7338772416 0.04718728364 -0.6510401964 0.7539630532
-0.02175830118 -0.1458121985 0.738809824 0.03060605936 -0.641854167 0.7636526227
-0.02877828851 -0.1435312182 0.7404512167 -0.09748877585 -0.6329761744 0.7620880008
-0.02652748674 -0.1525199562 0.7328733802 -0.06846797466 -0.6534950137 0.7509465218
-0.03061834723 -0.1476474106 0.7358161211 -0.1195424646 -0.6361420751 0.744595468
-0.0697754547 -0.1445856541 0.7099913955 -0.7595677972 -0.4192589521 0.4812719822
-0.05872795358 -0.06106025726 0.6696093678 -0.5857360959 0.5489886999 -0.5960631371
-0.05318042636 -0.06501784921 0.6602807641 -0.5002712011 0.5762138963 -0.6460059881
-0.04914051667 -0.06055165082 0.6620889902 -0.454210192 0.5913956761 -0.665330708
-0.0509576723 -0.05478133634 0.6682440639 -0.4719803929 0.5958741307 -0.6482283473
0.03143106028 -0.1387301087 0.7013614774 0.7856814265 -0.4012369812 0.4708643556
0.004053932615 -0.07647718489 0.648190856 0.4314275086 0.7181061506 -0.5419825315
-0.00287705916 -0.07453425229 0.6476747394 0.1997260749 0.7052233219 -0.671102941
0.009953115135 -0.07989288121 0.6521797776 0.5334124565 0.5562448502 -0.5955738425
0.01329204254 -0.08719432354 0.6499896646 0.6489546895 0.50073874 -0.522359848
0.01805163361 -0.09075448662 0.6514726877 0.768699348 0.4100280106 -0.4776213169
0.01634988189 -0.08381423354 0.6552297473 0.6580800414 0.4887985587 -0.5270397067
0.006666174158 -0.07367921621 0.6534579396 0.4287200272 0.6330590844 -0.6353536248
0.02419449948 -0.08759537339 0.6616239548 0.7326639891 0.4164246917 -0.5325553417
0.01778365299 -0.077538535 0.6619822383 0.6190689802 0.4108167887 -0.6555059552
0.01270043571 -0.07417839766 0.6590736508 0.5359755158 0.4799796045 -0.6729667783
-0.03389857337 -0.06770026684 0.6493268013 -0.1991865337 0.6319717169 -0.7485589981
-0.04155386612 -0.06496985257 0.6538728476 -0.3155432642 0.6099598408 -0.723710835
-0.0325653553 -0.06261201203 0.6531736851 -0.1751169115 0.6296098232 -0.7499217987
-0.03105343692 -0.05742344633 0.6568073034 -0.1470054835 0.6315333843 -0.7575765848
0.00384842651 -0.04065695032 0.6744304299 0.06981642544 0.5814132094 -0.7941178083
0.01520115789 -0.04191509262 0.654147625 -0.7304894328 0.2147071064 -0.5632444024
-0.0002743888181 -0.03806303442 0.6706860065 -0.0392520912 0.5673245788 -0.7157797813
0.004322762601 -0.04127229378 0.667350173 -0.1249842569 0.5326865911 -0.7602700591
0.009180602618 -0.04247665405 0.6613563299 -0.2953164279 0.4731161594 -0.7255783081
0.01461415086 -0.03822741657 0.6483340859 -0.6898890734 0.3477090597 -0.4776886702
0.0007902687066 -0.03879117966 0.6625413895 -0.2359208316 0.5160250664 -0.6343017817
-0.006214181427 -0.03961379081 0.6675423384 -0.05351793766 0.590510428 -0.6989425421
0.007326579187 -0.03810483217 0.6574952006 -0.4144620001 0.4446090162 -0.5711740255
0.009081938304 -0.04268617183 0.6714993119 -0.3360143304 0.2771672606 -0.7132512927
0.0202191975 -0.141645506 0.7167834044 0.7163763642 -0.460906595 0.5229997039
-0.05917615816 -0.07129064947 0.660294354 -0.5817276835 0.5376645327 -0.6093959808
-0.05702529848 -0.07671096176 0.6533930302 -0.552269578 0.5370856524 -0.6369291544
-0.06362792104 -0.07507384568 0.6625579596 -0.6421031952 0.5105780363 -0.5682100058
0.01256207936 -0.09961026907 0.639462769 0.676138401 0.1145427823 -0.7183862925
0.007743749768 -0.09489973634 0.6380546689 0.5017871857 0.2865176499 -0.7931703925
0.01449256483 -0.09531641006 0.6443939805 0.6864364743 0.2506881952 -0.6450135708
0.00405671075 -0.09048143029 0.6394743919 0.3466086984 0.3936818242 -0.789534986
0.0003966884397 -0.08590139449 0.6411013603 0.1899144799 0.5005953312 -0.7822735906
-0.003994096071 -0.09487262368 0.6315730214 0.1656942368 0.4681046009 -0.865059793
-0.002500138013 -0.08959913999 0.6360211372 0.1358623803 0.4594411552 -0.8388417363
0.001383871422 -0.09609137475 0.6344883442 0.3317216039 0.3127773404 -0.8343987465
0.0099095935 -0.08853469789 0.6260194182 0.2442554086 -0.08482626826 -0.8752803802
0.01118225604 -0.09545084834 0.6317254901 0.4759854078 -0.07703974098 -0.8247096539
0.006567751523 -0.09344170988 0.625000596 0.3037734032 -0.002189829014 -0.8710058331
-0.008686761372 -0.06351728737 0.654597342 0.2292351127 0.6047008634 -0.7602015138
-0.003566302592 -0.06230800971 0.6578913927 0.2604631484 0.5753627419 -0.7735043168
-0.003725780174 -0.06696876884 0.6528274417 0.2548856437 0.6450606585 -0.7173361182
-0.07234351337 -0.1389960796 0.7125248313 -0.7696307898 -0.4183320999 0.4815695882
-0.0761012584 -0.1354862601 0.7068346739 -0.8281807303 -0.3684403896 0.4175251722
-0.07489382476 -0.1325232983 0.7116530538 -0.7930287123 -0.3947171867 0.4596745074
-0.06156420335 -0.1610407978 0.7056663632 -0.6655142903 -0.4040561914 0.6073813438
-0.0618355386 -0.1585849673 0.7115188837 -0.6247166991 -0.4406592548 0.6367539167
-0.0666140765 -0.1556347907 0.7046524286 -0.7245551944 -0.4048236907 0.5476581454
-0.04996924847 -0.1715364307 0.7099965215 -0.4497323334 -0.4558347464 0.7603772283
-0.02158513851 -0.1663972437 0.7206532359 0.02170602232 -0.5692932606 0.8149966002
-0.01670994051 -0.1761685759 0.7187217474 0.1146581173 -0.5920709372 0.7949784398
-0.0231055133 -0.171694085 0.7197586894 -0.00490107527 -0.5819610953 0.8091536164
-0.02530856803 -0.1801401824 0.7147672772 -0.03525739908 -0.5698253512 0.8199287653
-0.03254379705 -0.1808513999 0.713834703 -0.148636207 -0.5161374211 0.8399952054
0.01779818162 -0.136934042 0.7249082327 0.6439093351 -0.4911851287 0.5860957503
0.01630609296 -0.1456273198 0.7185767293 0.6723803282 -0.4842911065 0.5576666594
0.002059953287 -0.1565803289 0.7218347192 0.4417949319 -0.5670468807 0.6897087693
0.02004734054 -0.1535928845 0.7076323032 0.7339983582 -0.4292360246 0.5251856446
0.01535061188 -0.1689100266 0.7044528723 0.66505301 -0.4814962745 0.56768471
0.01370949205 -0.1583266109 0.7114296556 0.6487722397 -0.4711146057 0.5968414545
0.01617730036 -0.1610623449 0.7059502602 0.6980258226 -0.4457444549 0.5550872087
-0.01292935479 -0.1673950553 0.7185624838 0.1901710927 -0.5652701855 0.8008161187
0.00169901608 -0.1641090214 0.7159778476 0.4300540388 -0.5456523299 0.7143118382
-0.002041307511 -0.1612789482 0.7201879621 0.3649573326 -0.5758941174 0.7269715071
-0.007073634304 -0.1624607146 0.7224923372 0.2718708515 -0.570597887 0.7723238468
-0.01534363627 -0.1640925854 0.7232868075 0.1166617721 -0.5824201107 0.8042584062
-0.01027095225 -0.1576155275 0.7265997529 0.2189858705 -0.6222111583 0.7465444803
-0.005858516786 -0.1684533805 0.7187331319 0.2846212685 -0.5662611723 0.7724752426
-0.07706717402 -0.1444591433 0.695930779 -0.852639854 -0.3275948465 0.4070305228
-0.07801032066 -0.1383264959 0.69447124 -0.8553084731 -0.3285567462 0.4002963901
-0.07449353486 -0.1432141215 0.7024462819 -0.8453806043 -0.346401453 0.4063928723
-0.07770247757 -0.1382664591 0.7002658844 -0.8525906205 -0.3366906047 0.3994401991
-0.07906090468 -0.1309349239 0.6974788308 -0.856446445 -0.3387789726 0.3891322017
0.02466379479 -0.07424409688 0.62938416 0.55033499 -0.3971816897 -0.7309549451
-0.06482998282 -0.1523972899 0.7097654939 -0.6757791042 -0.4382196665 0.5876455307
-0.0527218394 -0.1457750648 0.7279771566 -0.4939427972 -0.5652996898 0.6553072333
-0.06152096391 -0.1479842514 0.7192899585 -0.6051172018 -0.5098029375 0.6010779738
-0.06817173213 -0.1497343928 0.7134415507 -0.6948232055 -0.4398269951 0.5588952303
-0.05791471899 -0.1542795449 0.7163482904 -0.5798553228 -0.48881796 0.6433557272
-0.05794112757 -0.1456765234 0.7234433293 -0.5673620105 -0.5418383479 0.6163827777
-0.05522955209 -0.151209265 0.7209192514 -0.535513103 -0.5520191789 0.6347742081
-0.06744531542 -0.1411510855 0.7168959975 -0.7112067938 -0.4595543146 0.5285931826
-0.06327992678 -0.1404796988 0.7230085731 -0.6270153522 -0.5025074482 0.5931754112
-0.06463772804 -0.1351526827 0.7258441448 -0.6550680995 -0.4692642689 0.5906277895
-0.05946074426 -0.1396986842 0.7273154855 -0.5903245807 -0.5177634954 0.6191391945
-0.0534109138 -0.1662132442 0.7119839787 -0.5268491507 -0.439742744 0.7259391546
-0.03476296365 -0.1664179415 0.7198063135 -0.1996390373 -0.5423288345 0.8142359257
-0.02838784643 -0.1684175283 0.71900177 -0.1046509668 -0.5407774448 0.8307540417
-0.03397402167 -0.1754944623 0.7163761258 -0.1775475144 -0.5218352079 0.832256496
0.01350952033 -0.1538879722 0.7149707079 0.6295679212 -0.4866584539 0.6039809585
0.01197101269 -0.1652026027 0.7096287608 0.625148654 -0.4925510287 0.604211688
0.007038605865 -0.1591511965 0.717523396 0.542537272 -0.5143677592 0.662242949
-0.004307339899 -0.1569516063 0.7262169123 0.3258497417 -0.5857927203 0.7373803854
-0.04932514206 -0.1636541784 0.7176540494 -0.4545828998 -0.4731318951 0.7525547743
-0.04583734274 -0.1711397469 0.716556251 -0.3457969129 -0.4949966371 0.7926154733
-0.04880016297 -0.1800412536 0.7120156288 -0.3736361265 -0.4657267332 0.7945386171
-0.04235106334 -0.1806672961 0.7136459351 -0.2589620948 -0.4995549917 0.8260496259
-0.04055031389 -0.1751895994 0.7162292004 -0.2499788404 -0.5175432563 0.8170825243
-0.04176171869 -0.1668940932 0.7193564177 -0.2913855314 -0.5233786106 0.7987899184
-0.03992458805 -0.1528406888 0.7279343605 -0.3102885783 -0.6228374839 0.7055343986
-0.03457739204 -0.1558044553 0.7292376757 -0.2289512604 -0.6375994086 0.734841466
-0.03159124032 -0.1620386839 0.7238718867 -0.1590061188 -0.5894159675 0.7884807587
-0.02637969516 -0.1589606404 0.727113843 -0.08502287418 -0.6293997765 0.7711455822
0.0004325198533 -0.1527952105 0.7260473371 0.4084788561 -0.5861379504 0.6901115775
0.008509841748 -0.1529165506 0.7213469744 0.561796546 -0.5283498764 0.635612011
0.007165333256 -0.1486794353 0.7263666391 0.5304481983 -0.5564936399 0.6391162276
-0.04532331973 -0.1513285488 0.7269689441 -0.3910720944 -0.6055740714 0.689324975
-0.05015868321 -0.1537086517 0.7227675915 -0.4581566155 -0.5723638535 0.675576508
-0.05129953474 -0.1580421478 0.718329668 -0.5014721751 -0.4820601344 0.7160144448
-0.04496282339 -0.15673244 0.7236341238 -0.3777999878 -0.5727487206 0.7237293124
-0.003408733988 -0.1484054774 0.7329087853 0.3213429451 -0.6097372174 0.7197635174
0.003705923446 -0.1467120349 0.7310379744 0.4685290754 -0.5695695877 0.6744837165
0.003858231707 -0.1411877573 0.7353510857 0.4362805486 -0.5670929551 0.6950285435
0.009642507881 -0.1421586871 0.7307222486 0.5400556326 -0.5318451524 0.6499769092
0.01407010853 -0.1411916912 0.7256479263 0.6021379828 -0.5212330222 0.6038842797
0.01181453466 -0.1349555701 0.7338062525 0.5406727195 -0.5249445438 0.6552487612
