# .PCD v0.7 - Point Cloud Data file format
VERSION 0.7
FIELDS x y z normal_x normal_y normal_z
SIZE 4 4 4 4 4 4
TYPE F F F F F F
COUNT 1 1 1 1 1 1
WIDTH 512
HEIGHT 1
VIEWPOINT 0 0 0 1 0 0 0
POINTS 512
DATA ascii
-0.02056062594 -0.1027179584 0.516249001 0.1133575514 -0.804418385 0.5476745963
-0.01498912089 -0.1096231043 0.5016744733 0.3610320091 -0.707244277 0.5592312217
-0.01363076456 -0.1033470929 0.5055162311 0.3980991542 -0.656686902 0.555059731
-0.01943995804 -0.1067604199 0.5108520985 0.1709488183 -0.7938290834 0.5523291826
-0.08165649325 -0.07690982521 0.5555523038 0.385836482 -0.7091758847 0.5900546312
-0.08327279985 -0.1326318532 0.505038023 0.7272298336 -0.3728979826 0.5623397231
-0.0829095915 -0.1263053715 0.5104174614 0.6773033142 -0.4414370358 0.5720303059
-0.08334650844 -0.1397152245 0.5022631884 0.8780987263 -0.1768506914 0.386184603
-0.0803251639 -0.1188170686 0.5132875443 0.6290307641 -0.5051068068 0.5896217823
-0.03754273057 -0.1738487035 0.5574738383 0.09540503472 -0.6845653057 0.6952876449
-0.04777804017 -0.1717422009 0.5570193529 -0.1782022864 -0.689101994 0.6222869754
-0.0530805923 -0.1697409004 0.5579726696 -0.3281347156 -0.7040228248 0.5769950747
-0.01124708168 -0.1063675955 0.4989791214 0.5072356462 -0.6122083664 0.5611632466
-0.0155547373 -0.109675616 0.4957502186 0.4212778509 -0.6323105693 0.5894663334
-0.02250473946 -0.1159811392 0.4948250055 0.2211047262 -0.7355537415 0.6122045517
-0.01796865277 -0.112630941 0.498814702 0.3031595647 -0.7241295576 0.5792458057
-0.07509269565 -0.1395105571 0.496901989 0.7636896372 -0.2643627226 0.5009538531
-0.0709952265 -0.1348812282 0.4931660295 0.6453173757 -0.3859445751 0.5907085538
-0.01190676913 -0.055112198 0.5306248665 0.8317381144 -0.125768289 0.4976089001
-0.01447666995 -0.05721357092 0.5365344286 0.7824909091 -0.1301620901 0.5627600551
-0.01765006967 -0.06111775711 0.5446882844 0.7134292126 -0.1879099458 0.6437274218
-0.002964625135 -0.07388615608 0.5006908178 0.3612664342 -0.3966634274 0.8435550332
-0.08218386024 -0.122183077 0.5186625123 0.4949579239 -0.5256662965 0.5704004169
-0.08239433169 -0.1289302111 0.5234643221 0.2443373352 -0.5364589095 0.5434120893
-0.08248345554 -0.1364286989 0.5283460617 -0.02597229555 -0.5455179811 0.5139678717
-0.08138404787 -0.143468529 0.5292123556 -0.2125744224 -0.530035913 0.4908160865
-0.0837893486 -0.128574416 0.5181392431 0.5237569809 -0.4321078062 0.4915640056
-0.08252906799 -0.1499928981 0.5230335593 -0.005875605159 -0.3674552739 0.3915385902
-0.08338948339 -0.1344886869 0.5231466293 0.2411949486 -0.466442585 0.4834309816
-0.08332394809 -0.1385808289 0.5117278695 0.6006314158 -0.2777425945 0.398471415
-0.08295277506 -0.142900914 0.5209609866 0.1863479763 -0.3824101686 0.4222490788
-0.08361273259 -0.1329737455 0.5133467317 0.631146431 -0.3360669315 0.440115422
-0.08415283263 -0.1206930876 0.5234056115 0.4551348984 -0.5567809343 0.5660403371
-0.08301512897 -0.1432528943 0.5151857734 0.3959761262 -0.297760874 0.3893936276
-0.08236844838 -0.1517438591 0.5274935365 -0.2005475909 -0.4201225936 0.4050012827
-0.07932470739 -0.1350576431 0.5074477196 0.7075302601 -0.2880263329 0.469311446
-0.08047164977 -0.147733435 0.5190525651 0.1616363227 -0.3365236819 0.4240775108
-0.07965620607 -0.130487591 0.5165803432 0.3550041914 -0.4769944549 0.5366088152
-0.08012327552 -0.1384062618 0.5193715096 0.1979017258 -0.4381694496 0.4912793636
-0.08121624589 -0.1488221735 0.5315976143 -0.3616422415 -0.5197267532 0.4644103348
-0.07957667857 -0.1405152678 0.5081213117 0.6508222818 -0.241887331 0.4332835078
-0.07926805317 -0.1247561052 0.5136646628 0.5056528449 -0.4912132025 0.5659892559
-0.08008877933 -0.1473258287 0.5124951601 0.4343046844 -0.2390870899 0.4018527865
-0.08046720177 -0.1396901309 0.5246179104 -0.02532565407 -0.5061955452 0.5022855401
-0.07979209721 -0.1365868896 0.5147287846 0.3990670741 -0.3850531578 0.4863725901
-0.01693290472 -0.05370664969 0.5390034914 0.7754887938 0.03634433076 0.6086657643
-0.05011754483 -0.1703490615 0.5619959235 -0.2263402939 -0.7592648268 0.6037421823
-0.03577459604 -0.1798703223 0.5534604192 0.09962107986 -0.6710581779 0.7327809334
-0.03979302943 -0.1780244559 0.5558193922 0.008646981791 -0.7141868472 0.6909433007
-0.04357202351 -0.1753976494 0.5580645204 -0.06649857759 -0.7327716947 0.6708267331
-0.02279253677 -0.09455590695 0.5275831819 -0.1838202626 -0.7623401284 0.5941377282
-0.0122224018 -0.0945508033 0.5127992034 0.2488506436 -0.5632346272 0.6335665584
-0.01559704822 -0.09617492557 0.5159015059 0.159763813 -0.6473318934 0.6085352302
-0.01766761206 -0.09353581816 0.521554172 -0.006687866524 -0.6529699564 0.6217211485
-0.02189343423 -0.09760649502 0.5233384371 -0.05561214313 -0.7840290666 0.5743838549
-0.006606076378 -0.04988232255 0.5182480216 0.9050834179 -0.1344575733 0.4025948048
-0.01189408079 -0.04952868074 0.5277287364 0.8851315975 -0.05149468035 0.4492330849
0.0005359543138 -0.07744339108 0.4994015694 0.3828360438 -0.3811748922 0.8415117264
-0.07867313176 -0.1296047419 0.5065049529 0.7504323125 -0.3397340178 0.5087888241
-0.07827790827 -0.12446706 0.5082190633 0.6882305741 -0.4269374013 0.5550907254
-0.0782655105 -0.1388706118 0.5020019412 0.8534983993 -0.1870743185 0.4320937395
-0.05748300627 -0.114926286 0.4956362247 0.3165661097 -0.6575294137 0.6792030931
-0.05248969421 -0.1751339883 0.5566946268 -0.2981728315 -0.7234817147 0.6205557585
-0.04879520833 -0.1775303036 0.5550237894 -0.2045032084 -0.7026563287 0.6729931235
-0.06176219136 -0.1648261845 0.5595018864 -0.4993578196 -0.6963779926 0.5079405308
-0.06487815827 -0.1610821486 0.5622263551 -0.5261442065 -0.6959260106 0.4822047353
-0.06101474538 -0.104685083 0.5080260038 0.3668515384 -0.6748019457 0.6315234303
-0.05339182168 -0.1004407182 0.5093313456 0.2076953501 -0.7362820506 0.6340174079
-0.07981870323 -0.1403220892 0.4976492524 0.7078354359 -0.3651121557 0.5606864095
-0.01306398679 -0.1816429645 0.5428881049 0.5858973265 -0.56387043 0.5786198974
-0.009288142435 -0.1780142784 0.5405944586 0.6159081459 -0.544480145 0.5654919744
-0.02113518864 -0.05511176959 0.5453457236 0.7335374951 -0.06861361861 0.6506228447
-0.01833602972 -0.04966651648 0.534412384 0.8065199256 0.01222295687 0.5640597939
-0.01237162203 -0.05268986523 0.5200822353 0.8901077509 -0.1061402559 0.4273305535
-0.01695575193 -0.05236082524 0.5278126597 0.8152096868 -0.04381327704 0.5409183502
-0.01901304722 -0.1773899794 0.5490937829 0.5003114939 -0.5750514865 0.6410010457
-0.02293800004 -0.1710654795 0.5538583994 0.4257486463 -0.5829243064 0.6650421023
-0.02058799565 -0.1821404099 0.5460826755 0.4388864338 -0.604552567 0.655448854
-0.02574238367 -0.1701175123 0.5591378212 0.3833878338 -0.6233878732 0.6763260961
-0.0294735916 -0.1729176193 0.5553340316 0.2868245244 -0.6309868693 0.6979394555
-0.04385514185 -0.1864716262 0.5488554239 -0.1161806136 -0.6931220889 0.7098699808
-0.04820559919 -0.1843498796 0.5496280193 -0.2123824954 -0.6935953498 0.6795464754
-0.04976285622 -0.1886728853 0.5433401465 -0.2276204526 -0.6834290028 0.6673938036
-0.06459913403 -0.1647829562 0.5533155799 -0.5435131788 -0.6572757959 0.4996918738
-0.06010258943 -0.168027848 0.555740416 -0.494513303 -0.6821076274 0.526553154
-0.07362788171 -0.1613598466 0.5461524129 -0.6836565137 -0.5762318373 0.442083627
-0.06905975938 -0.1618134379 0.5517205 -0.6003347635 -0.63177073 0.4682853818
-0.06627965719 -0.1626541167 0.5573312044 -0.5701010227 -0.6642392278 0.4717206359
-0.02114041708 -0.06456241757 0.5177647471 0.5873299837 -0.3744070232 0.52844733
-0.01579886675 -0.06142807379 0.5141500831 0.7334076166 -0.2862967253 0.5013352036
-0.03244857118 -0.08262322843 0.5369272828 -0.2354032695 -0.7139117718 0.6567456126
-0.06744871289 -0.09786972404 0.5204171538 0.4244510829 -0.6587309837 0.617059648
-0.003430812852 -0.1613878161 0.5393387675 0.6957163215 -0.4734428823 0.5389760733
-0.001817390788 -0.1597740203 0.5346402526 0.6957450509 -0.475635618 0.5376502275
-0.0005816907506 -0.1660395712 0.5317022204 0.6700401306 -0.5047488809 0.5442116261
0.0002736329043 -0.1597046107 0.5275933146 0.6755002737 -0.4989591241 0.5428714752
-0.006936475169 -0.167808041 0.5434838533 0.6819720864 -0.4925405085 0.5402252078
-0.003614946734 -0.1713568568 0.5369316936 0.6614981294 -0.5134087205 0.5465372205
-0.00695553096 -0.1729216725 0.5397785306 0.6451333761 -0.5176737309 0.5609766841
-0.02679172531 -0.114330247 0.4983152747 0.1593972296 -0.7913919091 0.5882234573
-0.02943684533 -0.1205273345 0.4885287285 0.1146291718 -0.7347322702 0.6679598093
-0.007068799343 -0.05950132012 0.5081384182 0.8146438599 -0.2690645158 0.5126655698
-0.01021248102 -0.05556719378 0.5136976242 0.8802908063 -0.1793050766 0.4355524778
0.0006670892471 -0.07173328102 0.5032487512 0.5744228959 -0.3306849599 0.7006784678
-0.0004912826698 -0.07702375948 0.5055090785 0.7694500089 -0.233843565 0.5678909421
0.000679390505 -0.08298075944 0.5003545284 0.6729013324 -0.2761825025 0.6792240143
-0.005294059869 -0.08777268231 0.5081518888 0.4468282461 -0.3702402711 0.6603762507
-0.006749236025 -0.0796688199 0.5133169293 0.4849704802 -0.3617968261 0.5705187321
-0.00102169509 -0.07158203423 0.5083448887 0.816346705 -0.2176609039 0.5080298185
-0.009988532402 -0.08205679059 0.5169684291 0.3238763809 -0.4336194396 0.5831111073
-0.008481501602 -0.07605841756 0.5171468854 0.4576797783 -0.3785242438 0.5263822675
-5.123687151e-05 -0.08834827691 0.5005363226 0.6540846229 -0.2736934721 0.6862145662
-0.008184981532 -0.08901119232 0.5117535591 0.3138089478 -0.4303787947 0.6623233557
-0.01901166327 -0.08947019279 0.5268472433 -0.1340271682 -0.6370616555 0.6261153221
-0.004293083679 -0.08210772276 0.5089160204 0.5559424162 -0.3261896074 0.6052019596
-0.01139534451 -0.08851116896 0.5164735317 0.1886757463 -0.488843143 0.6449656487
-0.003920464776 -0.06901399791 0.5134196877 0.7288473845 -0.2610616684 0.4703268707
-0.004825274926 -0.0735680759 0.5129466653 0.6370398402 -0.2983666658 0.5143026114
-0.01547639258 -0.08425117284 0.5238656998 0.07325161994 -0.5470858216 0.5851764679
-0.02015718073 -0.08499904722 0.5396926403 -0.1898022741 -0.6263802648 0.716358304
-0.01072477922 -0.07614664733 0.5222166181 0.3521614373 -0.4187693894 0.5475839972
-0.01623556204 -0.08164332062 0.531083405 0.03966211155 -0.5431059003 0.6314896941
-0.01590511762 -0.07971898466 0.5371486545 0.03808372095 -0.5207121372 0.6986390352
-0.02176804468 -0.08830883354 0.5352395177 -0.2594525814 -0.6786779761 0.6638019085
-0.0181053225 -0.08118139952 0.5437175035 -0.09601075202 -0.5634958148 0.7652775049
-0.013284605 -0.07769008726 0.5305126905 0.1941364855 -0.4670659602 0.6322659254
-0.01922680624 -0.08598852158 0.5302637219 -0.1126152426 -0.6233500242 0.6154047251
-0.0002785264514 -0.06521321088 0.5094963312 0.8395859599 -0.2278787643 0.48721385
-0.004584877286 -0.05328845605 0.5142264366 0.8725726604 -0.1881144792 0.4423595667
-0.002079572296 -0.05794436857 0.5120180845 0.8495247364 -0.2108406425 0.4726259708
-0.01494144462 -0.06944254786 0.5406403542 0.385825783 -0.3146849871 0.7180095911
-0.01777010784 -0.0725037083 0.5468171239 0.1037970632 -0.3647902608 0.8230515122
-0.0128291361 -0.06627490371 0.536023736 0.6653323174 -0.26740098 0.6210154295
-0.01684936322 -0.06675671041 0.5447844267 0.5668303967 -0.2953139842 0.688893497
-0.01077539939 -0.06665885448 0.5315512419 0.6664148569 -0.2601931989 0.5995986462
-0.00971417781 -0.07299346477 0.5278648138 0.3905407488 -0.3683718443 0.6159603
-0.005542059895 -0.06957662851 0.5193886161 0.6296991706 -0.2873893976 0.5297088027
-0.01590343565 -0.07414086908 0.5423656702 0.06086657196 -0.3847363293 0.8022736907
-0.01284281164 -0.0728623867 0.5355442762 0.2284461856 -0.3578266799 0.7207235098
-0.003737058956 -0.06266069412 0.5152999163 0.869538188 -0.1814413518 0.4491441548
-0.006647167262 -0.05697366968 0.5199934244 0.8809182644 -0.143867597 0.4339188337
-0.0118173752 -0.06001252308 0.5322281718 0.7949235439 -0.2010692954 0.5351192951
-0.006497213151 -0.06308479607 0.5214763284 0.8333127499 -0.2006777525 0.4914781749
-0.008516490459 -0.05271952972 0.5228301287 0.8930857182 -0.1140629798 0.4182735085
-0.008866250515 -0.05799242854 0.5251600146 0.8463163972 -0.1657258272 0.4745683074
-0.009665422142 -0.06292816252 0.5283750892 0.7969316244 -0.2166894972 0.5337920189
-0.01513592619 -0.06361084431 0.540569663 0.7264101505 -0.253326267 0.616155684
-0.03883728385 -0.09523418546 0.5182426572 -0.1085274667 -0.7805132866 0.6104598641
-0.005498789251 -0.08170488477 0.4971143901 0.5487898588 -0.3126280904 0.7604421973
-0.008762260899 -0.07723401487 0.4979362488 0.5069898367 -0.3423709571 0.7810314894
-0.01439493243 -0.07984450459 0.4984430969 0.5428438187 -0.3907663226 0.726644218
-0.02534733526 -0.08967608213 0.5008325577 0.3937901556 -0.5416830778 0.6776627302
-0.0312402118 -0.08995804191 0.5030252934 0.288410306 -0.5803829432 0.6835311651
-0.03419873491 -0.0967957899 0.5029132366 0.2691764832 -0.65664047 0.6433914304
-0.02229614556 -0.09725911915 0.4982971251 0.4872191548 -0.587238729 0.6248924732
-0.01978253387 -0.09004105628 0.498647511 0.4964773357 -0.5104947686 0.6680593491
-0.0172680039 -0.08377581835 0.498824954 0.5105434656 -0.4418314695 0.7050942779
-0.0424316898 -0.09596681595 0.506198287 0.1158005968 -0.7003298998 0.6594588757
-0.0279370863 -0.09686797857 0.5005158782 0.3830204904 -0.6186740398 0.6347634196
-0.06424589455 -0.1183042228 0.4962303638 0.4400411844 -0.6159206033 0.6498047113
-0.05693624541 -0.1197130904 0.4936354756 0.3083443344 -0.6048316956 0.6911368966
-0.05128251016 -0.1198599935 0.4906961918 0.1917322874 -0.6393850446 0.721865356
-0.06713169813 -0.1309335381 0.4895283282 0.5254567266 -0.5099154711 0.6810135245
-0.05389149487 -0.1239141077 0.4881387949 0.2586224973 -0.6050833464 0.7277448773
-0.06281691045 -0.1290496439 0.4882923365 0.45168522 -0.5353811979 0.6991785169
-0.06141224504 -0.1225938201 0.4908945262 0.4167421758 -0.5653903484 0.7041240931
-0.07134406269 -0.125070706 0.4990516007 0.6151589155 -0.4570575953 0.6111337543
-0.07469641417 -0.1335004866 0.4997097254 0.7480071187 -0.2985113561 0.5116266012
-0.05801374093 -0.1123207062 0.5005811453 0.3079695404 -0.6834862232 0.6468762159
-0.0695983544 -0.1171813831 0.5041644573 0.5309995413 -0.5688863993 0.6135577559
-0.06385836005 -0.1130121797 0.5037155151 0.4257736802 -0.6412391663 0.6255251169
-0.08141032606 -0.1609468311 0.5319354534 -0.6533534527 -0.5143553615 0.34679088
-0.08181101084 -0.156948179 0.5235164762 -0.2534228563 -0.405669868 0.3297174275
-0.07894980162 -0.1478705108 0.507396102 0.6199691892 -0.1866877228 0.3894423544
-0.07845968753 -0.1653361619 0.5265985131 -0.5813874602 -0.490336746 0.3137921691
-0.07882191986 -0.1522269547 0.5166760683 0.2290703207 -0.3014755249 0.4117177725
-0.08072958887 -0.1552985162 0.5311675668 -0.3810945153 -0.4663999975 0.4290279746
-0.07796584815 -0.1596357226 0.5282440186 -0.2945867777 -0.4552740157 0.4338290393
-0.07481837273 -0.1725568771 0.5310921073 -0.7527218461 -0.5428077579 0.3432161212
-0.05675816536 -0.1589970738 0.5731346011 -0.2981774807 -0.7675510645 0.5589289069
-0.06391660124 -0.1534103602 0.5732138157 -0.4171277285 -0.7310637236 0.5301366448
-0.08186925203 -0.1555765271 0.5387378931 -0.6750147939 -0.5546438694 0.4411043823
-0.07844667137 -0.154636994 0.5428122878 -0.6252626181 -0.5669508576 0.4342103601
-0.03168990836 -0.1545049548 0.5787207484 0.2484280467 -0.7061058283 0.6621539593
-0.05950972065 -0.1492503732 0.57898736 -0.2868980765 -0.7311244607 0.5893980861
-0.03867659345 -0.1493668705 0.5841194987 0.1180467904 -0.705070436 0.6929531693
-0.05253487453 -0.1495973766 0.5865569115 -0.05127573758 -0.7481654882 0.6586244702
-0.04663937539 -0.1493030339 0.5867046714 0.03327583149 -0.7137174606 0.6970001459
-0.0503414236 -0.1573262364 0.5817654729 -0.1143560782 -0.7634061575 0.6310255527
-0.03527351841 -0.1602465659 0.5729807019 0.2106325775 -0.7216041684 0.6451242566
-0.02867164277 -0.155978173 0.5744096041 0.3417499959 -0.6907141805 0.6326600313
-0.02901400253 -0.1605181843 0.5706054568 0.3476916254 -0.6994103789 0.6238617897
-0.02394578047 -0.1561112404 0.5727829337 0.3916240931 -0.6895503998 0.607003808
-0.02237226814 -0.1488755047 0.5782488585 0.3803521097 -0.6766495705 0.624098599
-0.03098569252 -0.1492359042 0.5819680691 0.2288656384 -0.6977522373 0.6705530882
-0.02671021782 -0.1503804922 0.5779960752 0.3182217479 -0.683229208 0.6419147253
-0.04057703912 -0.1655017734 0.5698139668 0.06647907197 -0.7505430579 0.6516161561
-0.03635654226 -0.1669879705 0.5669215918 0.1495402604 -0.7301077247 0.6638311148
-0.04525077716 -0.1669486761 0.5667637587 -0.04605125636 -0.7830458283 0.6179844141
-0.04012648761 -0.1598602831 0.5742011666 0.09525975585 -0.7358136177 0.6373520494
-0.05916543305 -0.173167035 0.5531677008 -0.4655323625 -0.6603341103 0.5826819539
-0.009139464237 -0.1540284157 0.5526099205 0.7253786922 -0.4384249449 0.5284489989
-0.007806480397 -0.1563053429 0.5487497449 0.7258886099 -0.4374090433 0.5304364562
-0.06222019717 -0.09313352406 0.5223593116 0.3423104882 -0.6864779592 0.6373300552
-0.02107929252 -0.05481397733 0.5307304859 0.7058124542 -0.09811773151 0.5824805498
-0.02338560112 -0.05871224776 0.5286620259 0.6133279204 -0.2155575007 0.5654001832
-0.02505400591 -0.05728031695 0.5333890319 0.5947001576 -0.1626031548 0.6116709113
-0.02309353836 -0.06255646795 0.5225749612 0.5757881403 -0.3413829207 0.5077518821
-0.03071904927 -0.06556653231 0.530195117 0.38216573 -0.4092582464 0.5874918103
-0.03258689493 -0.06953883916 0.5273268819 0.2980086505 -0.5308103561 0.5624191761
-0.03857073933 -0.07367630303 0.5307079554 0.1259125024 -0.6416583061 0.6005123854
-0.01806863397 -0.0600085333 0.5183796287 0.7097858787 -0.2783490419 0.4629887938
-0.019608628 -0.0564942807 0.5259518027 0.7174855471 -0.1583563983 0.535929203
-0.03597166017 -0.06804970652 0.5348443389 0.2441418916 -0.4693033993 0.6367681623
-0.02592897788 -0.06287906319 0.5265744328 0.51283741 -0.3407822549 0.5483864546
-0.01460114494 -0.0566053763 0.5178921819 0.820928812 -0.1814990342 0.4547801018
-0.02934653312 -0.06126502156 0.5343264341 0.4597032368 -0.275096029 0.6249790192
-0.04525211081 -0.07892470807 0.5383192301 -0.003476093523 -0.7251514196 0.6686080694
-0.03792105615 -0.08094804734 0.5387977362 -0.1138481721 -0.7000693083 0.6835807562
-0.02622731403 -0.1787997931 0.5522024632 0.322776854 -0.6149682999 0.7145535946
-0.02598595619 -0.1847898811 0.5465456247 0.3149043322 -0.6382124424 0.6996191144
-0.03217050806 -0.1821861118 0.550475359 0.1674426049 -0.6474198699 0.738440454
-0.0310357511 -0.1779973209 0.5538922548 0.2182317376 -0.6496963501 0.7206682563
-0.04136283696 -0.1812655628 0.5519334078 -0.02173007838 -0.6713909507 0.7304370999
-0.04437672719 -0.1913291812 0.5443916321 -0.13034226 -0.7011093497 0.6884592772
-0.03771988675 -0.1896651089 0.5451350808 0.03536631912 -0.7027199268 0.702647686
-0.03154369071 -0.1899936944 0.5459710956 0.1417947859 -0.6670867205 0.7279958129
-0.03804121912 -0.1861172467 0.5489702225 0.01589689404 -0.6800957918 0.7265478969
-0.007653553039 -0.161470592 0.5444449782 0.6942682266 -0.4579134881 0.553994
-0.01421864145 -0.1716289222 0.5484575629 0.6057595611 -0.5224068761 0.598631978
-0.01279131789 -0.1655006558 0.5509314537 0.6146811843 -0.5116372705 0.5957762599
-0.0118919909 -0.160255149 0.5530591011 0.6349300742 -0.5133562088 0.5745339394
-0.004742221907 -0.1664611846 0.5380417109 0.669385612 -0.4954382479 0.5528762937
-0.01127573196 -0.168083638 0.5469714999 0.6591642499 -0.4759963155 0.5812800527
-0.0128045762 -0.1755009145 0.5449239612 0.6219154 -0.5228311419 0.5822003484
-0.06925844401 -0.1820714027 0.5360223055 -0.6373351216 -0.5765454173 0.5105701089
-0.06895589083 -0.1688410491 0.5454072356 -0.6773318648 -0.5674734116 0.4680820405
-0.07115855068 -0.1700187624 0.5410121679 -0.6793651581 -0.564933598 0.4676839411
-0.07254096866 -0.1655700207 0.5432265997 -0.6882917881 -0.5650035739 0.4548039138
-0.06950945407 -0.175270915 0.5384364724 -0.6683938503 -0.5653087497 0.4830043912
-0.07490345836 -0.1680414081 0.5375927091 -0.6815116405 -0.5697404146 0.458904326
-0.0837911889 -0.1143363416 0.5228621364 0.572467804 -0.5704448819 0.588342905
-0.0826882273 -0.1164425313 0.5186793208 0.6006656885 -0.5363766551 0.5915581584
-0.07258418202 -0.09677384049 0.5280326605 0.4668786824 -0.6385955811 0.608809948
-0.07228370756 -0.1003308594 0.523594141 0.4892022014 -0.6222798228 0.6095831394
-0.07093812525 -0.1029838175 0.5198587775 0.4990121424 -0.6109207273 0.6140153408
-0.07708149403 -0.1057133824 0.5226510763 0.5272254944 -0.6021721363 0.598644197
-0.07498262823 -0.1084336638 0.5165529847 0.530929327 -0.595659852 0.6020550728
-0.07683803886 -0.1000801921 0.5261185765 0.5132322311 -0.6107742786 0.6028432846
-0.0273676049 -0.08686745912 0.5335214734 -0.2833199203 -0.7153923512 0.6376043558
-0.02840820514 -0.09049730003 0.5280379057 -0.2479501516 -0.7556470037 0.6041992307
-0.03339316696 -0.0848377943 0.5323140621 -0.2483779639 -0.7541843057 0.6077805758
-0.01637674496 -0.09441363811 0.4962978363 0.5916880369 -0.4749597907 0.6347798705
-0.0144674452 -0.0891950205 0.4962537587 0.6099102497 -0.3879155815 0.6714506745
-0.02028236352 -0.1104727387 0.5065217614 0.1708207428 -0.8088230491 0.5518978238
-0.0249260366 -0.1045560315 0.5119279623 0.04012268782 -0.8379392028 0.5328034163
-0.04235635698 -0.1210365966 0.4876443446 0.1206030399 -0.6660948992 0.7351945639
-0.03417867795 -0.1211228669 0.4874866009 0.1048903465 -0.6882884502 0.7174316645
-0.03961054981 -0.1170474067 0.4913500845 0.06942948699 -0.7033852339 0.7035035491
-0.05396485329 -0.1075151488 0.5009271502 0.2097387612 -0.719712615 0.6611879468
-0.06000123173 -0.1083361879 0.5031334162 0.3460728824 -0.6728538275 0.645195365
-0.006579183042 -0.06785875559 0.5036225319 0.5751488805 -0.3568073213 0.7000536323
-0.007951141335 -0.07222098112 0.5003982782 0.3510538042 -0.404446274 0.8443250656
-0.009434999898 -0.06399482489 0.5052252412 0.6631887555 -0.3226074874 0.6235526204
-0.01300407201 -0.07505428046 0.4990297556 0.4885359108 -0.3717758656 0.7739226818
-0.03784482554 -0.09249024093 0.5050988197 0.1775820255 -0.6446731091 0.6771224737
-0.01929302886 -0.07808207721 0.5010823011 0.3437641561 -0.4613206089 0.7778089643
-0.02531749196 -0.0843289122 0.5018030405 0.3644908965 -0.4977295697 0.7130025625
-0.06879732013 -0.1198985875 0.4985740781 0.500652194 -0.5781980157 0.6365683675
-0.06666685641 -0.1227719411 0.4945578277 0.5206272006 -0.5290256143 0.6664042473
-0.07364968956 -0.1307059377 0.4942949712 0.5713282228 -0.4936830103 0.6553761363
-0.07764582336 -0.1351177096 0.4960502684 0.6389570236 -0.4369952679 0.6205205917
-0.07040610164 -0.1261514276 0.493760705 0.5449370146 -0.4980261624 0.6728551984
-0.08110395074 -0.1347973645 0.4997060895 0.7241303325 -0.3583257198 0.5769212842
-0.07700647414 -0.1288662404 0.4989771247 0.6369725466 -0.4417825639 0.6183198094
-0.07563961297 -0.1214165837 0.5057569146 0.6236730814 -0.4947982132 0.6042450666
-0.0814017877 -0.1612553895 0.5188224316 -0.2832853198 -0.3808603287 0.2313608974
-0.08142822236 -0.1584348381 0.5149689317 -0.0775827989 -0.316590637 0.2162956595
-0.08250337094 -0.1451409906 0.5024449229 0.8114604354 -0.1198280677 0.3089631796
-0.08031104505 -0.1661515087 0.5224503279 -0.5952913761 -0.4367522001 0.1793596298
-0.07931752503 -0.152856797 0.5103465319 0.294464767 -0.2515345216 0.3250119388
-0.08100829273 -0.1614037305 0.5377771854 -0.7106532454 -0.553288281 0.4332326651
-0.05667499825 -0.1541627198 0.5817100406 -0.1902805567 -0.7655024529 0.6107856631
-0.05243017897 -0.1606637985 0.5771454573 -0.2008210868 -0.7759968042 0.5962201953
-0.05580540746 -0.1631033421 0.565612793 -0.2972346544 -0.7442241311 0.5455856323
-0.0507184118 -0.1652056724 0.5657998323 -0.178773284 -0.7620359659 0.5806000233
-0.05706420541 -0.1681162864 0.561811626 -0.3772996962 -0.7293985486 0.5622172356
-0.05254208669 -0.1634717733 0.5722676516 -0.2251271755 -0.7714716792 0.585745573
-0.04778402671 -0.1647403389 0.570204556 -0.1002062783 -0.7751835585 0.6085779071
-0.08110660315 -0.1435626596 0.5432236195 -0.3369347751 -0.5887232423 0.4699393213
-0.07865037024 -0.1500366032 0.5413222909 -0.4805562496 -0.5696635246 0.450283289
-0.08046576381 -0.1398590356 0.5358549356 -0.1652430296 -0.5695391297 0.4904686511
-0.07942651212 -0.1451871693 0.5383499265 -0.3264267445 -0.568297565 0.4698341489
-0.08146999776 -0.1340238005 0.5325689316 0.0171418488 -0.5689294934 0.5136747956
-0.08099063486 -0.1472390145 0.5474295616 -0.474452734 -0.5967060328 0.4529739916
-0.08320047706 -0.1250853837 0.5283297896 0.2881091237 -0.5708218217 0.5483498573
-0.08284052461 -0.1336381435 0.5371011496 -0.02336792275 -0.5859184861 0.5101780891
-0.08224407583 -0.1491177827 0.5381712914 -0.4838797748 -0.563642323 0.4616627693
-0.0814216882 -0.1517733037 0.549334228 -0.629440248 -0.5960289836 0.4372779727
-0.08241257071 -0.138184011 0.5412700176 -0.1819730252 -0.5920885801 0.4902916849
-0.02075086534 -0.1618562639 0.5579465032 0.4583537877 -0.5895380974 0.6077049375
-0.02509551682 -0.1649560779 0.5586446524 0.3597356081 -0.6249531507 0.6334390044
-0.04242305085 -0.1685546637 0.5620179772 -0.01814159006 -0.7120071054 0.6276184916
-0.03515932336 -0.170302704 0.5621036291 0.1526534259 -0.7151434422 0.6778727174
-0.03077737615 -0.1643748581 0.5671331286 0.3085298538 -0.6964215636 0.6453129053
-0.027517654 -0.1666499078 0.5633358359 0.3559678197 -0.6670780182 0.6519744992
-0.02322948352 -0.1586690396 0.5679949522 0.4514980614 -0.6728619933 0.5842505097
-0.02553704567 -0.1626110077 0.5658986568 0.4094929993 -0.6730327606 0.6145667434
-0.01875515841 -0.1518707275 0.5724141598 0.462192297 -0.6450558901 0.6081528664
-0.04422153533 -0.1625631005 0.5745440722 0.01212174911 -0.768574357 0.6359339952
-0.04697525501 -0.1608105451 0.5785685778 -0.05048109964 -0.7569950223 0.6501505971
-0.0411057435 -0.1555782706 0.5811950564 0.07969272882 -0.7246507406 0.6793837547
-0.05296425894 -0.1506854296 0.5787343383 -0.1590015441 -0.7255215049 0.6091275811
-0.03675887734 -0.152253136 0.5803943872 0.1507503688 -0.7088857293 0.6719955206
-0.04670473188 -0.1510046721 0.5796107054 -0.0419059433 -0.7189332247 0.6343458295
-0.04531294852 -0.1562810391 0.5761303902 -0.001517414348 -0.7297627926 0.6228289008
-0.05738662556 -0.1531535834 0.5766337514 -0.2567292452 -0.7430823445 0.5823583007
-0.05213437229 -0.1557610482 0.5758194923 -0.1574818641 -0.7446722388 0.5957997441
-0.05283080786 -0.1843849272 0.545935452 -0.3124733567 -0.6623991728 0.6706424356
-0.0539810285 -0.177507326 0.5509198308 -0.3253827393 -0.6671661139 0.6364357471
-0.07244525105 -0.07287720591 0.5519058108 0.3379540741 -0.7406517863 0.5795083642
-0.07628274709 -0.07571969181 0.5515525341 0.3699617088 -0.7231322527 0.5831463337
-0.0774384588 -0.0795526579 0.5484837294 0.4225713015 -0.684893012 0.5918988585
-0.07339891046 -0.08066045493 0.543494761 0.4303035438 -0.6807668209 0.5904326439
-0.08260056376 -0.08120192587 0.5531889796 0.4185262024 -0.686882019 0.5936911702
-0.02297798544 -0.07797423005 0.505492866 0.2253804505 -0.520223856 0.7824325562
-0.02794065885 -0.08240678161 0.5055253506 0.1899804622 -0.567771852 0.7555887699
-0.03351112455 -0.08449920267 0.5109151602 0.1086633801 -0.6272661686 0.7227132916
-0.0424093008 -0.08963739872 0.5161901712 0.004669615533 -0.7184875011 0.6719077826
-0.04325876012 -0.09283202142 0.5116725564 0.03374320269 -0.7214528322 0.6696314216
-0.04722933099 -0.09813083708 0.5084445477 0.03069480322 -0.7557736635 0.6498219371
-0.06646472216 -0.1023348942 0.5168514252 0.4529720247 -0.6332579851 0.6226078868
-0.06495034695 -0.1039620712 0.5122244358 0.446424365 -0.6389696598 0.6249370575
-0.0508008115 -0.1055503413 0.5067647696 0.1423022896 -0.731077075 0.6508946419
-0.05672127381 -0.1068925709 0.5064521432 0.2875126004 -0.7015946507 0.6441451907
-0.02524039708 -0.08032291383 0.544898808 -0.12717022 -0.5622346401 0.7993741632
-0.01948453858 -0.07795622945 0.5491844416 -0.1145400479 -0.4637743235 0.8725256324
-0.02744865417 -0.05521510914 0.5446745157 0.2423094511 -0.1261082888 0.8395677805
-0.02904177457 -0.05711868405 0.5399959087 0.5072384477 -0.1425233483 0.6802328825
-0.03921108693 -0.07052780688 0.5382205844 0.01070327405 -0.5538603067 0.7222405672
-0.03349472955 -0.06299021095 0.5392167568 0.2899544537 -0.3226206899 0.6985597014
-0.02339069918 -0.04998151958 0.5420923829 0.7084933519 0.07827246934 0.6970542073
-0.06965539604 -0.07739879936 0.5435085893 0.3499127328 -0.7270542979 0.5898912549
-0.06323301792 -0.09762024879 0.5172458887 0.3692738414 -0.6875385046 0.6250896454
-0.06591692567 -0.09134571999 0.5256624222 0.3951562047 -0.6643624306 0.6315411329
-0.05776134133 -0.1022755802 0.5123091936 0.3098756969 -0.7036546469 0.6379187703
-0.06518363208 -0.1090082899 0.5089250207 0.4394218028 -0.6566417217 0.6051892042
-0.06838208437 -0.1129361317 0.5061762929 0.4899091125 -0.6267778873 0.6032182574
-0.0734276399 -0.115231216 0.5083784461 0.5585452318 -0.5780454874 0.5943503976
-0.07167244703 -0.1108510718 0.5113494992 0.5220189095 -0.6128664017 0.5920442939
-0.07880789787 -0.112446554 0.5184727907 0.5499777794 -0.5882197022 0.5912318826
-0.07581553608 -0.1140941009 0.5131728649 0.5643003583 -0.572322011 0.5892783999
-0.0696394369 -0.1058851629 0.5152381063 0.4994050264 -0.6233487725 0.6013375521
-0.01454826538 -0.1039749384 0.4949000776 0.5366038084 -0.5509285331 0.5973342061
-0.02580359392 -0.1175225005 0.4898342192 0.1981047541 -0.7046840787 0.6478998661
-0.02074074931 -0.1122078001 0.4920440316 0.3387838006 -0.6431173086 0.6244969964
-0.0221786797 -0.1133443043 0.501449883 0.2109641433 -0.7938394547 0.5690691471
-0.004576528911 -0.09578838944 0.4974636734 0.6274204254 -0.3784722388 0.6686362624
-0.006978017278 -0.1015741676 0.497510463 0.6411627531 -0.502605021 0.5740852952
-0.01008667331 -0.09745173901 0.5066470504 0.4152584076 -0.5467060208 0.6121864319
-0.009215494618 -0.1007406265 0.5017666221 0.5322058201 -0.5477164984 0.5776621699
-0.01390068885 -0.09887266159 0.5106057525 0.303776741 -0.6388623714 0.5883075595
-0.004581456538 -0.09358630329 0.5029296279 0.5302356482 -0.4026085138 0.6667284966
-0.01041019801 -0.09707519412 0.4961012304 0.6224648952 -0.4402695894 0.6390875578
-0.008424938656 -0.09188250452 0.4961844683 0.6189361215 -0.3446674645 0.7011365294
-0.00875741709 -0.08712948114 0.4961384833 0.6326257586 -0.2956902087 0.7148658037
-0.03072639182 -0.114897646 0.4893564582 0.2022881806 -0.6511662602 0.696277976
-0.02396798879 -0.1074898988 0.4918456674 0.3842814863 -0.5803481936 0.6577090025
-0.01951646619 -0.1022040099 0.4938502014 0.5086862445 -0.5375817418 0.6298927665
-0.02950869687 -0.1096050665 0.4939175844 0.2307952493 -0.6725286245 0.660202682
-0.03035646677 -0.09783983976 0.5195636153 -0.07422976196 -0.8038140535 0.5798510313
-0.03764997423 -0.0988773033 0.5151497722 -0.09283579886 -0.7850267291 0.6081022024
-0.0327071026 -0.1002343968 0.5162495971 -0.0390939191 -0.8039546013 0.5870004296
-0.03377082199 -0.09395991266 0.5215054154 -0.1701005846 -0.7818906307 0.5972206593
-0.02714740671 -0.101351954 0.5162948966 -0.01525953971 -0.8301675916 0.5537448525
-0.02795533463 -0.094624497 0.5232695341 -0.166483894 -0.8079568148 0.5591731668
-0.0330603905 -0.1138134226 0.4959836304 0.07327648252 -0.7597953081 0.6412478089
-0.03790603951 -0.1010049358 0.5024873018 0.2059720606 -0.7000020146 0.63747859
-0.04444398358 -0.1020535976 0.5041688085 0.08287962526 -0.7404443622 0.6486464143
-0.02739682235 -0.1014533341 0.4981093705 0.3939710259 -0.6348856688 0.6253767014
-0.03404006362 -0.10340368 0.4991234243 0.2648070753 -0.6759344339 0.6391496658
-0.08000316471 -0.1669816971 0.5323254466 -0.76107651 -0.539806664 0.3396343589
-0.07395131886 -0.1740779877 0.5359156132 -0.6833636761 -0.5549743176 0.4741584361
-0.07985857874 -0.1711430103 0.5267325044 -0.8392537832 -0.4989069402 0.1705729216
-0.07264499366 -0.1788244843 0.5331457257 -0.6596054435 -0.5701397061 0.4891614616
-0.07926177979 -0.1524928957 0.5564576387 -0.64627707 -0.6237428188 0.4359872043
-0.07572349161 -0.1536833495 0.5604295135 -0.6229161024 -0.6437092423 0.4410789907
-0.06942348927 -0.1510889679 0.5717822909 -0.4613556564 -0.7050849795 0.5227973461
-0.06595042348 -0.1502117366 0.5759245157 -0.4035276175 -0.7262273431 0.5504841805
-0.07119125873 -0.152676627 0.5665287375 -0.54225564 -0.6754467487 0.4795677662
-0.06248520687 -0.1531809419 0.579022944 -0.3090456724 -0.7621931434 0.5627150536
-0.06777498126 -0.1566213518 0.5698570013 -0.4800184965 -0.7160897255 0.5064477324
-0.06265192479 -0.1594434381 0.5696995258 -0.4143153429 -0.7429335117 0.5230697989
-0.01593988948 -0.1617338061 0.5580649972 0.5761139393 -0.5624377728 0.5900666118
-0.01786531322 -0.1693118364 0.5540114641 0.5467792153 -0.5504645705 0.6298679113
-0.0143663818 -0.1566364914 0.5588034391 0.5988532305 -0.5516839623 0.5716168284
-0.02075688727 -0.1599781662 0.5632576346 0.4945299327 -0.6266449094 0.590749979
-0.01674657129 -0.1562063992 0.5654186606 0.514614284 -0.6249015331 0.5864887238
-0.05442389473 -0.1903283596 0.541831553 -0.323230952 -0.6806399822 0.6555423141
-0.05731290579 -0.186034441 0.5425068736 -0.4244027138 -0.6582854986 0.6097798347
-0.05758406594 -0.1810810119 0.5471727252 -0.4246413708 -0.6659116149 0.6048775911
-0.07119657844 -0.1584212333 0.5610738397 -0.6029710174 -0.659840703 0.446211338
-0.07232709229 -0.1612568945 0.5562166572 -0.6286643147 -0.641869843 0.4385819733
-0.07833630592 -0.16147995 0.5439090133 -0.6872173548 -0.5775517225 0.4377899468
-0.07819345593 -0.1591220349 0.5482022166 -0.6732866168 -0.5956792235 0.4353741407
-0.07930409908 -0.1555617154 0.551854074 -0.6655466557 -0.6074516177 0.4324010611
-0.07398915291 -0.1576747298 0.5533457994 -0.6444686651 -0.6256399155 0.4363797307
-0.04261916876 -0.07867406309 0.5306935906 -0.01067092177 -0.7268083096 0.627137363
-0.03505048528 -0.07432024181 0.525515914 0.1931955814 -0.6079467535 0.5974357724
-0.04943137243 -0.08191453665 0.5342479348 0.07263317704 -0.7361124158 0.648733139
-0.03849330544 -0.08338406682 0.5332861543 -0.1623880565 -0.7496297359 0.6181511879
-0.05804726109 -0.08487274498 0.5307553411 0.2234606594 -0.7357479334 0.6308321953
-0.06320540607 -0.08891554922 0.5296443105 0.3221578002 -0.7000564337 0.6244068146
-0.05662659183 -0.09021501988 0.5230314732 0.2299773246 -0.7258004546 0.6459069848
-0.04522929713 -0.08355205506 0.5319488049 -0.03022541665 -0.7527701855 0.6223303676
-0.05255429447 -0.0953392908 0.5165981054 0.1391910613 -0.752995491 0.6370605826
-0.04853558168 -0.09284394979 0.5185153484 0.02510550804 -0.7575204968 0.6433142424
-0.04741841927 -0.09779714793 0.5143656135 0.051346872 -0.762839973 0.6273474097
-0.0448109135 -0.1009377092 0.511580646 -0.007667325903 -0.7650523782 0.6266562939
-0.0586597845 -0.09832295775 0.5144429207 0.2882644534 -0.7140203714 0.6285001636
-0.0586338304 -0.09399066865 0.519444406 0.2819031477 -0.7086159587 0.6439591646
-0.08128263056 -0.09622105211 0.5363351107 0.5232092738 -0.6114591956 0.5935558081
-0.08109293878 -0.09989908338 0.5312084556 0.5247195959 -0.6056400537 0.5981480479
-0.0760814026 -0.09723003209 0.5320577621 0.4826668799 -0.629940331 0.6051656008
-0.07961984724 -0.104028523 0.528098464 0.5148673058 -0.6082876921 0.6023132205
-0.08012904227 -0.08490847796 0.5500684977 0.430149883 -0.6747306585 0.5969168544
-0.08151281625 -0.08935321122 0.5459268689 0.4747902155 -0.6464773417 0.593900919
-0.08153042942 -0.09238206595 0.5407748818 0.5076767206 -0.624153316 0.5924694538
-0.07783953846 -0.08375881612 0.5450829268 0.4558319151 -0.6616793275 0.5942623615
-0.07387497276 -0.08575683087 0.5416786671 0.4275871217 -0.6754829288 0.5955572128
-0.07721973956 -0.09026939422 0.5408018231 0.4726144075 -0.646209538 0.5938566327
-0.03495915234 -0.07669154555 0.5433548689 -0.1391347945 -0.6218786836 0.7617918253
-0.03127400205 -0.08067249507 0.5412228703 -0.204066515 -0.667728126 0.7118358612
-0.02956932783 -0.06175380945 0.5492396355 0.1052348688 -0.2609812319 0.8764842749
-0.02286903001 -0.06151458621 0.5495793223 0.5511462688 -0.2766453922 0.6870382428
-0.03219350055 -0.06939522177 0.5497354269 -0.09451433271 -0.316991806 0.9367751479
-0.02826776542 -0.07278649509 0.5485360622 -0.1160531342 -0.3583685458 0.9225943089
-0.02777503058 -0.06655167788 0.5507354736 -0.03427007794 -0.3174783289 0.9435073733
-0.0232526958 -0.06763125956 0.5501565933 -0.01906799898 -0.3670553565 0.926925838
-0.0237819422 -0.07536360621 0.5484455824 -0.1202354506 -0.4110415876 0.9027792811
-0.03954018652 -0.06436029822 0.5518578887 -0.04053431377 -0.3521546125 0.9270656109
-0.04431514069 -0.06450340152 0.5484613776 0.03258288279 -0.5439143181 0.7854709029
-0.05160822347 -0.06753747165 0.548183322 0.1170530319 -0.7095254064 0.6699057817
-0.04147843271 -0.06879030168 0.5490356684 -0.04188282415 -0.5293703079 0.8424069881
-0.04039005935 -0.07293701172 0.545212388 -0.06284538656 -0.6252923608 0.76974231
-0.03437536582 -0.0628118813 0.5456417799 -0.08906357735 -0.3822032511 0.8923758864
-0.03719162941 -0.06698788702 0.5425041318 -0.08319602162 -0.4842483401 0.8248186111
-0.0680488199 -0.08174066246 0.5392492414 0.3738462627 -0.706204474 0.5997521281
-0.06605237722 -0.0859926939 0.534309268 0.3600481153 -0.6948957443 0.6146937609
-0.06315208972 -0.08321064711 0.5317673087 0.3380923569 -0.7017992735 0.6258603334
-0.06937047839 -0.07423773408 0.5476859808 0.3361168802 -0.7411379814 0.5800432563
-0.06436625868 -0.07779153436 0.5385532975 0.3224011362 -0.728310883 0.6040863991
-0.03900983185 -0.1018168703 0.5102002621 -0.06940520555 -0.7874962091 0.6116894484
-0.04472451657 -0.1093253419 0.5011166334 0.0288986247 -0.7537381053 0.654820323
-0.04072144628 -0.1059805304 0.5048815012 -0.01468541659 -0.7770978212 0.6260644197
-0.03183806688 -0.1026392356 0.5109007359 -0.0448923558 -0.8201233149 0.5679777861
-0.03437890112 -0.1049119532 0.5061403513 -0.02998368442 -0.8071827292 0.5888903737
-0.02576108277 -0.1101556271 0.5031787157 0.1752870828 -0.7949710488 0.5720356107
-0.02607111074 -0.1067011729 0.507966876 0.09689103812 -0.8189022541 0.5508475304
-0.03056534193 -0.1100473106 0.5016220212 0.08672443032 -0.7998822331 0.5862139463
-0.03438317776 -0.1089409739 0.4973377883 0.09122829139 -0.7210157514 0.6610713601
-0.04013765231 -0.1074052081 0.4986775815 0.1149210408 -0.7197219133 0.6589148045
-0.03556468338 -0.1080526263 0.502450943 0.02514537983 -0.7787876129 0.6235050559
-0.06211831421 -0.1830233335 0.5415844917 -0.5540601611 -0.6395067573 0.5309438705
-0.0627906844 -0.1767911017 0.5458136797 -0.541064918 -0.6192916632 0.5606410503
-0.06618484855 -0.1793547869 0.541242063 -0.6094714999 -0.5912232399 0.5278638601
-0.06702956557 -0.17364721 0.5448682904 -0.6176787019 -0.595272541 0.5118610263
-0.07193475962 -0.1665783525 0.5492451191 -0.6485000849 -0.6129008532 0.4493746459
-0.06751722842 -0.1689849049 0.5510138869 -0.6038079858 -0.6353547573 0.4779132009
-0.04162349552 -0.08707680553 0.5258680582 -0.1135684028 -0.7717303634 0.6216024756
-0.03569589555 -0.09006724507 0.5249661207 -0.1735640764 -0.7750848532 0.6045309305
-0.0514806062 -0.08786106855 0.5245650411 0.08777420223 -0.7569111586 0.638231039
-0.04691245034 -0.08959615231 0.5217146873 -0.02871508338 -0.7601062655 0.6449234486
-0.03956979141 -0.09143771231 0.5224165916 -0.1082814783 -0.7701238394 0.6179381609
-0.01882375032 -0.07040517032 0.5089232326 0.4948004484 -0.435551703 0.6380398273
-0.02189563401 -0.07396535575 0.5092011094 0.3276412487 -0.4962283671 0.706626296
-0.03485285863 -0.08167794347 0.5174376965 0.06464543939 -0.6603424549 0.6909424663
-0.02634475566 -0.07677128166 0.5118768215 0.2277945578 -0.5545620322 0.7078236341
-0.01380205061 -0.06718340516 0.5059561133 0.6108093858 -0.3690227866 0.6344032288
-0.01466756035 -0.07141900808 0.502908051 0.3680686951 -0.4267536104 0.7886971235
-0.03146848828 -0.08066109568 0.514072001 0.104285188 -0.6209019423 0.7210766673
-0.0395699814 -0.08487544209 0.5195783377 0.005708342418 -0.7074139714 0.6713961363
-0.0163348671 -0.06543815136 0.5107529759 0.6747989058 -0.3437740505 0.5462996364
-0.02224220894 -0.07049194723 0.5129981041 0.5077245235 -0.4471809864 0.5747481585
-0.02921730094 -0.07169099152 0.5207400322 0.3472442925 -0.5174151063 0.57311064
-0.04079737142 -0.08217012137 0.5243617892 0.03945650905 -0.7051850557 0.6149969697
-0.02559813298 -0.06996288151 0.5178419352 0.4479231834 -0.4611622989 0.5591308475
-0.07017003 -0.08831236511 0.5322140455 0.4393760562 -0.6567688584 0.6095651388
-0.07033936679 -0.08625669777 0.5372528434 0.4129334688 -0.6796861291 0.6033067703
-0.07515070587 -0.08897029608 0.5358815789 0.4849250019 -0.6420252919 0.5932051539
-0.07358643413 -0.09250989556 0.5307528377 0.4874235392 -0.6339929104 0.5999483466
-0.06082479283 -0.07556989044 0.5454154015 0.2280553281 -0.7333100438 0.6281549335
-0.07174755633 -0.07974850386 0.5488901734 0.3402093351 -0.7085635662 0.6084900498
-0.06586401165 -0.07765950263 0.5465167761 0.2844350934 -0.7213670611 0.6179377437
-0.04562885314 -0.07426911592 0.5402015448 -0.03275917843 -0.7063000798 0.6987719536
-0.04773220792 -0.07119185477 0.5450274944 0.02653108351 -0.6787270904 0.7237185836
-0.05499564856 -0.07200548798 0.5452962518 0.1547157615 -0.7564277649 0.633264482
-0.0642208159 -0.07154841721 0.5476998091 0.2797034085 -0.7695521116 0.5709782243
-0.0594432652 -0.07060874999 0.5474740267 0.2031564862 -0.7764097452 0.5929920077
-0.03774599358 -0.1132772937 0.4947219789 0.03177825361 -0.734901309 0.6772475839
-0.04347236454 -0.1135934666 0.4941708446 0.04869906232 -0.7254346013 0.6865070462
-0.04655549675 -0.1182301641 0.4887954295 0.1070455015 -0.6644825935 0.7393301725
-0.04840757325 -0.1109401211 0.4967559874 0.1158128083 -0.7220843434 0.6775199175
-0.0483997725 -0.1147979349 0.4924991429 0.1283563823 -0.6869806647 0.7118881941
-0.0533714965 -0.1120219454 0.4962757826 0.2261093259 -0.689928174 0.6842862964
-0.05114572495 -0.07417996973 0.541333735 0.07948711514 -0.755910337 0.6435210705
-0.05292867124 -0.0771207884 0.536532104 0.08078114688 -0.7669661641 0.63331002
-0.05950931087 -0.07804960757 0.5397154093 0.235410288 -0.736101985 0.6245064735
-0.05832535401 -0.08076921105 0.535422802 0.2177325338 -0.7426618934 0.626707375
-0.05603356287 -0.07450836152 0.5402214527 0.1627047211 -0.7559090853 0.6287322044
-0.05415236577 -0.08169995248 0.5314564109 0.1188185662 -0.7637237906 0.6317411065
-0.05051544309 -0.08400899172 0.5288563967 0.0513387844 -0.7611253858 0.6341407299
