# .PCD v0.7 - Point Cloud Data file format
VERSION 0.7
FIELDS x y z normal_x normal_y normal_z
SIZE 4 4 4 4 4 4
TYPE F F F F F F
COUNT 1 1 1 1 1 1
WIDTH 512
HEIGHT 1
VIEWPOINT 0 0 0 1 0 0 0
POINTS 512
DATA ascii
-0.04337998107 -0.09476967156 0.6505631804 0.6717495918 -0.5492202044 0.4964766502
-0.05005021393 -0.09847825766 0.6541298628 0.6988104582 -0.5186677575 0.492487967
-0.04212349653 -0.09781217575 0.645772934 0.6766047478 -0.5429030657 0.4962612689
-0.0519711189 -0.1813617051 0.6224852204 -0.9424089789 -0.1763421595 0.2652166188
-0.04672570899 -0.1870922744 0.6329200864 -0.8613930345 -0.3641368151 0.3538939357
-0.04880165309 -0.1835380197 0.6275069714 -0.8775396347 -0.3309575915 0.3416168392
0.08949043602 -0.1241642088 0.6045384407 0.3029762805 -0.6486017704 0.6927821636
0.09175910801 -0.1175131351 0.6069486737 0.387465626 -0.6568949819 0.6462487578
-0.03879377991 -0.09215413034 0.646497488 0.6451266408 -0.5798987746 0.4963523149
-0.0333965756 -0.08790584654 0.6426970363 0.6194677949 -0.6070256829 0.4965884387
-0.04430971295 -0.1027403772 0.6410866976 0.6951609254 -0.5215670466 0.493750751
0.07412675768 -0.1313112676 0.5992535353 0.0759697631 -0.6564664245 0.7504781485
-0.04904497415 -0.1797467619 0.6333149672 -0.9054899812 -0.257645458 0.3227320313
-0.04499363527 -0.1789610833 0.6394459605 -0.8917981386 -0.2551314533 0.3350767195
-0.04214986414 -0.1806301028 0.6464059949 -0.8547616601 -0.3358243406 0.3777408302
-0.0438365601 -0.193614319 0.6375170946 -0.838373065 -0.3858132064 0.3752038181
-0.03405984491 -0.2076386958 0.6451141238 -0.6736341715 -0.4463763535 0.5831299424
-0.04140259698 -0.1990491748 0.640191555 -0.7887806892 -0.4104799926 0.4393980205
-0.03646554425 -0.2013302594 0.6446573734 -0.7397359014 -0.4146265984 0.5188602209
0.05350903794 -0.1780816317 0.6691342592 0.6843981147 -0.5186668038 0.509046495
-0.03756375611 -0.09687994421 0.6408393979 0.6673116088 -0.5515193343 0.4992658794
-0.03476189077 -0.09723667055 0.6350866556 0.658008635 -0.5626316071 0.4996882677
-0.04135699943 -0.173639223 0.6582274437 -0.7673196197 -0.4176953137 0.4843427539
-0.04227503389 -0.1411067843 0.6020901799 0.6859053373 -0.5015640855 0.5133293271
-0.0456266813 -0.1571508795 0.6071856618 -0.07331993431 -0.2987706065 0.3810990155
-0.05321089923 -0.1748483926 0.6171178818 -0.8509884477 -0.07173673064 0.1867372841
-0.04778992757 -0.162691012 0.6102048755 -0.3184884787 -0.2284509391 0.3232374489
-0.04072873667 -0.1470893472 0.6020559669 0.3721341193 -0.4329784513 0.5017512441
-0.04946748167 -0.169225052 0.6147478223 -0.6004450917 -0.1540057659 0.2706444561
-0.04885583743 -0.1758091897 0.6213585734 -0.8714696765 -0.09915877134 0.2575288117
-0.04761706293 -0.1638384759 0.6236951947 -0.3117381632 -0.2812898457 0.360681057
-0.04871469364 -0.1695252508 0.6207745075 -0.5761419535 -0.1733407974 0.3000979424
-0.04746225104 -0.172904253 0.6313299537 -0.7241861224 -0.2263334543 0.3233735561
-0.04639377818 -0.1615936905 0.6299462318 -0.2036096454 -0.3724868596 0.4091810882
-0.04643963277 -0.1563000977 0.6257756352 0.03743498027 -0.4073158205 0.4323514998
-0.04762539268 -0.1584485173 0.6196962595 -0.06612284482 -0.3191120625 0.3854671121
-0.04765675589 -0.1690663397 0.6272656322 -0.5501933098 -0.2416674197 0.3351538777
-0.04616743326 -0.1506642252 0.6282118559 0.119678624 -0.4179095626 0.4405355155
-0.04640815035 -0.1473816931 0.622941792 0.316246748 -0.4390941262 0.4555372
-0.04760508239 -0.144195497 0.6156310439 0.4421693683 -0.3961364329 0.4345104694
-0.04862931743 -0.1514402926 0.6185199618 0.06683529913 -0.286119312 0.3674280345
-0.04676920921 -0.1395972967 0.6200917959 0.5084782243 -0.433809489 0.4574117362
-0.04700522497 -0.1667564511 0.6349050403 -0.5230032206 -0.29099828 0.3581880927
-0.04676990956 -0.1720834523 0.6389685273 -0.7225673795 -0.2776526213 0.3467967808
-0.04566794261 -0.1752274334 0.645326972 -0.8309416175 -0.3199309707 0.3676741719
-0.05015719309 -0.176012978 0.6273236275 -0.9045629501 -0.08236756921 0.2363449186
-0.05132171512 -0.1637009531 0.6159012318 -0.3270024061 -0.2054025978 0.285374254
-0.04397872463 -0.1447120905 0.6060820818 0.534100771 -0.4564113319 0.4805270433
-0.0465477109 -0.1480385065 0.6118892431 0.4020707011 -0.4107470214 0.4456934631
-0.04929146543 -0.1566404849 0.6129348278 -0.003763723187 -0.2965538204 0.3516715467
-0.04236515239 -0.1937159747 0.6438965201 -0.8126736283 -0.3935310543 0.4249926805
-0.04223342985 -0.1787740588 0.652651906 -0.8020837903 -0.3929437697 0.4452813566
-0.04548434913 -0.1867078543 0.6387789249 -0.8576470017 -0.3629458249 0.3640105426
-0.04252839461 -0.1862546951 0.6437417865 -0.8333970308 -0.3795031905 0.3982127011
0.06943193078 -0.1144195199 0.6295093298 -0.1083721295 -0.6602507234 0.7185495496
0.06921027601 -0.1106627882 0.6336054206 -0.1115905866 -0.6786461473 0.6995340586
0.07913781703 -0.1106836647 0.6293117404 0.1023112163 -0.7310225368 0.6502885222
0.07114073634 -0.1203312948 0.6224782467 -0.07400315255 -0.6384929419 0.7417115569
0.07470375299 -0.1146858856 0.6269573569 0.005110383499 -0.6867344975 0.6937656999
0.08239375055 -0.1185069233 0.6195793748 0.1692240089 -0.7074880004 0.6759947538
0.07841423899 -0.1243168041 0.6151043177 0.08106797189 -0.6561877728 0.7268921137
0.08018890768 -0.1053486019 0.6345411539 0.1271711737 -0.7643675804 0.6164932847
0.08602097631 -0.1196302399 0.6129103899 0.2512193322 -0.6860573292 0.6690627337
0.08863189816 -0.1131604016 0.6153339148 0.3138381541 -0.7038573027 0.6257821321
0.08502098918 -0.1111098677 0.6232670546 0.2322666496 -0.7327242494 0.6272989511
0.08408331871 -0.1257254332 0.6097843647 0.204155907 -0.6665561199 0.708045125
0.07442759722 -0.1077563837 0.6353960633 -0.002212633844 -0.7140406966 0.6648682952
0.07026530802 -0.1085832044 0.6405357122 -0.09686028212 -0.68837291 0.6960178614
0.05343713239 -0.1725676209 0.6719828844 0.6726263165 -0.5047707558 0.5307506323
0.05589844286 -0.1766656935 0.6641857624 0.7282239199 -0.4882897139 0.478433013
0.04486139864 -0.1711278856 0.6834010482 0.5399743319 -0.5764857531 0.6078096628
0.05061076209 -0.1712894291 0.6784700155 0.6117277145 -0.5439134836 0.5741668344
-0.0322368145 -0.09906964749 0.6282028556 0.6219149828 -0.5666896701 0.5391548872
-0.01884508878 -0.09493283182 0.6203290224 0.4526872337 -0.6289988756 0.6285177469
0.003926883917 -0.1285502911 0.5706101656 0.06256138533 -0.7484070063 0.6597127914
0.07375424355 -0.1342339069 0.6061444283 0.009737754241 -0.6938622594 0.6891748905
0.06549286842 -0.1303046495 0.6110569835 -0.1526604444 -0.733608067 0.6416444778
0.06426110119 -0.1418695301 0.6055985093 -0.140650183 -0.7771239877 0.6112549305
0.06665731221 -0.1351144016 0.6081961393 -0.1170827001 -0.7411721349 0.6401818395
0.07625363022 -0.152113229 0.6097364426 0.5046480894 -0.4114243388 0.4939867854
0.06969551742 -0.1562969834 0.6102948189 0.4085701406 -0.4565685391 0.4372883141
0.07927837968 -0.1411829889 0.6056255698 0.2760635018 -0.5628609061 0.6477238536
0.07182338089 -0.1478186846 0.6070650816 0.2238407582 -0.5782028437 0.5566248894
0.07160196453 -0.1666330397 0.6150782704 0.7867648602 -0.2223517001 0.2900132537
0.082095474 -0.136003986 0.6039379239 0.2147976607 -0.6081920266 0.7200177312
0.06575291604 -0.1479982138 0.6060007811 0.02293133363 -0.6906712055 0.5564937592
0.06684975326 -0.163148284 0.6124966741 0.5207163095 -0.3783186972 0.3439795077
0.07268632948 -0.1423938572 0.6028653383 0.1006435901 -0.6503807306 0.6610025764
0.06813625991 -0.1746576577 0.6176772714 0.9133453965 -0.1335678399 0.1801633686
-0.03683958948 -0.1715528071 0.6689661145 -0.7053470612 -0.4734539092 0.5261819959
0.06583574414 -0.1047491506 0.6419708729 -0.2430610657 -0.5663815737 0.78714782
0.05973143503 -0.102342993 0.6379149556 -0.4101224542 -0.5493847728 0.7165833712
0.05776857957 -0.09644925594 0.6401668787 -0.459600687 -0.5325651765 0.7097309828
0.05413183942 -0.09558592737 0.6348777413 -0.5400898457 -0.5351214409 0.6492701173
0.07138413191 -0.09583357722 0.6360936165 -0.07581585646 -0.7577005625 0.611222744
0.06471374631 -0.09153173119 0.6376982331 -0.1762088835 -0.7260038853 0.6153321266
0.0856198743 -0.1061972082 0.626966238 0.2500315905 -0.7497025728 0.601778686
-0.01170816366 -0.1977402121 0.6698851585 -0.3912430406 -0.6259705424 0.6623714566
-0.01802454889 -0.1309503913 0.584959209 0.4735316932 -0.5876404643 0.6552103758
-0.03253384307 -0.1374401003 0.5933955312 0.5983515978 -0.5277410746 0.5965412855
-0.01825993694 -0.1963617951 0.6684384942 -0.471916914 -0.586725831 0.6551467776
-0.0221623648 -0.1930478215 0.666185379 -0.5770045519 -0.5516213775 0.5940756798
-0.02152387612 -0.2154822052 0.6510021091 -0.4988823831 -0.5368513465 0.667000711
-0.01346485782 -0.219852522 0.6561487317 -0.3706733584 -0.6145788431 0.6918743253
-0.01976357959 -0.2113896757 0.6563436389 -0.4757302403 -0.5677966475 0.6660120487
-0.03638114408 -0.1907116026 0.6512936354 -0.7573493719 -0.4123521149 0.501152575
-0.0396024175 -0.1852448881 0.6497814059 -0.8109526038 -0.390686363 0.4323332608
-0.03739913553 -0.1815979481 0.6562634706 -0.7726957202 -0.4207756221 0.4651348889
-0.04644379765 -0.1401281804 0.611235261 0.7268877625 -0.4844079018 0.4867777824
-0.04236088693 -0.1350503862 0.6073136926 0.7236403227 -0.4907253385 0.4852708578
-0.04214378446 -0.1301844865 0.6124805808 0.7283845544 -0.4845561385 0.4843667448
-0.04718009382 -0.132408455 0.6180443168 0.7356724143 -0.4758677781 0.4819536209
-0.0494536832 -0.1279853731 0.6212690473 0.7334054112 -0.4841131866 0.4771820605
-0.04683423415 -0.1529922783 0.6352662444 -0.06883392483 -0.4018957019 0.4282433093
-0.04599557072 -0.1600773335 0.6364601851 -0.271633625 -0.3816920519 0.4129318893
-0.04851648211 -0.1387563646 0.6328510642 0.3389300406 -0.4425080419 0.4590231776
-0.04781259969 -0.1347378939 0.6254412532 0.5699779987 -0.4611725807 0.4738349319
-0.04741596058 -0.1464177072 0.6330367923 0.1386827379 -0.4218440056 0.443472296
-0.04737383872 -0.1292396784 0.6287321448 0.6502668262 -0.4720220566 0.4816206098
-0.04655710608 -0.1408774406 0.6261798143 0.3981934488 -0.4438996911 0.4607689679
-0.04917623103 -0.1310245395 0.6352734566 0.5241549611 -0.4734810889 0.4884772897
-0.0428228192 -0.1674203575 0.6551039815 -0.6087922454 -0.4212146699 0.4802892208
-0.04227044061 -0.1596602201 0.6569339633 -0.4144973457 -0.4537875354 0.5104153752
-0.04670859128 -0.134985581 0.6389382482 0.3873450458 -0.473508656 0.4952002466
-0.04543085769 -0.1396853775 0.6423264742 0.2343259007 -0.469745189 0.4981038272
-0.04317935556 -0.1562199742 0.6515144706 -0.2808368206 -0.4464283884 0.4949271977
-0.04357196018 -0.16296345 0.650800705 -0.4562615454 -0.4211671054 0.4727732539
-0.0443627052 -0.1451589018 0.6459771395 0.05886016041 -0.4642199576 0.499961704
-0.04082026333 -0.1666791439 0.661303103 -0.6373087764 -0.4456509352 0.5114113688
-0.04730590433 -0.1511362344 0.6410155892 -0.0884251222 -0.4149480462 0.444755137
-0.04547488317 -0.1677764356 0.646694541 -0.5999650359 -0.3708395958 0.4142957628
-0.04655025154 -0.1614686847 0.6433990002 -0.4091546535 -0.3785555065 0.4139482975
-0.04628507793 -0.1450415999 0.6391838789 0.09902705252 -0.4341911972 0.460044235
-0.04486881196 -0.1549724936 0.6451886296 -0.1989740729 -0.4280882776 0.4685576558
-0.03882933408 -0.123852022 0.6140754819 0.7208368778 -0.4931540191 0.4869405627
-0.04387570545 -0.1217200309 0.6214271188 0.7212935686 -0.4923996329 0.4869185984
-0.02822948247 -0.2033697069 0.6518847942 -0.6168467999 -0.4850052297 0.6171115637
-0.0252933111 -0.209153235 0.6505227685 -0.5558273792 -0.5127267241 0.6503635049
-0.02294034511 -0.2058123946 0.6547769904 -0.5383808613 -0.5274563432 0.653873682
-0.02756999247 -0.2130609155 0.6472831368 -0.5888483524 -0.4843554199 0.6463387012
0.02018168941 -0.219989717 0.6569061875 0.1980757415 -0.6703960299 0.7080640793
0.06278376281 -0.1091907248 0.6362122297 -0.3102400303 -0.5873699784 0.7323368788
-0.01414613146 -0.08949556947 0.6228793263 0.3807027638 -0.6591882706 0.6456669569
-0.006944033783 -0.09275969118 0.6162246466 0.2631970048 -0.6840237975 0.6758796573
-0.03644728288 -0.1063409522 0.625395 0.6703451872 -0.5248016119 0.5229046345
-0.02954362519 -0.1032291055 0.6223903894 0.6143381 -0.5566619635 0.5575309396
-0.03552886099 -0.1037909836 0.6309629679 0.6789424419 -0.5230203271 0.5125710368
-0.001386622316 -0.130788967 0.5721880198 0.1495011598 -0.7419343591 0.6523277164
0.08164773136 -0.1249893606 0.6017867327 0.1926386058 -0.6074095964 0.7683570385
0.06262910366 -0.1412792355 0.5972533226 -0.1794852465 -0.6766808033 0.6824861765
0.06854953617 -0.1867162585 0.6276810169 0.868319869 -0.3426369429 0.3584629297
-0.02157202549 -0.1275513917 0.5903078318 0.4856764972 -0.5834478736 0.6438529491
0.07778023183 -0.09985964 0.6355633736 0.06757887453 -0.7888267636 0.606040597
-0.01978694275 -0.09022855014 0.6261983514 0.4630993307 -0.6354717016 0.6093233824
-0.02614843473 -0.09271538258 0.6280488372 0.5551590919 -0.6038136482 0.569609046
-0.01341904607 -0.07857539505 0.6337156296 0.3876444995 -0.7154216766 0.5766186118
-0.005802842788 -0.07916067541 0.6294021606 0.2762639821 -0.7127759457 0.6400842667
-0.008573388681 -0.07603405416 0.6338801384 0.3127146959 -0.746645391 0.5818968415
-0.02017102949 -0.0790765509 0.6366546154 0.4748986661 -0.6864185333 0.5495275259
-0.02997878753 -0.09214485437 0.6334006786 0.6079553366 -0.5893943906 0.5304931402
-0.02912627719 -0.08716878295 0.6392536759 0.6063289046 -0.6131251454 0.5047075748
-0.02482710034 -0.08176867664 0.6393650174 0.5463944077 -0.6507549286 0.5237904191
-0.02147693373 -0.0868518725 0.6307403445 0.4963591397 -0.6403081417 0.5788410306
-0.01542688906 -0.08549115062 0.6276863217 0.4086303413 -0.6666995287 0.621029079
0.02568416484 -0.1931522936 0.6785413027 0.2833484113 -0.6689235568 0.6859797239
-0.0125181675 -0.1737583727 0.6949691772 -0.4164775312 -0.6013054252 0.6793926954
0.02216677181 -0.168537423 0.7033904195 0.1684283018 -0.6622815728 0.7278686166
0.009532885626 -0.1671959758 0.7043018937 0.006781053729 -0.6603295207 0.7490101457
-0.01530212816 -0.2013661414 0.663716495 -0.451280266 -0.5997817516 0.653994441
-0.01024809945 -0.2057541758 0.661549449 -0.353346169 -0.6200051308 0.6915044188
0.008113044314 -0.2015246302 0.6732022762 -0.01114334166 -0.681768477 0.726246953
0.01321705338 -0.198642835 0.6754409075 0.08540845662 -0.68405056 0.7201510668
-0.01007143129 -0.1938796788 0.6747195125 -0.3524421751 -0.6362973452 0.6749815345
-0.01602211408 -0.1895028055 0.6759358644 -0.4542725682 -0.5937581658 0.6586639881
-0.03072085045 -0.1950790435 0.6556319594 -0.6816596389 -0.45029217 0.5712616444
-0.0256717857 -0.195468545 0.6601077318 -0.6123719215 -0.5084118843 0.5910307765
-0.02098328806 -0.19924438 0.6621789336 -0.5419148803 -0.5511100292 0.626314342
-0.01656684652 -0.206561178 0.6585673094 -0.4480548799 -0.5852828026 0.6748510599
-0.02639491297 -0.2008551061 0.6566746831 -0.608484745 -0.4918659627 0.6184438467
-0.03333717957 -0.2010310739 0.6503348351 -0.696552217 -0.4468404949 0.5562470555
-0.0280870311 -0.1683350205 0.6833119988 -0.6129663587 -0.5204088092 0.5934178829
-0.02769449353 -0.1740154624 0.6795679927 -0.6284718513 -0.5173328519 0.5799924135
-0.03351047263 -0.1678007841 0.677069068 -0.673886776 -0.494170785 0.5484090447
-0.03239484131 -0.1730341017 0.6749159098 -0.6714275479 -0.4999435544 0.5465704799
-0.03094229288 -0.1839562505 0.6645035148 -0.695792079 -0.4793679118 0.5325551629
-0.03722719848 -0.1793670952 0.6618100405 -0.7363846302 -0.451814115 0.502969563
0.02887702361 -0.1681643873 0.6996314526 0.2959643006 -0.6342486739 0.7096934319
0.04178333282 -0.1690126061 0.6891727448 0.4811241329 -0.5937611461 0.6423321366
0.03625655547 -0.1731707603 0.6900722384 0.4250652194 -0.6113806963 0.6671793461
-0.02576130442 -0.1354236007 0.5900281668 0.5407242179 -0.5625078678 0.6148340702
-0.03742052987 -0.1397631913 0.5972089171 0.6448913813 -0.5140098333 0.5640842915
-0.04286387935 -0.1271017939 0.6187034249 0.7289373279 -0.4850334227 0.4829145372
-0.0458188802 -0.1095757037 0.6409696937 0.7098706961 -0.5032596588 0.4923577309
-0.03899674118 -0.1045281664 0.6355252862 0.7016986012 -0.5106921792 0.4967182875
-0.04766629636 -0.106621936 0.6460672617 0.7072589397 -0.5074176192 0.4919321835
-0.04658224434 -0.1215187982 0.6320371032 0.7234911323 -0.4861776233 0.4898808002
-0.04434646294 -0.1185338646 0.6263138056 0.7185754776 -0.4933096468 0.490092814
-0.04961350188 -0.1243383512 0.6274603605 0.7305757999 -0.4838377237 0.481760174
-0.04405180365 -0.1075485051 0.6357213259 0.7072640657 -0.5071364641 0.492457211
-0.04748840258 -0.1153256297 0.6354634762 0.7195978761 -0.493930161 0.4878307581
-0.05057586357 -0.1042314097 0.650544405 0.7056283951 -0.5103398561 0.4913333654
-0.03992955014 -0.1167536452 0.6218212843 0.7066533566 -0.5039038658 0.49650985
-0.03936191648 -0.1127753258 0.6259886622 0.7022462487 -0.5085095167 0.4979820549
-0.04097538069 -0.1107131764 0.6314507127 0.7097417116 -0.5025620461 0.4933344722
0.001082763425 -0.2125113457 0.660271585 -0.147909984 -0.639634788 0.7475217581
0.01284617931 -0.2176633924 0.6580409408 0.06919184327 -0.6738629341 0.7306969166
0.007420680951 -0.2136039883 0.6609546542 -0.03182721511 -0.646810472 0.757322371
0.03537708148 -0.2149615586 0.6533232927 0.4310245514 -0.6188720465 0.6503625512
0.05723049864 -0.09029056132 0.635494411 -0.4205602109 -0.5943882465 0.6210959554
0.06406121701 -0.09666029364 0.6411183476 -0.2493615448 -0.5918802023 0.735039413
0.07016208768 -0.1008545384 0.6403903365 -0.08274006099 -0.7002046704 0.6788733602
0.05023724586 -0.192434907 0.6567889452 0.7041608691 -0.4687513411 0.5258476138
0.0484864749 -0.1887011379 0.6625745296 0.6662057638 -0.5299023986 0.520245254
0.05407456681 -0.1876325458 0.6566358209 0.7507357597 -0.4419378936 0.4872039557
0.05378622189 -0.1824635267 0.6619956493 0.7347941399 -0.487737596 0.4699699283
0.06299737096 -0.1145642176 0.6087387204 -0.2530996203 -0.6087803245 0.6148478389
0.06578858197 -0.1197795942 0.605286181 -0.1559061855 -0.591610074 0.6834958196
0.07689856738 -0.1195155829 0.6048458219 0.09095075727 -0.6346345544 0.6939413548
0.07104617357 -0.1156331897 0.6076223254 -0.06586734951 -0.6332740188 0.6381688714
0.07088842243 -0.1220928431 0.6035436988 -0.02637827396 -0.5984634161 0.7187222242
0.05621353537 -0.1155417711 0.6084910631 -0.3983957469 -0.5781847239 0.6186743379
0.08360604942 -0.1164785922 0.6064007878 0.220823139 -0.6758537292 0.6642765403
0.04983872175 -0.1222784892 0.6011859775 -0.5206401944 -0.5873995423 0.6005080938
0.07477664948 -0.1257883608 0.6008880734 0.0844867602 -0.5955787897 0.7668107152
0.05700462312 -0.1210424677 0.6033302546 -0.3558664918 -0.5852171183 0.6427971125
-0.007429691963 -0.08720927685 0.6207832098 0.2929698229 -0.6794130802 0.6701516509
-0.01830460504 -0.1023113579 0.6128226519 0.4392092228 -0.6359118223 0.6299331188
-0.02413929999 -0.1014071032 0.6171889305 0.5298446417 -0.6030907035 0.5958691239
-0.02475297824 -0.09674607217 0.6220780015 0.5382261872 -0.6037787795 0.5879991651
0.04903355613 -0.09603014588 0.6277864575 -0.5740306973 -0.5608361363 0.5954982638
0.04419416562 -0.1096580923 0.6106292605 -0.5454050303 -0.5905332565 0.5916785598
0.04718530923 -0.1070981771 0.6159608364 -0.5761075616 -0.5668162704 0.5872814655
0.07223524898 -0.1285534054 0.6103129983 -0.08093000203 -0.6889222264 0.6558898687
0.06189397722 -0.1298696846 0.6185773611 -0.1486447155 -0.6987797022 0.5826827288
0.06367488205 -0.1504944712 0.6333364248 0.3892804682 -0.4851859808 0.4767638743
0.06468652934 -0.1626179665 0.643638134 0.6932936907 -0.3504038751 0.3881362677
0.0621326603 -0.1335346252 0.6247941256 -0.07999010384 -0.6404275894 0.5055865049
0.06217491254 -0.1404560953 0.629509449 0.08984769881 -0.5573720932 0.478415519
0.06383153796 -0.1547960043 0.6377988458 0.4869879484 -0.4285872877 0.433719337
0.06304112822 -0.1355547011 0.6320908666 0.03922111541 -0.5707229376 0.4968313873
0.06400108337 -0.1303040087 0.6351416707 0.05139550194 -0.5582143664 0.5883756876
0.06252307445 -0.121187292 0.6272708774 -0.2686140239 -0.6733033657 0.5763196349
0.06402057409 -0.1181438789 0.6329798102 -0.1594660729 -0.6251123548 0.6805549264
0.06440662593 -0.1233470514 0.635556221 -0.02645660006 -0.5793300867 0.6625586152
0.06250853091 -0.1291345656 0.6286762357 -0.1310003698 -0.6296604276 0.5159779191
0.06453230977 -0.147918269 0.6406158209 0.4175261855 -0.4369720817 0.4852743447
0.06264314801 -0.1432848275 0.6349784732 0.1868814677 -0.4989721477 0.4537326097
0.06414276361 -0.1381764114 0.6380714178 0.2203167826 -0.4951911867 0.5473968387
0.06025791168 -0.1252405196 0.6245779395 -0.3362145126 -0.6603819728 0.4932376742
0.05919594318 -0.1221253872 0.6176559329 -0.4364966452 -0.7142686844 0.5354459286
0.08009013534 -0.1305695772 0.6075599194 0.1102759615 -0.6370075941 0.7436475754
0.07054539025 -0.1245520487 0.6157907248 -0.1528026164 -0.6808166504 0.6421827674
0.005142305978 -0.1241010129 0.5783564448 0.06330258399 -0.7413711548 0.6666719317
0.01398616005 -0.1245580092 0.5799303055 -0.1042450443 -0.7169527411 0.6865665913
0.04365194589 -0.1219342127 0.5969811082 -0.5134384036 -0.5844830871 0.6277692914
0.05499321967 -0.1253553033 0.5979347229 -0.349452734 -0.5989288688 0.6575303674
0.06385815144 -0.1263908297 0.5990476608 -0.1684538573 -0.626014173 0.6933654547
0.06755886227 -0.177478075 0.6224161983 0.9637488127 -0.1328294426 0.1862209141
0.06710515171 -0.1776943356 0.6288323402 0.9193595052 -0.2218339741 0.2791929841
0.06707322598 -0.1829593182 0.6332944632 0.8703065515 -0.3291338086 0.3661248088
-0.005432336126 -0.125157997 0.5828980803 0.2730540335 -0.7148818374 0.6409133673
-0.002683533356 -0.1193810478 0.5867132545 0.2096709907 -0.7040866613 0.6763222814
-0.002243936993 -0.1255161613 0.5775039792 0.1718670428 -0.727573812 0.661613524
-0.01488039736 -0.1210928783 0.5917131901 0.3863382041 -0.6387147903 0.663438201
-0.02477084287 -0.1057161614 0.6135713458 0.5372425914 -0.5994877815 0.5929737091
-0.02850906923 -0.1101500466 0.6137926579 0.6035012007 -0.5691726804 0.5543119907
-0.002946203342 -0.1672802567 0.7036645412 -0.1804880351 -0.6497363448 0.735378623
-0.008793771267 -0.166639179 0.7015386224 -0.2939282954 -0.6211906075 0.7201451063
-0.00808174815 -0.1721034944 0.6990594268 -0.314335227 -0.6227434278 0.715131104
0.002446068451 -0.1677346975 0.7028774023 -0.09700966626 -0.6545933485 0.7400990129
0.007665968966 -0.1895093918 0.685238719 -0.0168255493 -0.6873905659 0.7211345434
0.007143702358 -0.1831192225 0.6908991337 -0.0209199246 -0.6919046044 0.7181198001
0.000470757368 -0.1989750415 0.6744408011 -0.1570107639 -0.6773710251 0.7114573121
-0.005246313754 -0.1948084235 0.6782642603 -0.2650869787 -0.6592313051 0.700802505
-0.0002982367005 -0.2037400305 0.6688770652 -0.1670049727 -0.6644836068 0.7201859951
-0.01080626156 -0.2056239694 0.6671390533 -0.367130816 -0.6379029155 0.6753340364
-0.006641533691 -0.2023256719 0.67069906 -0.2930507958 -0.6513984203 0.6955202818
-0.00922431238 -0.2116286904 0.6638852954 -0.3170200884 -0.6404677033 0.6966990232
0.006617160514 -0.2205022573 0.6579068899 -0.02466764115 -0.6771944761 0.7329283953
-0.006137631834 -0.1889771968 0.6820911765 -0.2937546372 -0.6530630589 0.6955606937
-0.009077472612 -0.184744224 0.6846058369 -0.3429999352 -0.6359956861 0.6850479841
-0.0147339087 -0.1856037229 0.6809905171 -0.4419728518 -0.5999840498 0.6650449634
0.003069486702 -0.1923200339 0.682328701 -0.1012645066 -0.6843112707 0.7191860676
-0.01740387455 -0.1742977649 0.6879259944 -0.4622426331 -0.590534091 0.6606091261
-0.01707539894 -0.1671590209 0.6944183707 -0.436799109 -0.5759561062 0.6899176836
-0.02159195021 -0.1683042496 0.6893386245 -0.51061517 -0.5658124685 0.6463525295
-0.02258582413 -0.1734594852 0.6843435764 -0.5583642125 -0.5498793125 0.6172433496
-0.03419556096 -0.1889526546 0.6571766138 -0.7199496031 -0.4495255053 0.5270724297
-0.02335797437 -0.1866662353 0.6724871397 -0.5765166283 -0.5449431539 0.6070151925
-0.02865071595 -0.19063586 0.6641960144 -0.6560260057 -0.499696672 0.5622199178
-0.03612052277 -0.1186720505 0.6158598065 0.6930390596 -0.5176056027 0.5004728436
-0.03539720178 -0.1135062575 0.6199329495 0.6784375906 -0.5225883126 0.5144314766
-0.03349205106 -0.1082150489 0.6208024621 0.6522546411 -0.5386497378 0.5331420302
0.04333478957 -0.1796332002 0.6801649928 0.5427690744 -0.5804619789 0.605258882
0.03798162937 -0.178272441 0.6841593981 0.4690355659 -0.6095846295 0.6371869445
0.006177114788 -0.2068081051 0.6689242721 -0.03293358162 -0.6816937923 0.7288713455
0.0127288755 -0.2094334513 0.6646388173 0.07253858447 -0.6754527688 0.7304222584
0.03890858218 -0.1066551507 0.6091960073 -0.4710276127 -0.6226614118 0.6229392886
0.03258129209 -0.1029592156 0.6089395881 -0.3866342604 -0.6517692804 0.6490142345
-0.0006008708151 -0.08929605037 0.6171236634 0.1687149107 -0.6982278228 0.692878902
0.001397992834 -0.09336179495 0.6129445434 0.1484392285 -0.7033025622 0.6927245855
0.01978407614 -0.09174899757 0.6147779226 -0.1660393476 -0.6871845722 0.7024589181
0.03044280782 -0.08998802304 0.6206602454 -0.3270498514 -0.6493039131 0.6789771318
0.02523641102 -0.08787216991 0.6201246381 -0.2545650899 -0.6727676392 0.6912776828
0.0264292527 -0.09220110625 0.616111517 -0.2686932683 -0.6652690172 0.6936932206
0.03231219947 -0.09568867087 0.6153991818 -0.3614420891 -0.6409134269 0.6742500067
0.03635347262 -0.09307819605 0.6203994751 -0.4126568735 -0.6243444085 0.6631240845
0.03691633046 -0.08874343336 0.6246640682 -0.4270336628 -0.6260918379 0.6499973536
0.03680564836 -0.08335419744 0.6300368905 -0.4204058349 -0.6424177289 0.637767911
0.0602109246 -0.109744221 0.6303195953 -0.4196232259 -0.5695248246 0.6801279783
0.05854643136 -0.1152044609 0.6229721308 -0.5787937641 -0.5654839873 0.5659990311
0.006111736875 -0.07485429198 0.6300586462 0.08473028243 -0.7492188215 0.654135704
0.01438467391 -0.0745882988 0.630161047 -0.07364785671 -0.7442874908 0.661984086
0.003657293506 -0.08205583692 0.6232851148 0.1109195799 -0.717900455 0.6849310398
-0.003002799349 -0.08291786164 0.6242098808 0.2175298035 -0.7026751041 0.6742634773
7.850638212e-05 -0.07381331921 0.6331389546 0.1748966873 -0.7628504038 0.6162003875
0.000468737242 -0.07806607336 0.627838552 0.1817995757 -0.7251776457 0.6608291268
0.01266111247 -0.130470857 0.5773826838 -0.07692745328 -0.6803582311 0.688650012
0.01870203204 -0.1310858727 0.5752947927 -0.193401888 -0.6583382487 0.6935309172
0.02577550896 -0.1307926625 0.5779376626 -0.3175340295 -0.6123155355 0.7115808725
0.01005602069 -0.1303324699 0.5712650418 -0.04634745046 -0.7155653834 0.6746841669
0.006617561914 -0.1205214784 0.583974421 0.05041326582 -0.7336143255 0.6732493639
0.01258989144 -0.1164054498 0.5882538557 -0.06063913926 -0.7078045011 0.6976538897
0.007618184201 -0.1127585843 0.5920735002 0.05283363536 -0.7139490247 0.6906288266
0.02106417343 -0.1240168288 0.5821917057 -0.2169986814 -0.6830003858 0.6917891502
0.05901233852 -0.1352205873 0.5926556587 -0.2450205386 -0.6030350327 0.711812079
0.05057991296 -0.1346057057 0.5893051624 -0.3962397873 -0.5697586536 0.6879057884
0.06222787127 -0.1307547539 0.5940134525 -0.1627783775 -0.6106398106 0.7176815271
0.05338395387 -0.130609706 0.5936738253 -0.3791573346 -0.592676878 0.6681336761
0.05895090848 -0.1385537237 0.6016709208 -0.2847829759 -0.7130571604 0.6374836564
0.0572989732 -0.1300939918 0.6060435176 -0.3885443509 -0.6955494285 0.6005740762
0.06017570943 -0.1270157844 0.6124620438 -0.291934818 -0.7303542495 0.6101797819
0.05801568925 -0.1847542971 0.6518553495 0.8068966269 -0.3894502223 0.4402927756
0.05830958113 -0.1792353243 0.6568163037 0.7886126637 -0.4227629006 0.4451506734
0.06521519274 -0.1704225838 0.6479762197 0.8860633969 -0.2839873433 0.3658152819
0.06387216598 -0.1768438369 0.6481471658 0.8588969111 -0.3340043426 0.3852784634
0.06225874275 -0.1747665256 0.6542056799 0.8231313825 -0.3873476386 0.4090998471
0.06470215321 -0.177974835 0.6422949433 0.8734555244 -0.307723105 0.3772675991
0.06365303695 -0.1931364536 0.634668231 0.863766253 -0.3536857069 0.3587292731
0.06555226445 -0.1923359185 0.6288592815 0.8623872399 -0.3576681614 0.3581916094
0.0575510934 -0.1990301609 0.6408609748 0.8140973449 -0.3823722899 0.4302145541
0.06108075753 -0.2025801837 0.6370874047 0.8250299096 -0.384511888 0.4091959
0.05613772571 -0.2056401819 0.6411883235 0.745362103 -0.4390791953 0.4912890792
0.05052192137 -0.2036308348 0.6506229043 0.6748994589 -0.4786263704 0.5602688789
0.05110612884 -0.196451053 0.6515396237 0.7166622877 -0.4434888661 0.5321691036
-0.008232549764 -0.1299878359 0.5750459433 0.2556141913 -0.6900471449 0.6508665681
-0.01355980802 -0.1309534907 0.5808432698 0.3863257766 -0.6310183406 0.653578639
-0.009051300585 -0.1173994988 0.5915508866 0.3039579391 -0.6746442914 0.6679133773
-0.01109105162 -0.1233378276 0.5868374705 0.3421108425 -0.6710645556 0.6527473927
-0.004331161268 -0.1129863039 0.593611002 0.2415542006 -0.6905102134 0.6795779467
0.002199702431 -0.1109378561 0.5941307545 0.1484651268 -0.7098291516 0.686093688
-0.01534472685 -0.1118975431 0.6001381874 0.3883965015 -0.6642345786 0.6368528008
-0.009868012741 -0.1102703512 0.5985734463 0.3122137785 -0.6820766926 0.6554912925
0.0245734863 -0.1110821143 0.5960627794 -0.2624412775 -0.685257256 0.6783921719
0.02996829897 -0.1149497405 0.5947716832 -0.3475995958 -0.6578404307 0.6643343568
0.03596806526 -0.1111397371 0.6026576757 -0.4211914539 -0.6392935514 0.6430963874
0.02622432634 -0.1055505499 0.6028895378 -0.2845596969 -0.6815437675 0.671967268
0.03034646064 -0.1110408828 0.598916173 -0.3472669721 -0.6606911421 0.6600277424
0.03969857469 -0.1165722609 0.5990358591 -0.475959599 -0.6111876965 0.6305378079
0.03807057068 -0.1200896576 0.5945358872 -0.4616793394 -0.6063966155 0.6458623409
0.02006916702 -0.1082964242 0.5971333385 -0.1775131226 -0.7028439641 0.6844578981
0.01860024594 -0.1132118851 0.5924096704 -0.1735946685 -0.7027161717 0.6854273677
0.006839802023 -0.1080179587 0.5965592861 0.06415065378 -0.7115833163 0.6971892118
0.008214162663 -0.1036049724 0.6012243629 0.0292171929 -0.7154734135 0.692056179
0.01392274722 -0.1058966294 0.5994659066 -0.07211843133 -0.7103853226 0.6884252429
0.08898960799 -0.1025898084 0.6193019152 0.3308855593 -0.7086066008 0.6156821251
0.08932571113 -0.1058941558 0.6148090959 0.4038192928 -0.7015995383 0.5864331126
0.07397394627 -0.09532929212 0.6284297109 -0.01891016401 -0.6809556484 0.6318557262
0.06450408697 -0.0934054181 0.6301652193 -0.2291212976 -0.634449482 0.6219699383
0.08002627641 -0.09668242186 0.6303983331 0.1320965588 -0.7317308784 0.6401555538
0.05889187753 -0.09695112705 0.6280242801 -0.3940365911 -0.5957314968 0.6014609337
0.04605127499 -0.1850979775 0.6678925753 0.616964519 -0.5621926188 0.5372653008
0.03954039887 -0.189813748 0.6728361845 0.5155229568 -0.6057897806 0.6034077406
0.01540931035 -0.1826394051 0.6916388869 0.1201878339 -0.6836813092 0.7194198966
0.01748968102 -0.1906815916 0.6822025776 0.1503512263 -0.6856427789 0.7093324065
0.02076034248 -0.1955007613 0.6772301793 0.2108039558 -0.6791208386 0.6989739537
0.006023311522 -0.1961248815 0.6782467961 -0.05851102993 -0.6877607107 0.7202169895
0.01770594157 -0.1761261672 0.697878778 0.1554596424 -0.6670503616 0.7250494361
0.02109418437 -0.1801454574 0.6927452683 0.2143806517 -0.6716436148 0.7071239352
0.02067567408 -0.1850848496 0.6878433824 0.2022403181 -0.6756088138 0.7061772943
0.0003152269928 -0.2078460306 0.6648634672 -0.1489777565 -0.6546443701 0.7334161997
-0.006714070216 -0.211450398 0.6586524248 -0.2792308033 -0.6368409991 0.7184335589
-0.0132210739 -0.2138628364 0.6562644839 -0.3954808116 -0.5966792703 0.6955601573
-0.008230918087 -0.2188174427 0.6584098339 -0.2804542184 -0.645775497 0.7066650987
-0.0002543336013 -0.2178800702 0.658013165 -0.1575097442 -0.6617980599 0.7257319093
-0.01840886101 -0.1797867119 0.6829218864 -0.4939549267 -0.5819187164 0.6442993879
0.002638493665 -0.1857730895 0.6872854233 -0.1231775582 -0.6858749986 0.7132892609
-0.002991956891 -0.1825520545 0.6892135739 -0.2446151972 -0.6700866818 0.7007063627
-0.007000014652 -0.1762738675 0.6929634809 -0.3225856721 -0.6380133629 0.6955325007
-0.01087140292 -0.180174306 0.688628912 -0.3843230307 -0.6191132665 0.6785174608
-0.02802581713 -0.179365322 0.675054431 -0.6437622309 -0.5132091045 0.5665835142
-0.03470382467 -0.1777461171 0.6665415168 -0.7127503157 -0.4699031115 0.519369483
-0.02917656116 -0.1821034104 0.669210732 -0.673381567 -0.4951346517 0.5472375154
-0.03270752355 -0.116324544 0.61229527 0.6576616764 -0.5455442071 0.5189403296
-0.02774855494 -0.113609463 0.6087534428 0.5983892679 -0.5811313987 0.5495720506
-0.02904717997 -0.1237585098 0.6010538936 0.5954153538 -0.5608498454 0.5562096834
-0.03362067416 -0.1237452105 0.6049091816 0.6644745469 -0.5383448005 0.5169376135
0.02278881893 -0.2153966129 0.6607359648 0.2277267873 -0.6680723429 0.7020444274
0.01798643172 -0.213177219 0.6599380374 0.1693825573 -0.6661288738 0.7218370438
0.04179825634 -0.2010940313 0.6603189707 0.5559049249 -0.5418756008 0.6288542151
0.04960860685 -0.2106874585 0.6477304101 0.6459800601 -0.4996062517 0.5765092373
0.0445936881 -0.2038503289 0.6540806293 0.6065782309 -0.516782403 0.6030919552
0.03722171485 -0.2075469196 0.6592658162 0.4730131626 -0.5823194385 0.6492130756
0.0334495455 -0.2127433717 0.6583333611 0.4054154754 -0.6132773757 0.6642336845
0.02826803923 -0.2197964042 0.6571134329 0.3127155006 -0.6555897593 0.6849648356
0.02725819871 -0.2073706985 0.6637029052 0.3035615385 -0.6535443068 0.6911484599
0.0292360466 -0.1954454929 0.6737470031 0.3448122442 -0.6552847624 0.6689442992
0.02818432078 -0.2001484185 0.6684609056 0.3639805019 -0.6462670565 0.6685090065
0.01874692179 -0.2007422298 0.6728422046 0.1828540117 -0.6821846962 0.7044299245
0.01748502254 -0.205597356 0.6683270335 0.1524044722 -0.680896163 0.7130638361
0.02312829532 -0.2035464048 0.6693388224 0.2560456693 -0.678558588 0.6883598566
0.02164640278 -0.2096149921 0.6634762883 0.2279295921 -0.6670759916 0.7058223486
0.01170538086 -0.08772405982 0.6177076101 -0.02994093671 -0.7026548982 0.7068296075
0.005024322309 -0.08738491684 0.6175736785 0.07737138867 -0.7066287398 0.7032250762
0.0170812048 -0.08674670756 0.6193870306 -0.1173031032 -0.6992505193 0.7016515732
0.01259439159 -0.08273261786 0.6221145988 -0.04279016331 -0.7103601694 0.6998305917
0.01504374761 -0.07883737981 0.6256642342 -0.1039251164 -0.7162982225 0.6894315481
0.02099523507 -0.08144067973 0.6251164079 -0.1940268129 -0.7020676732 0.6811276674
0.04748291895 -0.08357656002 0.6382787824 -0.4955526888 -0.6062046885 0.6208418012
0.05343675613 -0.0903622061 0.6403750777 -0.4645036459 -0.5607630014 0.6825406551
0.04763879627 -0.09091318399 0.6309805512 -0.5624033213 -0.5677544475 0.6006634831
0.02781849541 -0.08299254626 0.6256991029 -0.2836194634 -0.685358882 0.6693274975
0.0341110155 -0.0777335614 0.6334983706 -0.3548005819 -0.6759057641 0.6451361179
0.02798162773 -0.07471743971 0.633936882 -0.2663972676 -0.7096805573 0.6493487358
0.05293834209 -0.1007938758 0.6283853054 -0.564946413 -0.538613677 0.6216768026
0.04988800734 -0.1011008397 0.6235198379 -0.577699244 -0.544365406 0.5935985446
0.06795214117 -0.0986700058 0.6259045005 -0.1740123779 -0.6417537928 0.6174784899
0.05124381557 -0.1065672413 0.6206713319 -0.6209929585 -0.5329835415 0.5742303729
0.06981750578 -0.1064065248 0.6168867946 -0.08298420161 -0.6272442341 0.5781912804
0.07586762309 -0.1066538692 0.6159943342 0.07259772718 -0.6528435946 0.5771137476
0.06253606826 -0.1058725938 0.6180706024 -0.2666815519 -0.596485734 0.5805393457
0.05753710866 -0.1029576883 0.6204460859 -0.3660229743 -0.5780137777 0.5947836041
0.07425924391 -0.09974553436 0.6239719391 -0.004363921005 -0.6727346182 0.6233988404
0.08363296092 -0.09877910465 0.6248125434 0.2085365057 -0.7215138078 0.6331765652
0.08108193427 -0.1018832773 0.6207151413 0.1852350831 -0.693534255 0.6091846824
0.06392984092 -0.1018926799 0.6215720773 -0.2257767916 -0.6133812666 0.6044993997
0.05611523986 -0.1082728133 0.6254925132 -0.6017616391 -0.5174959898 0.6028524041
0.05732705444 -0.1045790762 0.6310949922 -0.5130221844 -0.5250450373 0.6776706576
0.05502113327 -0.1176311895 0.6154190898 -0.5567598939 -0.6391800046 0.5261099339
0.0537215434 -0.1204968095 0.6106210351 -0.5145585537 -0.6515513659 0.5528030396
0.05410126969 -0.1119672507 0.6198508143 -0.6053586602 -0.5631309748 0.5562700629
0.08441661298 -0.1121408641 0.6099514365 0.246429652 -0.7015593052 0.6131467819
0.0777964592 -0.1144123748 0.6082394719 0.08619443327 -0.6649546027 0.6317854524
0.05855929479 -0.1112360135 0.6114733815 -0.3488361239 -0.6040304303 0.5734121203
0.06758509576 -0.1097791418 0.6123540401 -0.1203561202 -0.6351439953 0.5760874748
0.08398997039 -0.1075682566 0.6136083603 0.2894517779 -0.6926856041 0.583488524
0.07378714532 -0.1098418236 0.6121163964 0.02333753556 -0.6589356661 0.5841042995
0.05086959526 -0.1123346835 0.6141886115 -0.6008915901 -0.5729905963 0.5566401482
0.03265484422 -0.1301967502 0.5829411745 -0.4145205319 -0.590793848 0.68994838
0.04367188737 -0.1359654814 0.5862402916 -0.4657576382 -0.5689601302 0.6770315766
0.05398320407 -0.1335937381 0.5997065902 -0.3863101304 -0.6440629959 0.6504698396
0.05171012878 -0.1363649666 0.5947580934 -0.4292263091 -0.6155647635 0.6572566628
0.06746062636 -0.1374260336 0.5978237391 -0.07442913204 -0.6672343612 0.7133064866
0.05619661883 -0.1420170367 0.5958493948 -0.3157472312 -0.6731327176 0.643795073
0.06075585634 -0.1872758269 0.6464423537 0.8347766995 -0.3636892736 0.410353303
0.06252847612 -0.1891347468 0.6401868463 0.866994381 -0.3337340355 0.3700449467
0.05637110025 -0.1947828382 0.6455152631 0.7882298231 -0.390986383 0.4694606364
0.0552533567 -0.1915198565 0.6505082846 0.7607880831 -0.4035616517 0.5042724013
0.04721471295 -0.1981087327 0.6557189822 0.6629899144 -0.481959492 0.5722504258
0.04241419584 -0.2098058909 0.6505892277 0.5384550691 -0.5483785868 0.6285039783
0.001045869081 -0.1013751477 0.6043086648 0.1504433453 -0.7044581175 0.6881862879
-0.003230061615 -0.1079441756 0.5976082087 0.2186392546 -0.7024980187 0.6755592227
0.002465976402 -0.1054840982 0.5994627476 0.130701527 -0.7093155384 0.6896483898
-0.01302508265 -0.09788778424 0.6135123968 0.37556234 -0.6579981446 0.6504193544
-0.007746917661 -0.103591539 0.604583919 0.2911913097 -0.6802715063 0.6692057252
-0.01286317315 -0.1054774299 0.6055768132 0.3649366796 -0.6657729745 0.6487590075
-0.004400273319 -0.0962934047 0.6117932796 0.2210842371 -0.6965975761 0.6821034551
0.005346753635 -0.09793098271 0.6074408889 0.07509869337 -0.7151987553 0.694709301
0.04578104243 -0.1172983125 0.6047813296 -0.5627843738 -0.5890892148 0.5776650906
0.04905092344 -0.11568214 0.6090667844 -0.5779733658 -0.5927670598 0.5600358844
0.02358058095 -0.1191551238 0.5878745914 -0.2546828687 -0.6593924165 0.7065967321
0.02692038938 -0.1257784814 0.5839281082 -0.3209490776 -0.6224774122 0.710126996
0.03268456832 -0.1207069978 0.5902196765 -0.4008247554 -0.627753675 0.663936317
-0.03650069237 -0.1301826239 0.6019080877 0.6720436215 -0.5138754249 0.5329263806
-0.03229371831 -0.1313621253 0.5959255695 0.6301237345 -0.5289344788 0.5659348369
-0.02763728984 -0.1282176673 0.5929313302 0.5748844147 -0.5414617062 0.6123200059
0.03794605657 -0.1849410385 0.6787962914 0.4991830587 -0.6000291705 0.624238193
0.03224957734 -0.1851214021 0.6820501089 0.4006653726 -0.6358543038 0.6575533748
0.0345287323 -0.1897807121 0.676759541 0.4414437413 -0.6235004067 0.642165482
0.02545646392 -0.1861277968 0.6830584407 0.2883033454 -0.6600576639 0.678042531
0.03145022318 -0.1730628312 0.6937482953 0.3658834994 -0.6223925352 0.6874718666
-0.0004561409587 -0.1730764061 0.698018074 -0.1869779974 -0.6549320221 0.7220696807
0.01096167415 -0.174749583 0.7000851035 0.04427100718 -0.6727403402 0.7350170612
-0.027081009 -0.1183392107 0.601837337 0.5965899229 -0.57416749 0.5590265989
-0.01493281405 -0.1160543337 0.5955894589 0.385710746 -0.6492264271 0.6549184918
-0.02082155459 -0.1179713532 0.5985465646 0.4846695662 -0.6192539334 0.6108356118
-0.02556566894 -0.1221056357 0.5964332819 0.5611216426 -0.5689538121 0.5984793901
-0.0221675355 -0.1138624325 0.6030626297 0.505056262 -0.6257849932 0.5889126658
-0.02060854807 -0.12202885 0.5929464102 0.4757979214 -0.6008194685 0.6396297812
0.05031734332 -0.1816335618 0.6741588116 0.6337453127 -0.5460549593 0.5460882783
0.03906387091 -0.1320885867 0.5847303867 -0.4790435135 -0.571260035 0.6661051512
0.03831677511 -0.1262640953 0.5892981887 -0.4642251134 -0.5898270607 0.6604216695
0.04574324191 -0.1315193027 0.5902229548 -0.4923223257 -0.5754279494 0.6529643536
0.04371925443 -0.1266873628 0.5928968191 -0.5136521459 -0.5694925189 0.6411270499
0.04941542819 -0.1288284808 0.5978752375 -0.4736768603 -0.5941146612 0.6492685676
0.01182281598 -0.09763674438 0.6078209281 -0.03123262152 -0.7151667476 0.6944520473
0.007674136665 -0.09416493773 0.611338675 0.04975372553 -0.7085089684 0.6973924637
0.01728679799 -0.09825778008 0.607727766 -0.1243506894 -0.7091593146 0.6905503869
0.02379784919 -0.1007699892 0.6067578793 -0.2385784835 -0.6906117201 0.6813674569
0.01919755526 -0.1032226607 0.6031555533 -0.1704965681 -0.7064933777 0.6813624501
0.01420789491 -0.1699952185 0.7018178701 0.06536857039 -0.6640495062 0.7435641885
0.02595948428 -0.1750249416 0.6950516701 0.2737647891 -0.6527671814 0.7060121894
0.02242003381 -0.1715270132 0.698427856 0.2079490572 -0.6518114209 0.7195474505
0.02544491552 -0.1810977906 0.6875379682 0.2983230948 -0.657556653 0.682127893
0.01430643722 -0.1862383932 0.6863104105 0.1091463938 -0.6968648434 0.7075581551
0.005190072116 -0.1776286066 0.69555372 -0.08709657937 -0.6794676781 0.7273326516
0.01080244314 -0.1785298288 0.6948078871 0.03814261779 -0.6839947701 0.7232515216
0.0441147536 -0.194851011 0.6634084582 0.5889374018 -0.5698894858 0.5715777874
0.03340018913 -0.2021876574 0.6640344858 0.4114276171 -0.6216546893 0.6664176583
0.03848577663 -0.1974070668 0.6656646132 0.4971372783 -0.5995125771 0.6248098612
0.04217820987 -0.1905045807 0.6673699021 0.5537489653 -0.5925394297 0.5704509616
0.0347067751 -0.193860054 0.6717844605 0.4219444096 -0.633313179 0.6465166807
