# .PCD v0.7 - Point Cloud Data file format
VERSION 0.7
FIELDS x y z normal_x normal_y normal_z
SIZE 4 4 4 4 4 4
TYPE F F F F F F
COUNT 1 1 1 1 1 1
WIDTH 512
HEIGHT 1
VIEWPOINT 0 0 0 1 0 0 0
POINTS 512
DATA ascii
0.0321062766 -0.07282973826 0.6674525738 0.5381646156 -0.5209129453 0.6594150662
0.03318366781 -0.09113336354 0.6566304564 0.5948441029 -0.5377535224 0.5949841738
-0.1021891981 -0.08039741218 0.6784148216 0.7159828544 -0.4941132963 0.4929405153
-0.08888972551 -0.05889077857 0.6784616709 0.6302033663 -0.5331379175 0.5622493625
-0.09065155685 -0.06426341832 0.6753011942 0.6638688445 -0.5159096122 0.5410602689
-0.08608496934 -0.05967757478 0.6735175848 0.6243776083 -0.5425286889 0.5604765415
-0.1129719764 -0.1430570781 0.6797580719 -0.928350687 -0.07556097209 0.2754327655
-0.08594832569 -0.05285245925 0.6804817915 0.5842424035 -0.5638213754 0.5822221041
-0.08249064535 -0.05452167988 0.6747015715 0.5692127347 -0.5717628002 0.5881407857
-0.09849664569 -0.07034092396 0.6827966571 0.7049970031 -0.4893033504 0.513173461
-0.09172599018 -0.05565500259 0.6844752431 0.6292537451 -0.5340984464 0.5636073351
-0.09301738441 -0.06300260872 0.6801980138 0.6643910408 -0.5107274652 0.5441305041
-0.09811272472 -0.0639333725 0.6857572794 0.6823762059 -0.5008268356 0.531406641
-0.09691911936 -0.05542758107 0.6902746558 0.6469991207 -0.5202396512 0.5562052727
-0.09507172555 -0.07058618218 0.6769143939 0.6941968203 -0.4980368316 0.5191581845
-0.09850392491 -0.07597463578 0.6786422729 0.7130419016 -0.4910978377 0.5002165437
-0.1016481221 -0.1134989634 0.70333606 -0.4443210363 -0.328125447 0.4975980222
-0.1052997634 -0.1071426794 0.6841369867 -0.0122049693 -0.3704844117 0.4616241753
-0.1058671623 -0.1138419881 0.6883209348 -0.3002974689 -0.3189035058 0.4529888034
-0.1035323665 -0.1013745591 0.6851828694 0.1873819977 -0.4169043005 0.4825399518
-0.1035158485 -0.1190867126 0.7017573714 -0.631771028 -0.2829127312 0.4756962061
-0.1035436764 -0.1106413975 0.6937819719 -0.2404350936 -0.3467698097 0.478749007
-0.1030896381 -0.1224719584 0.7064628005 -0.8043632507 -0.2579679787 0.4788475931
-0.103893213 -0.09783123434 0.6805676222 0.3648024499 -0.4431478083 0.4801401794
-0.1053917035 -0.1198262572 0.6961967349 -0.6174706817 -0.2700890899 0.4546577632
-0.1036384627 -0.1146038547 0.6980430484 -0.4562196434 -0.3097717762 0.4746212661
-0.1029587388 -0.09216275066 0.6817532182 0.4689986408 -0.4643330574 0.4869774878
-0.1035397798 -0.0889987424 0.6761702895 0.6579660177 -0.4912872314 0.4829974473
-0.1014450118 -0.108175233 0.6992313266 -0.2107979059 -0.3678161502 0.5016419888
-0.1003094316 -0.1155188009 0.7105310559 -0.6061416268 -0.3115832806 0.5101460814
-0.1019485369 -0.1011873335 0.692751646 0.05695381016 -0.4058342576 0.4959110618
-0.03477938101 -0.1385494769 0.741487205 0.208592996 -0.5770238638 0.7881215215
-0.04261936247 -0.1405701339 0.7420144677 0.1151666567 -0.5783559084 0.8043919206
-0.04006250948 -0.1349436045 0.7451763749 0.1131982058 -0.5519944429 0.8204715252
-0.05304620788 -0.1276629716 0.7490837574 -0.0971705243 -0.5497012734 0.8142316937
-0.04422966391 -0.131883204 0.7468640208 0.04831014201 -0.5502533317 0.8168593645
-0.05846368149 -0.1408308744 0.7415376902 -0.1725067347 -0.5773605704 0.7954707146
-0.05388614535 -0.1329187155 0.7460725307 -0.1133583635 -0.5614770055 0.8160076141
-0.05191158131 -0.1386789083 0.7437291145 -0.0593130365 -0.5752993226 0.8133782744
-0.08941408992 -0.1243324429 0.7331332564 -0.6393573284 -0.3759568632 0.6605229974
-0.1045005471 -0.1569722742 0.693043232 -0.7922804356 -0.3091740608 0.5164983869
-0.1088505238 -0.1549776047 0.6895083189 -0.824220717 -0.2823191881 0.4833409488
-0.106342338 -0.1295327395 0.7054725289 -0.8608813882 -0.2504392564 0.442148596
-0.1085883826 -0.1409634948 0.695982337 -0.8605043888 -0.2389801741 0.4486303329
-0.1112352833 -0.1408792436 0.6898701787 -0.8722389936 -0.2198732346 0.4350072443
-0.1072865948 -0.1327575147 0.7006006241 -0.8648197651 -0.2270449102 0.4466150999
-0.109640494 -0.1303506345 0.6960757375 -0.8752509356 -0.208698824 0.4355309904
-0.1066669375 -0.1014382243 0.6765573025 0.2478911728 -0.3815255165 0.4452348948
-0.1081049815 -0.1078747809 0.6789138317 -0.02307864465 -0.3170232773 0.4269016683
-0.1112273932 -0.1241039559 0.6868227124 -0.7005188465 -0.1791259348 0.397649169
-0.1087432504 -0.1131287664 0.6829298139 -0.2381102592 -0.2906879187 0.4299917817
-0.1112882718 -0.1177976429 0.6787714958 -0.4519197643 -0.1701009721 0.3660610616
-0.1097042561 -0.1187576354 0.6861493587 -0.4716699421 -0.2488527745 0.4239574075
-0.1085233763 -0.1240890548 0.6922420859 -0.7064835429 -0.237671867 0.4356225133
-0.06322029978 -0.1237094849 0.7507141232 -0.2495107949 -0.5435129404 0.7982171774
-0.07254967839 -0.1260262579 0.7411833405 -0.3972305357 -0.5029749274 0.7556377649
-0.08254817873 -0.123230204 0.7417724729 -0.539952755 -0.4181511104 0.7278914452
-0.08187081665 -0.124190338 0.7362298965 -0.5332685113 -0.4430434406 0.7039265037
-0.09028253704 -0.1222296581 0.7261110544 -0.6633973122 -0.3695662618 0.6113987565
-0.08303434402 -0.1722022742 0.7076166272 -0.5002468228 -0.4986090064 0.7062876821
-0.09661140293 -0.1608754098 0.7014500499 -0.7213392258 -0.3862573802 0.571496129
-0.100816153 -0.158817932 0.6980569959 -0.7612401247 -0.332688272 0.5538165569
-0.05877598748 -0.1267640591 0.7501525879 -0.1783234179 -0.5549191833 0.811412096
-0.09104350954 -0.06880705804 0.6721836329 0.6630803943 -0.5216571689 0.5338187218
-0.04073464498 -0.04219156876 0.6698682904 -0.09968433529 -0.6791247129 0.7194753885
-0.03668903932 -0.04647126049 0.6661099195 -0.1817110479 -0.6407456398 0.7435580492
-0.03465389088 -0.04216532037 0.670753181 -0.2139456719 -0.6553789377 0.7225470543
0.002582972171 -0.1618111283 0.6817598939 0.7863654494 -0.3898668885 0.4444973171
0.03122251481 -0.07727443427 0.6609032154 0.5735014081 -0.5349624157 0.6202961206
-0.001734370366 -0.06440603733 0.6784414053 -0.5766382217 -0.3885478675 0.7117852569
0.002427629661 -0.07095589489 0.6804666519 -0.5201879144 -0.2959226966 0.7881618738
-0.0657010749 -0.05950207636 0.6576074958 0.2772277594 -0.6450335383 0.7100527287
-0.06962417066 -0.06361355633 0.656986773 0.3473817408 -0.6256971359 0.6888874173
0.00822893437 -0.1426121593 0.6744668484 0.7212204337 -0.2748578489 0.3936727345
0.008847339079 -0.1266587228 0.6687793732 0.3445172906 -0.6802771091 0.4780792594
0.007603533566 -0.1503230929 0.6782572865 0.9101618528 -0.07609324902 0.3552592397
0.009782359935 -0.1389483809 0.6686587334 0.6050283909 -0.3801093698 0.4027535021
0.00633493159 -0.1565429568 0.6758490205 0.9315671325 -0.08190961927 0.3504455984
-0.1021201387 -0.1387141049 0.7084595561 -0.8307393789 -0.2718182206 0.4846638739
-0.08635616302 -0.0743566975 0.6591200233 0.6160051823 -0.5434708595 0.5673853755
-0.09461349249 -0.07439961284 0.6717470288 0.6950915456 -0.5061795712 0.5100621581
-0.08949393779 -0.07206832618 0.6663151383 0.6549836993 -0.5343358517 0.5320771337
-0.08489768207 -0.06505901366 0.6672169566 0.6114673615 -0.5618112683 0.5560261607
-0.1056452915 -0.1263583004 0.7000374794 -0.8613498211 -0.2299728692 0.4492740333
-0.1000162661 -0.1210995764 0.7150115371 -0.8118733764 -0.2827637792 0.5098545551
-0.1014106944 -0.1279399991 0.7089920044 -0.826590836 -0.2811405361 0.4818898141
-0.1027161926 -0.135968104 0.703353405 -0.8382111192 -0.2628372908 0.4728921652
-0.1015529633 -0.1274629235 0.7155133486 -0.8055303097 -0.3047218323 0.5042783618
-0.1093728393 -0.1323727369 0.6898425221 -0.8893052936 -0.1842634082 0.4086704552
-0.1123991236 -0.1323264539 0.6837855577 -0.9219991565 -0.09785403311 0.3553933203
-0.1140182912 -0.1346215457 0.6766662598 -0.9691634178 0.0218110159 0.2001771182
-0.1104812697 -0.138243556 0.684483707 -0.9031895399 -0.1515887529 0.355247885
-0.07070780545 -0.05898725614 0.6615743041 0.3669604957 -0.6318343878 0.6731992364
-0.06655032188 -0.05515661091 0.6621435285 0.3078947365 -0.6373954415 0.7052084208
-0.0521094054 -0.04269117489 0.6698257327 0.0826863572 -0.6835974455 0.7201770544
-0.04596627876 -0.04390016198 0.6680428982 -0.02191769704 -0.680095613 0.7303416133
-0.03855605051 -0.05508384854 0.6602219939 -0.160560742 -0.6205657125 0.7647016644
0.02605907805 -0.06983487308 0.6747792959 0.4958346486 -0.3870142102 0.7672666907
0.02428668551 -0.0743598938 0.6794546247 0.5150765181 -0.267960906 0.8019554615
0.03197091445 -0.07830715925 0.6665632129 0.5801745057 -0.4616318047 0.6522728205
0.02902917936 -0.07434642315 0.6721206903 0.5341442227 -0.4121003151 0.7158083916
0.02764240839 -0.09945036471 0.6505730748 0.4465488493 -0.5123202801 0.7071648836
-0.002978922101 -0.1197822839 0.6493436694 -0.5046414733 -0.4441970885 0.7369145751
-0.001970600104 -0.07904051989 0.6683865786 -0.704865396 -0.3388339281 0.6169551611
-0.01250557974 -0.06889156252 0.6646907926 -0.5920546055 -0.4479689002 0.6689212322
-0.007698017173 -0.06889038533 0.6689014435 -0.610220015 -0.4270102382 0.666177094
-0.002745686332 -0.07166680694 0.6716368198 -0.6492071748 -0.3657943904 0.6651558876
-0.07176392525 -0.05396692455 0.6667350531 0.4002591074 -0.6275961995 0.6640297174
-0.06595602632 -0.04894187674 0.6681410074 0.3258084357 -0.634044528 0.6956430078
-0.07549737394 -0.04778841138 0.6748726964 0.478178978 -0.624984622 0.6167699695
-0.06975597143 -0.04670356959 0.6727247834 0.3926810026 -0.6400914788 0.6565491557
-0.05809724331 -0.0461557731 0.6685720682 0.1843529791 -0.6657757759 0.7154729962
-0.06346768141 -0.04407063872 0.6716676354 0.2870795429 -0.6597645879 0.690497458
0.003249704605 -0.1178910807 0.6514285803 -0.3434445858 -0.3848786056 0.8126695156
0.007095467299 -0.1135923788 0.6495548487 -0.2259081006 -0.2856251597 0.8773762584
-0.07833554596 -0.05796883628 0.6673874259 0.5089655519 -0.6003088355 0.6130436063
-0.07655909657 -0.05316577107 0.6707835197 0.4892817438 -0.6135317683 0.6191765666
-0.03944779932 -0.0934054479 0.6305316687 -0.1954666823 -0.564440012 0.7979542017
0.00290105748 -0.1091391891 0.6616537571 -0.5711901784 -0.5105628371 0.5302570462
0.005141385365 -0.1187656 0.6595243812 -0.1241574809 -0.7066182494 0.5687835217
0.006658813916 -0.1145717353 0.6629984975 -0.1477668732 -0.7279403806 0.4916935563
0.01279351581 -0.1159070656 0.6585375667 0.1439605057 -0.599835515 0.6893960834
0.02479105629 -0.1053205952 0.6509638429 0.380748719 -0.4144951105 0.821782589
0.0186867658 -0.1112685949 0.6558215022 0.286585778 -0.5638666153 0.7122350931
0.003471981036 -0.1535001844 0.6846916676 0.856892705 -0.2535103559 0.4394029081
0.004507972393 -0.1431281418 0.6804289818 0.6707945466 -0.2215090543 0.422917366
0.0005745858653 -0.1278350651 0.6606256366 -0.1323093325 -0.3897641897 0.6464504004
0.002154131653 -0.1362636238 0.6650667191 0.1889444292 -0.2805143595 0.561003685
0.004411091562 -0.1466321647 0.6734902263 0.6399297714 -0.1567630619 0.4367765486
0.002979763085 -0.1398496926 0.6707416177 0.3953721523 -0.2305650562 0.5104319453
0.004559771623 -0.1322846711 0.6599459052 0.03573459759 -0.4396769702 0.5155100822
0.0007915367023 -0.1227788702 0.6539384723 -0.386333406 -0.5349194407 0.6629187465
0.00851951912 -0.1518990099 0.6707939506 0.8377273083 -0.04516319558 0.3534271121
0.008661343716 -0.1340263784 0.6652629375 0.3737648427 -0.4930724204 0.4387388825
0.008356127888 -0.1452131122 0.6672828794 0.5970528722 -0.209670499 0.3787128627
0.008292253129 -0.1264559627 0.6631109118 0.1705864072 -0.6795322299 0.4837279916
0.004311309662 -0.1300281286 0.6659204364 0.07815691829 -0.5539366007 0.4909418225
0.005743102171 -0.133102864 0.6720054746 0.3767332435 -0.4898560941 0.4545457363
0.006141242571 -0.1379173398 0.6779121161 0.6279576421 -0.3733296096 0.4235803783
0.0116902357 -0.1140832305 0.6534426808 -0.04554918036 -0.3814004958 0.8518514037
0.01880026422 -0.1000310406 0.667244792 -0.1802441329 -0.4267546237 0.5733892918
0.01581935771 -0.1084285006 0.6651440859 0.006605928764 -0.6036535501 0.5462622046
0.01038003713 -0.1061505601 0.6728568077 -0.3989667594 -0.5022730231 0.5440773368
0.01977649517 -0.1053457111 0.6626424193 0.1006212756 -0.5631774664 0.5605937243
0.01002836321 -0.1194612235 0.6645273566 0.1456126124 -0.8200460672 0.5077587962
0.02365412936 -0.1067465395 0.6572904587 0.3802878857 -0.6300743818 0.5627509952
0.02861443534 -0.0919976607 0.6615349054 0.3253269792 -0.4848605394 0.5843980312
0.0139334416 -0.0958231315 0.6756312251 -0.5604436398 -0.3271672726 0.5706512332
0.03328391165 -0.08395450562 0.6617147326 0.5402241349 -0.499905318 0.5874009132
0.02139804512 -0.09339039028 0.6687970161 -0.1148448065 -0.4048386812 0.5775430202
0.02601800114 -0.1002023369 0.6588853002 0.2423758507 -0.4956921935 0.5834770799
0.03045717254 -0.09751865268 0.6556660533 0.4952615798 -0.5355208516 0.5873274207
-0.04963955283 -0.1435824484 0.7398918867 0.001073036343 -0.5885236263 0.8022560477
-0.04431991652 -0.1462134123 0.7373634577 0.08578484505 -0.6110337377 0.7854009867
-0.03902569413 -0.1441848129 0.7385621071 0.1691634208 -0.6050034761 0.7752044797
-0.05054826289 -0.1812240928 0.711938858 0.07371438295 -0.5861493945 0.780377388
-0.05982013792 -0.180957526 0.7129595876 -0.07631473988 -0.6048227549 0.7852700353
-0.006569068879 -0.1696602404 0.6924474239 0.6995170116 -0.5158880949 0.4932723641
-0.09452974796 -0.1313779801 0.7241858244 -0.7001211047 -0.3682532609 0.6113216877
-0.09780899435 -0.1324210614 0.7183110118 -0.7560619116 -0.339655906 0.5504584908
-0.1010096371 -0.1330436319 0.712862134 -0.8082051277 -0.3126570582 0.4938948154
-0.09662685543 -0.1272601336 0.7198183537 -0.7574823499 -0.3245375454 0.560259521
-0.09721633047 -0.1518224925 0.7052841783 -0.7447473407 -0.3533963561 0.5597854853
-0.1067600474 -0.1459140629 0.6916806102 -0.8623647094 -0.2362782806 0.4476639032
-0.1050377712 -0.1443859339 0.6997907162 -0.8404664993 -0.2569287419 0.4764642119
-0.100262329 -0.1479696482 0.7025937438 -0.7958493233 -0.2974421084 0.517338872
-0.1121378615 -0.1464165449 0.6854158044 -0.8624739051 -0.236885801 0.4468161166
-0.1028393432 -0.1527356058 0.6981242895 -0.808696568 -0.2840993404 0.5141491294
-0.09813216329 -0.07854823023 0.6736716628 0.7064206004 -0.5016492605 0.4990845621
-0.08090339601 -0.06733145565 0.6601992249 0.5417113304 -0.5816825032 0.6064432859
-0.07976657897 -0.06295401603 0.6642642021 0.5282667875 -0.5973162651 0.6006919146
-0.07547480613 -0.0666301474 0.6566209197 0.4467183948 -0.6015273333 0.6601798534
-0.07899410278 -0.07733010501 0.6491897702 0.4765867293 -0.5676288605 0.6658709049
-0.08214327693 -0.07523167133 0.6539274454 0.5331439376 -0.5611951947 0.6278335452
-0.05637839809 -0.0792607367 0.6386780739 0.06416460127 -0.6197092533 0.7819670439
-0.09373873472 -0.1558573842 0.7075045109 -0.6837848425 -0.4065241516 0.6052466631
-0.01975472458 -0.05707047135 0.6652317047 -0.4620366693 -0.5241164565 0.7126167417
-0.02798061445 -0.04929311946 0.6669045091 -0.2900577486 -0.6089276075 0.7380110621
-0.02532872744 -0.05430625007 0.664213717 -0.3547788858 -0.5651769638 0.7441061139
-0.03270080313 -0.05336095393 0.6627536416 -0.2427676022 -0.6059806943 0.7551044226
-0.04230312631 -0.06256785244 0.6530379653 -0.1141756475 -0.6161814928 0.7740873098
-0.04370535538 -0.05800427496 0.6571500897 -0.08196017891 -0.6252297163 0.7742032409
-0.04421368241 -0.06635972857 0.649269104 -0.0881440565 -0.6235542893 0.7756311297
-0.03787174821 -0.06630334258 0.6507975459 -0.2039136738 -0.5944352746 0.7738881111
-0.06722126156 -0.07040853798 0.6490807533 0.2755300403 -0.6187851429 0.7303155065
-0.06972516328 -0.07532314211 0.6458777189 0.3073016107 -0.5994232297 0.7340556979
-0.07526179403 -0.07299727201 0.6504660845 0.4062854946 -0.5941516757 0.6919173002
-0.0460672453 -0.07120782137 0.6455250978 -0.06716678292 -0.615988791 0.7832292914
-0.05300250277 -0.0713352561 0.6460689306 0.03114981391 -0.6270161867 0.7759604454
-0.05888638273 -0.07030582428 0.6472350359 0.1275109649 -0.6251887083 0.7657774687
0.002483938588 -0.05970532075 0.6876313686 -0.435117811 -0.3060052097 0.811811626
-0.0007342930767 -0.06070816517 0.6822054982 -0.5623548031 -0.3857883215 0.720761776
0.001558589633 -0.0754802078 0.6752124429 -0.6481804848 -0.2845140994 0.704426527
0.009082010947 -0.06209049746 0.6857997179 -0.08212941885 -0.1847919971 0.8700048923
0.01580091752 -0.06553598493 0.6809183955 0.2986142635 -0.07199370116 0.898984611
0.003523099935 -0.06038992852 0.6764547229 -0.1536440253 -0.3414050639 0.7420665026
0.01327484287 -0.06362298131 0.6751219034 0.1418065727 -0.357619673 0.7609646916
0.02068605274 -0.0668528229 0.6759459376 0.4664767683 -0.1826834977 0.8422529101
0.01067492366 -0.06219233572 0.6802470088 0.06557321548 -0.2121404558 0.8070941567
0.005346159451 -0.05923349783 0.6821271777 -0.1994171739 -0.3087132275 0.7592331171
0.0002520515991 -0.05539036915 0.6793689132 -0.2675731778 -0.3635579646 0.7216434479
0.008064625785 -0.07496520132 0.6872310042 -0.3311401606 -0.2364305109 0.9000976682
-0.005664347671 -0.05307955667 0.6821346283 -0.5715799928 -0.4718574882 0.6688492298
-0.01033012103 -0.04929164797 0.6791610718 -0.5484081507 -0.5191127062 0.6522091627
-0.01049927808 -0.05487796664 0.6747667193 -0.5579846501 -0.4908556342 0.6688476205
-0.01786169782 -0.05162329599 0.6713922024 -0.4629634321 -0.5518561006 0.6892174482
-0.01618519798 -0.04602955654 0.6759639382 -0.5045734048 -0.577357471 0.6416219473
-0.00597988721 -0.1119954214 0.6380291581 -0.4943882823 -0.3085637093 0.7797875404
0.003924751654 -0.1109203175 0.643979013 -0.2953921556 -0.277684629 0.8577734232
0.009812633507 -0.1066032127 0.6456506848 -0.107059747 -0.1829136163 0.9350768924
0.01508180518 -0.1083643138 0.6494117379 -0.02108538896 -0.2232667655 0.9677716494
0.01834162138 -0.07564491034 0.6611633301 0.2149059027 -0.5050517321 0.6301777363
0.01018666476 -0.07266756892 0.6630263925 -0.0302643124 -0.4830384851 0.6372155547
0.02032743953 -0.07225847244 0.6656773686 0.3024264574 -0.4691517651 0.6831420064
0.007658271119 -0.06949894875 0.6668038368 -0.09527778625 -0.4468663931 0.6742768884
0.02501616068 -0.07542798668 0.6623452306 0.4378314912 -0.5034323931 0.6545587182
0.020878857 -0.06848222762 0.6709159017 0.3411039412 -0.422904402 0.7413213253
-0.002012831159 -0.06806834787 0.6667464972 -0.402574867 -0.4380454421 0.6574842334
0.01463945862 -0.07033959031 0.6671058536 0.1276010871 -0.4509064853 0.6892475486
-0.05898815766 -0.05381442606 0.6617150307 0.1997652948 -0.6489919424 0.7317034602
-0.05985148624 -0.1744957566 0.7174517512 -0.1140571386 -0.5993767381 0.7864726782
-0.0638306886 -0.1648600101 0.7213440537 -0.206574887 -0.5661550164 0.796400249
-0.06942248344 -0.1451147497 0.7343707681 -0.3397929966 -0.5459011793 0.7621021867
-0.07876660675 -0.1391884834 0.7345255613 -0.4575431645 -0.5060319304 0.7286093235
-0.08295919746 -0.1407409608 0.7292110324 -0.5484182239 -0.4827497005 0.6789738536
-0.07701829821 -0.146132201 0.7300741076 -0.4462613463 -0.5267110467 0.7222454548
-0.08734620363 -0.1337093562 0.7297126651 -0.623298347 -0.4204811156 0.6524639726
-0.09141793102 -0.128640905 0.7299870253 -0.6672081947 -0.3783268034 0.6415073276
-0.08113563061 -0.1323277205 0.7366153598 -0.5096862316 -0.4642255306 0.7181825042
-0.09495336562 -0.1258503348 0.7254472971 -0.707598269 -0.3531158268 0.6069376469
-0.08473146707 -0.1279381067 0.7319002748 -0.5821726322 -0.4309355915 0.6689733863
-0.09482523054 -0.1216172278 0.7211751342 -0.7336719036 -0.3296017051 0.5647134781
-0.06510558724 -0.1349818856 0.7441251874 -0.2606964111 -0.5466604233 0.7956480384
-0.06073765457 -0.1304779351 0.7451652288 -0.2311975509 -0.5434544086 0.7996973991
-0.06392205507 -0.1406387538 0.7396318316 -0.2678246796 -0.5584732294 0.7813994884
-0.07396490127 -0.1328206211 0.7380855083 -0.4175077081 -0.5095353723 0.749443531
-0.02649082989 -0.1393199265 0.7360516191 0.3287706673 -0.6048072577 0.724531889
-0.03192740679 -0.1428575665 0.7366930246 0.2630166113 -0.6106102467 0.7460203767
-0.03315676376 -0.1492466778 0.7325977683 0.2790775001 -0.6189008951 0.732865274
-0.02783254161 -0.1459424496 0.7325743437 0.3520573676 -0.6038250923 0.7131917477
-0.02694962732 -0.1644063592 0.7149501443 0.4278663695 -0.5478048921 0.714821279
-0.03257854655 -0.1598407775 0.7220770121 0.3296755552 -0.582942009 0.7398245931
-0.02601739019 -0.1544872522 0.7224259377 0.4295980632 -0.5924577713 0.6808152795
-0.03124942631 -0.1546479315 0.7251251936 0.3359225094 -0.6066431999 0.7167134881
-0.02785620466 -0.179586634 0.7064157128 0.4338619709 -0.5360229015 0.7156293392
-0.07354053855 -0.1772372872 0.7094576955 -0.3587309718 -0.5408473611 0.7425640225
-0.06772341579 -0.1788908541 0.7115473151 -0.2250187844 -0.5782734156 0.769570291
-0.06079765782 -0.1689826548 0.7176800966 -0.151721552 -0.5570839643 0.8110543489
-0.09184321761 -0.1363246888 0.7241819501 -0.6811118722 -0.3898412883 0.616738081
-0.0883191824 -0.1400748193 0.7260391116 -0.6333155036 -0.4330748916 0.6358726621
-0.09889919311 -0.1452972889 0.7072280049 -0.7835370302 -0.3140536845 0.5313197374
-0.09563212842 -0.1420542002 0.7152690887 -0.7414841652 -0.3630637228 0.55532372
-0.06749270856 -0.1686651558 0.7171918154 -0.2589426935 -0.5567827225 0.7870569825
-0.07057119161 -0.1729201078 0.7133488655 -0.3295943439 -0.5523523092 0.7627561688
-0.08000331372 -0.1648698151 0.7133463621 -0.4789097011 -0.5019060373 0.7154273391
-0.0769969672 -0.1704025716 0.712433219 -0.4244216681 -0.5351110697 0.7286029458
-0.09933749586 -0.08438829333 0.6720312834 0.7176084518 -0.4987937808 0.485984087
-0.09636855125 -0.08359307051 0.6629061699 0.7044253349 -0.5168504715 0.486433953
-0.09890553355 -0.08889787644 0.6636630297 0.7071921825 -0.4957502186 0.5038759708
-0.0926823765 -0.07834632695 0.6635417342 0.6918433905 -0.5099460483 0.5107298493
-0.09580842406 -0.08056309074 0.668407321 0.7061141729 -0.504306376 0.4965678751
-0.09020490944 -0.1013293192 0.638628304 0.5786986947 -0.5046735406 0.6404360533
-0.09252329916 -0.0993950218 0.6435959935 0.6176750064 -0.4910643101 0.6135207415
-0.08441313356 -0.1040883511 0.636195302 0.5299093723 -0.5137271285 0.6743161678
-0.08501631021 -0.09474997222 0.6392468214 0.5453651547 -0.5101734996 0.664507091
-0.08367914706 -0.08997686952 0.642777741 0.5442605019 -0.5141704082 0.6625849009
-0.07512832433 -0.09919796884 0.6272621751 0.3717161119 -0.5659069419 0.7327235937
-0.0778105706 -0.09560365975 0.6327558756 0.4371621907 -0.553152144 0.7053105235
-0.08096015453 -0.1018239483 0.6316294074 0.4691244066 -0.5291908979 0.6995107532
-0.08972120285 -0.08120889962 0.6560512781 0.6644590497 -0.5216606855 0.5346283317
-0.03329489008 -0.05912677571 0.6578734517 -0.2556194663 -0.5874889493 0.7644407749
-0.03192952648 -0.06398879737 0.6545103192 -0.3012866378 -0.5682068467 0.7634775043
-0.02431904338 -0.06151033565 0.6604832411 -0.3904753029 -0.5466889739 0.7348319888
-0.05364747718 -0.07548549771 0.6420805454 0.04416578263 -0.6109402776 0.7888208032
-0.04901910573 -0.08123158664 0.6393939853 -0.0302237682 -0.6153129339 0.7844110131
-0.04873003066 -0.08750095218 0.6334382892 -0.06174490601 -0.6050799489 0.7921212912
-0.05261810869 -0.08323574066 0.6359344125 0.007834053598 -0.6166059971 0.7847902179
-0.0544680357 -0.049248375 0.6641246676 0.1224253699 -0.6607362032 0.7403085828
-0.04524060339 -0.05148718879 0.6623202562 -0.05597531423 -0.6525571942 0.7541267872
-0.04937676713 -0.04745771736 0.6655008793 0.02950419299 -0.6620030999 0.7430026531
-0.05171503872 -0.05317975953 0.6615229249 0.07889711112 -0.6477289796 0.7503009439
0.008245571516 -0.06405711174 0.6915001869 -0.1598304212 -0.1041043997 0.9587510228
0.01870384999 -0.07436496764 0.6852787733 0.306166321 -0.2287343442 0.8809999228
0.01364649646 -0.07665894926 0.6894724369 0.0291895438 -0.2669259012 0.9485063553
0.01056130324 -0.06987213343 0.6906978488 -0.08170621842 -0.1794870049 0.9560505152
0.01612260379 -0.06869513541 0.6858231425 0.2214885056 -0.1512915045 0.890401721
0.005549503025 -0.07693345845 0.6818450689 -0.5323803425 -0.2489064336 0.8024585247
0.00529148709 -0.06645066291 0.6868984103 -0.3947752416 -0.1928817928 0.8857375383
-0.004796277266 -0.05911587551 0.6778871417 -0.5852879882 -0.4387524724 0.6801712513
-0.00500355754 -0.06476398557 0.6734886169 -0.5923620462 -0.4389212132 0.675585866
-0.0107381111 -0.06141195819 0.6699540615 -0.5979738235 -0.454596132 0.6598271728
-7.569807349e-05 -0.06195556 0.6717588305 -0.2817103863 -0.4450055361 0.6900798082
0.004938680213 -0.06588631123 0.6701507568 -0.1534203142 -0.4250250459 0.7017300725
-0.01521196868 -0.05786501244 0.6690759063 -0.5239557028 -0.5024452806 0.6791222692
-0.0148943793 -0.06366827339 0.6652367115 -0.5494145751 -0.4736051559 0.6875753999
0.01117188483 -0.08824477345 0.6843557358 -0.4078831077 -0.2137550712 0.8450958729
0.01440147869 -0.08171403408 0.6850425601 -0.06686519086 -0.2542375922 0.8696625233
0.02358565293 -0.08229089528 0.6747553945 0.2410594523 -0.2994860411 0.7373028398
0.02736297622 -0.08017029613 0.6717550755 0.4457071424 -0.3544598222 0.7090453506
0.01601056196 -0.08671461046 0.6806442738 -0.1754918396 -0.1904969215 0.7922511697
0.02074641176 -0.08754248172 0.6742720008 -0.04424517974 -0.2850244641 0.7217697501
0.01960560121 -0.08189330995 0.6798874736 0.1200406179 -0.2222337276 0.7935383916
0.02701797895 -0.08666043729 0.6671413779 0.1975007504 -0.420902431 0.6108247042
0.01072545629 -0.09375409037 0.6816919446 -0.6100717187 -0.1582007259 0.7689698935
0.007636524737 -0.09601982683 0.6763084531 -0.7700225711 -0.3225899041 0.5461862087
0.02951397933 -0.08159178495 0.6571246982 0.511348784 -0.5585814118 0.6483047009
0.03020530567 -0.09424393624 0.6510938406 0.4391266108 -0.5553721786 0.7024688125
-0.07235591859 -0.1396551132 0.7373995185 -0.3931870162 -0.5244637132 0.7542516589
-0.07317639887 -0.1240497902 0.7485017776 -0.4117395878 -0.5016795993 0.7570687532
-0.07810875773 -0.1241903678 0.744610548 -0.4791285098 -0.4580858946 0.741681993
-0.06987134367 -0.1319800317 0.7444161773 -0.3505047858 -0.5253440738 0.7718017101
-0.06615678966 -0.1277086437 0.7483961582 -0.2810110152 -0.5377318859 0.7937200665
-0.06327283382 -0.1456166953 0.7357903719 -0.2423397452 -0.5686445236 0.7836567163
-0.003340082942 -0.09810361266 0.6411270499 -0.2897698879 -0.4202907681 0.7651588917
0.003549994901 -0.09720120579 0.6452012062 -0.1621636748 -0.4200666249 0.7965800762
-0.03243479505 -0.100555636 0.62743783 -0.3277496397 -0.4966197908 0.8014014363
-0.03333128244 -0.09432633221 0.6311492324 -0.2791178226 -0.5636914968 0.7754989862
-0.02616786957 -0.09625665843 0.6325522065 -0.430752486 -0.501052022 0.7497873306
-0.02018294856 -0.1011178046 0.634947598 -0.5294577479 -0.4527304173 0.7105782628
-0.01576265134 -0.09942636639 0.6406863332 -0.586481154 -0.43418625 0.6753314137
-0.02134461887 -0.09554780275 0.6373760104 -0.5038668513 -0.4795414209 0.7122884989
-0.0444104895 -0.07573889941 0.6425938606 -0.1010301262 -0.6040685773 0.7894848585
-0.07653199136 -0.1011548042 0.6355404854 0.4118259847 -0.5594634414 0.7018153667
-0.0634656325 -0.09294065833 0.6286944151 0.1831730604 -0.6091301441 0.7656342983
-0.02228790149 -0.1399596334 0.7324132919 0.3843736649 -0.5935308933 0.7052494884
-0.0157555379 -0.1700387299 0.701079011 0.6193784475 -0.5249204636 0.571659863
-0.01225204207 -0.1650178432 0.7023252845 0.6604226232 -0.51656425 0.5435375571
-0.01025381498 -0.1591967046 0.7050688267 0.6755358577 -0.4987152815 0.5422112346
-0.03708279133 -0.1812498569 0.7111394405 0.2859216034 -0.565659821 0.7726092339
-0.0425673984 -0.1820451915 0.7134674191 0.1951474398 -0.5692287683 0.7936879992
-0.0522919707 -0.1753193736 0.7146077752 0.01962472498 -0.5922464132 0.7980539203
-0.05426105484 -0.1700737625 0.7173799276 -0.04229101911 -0.5608816147 0.8252726793
-0.04783473909 -0.1694028229 0.7176066637 0.08717676997 -0.5565007925 0.8207942247
-0.03926670551 -0.1723209918 0.7146613002 0.2714615464 -0.5442271829 0.7862882018
-0.06400333345 -0.1532521546 0.7302440405 -0.2134700119 -0.6121894121 0.7603251338
-0.05573173985 -0.153433308 0.7313165069 -0.07880909741 -0.6349782944 0.7674189806
-0.07024804503 -0.1531246454 0.7276465893 -0.3309020698 -0.5772460103 0.740334332
-0.02214370854 -0.1650444567 0.7120369673 0.4968835711 -0.5375029445 0.679457128
-0.01658814773 -0.1627544612 0.7078151703 0.5866926312 -0.514367938 0.6169307232
0.001182560693 -0.1502375156 0.6955841184 0.7929993272 -0.367831707 0.4547664821
0.004106780514 -0.1489984691 0.6879060864 0.8845785856 -0.1775680631 0.4081884623
-0.006507882383 -0.1591571718 0.6981514096 0.7072278261 -0.4865885675 0.5105572939
-7.307902706e-05 -0.1612537056 0.6872162819 0.7339245081 -0.4865247011 0.4738593698
0.001851000707 -0.1541601717 0.6898214221 0.7878917456 -0.3884351254 0.4681028426
-0.1037229151 -0.09086075425 0.6705235839 0.7164145708 -0.4990838468 0.4873346984
-0.108143799 -0.1129224673 0.6761338711 -0.1769268513 -0.2751843333 0.4268540144
-0.1060938761 -0.1069304049 0.67390728 0.1037176624 -0.3602448404 0.4643248022
-0.1037957892 -0.09438970685 0.6645268202 0.6934792995 -0.48689726 0.5090823174
-0.1126415879 -0.1227287501 0.6785399914 -0.6526766419 -0.1062185392 0.3435381055
-0.1058899537 -0.1010912731 0.6678566337 0.3748846352 -0.3968109488 0.469856292
-0.104410708 -0.0949709937 0.6747592688 0.533261776 -0.4657672346 0.4783758819
-0.1016993225 -0.09920619428 0.6556936502 0.6692200303 -0.4889408946 0.5586004853
-0.0923390463 -0.1051899716 0.6448222995 0.593413949 -0.5073893666 0.6195016503
-0.09717144817 -0.1035581455 0.6465610266 0.6388309002 -0.496510148 0.5851894617
-0.09242469072 -0.087770693 0.6547245979 0.6647796631 -0.5127465725 0.5421718955
-0.09795778245 -0.09119404852 0.6590422392 0.6937611699 -0.4957382083 0.5217813253
-0.09126965702 -0.09129010141 0.6492026448 0.6370171309 -0.5037328005 0.5817115307
-0.08656286448 -0.1060578376 0.6416170597 0.5520510077 -0.5180958509 0.6510157585
-0.09659891576 -0.09535421431 0.6534062624 0.6624382734 -0.4979790449 0.5578415394
-0.09231576324 -0.09784801304 0.649145484 0.6214475632 -0.5060864091 0.5920433998
-0.08706915379 -0.0881485641 0.6487183571 0.5840350389 -0.5125392079 0.6253709197
-0.06452061236 -0.08435253799 0.6368889213 0.1987855285 -0.6307945848 0.7495625019
-0.06414937973 -0.07836262882 0.6415254474 0.2015525401 -0.6146371365 0.761149168
-0.06979285181 -0.0878457576 0.635776341 0.3047474623 -0.6010468006 0.732188046
-0.07173155993 -0.09363432229 0.6368666887 0.3158887923 -0.5955199003 0.7181487083
-0.05801059306 -0.08500501513 0.6352468133 0.09933563322 -0.6241716146 0.7721132636
-0.06354993582 -0.08828805387 0.6334255338 0.1842491031 -0.6275931597 0.7529642582
-0.05899794772 -0.09095172584 0.6305447221 0.09922465682 -0.6169422269 0.7725080252
-0.08003071696 -0.09936099499 0.6398948431 0.4555438757 -0.5516133904 0.6854449511
-0.07484836876 -0.08891490847 0.6405599117 0.3796429634 -0.5833737254 0.7081006765
-0.08468405157 -0.1002969146 0.6423222423 0.542088151 -0.5198554397 0.6601560116
-0.07414971292 -0.07946056128 0.6448143125 0.3801462948 -0.5895730257 0.7114245892
-0.069083713 -0.08172753453 0.6417078972 0.27947402 -0.6108583212 0.7352183461
-0.08029021323 -0.08465594053 0.6446917653 0.4992975891 -0.5427731872 0.6711457372
-0.05063006654 -0.0654001534 0.6501992941 0.0208580289 -0.6341289878 0.7675063014
-0.05496732518 -0.06253487617 0.6528612971 0.1039891839 -0.6425923109 0.7587409019
-0.04900841787 -0.0613232106 0.6538541317 0.003926071804 -0.6343795657 0.768725872
-0.05387799814 -0.0570637919 0.6569951177 0.09718625247 -0.649192214 0.7527507544
-0.0604712069 -0.06368872523 0.6531466842 0.1916865557 -0.6382520199 0.7411317825
-0.00667314278 -0.1076615974 0.6458012462 -0.586833775 -0.4305464029 0.6842744946
-0.006944150198 -0.114968136 0.6446248293 -0.5614932179 -0.4105486274 0.7112069726
-0.01014920697 -0.1108240187 0.6409388781 -0.6085343957 -0.3840747476 0.6891026497
-0.0112572806 -0.1037921458 0.6427141428 -0.6495930552 -0.3931860626 0.6501888633
-0.01100224536 -0.1062905565 0.6367246509 -0.5226514339 -0.3783941567 0.727674365
-0.005200186744 -0.1045742556 0.6387782693 -0.3813761175 -0.3829614818 0.7616724372
-0.001022345619 -0.108697623 0.6396692991 -0.3487327099 -0.3543211818 0.7933397293
-0.01068157703 -0.09885402024 0.638373971 -0.4473852217 -0.4227741659 0.7228392959
0.009842221625 -0.09969764203 0.6442425251 -0.01306685712 -0.3973956406 0.8496422768
-0.02266718075 -0.105223611 0.6291897893 -0.4708801508 -0.4402822852 0.757009685
-0.01401756983 -0.1111239418 0.6343100667 -0.6163540483 -0.3526536524 0.7015556097
0.001810945687 -0.08338177949 0.6708132625 -0.7133589387 -0.2561227679 0.6441017985
0.004865427967 -0.08415058255 0.6761280894 -0.6847467422 -0.1877890527 0.7005195022
0.006657592021 -0.08589073271 0.6806194186 -0.6284908056 -0.1774773747 0.7458578348
0.006632809527 -0.1060422361 0.6672733426 -0.5313676 -0.5611513853 0.4218977392
0.009864227846 -0.1128908545 0.6684986949 -0.1402154565 -0.6649827957 0.5170347095
0.007320983801 -0.1006138921 0.6714003086 -0.7721761465 -0.4190636873 0.4215711355
0.02289820649 -0.09764432162 0.6485308409 0.292511642 -0.4542023242 0.83224684
0.01828276925 -0.1042431369 0.6487030983 0.1025763005 -0.244151175 0.9519726634
-0.04892710224 -0.1517736912 0.7325865626 0.02664312348 -0.6353383064 0.7651365399
-0.05351169407 -0.147544682 0.7357200384 -0.07534333318 -0.60917449 0.7864829302
-0.04344889894 -0.1578520834 0.7271399498 0.1532279253 -0.6339161396 0.7563972473
-0.0439017415 -0.1537267566 0.7308338881 0.1231306121 -0.6440333724 0.7531953454
-0.03563986346 -0.1538630128 0.728682816 0.2675187886 -0.6196724176 0.7367963195
0.003244745778 -0.09317061305 0.6704502106 -0.7651290894 -0.364921391 0.529437542
-0.0002499843249 -0.09060452133 0.665389657 -0.7545098066 -0.3839778304 0.5308644176
-0.001860032557 -0.0968227163 0.6591471434 -0.715705812 -0.4622501731 0.5177977085
0.001296548289 -0.0958963111 0.6648862362 -0.7589261532 -0.4220106304 0.4930584431
-0.002054932294 -0.1128425598 0.6517195106 -0.5430517793 -0.4555135965 0.7013936639
-0.003009044565 -0.1052456424 0.6512884498 -0.5988061428 -0.4483617544 0.6628503799
0.000290646567 -0.1119987667 0.6568949223 -0.601270318 -0.4571688473 0.6253751516
-0.0004659333499 -0.1037638485 0.6568561196 -0.6623671651 -0.4506272078 0.5816954374
0.002026433824 -0.1032486185 0.6623615026 -0.7231904864 -0.4522018433 0.5009522438
-0.006631384604 -0.1015599519 0.6487842202 -0.6344313622 -0.4344270527 0.6380858421
-0.04335384443 -0.08453467488 0.6361365318 -0.1286501437 -0.5993636847 0.7874839902
-0.04174517468 -0.08913376927 0.6332647204 -0.1541860551 -0.5871737003 0.7913247943
-0.0525925979 -0.09309480339 0.628372252 -0.01972633228 -0.6030554175 0.7955427766
-0.05882661045 -0.1011060998 0.6211188436 0.08583649993 -0.5692210793 0.8037074804
-0.0553984791 -0.09857649356 0.6253903508 0.04133526236 -0.5842625499 0.8072400093
-0.0455798544 -0.09317230433 0.629719615 -0.1103967354 -0.571098268 0.8091704845
-0.04859784618 -0.09891512245 0.6260543466 -0.06595941633 -0.5535922647 0.8135964274
-0.03818233684 -0.1014190465 0.6251716614 -0.2323552668 -0.5053401589 0.8252798319
-0.06824388355 -0.1016624719 0.6267060637 0.2704595029 -0.5612640381 0.7737042308
-0.07176984102 -0.1036485285 0.6313024163 0.3169287741 -0.5521027446 0.7405283451
-0.06231411919 -0.09990012646 0.6265127659 0.1801132709 -0.5804428458 0.7785846591
-0.01923043095 -0.1698101908 0.7067450285 0.5624604225 -0.527921021 0.6326776147
-0.02315549925 -0.1759933233 0.7053938508 0.5155496001 -0.5266611576 0.6663172841
-0.01858958788 -0.1747729182 0.7023001909 0.5811100602 -0.5304673314 0.6031609178
-0.01035964675 -0.1718313992 0.6970856786 0.6795461178 -0.5179631114 0.5166537762
-0.004282473586 -0.1638754904 0.6934712529 0.7336851954 -0.4869216383 0.4738305211
-0.00231324113 -0.1567798555 0.6951070428 0.7434250712 -0.4698663056 0.4758645892
-0.007538899314 -0.1647386551 0.6985908151 0.7099715471 -0.4989318848 0.4967801571
-0.02682791278 -0.1705705822 0.7102748752 0.4725451767 -0.5207222104 0.7104483247
-0.03263419494 -0.1684562862 0.7149671912 0.3550604582 -0.5435938239 0.7552334666
-0.03413687274 -0.1738439649 0.7123755217 0.3740275502 -0.5326048732 0.7579610348
-0.06522070616 -0.1575767398 0.7265272141 -0.2399444729 -0.600954175 0.7616220713
-0.05820181966 -0.1622950286 0.7238839865 -0.1159689799 -0.5876571536 0.7965616584
-0.05738020316 -0.1578590721 0.7272229195 -0.1030807942 -0.6213816404 0.7723449469
-0.08673597872 -0.1641812474 0.7083748579 -0.5806043148 -0.460031867 0.6704149246
-0.09167045355 -0.1626377851 0.7049981356 -0.6594066024 -0.4297993779 0.6138529181
-0.08939167857 -0.1539378613 0.7133923173 -0.6442976594 -0.4275802076 0.6333220601
-0.08227273822 -0.1502073705 0.7221150398 -0.5412777662 -0.5035744905 0.6675513387
-0.08693470806 -0.1451729536 0.7226066589 -0.606044054 -0.4781722128 0.6332071424
-0.09103805572 -0.1407103688 0.7198133469 -0.6803611517 -0.4242164791 0.5777848959
-0.09017476439 -0.1463402361 0.7172870636 -0.6648717523 -0.4359529018 0.6039209962
-0.08571182191 -0.1529620439 0.7181412578 -0.6086532474 -0.4626269341 0.6437917352
-0.09309083223 -0.1502319872 0.7117831111 -0.6763026714 -0.4031351507 0.61601758
-0.01347209234 -0.1569320709 0.7107658386 0.6137209535 -0.5175300241 0.5921886563
-0.01803326793 -0.15887402 0.7148733139 0.5372470021 -0.5418508053 0.6460919976
-0.02039489336 -0.1532333493 0.7212020755 0.4945379198 -0.5634080768 0.6594901085
-0.02259064652 -0.1485233158 0.7262307405 0.4393291175 -0.5850635171 0.6805394888
-0.02799099125 -0.1505508274 0.7292636037 0.3527586758 -0.6148992777 0.7032920122
-0.02068160102 -0.1436187178 0.7273688316 0.4510150254 -0.5806071162 0.6774697304
-0.009326470084 -0.09275139868 0.6510578394 -0.6693670154 -0.4431454539 0.5956942439
-0.0139118759 -0.09375024587 0.6458656788 -0.6139140129 -0.4517812133 0.6461864114
-0.007011130452 -0.09512248635 0.645620048 -0.4282475412 -0.4413936138 0.7089208961
-0.01875663176 -0.0658897087 0.6613914371 -0.4970538616 -0.500580132 0.7013028264
-0.06918802112 -0.09257483482 0.6313596964 0.2993284762 -0.6008407474 0.7359500527
-0.06878513098 -0.1013747603 0.6200311184 0.235844627 -0.5681120753 0.7874217033
-0.06892735511 -0.09647398442 0.6267620325 0.2720157504 -0.5880017281 0.7592787743
-0.07206319273 -0.1569239199 0.7238851786 -0.3600108922 -0.5638337135 0.7355870605
-0.07723233104 -0.1579057276 0.7204051614 -0.4525156915 -0.5284583569 0.7171912789
-0.07309895754 -0.1652428657 0.7170576453 -0.3614267409 -0.5370859504 0.7555578351
-0.08251017332 -0.1575738341 0.7166131735 -0.5514730811 -0.4811812341 0.6754084229
-0.0842269212 -0.1604192406 0.7125075459 -0.5637152791 -0.4685610831 0.6745164394
-0.04258186743 -0.1693489552 0.7198095322 0.1816880852 -0.5651806593 0.8027073741
-0.0449716039 -0.1638997346 0.7226974368 0.1423141509 -0.5641706586 0.8129644394
-0.0379136391 -0.1640714556 0.7200036645 0.2450559437 -0.5655038357 0.785405755
-0.05012585595 -0.1648686081 0.7223190069 0.03709445149 -0.5676717162 0.8160213828
-0.04549304396 -0.1751341671 0.7180389762 0.1417773366 -0.563565433 0.8125511408
-0.01461463142 -0.153524518 0.7160100341 0.56103158 -0.5383433104 0.6285349131
-0.008674311452 -0.1465239227 0.7147371769 0.6372003555 -0.4961792231 0.5849722624
-0.01373205241 -0.1428348273 0.7217603922 0.5565280318 -0.532961309 0.6258731484
-0.01374791469 -0.1479095221 0.7200895548 0.5501506329 -0.5420448184 0.6348443031
-0.003581829835 -0.08604298532 0.6624458432 -0.7439595461 -0.3754005432 0.551032722
0.01014104858 -0.09487437457 0.6492384672 -0.05940978602 -0.401530534 0.822960794
0.01638024114 -0.09792365879 0.6473520994 0.1246929914 -0.3971680999 0.8837439418
-0.001243853243 -0.09198550135 0.6497380137 -0.3616195917 -0.4195801616 0.7173325419
-0.006899900269 -0.08737178147 0.6517534256 -0.4809456766 -0.428345561 0.6835526228
-0.01183094177 -0.08495377749 0.6539179683 -0.6488448977 -0.4313576519 0.6262495518
0.01062783133 -0.08797514439 0.654188633 -0.09670446813 -0.4784934223 0.6874679327
0.01656038128 -0.09028474987 0.6523650885 0.0928446725 -0.4835039079 0.7407844067
-0.001131277648 -0.08885668218 0.6544319391 -0.4538158476 -0.4049909115 0.683062017
0.02320672385 -0.09118326753 0.6513651013 0.2994456291 -0.5087838769 0.7691850662
-0.009414666332 -0.07842586935 0.6616450548 -0.6699761152 -0.4066193998 0.6153667569
0.01602826267 -0.08574914187 0.6552143097 0.06677646935 -0.5261178017 0.6595380902
0.00616472261 -0.08516632766 0.656253159 -0.2291903943 -0.4694188237 0.6367636919
0.02740169503 -0.08570573479 0.6544831395 0.4166285992 -0.5855956078 0.6799542904
0.02308597602 -0.08125476539 0.657674849 0.3374466002 -0.526181519 0.6357119083
-0.003986438271 -0.07679311186 0.6633555293 -0.5755737424 -0.4173005819 0.6205430031
-0.007234132849 -0.08457781374 0.6576731205 -0.6535003185 -0.4044037759 0.6178717613
0.01269465778 -0.08171445131 0.6580876112 0.01014070399 -0.4766728282 0.6218663454
0.005107654724 -0.07825685292 0.6614190936 -0.261293143 -0.449855268 0.6216010451
-0.0004184177669 -0.08022209257 0.660405457 -0.4404775202 -0.4296365678 0.6201700568
-0.01388300769 -0.08876115084 0.6484742761 -0.6283299923 -0.4515347779 0.6305595636
-0.01795897074 -0.08425600827 0.6488853097 -0.5572984815 -0.4749985337 0.6707268953
-0.01969767548 -0.08847317845 0.6444634199 -0.521064043 -0.4922565222 0.6902029514
-0.03634908423 -0.08107611537 0.640947938 -0.2186070234 -0.5836800933 0.7795795202
-0.03659982234 -0.07540713996 0.6449071765 -0.2083439082 -0.587677598 0.779841125
-0.02483803593 -0.08886864036 0.6399140358 -0.4599213898 -0.5087293983 0.7131277919
-0.01832088828 -0.0930628255 0.6418687701 -0.5599874854 -0.4714130759 0.6790268421
-0.0283601433 -0.09114255011 0.6348598599 -0.3719570637 -0.5423842669 0.7495826483
-0.03466561064 -0.08816830814 0.6350120306 -0.2442340553 -0.5837532282 0.773407042
-0.01966653578 -0.07895097136 0.6482848525 -0.5314478874 -0.5051390529 0.6794361472
-0.02315860614 -0.08287763596 0.6436385512 -0.4658002853 -0.5242260695 0.7090334296
-0.01324605383 -0.07451111078 0.659142971 -0.593495667 -0.447922945 0.6663450599
-0.02972149663 -0.07032265514 0.6506319046 -0.3418349922 -0.5661239028 0.7479664087
-0.02511887811 -0.06621076912 0.655703485 -0.3984815776 -0.5417752862 0.7399205565
-0.02430391312 -0.07124306262 0.6522315145 -0.4173502326 -0.5375851393 0.7323415875
-0.01918267459 -0.07146913558 0.6558505893 -0.5157603621 -0.5010763407 0.694739759
-0.02581442147 -0.07743754238 0.6470330358 -0.4046400189 -0.5384016037 0.7385789156
-0.03089722805 -0.08416286111 0.6395706534 -0.317535162 -0.5622436404 0.7598714232
-0.01512429398 -0.07962143421 0.6541352272 -0.5936809778 -0.4553028047 0.6615092158
