# .PCD v0.7 - Point Cloud Data file format
VERSION 0.7
FIELDS x y z normal_x normal_y normal_z
SIZE 4 4 4 4 4 4
TYPE F F F F F F
COUNT 1 1 1 1 1 1
WIDTH 512
HEIGHT 1
VIEWPOINT 0 0 0 1 0 0 0
POINTS 512
DATA ascii
0.04445379972 -0.07900250703 0.5366889238 0.3337291479 -0.7112336159 0.6182696223
-0.07224110514 -0.1415238529 0.5159139037 -0.5061496496 -0.5427029729 0.5211830735
-0.07208707929 -0.1375493258 0.5220746994 -0.5692903399 -0.5458173752 0.4993291795
-0.07189316303 -0.1207217947 0.4994984865 0.2264296114 -0.5745462179 0.5670089722
-0.072114788 -0.1359622329 0.5150606632 -0.3875266016 -0.5500872731 0.521794796
-0.07196901739 -0.1287499368 0.5120384693 -0.1918460429 -0.5602750182 0.5288952589
-0.07081235945 -0.1313131452 0.5057134032 -0.1267074645 -0.561488986 0.5528207421
-0.07044647634 -0.1269061565 0.5020131469 0.02714657784 -0.568875134 0.5637426972
-0.07059152424 -0.1175469235 0.4947424233 0.3606235981 -0.5825800896 0.5834879875
-0.06959084421 -0.1324674487 0.518119216 -0.4095395803 -0.5553061366 0.5119283795
-0.01011694409 -0.1359766871 0.5539882183 0.5497658849 -0.6250010133 0.5495025516
0.02023988031 -0.06661942601 0.5715225935 -0.3101892471 -0.939874351 0.1287889928
0.009227512404 -0.07902083546 0.5710489154 -0.2020555735 -0.9177014828 0.136250928
0.006610394455 -0.08389188349 0.5717976689 -0.1345853657 -0.8939856291 0.1906544864
-0.005710188765 -0.1020250618 0.5722698569 0.1264692396 -0.8123888373 0.3911601603
0.01268539391 -0.07435379177 0.5708745122 -0.2680675089 -0.9382146001 0.08280410618
0.004020043183 -0.09127870947 0.5715739131 -0.01850570552 -0.8565887809 0.25695315
-0.007359728683 -0.1096475497 0.5744838119 0.2311353981 -0.7698837519 0.4705295563
-0.01326995064 -0.1193285137 0.575848937 0.3641802371 -0.7241647243 0.5815166831
-0.01115677413 -0.1145163476 0.5747383833 0.2989460826 -0.7487754226 0.5277553201
-0.006961225066 -0.1135132909 0.569999814 0.3287419379 -0.7506676912 0.4670552313
-0.0001779511076 -0.1011505201 0.5701659918 0.1424450129 -0.8093730807 0.3442530036
0.005575211719 -0.07904274762 0.5661789179 -0.1762845516 -0.9288037419 0.1250209063
-0.004289043602 -0.106654264 0.5690584779 0.230059132 -0.7859477997 0.3969343007
0.001352054998 -0.09559159726 0.568703413 0.06531536579 -0.8406186104 0.2902664542
0.003905951045 -0.08505024761 0.5670309663 -0.08842334151 -0.8969979286 0.1848242879
-0.03615638241 -0.09076086432 0.4855635166 -0.01644474082 -0.7065976262 0.7018527985
-0.04156147689 -0.08786724508 0.489233464 0.13354972 -0.706022203 0.6801943183
-0.05354098976 -0.09406674653 0.4871623516 0.3927888572 -0.6006854177 0.6912975907
-0.04808286577 -0.08743418753 0.4916133881 0.2837303877 -0.6797667146 0.665877223
0.007197173312 -0.0567702949 0.5668699741 -0.3684131801 -0.8922249079 0.1446505487
0.0002576661063 -0.05426970124 0.5634146929 -0.431538552 -0.8329184651 0.2370412052
-0.04724891856 -0.09116840363 0.4861484468 0.2969266176 -0.6482073665 0.7007457018
-0.0583871156 -0.1232344136 0.5777272582 -0.2537972927 -0.8082057238 0.5219662189
-0.05119691417 -0.1218105778 0.5862208009 -0.1309761703 -0.8387057781 0.5266290903
-0.04423309863 -0.1203397512 0.5899271369 -0.005639903713 -0.8499009609 0.5262601972
-0.04393208027 -0.1298241764 0.5774733424 -0.1114071831 -0.8293119669 0.543656528
0.04280154034 -0.0789007768 0.5427843332 0.3002630174 -0.7213898897 0.6239206791
0.04515155032 -0.08902669698 0.5314188004 0.298671484 -0.7135873437 0.6335651875
0.01460765395 -0.0725902319 0.564881444 -0.2132920623 -0.9316028953 0.1248977035
0.03211330995 -0.07837735862 0.5431166291 0.18860057 -0.7693122625 0.4837319553
0.0195418559 -0.07316892594 0.560757041 -0.1025031209 -0.8873283863 0.2268994004
0.0373904109 -0.07159731537 0.5528379083 0.2895852625 -0.7322899699 0.5988644958
0.02792526595 -0.07636385411 0.5495250225 0.0909640044 -0.809016645 0.3983983099
0.02847544663 -0.07248860598 0.5565902591 0.09399715811 -0.8095798492 0.412989229
0.0361844562 -0.07513320446 0.5468220711 0.271206975 -0.7379773855 0.5709314942
0.02268929407 -0.07447818667 0.5563304424 -0.02960881218 -0.8577740788 0.2911967337
0.02517159656 -0.07123637199 0.5626398325 -0.01382767688 -0.8455719352 0.3221175075
0.03191321716 -0.06878111511 0.561242938 0.05876598135 -0.8089963794 0.440249145
0.02588279918 -0.06579174101 0.5692214966 -0.2797986269 -0.9191045165 0.2345147431
-0.07258291543 -0.104003571 0.5155802965 0.2877251506 -0.5613436103 0.5286454558
-0.07254143059 -0.1089646444 0.5121890306 0.2166454792 -0.5633592606 0.5328286886
-0.07276504487 -0.09580548108 0.5080673695 0.5957210064 -0.5691087842 0.5508115292
-0.06972691417 -0.1333737224 0.5244303942 -0.5487726927 -0.5498899817 0.4911637306
-0.07017079741 -0.1119417101 0.4974438846 0.3920894563 -0.5842587352 0.5787096024
-0.07082102448 -0.1157121062 0.5072988272 0.1374230683 -0.569879055 0.5451703072
-0.07255900651 -0.1092700735 0.506062448 0.3022646308 -0.5687459707 0.546677053
-0.07218506187 -0.1250915527 0.5176081657 -0.2430081964 -0.5566544533 0.5111746192
-0.07187899202 -0.1223831624 0.5069221258 0.03459183872 -0.5697655678 0.5433145761
-0.07209415734 -0.1146187261 0.5020008683 0.2864281535 -0.5747552514 0.558508575
-0.07225641608 -0.1198134646 0.5124998689 -0.03451921046 -0.562281251 0.5267785788
-0.06716927141 -0.1439335197 0.5295200348 -0.674036622 -0.5354731679 0.5085545182
-0.0171034243 -0.1411145031 0.5521934628 0.3588274121 -0.6618871689 0.6179090142
-0.02353565022 -0.1450841576 0.5528482795 0.2147890776 -0.7081736922 0.6619204879
0.03558022529 -0.1040299013 0.5215838552 -0.6992658973 0.3927528262 0.5288277268
0.03928568587 -0.09934144467 0.5249423981 -0.3661237955 0.05056879669 0.5390105247
0.04283143952 -0.09205981344 0.5267316103 0.1083440781 -0.6463478804 0.7053675652
-0.01353664044 -0.0885861665 0.4958427846 -0.451246649 -0.6787016392 0.5737888813
-0.01870895922 -0.08669232577 0.4969909191 -0.3315882385 -0.71366781 0.5978928208
-0.0284536574 -0.08814600855 0.4892829955 -0.1582173705 -0.7113040686 0.6675285101
-0.0241435878 -0.08535298705 0.4926886261 -0.2469882071 -0.734018147 0.6278025508
-0.06475839019 -0.08792548627 0.5045212507 0.5538742542 -0.6235302687 0.5502364039
-0.01425678283 -0.05014944822 0.5455669165 -0.3483712971 -0.776896894 0.5125965476
-0.01783321425 -0.04406161234 0.5530544519 -0.356510371 -0.7954785228 0.468285501
-0.0104207499 -0.04784621671 0.5560985804 -0.5349985957 -0.7241108418 0.4261615872
-0.0227936767 -0.04242359847 0.5513063073 -0.2293422222 -0.8039246202 0.5450876355
0.01558650471 -0.05794844031 0.5680475831 -0.3256635666 -0.9355485439 0.05035078153
-0.001092902035 -0.0517510213 0.5559536815 -0.4880079627 -0.7669215798 0.3794540167
0.005199163686 -0.0534848161 0.558244288 -0.4453676045 -0.8059550524 0.3344002068
0.01142287441 -0.05617162585 0.5584822893 -0.3965449929 -0.8449276686 0.2977573276
0.01528599393 -0.05608736351 0.5622855425 -0.3782204986 -0.8684635758 0.2607323229
-0.006068667863 -0.05452006683 0.5455037951 -0.4934175909 -0.737601161 0.4488285482
-6.139767356e-05 -0.05507820845 0.5499800444 -0.4602098167 -0.7744578123 0.3968709707
0.006206030957 -0.05658647045 0.5527181029 -0.4192322195 -0.8132567406 0.3502105772
0.02573611774 -0.05851410702 0.5608176589 -0.2970187366 -0.8826052547 0.3375886679
0.002752585802 -0.05768938735 0.5453770757 -0.4246905744 -0.7779985666 0.4365962744
0.01593216695 -0.0580788739 0.5558620095 -0.3552077115 -0.8497889042 0.3427373469
0.02510901354 -0.06164697185 0.5538246036 -0.1871007532 -0.8361208439 0.4650021493
0.01892399788 -0.06046207622 0.5514734983 -0.2559649944 -0.8198125958 0.4582585394
0.03144622222 -0.06378421932 0.5547294617 -0.08357276767 -0.843125999 0.4986904263
0.01015792973 -0.05941408873 0.5471127033 -0.3310193717 -0.7900620103 0.4670145214
-0.002404416446 -0.05758878589 0.5413903594 -0.4501288533 -0.7508277297 0.4701797664
0.03385684267 -0.06168926135 0.5631245375 -0.2184119523 -0.8972186446 0.3698001504
-0.03784517199 -0.1199960709 0.590405345 0.07570605725 -0.8341631889 0.5455577374
-0.04123899341 -0.1240264028 0.5851345062 -0.00481281057 -0.8228471875 0.5609775782
-0.06296750158 -0.06412145495 0.5294863582 0.4340394139 -0.6837062836 0.5855755806
-0.06838738173 -0.06533639133 0.5331294537 0.4625986516 -0.6705893278 0.5797078013
-0.06567707658 -0.06904445589 0.5258294344 0.4707918465 -0.6617538929 0.583306551
-0.07060232759 -0.05837504193 0.5442778468 0.4001460075 -0.7164205909 0.5712807178
-0.0722007975 -0.1148907617 0.5221635699 -0.07503729314 -0.5502104163 0.5039070845
-0.0712845251 -0.1219718978 0.5284151435 -0.3512538075 -0.5271424055 0.4726127088
-0.07255786657 -0.09699762613 0.5161515474 0.4472169876 -0.5594500899 0.5300869346
-0.07050011307 -0.1285521984 0.5338895321 -0.6019176245 -0.5073854327 0.4453428984
-0.07200440019 -0.1271904707 0.5260511637 -0.4296329618 -0.5450876951 0.4872360229
-0.07169687003 -0.1080718786 0.5226458907 0.07421813905 -0.5398401618 0.4989028275
-0.009185330011 -0.08665080369 0.5055767298 -0.51155442 -0.6731055379 0.5275236368
-0.01991410181 -0.09486306459 0.4848938882 -0.3115302026 -0.6707677841 0.6646038294
-0.02466683835 -0.09149296582 0.4855407476 -0.2287514508 -0.7047839761 0.6682295799
-0.03028617427 -0.09261738509 0.4856602252 -0.1360505372 -0.6930447221 0.6882256866
-0.02062507346 -0.09016848356 0.4933200479 -0.3078766763 -0.6948461533 0.6201432943
-0.02735459059 -0.1616945863 0.5381384492 0.08672789484 -0.7157290578 0.6722997427
-0.01639211923 -0.1468422115 0.5505417585 0.4150574207 -0.6146051288 0.6682021022
-0.02114713937 -0.1542610079 0.5472035408 0.2487457395 -0.6912711263 0.6749258041
-0.002421135781 -0.05980922282 0.5608395338 -0.4121206403 -0.8478910923 0.2310403883
0.003026475431 -0.06729225814 0.5633481741 -0.3284103274 -0.9133017063 0.1347327381
-0.005837338977 -0.05479451641 0.5593762398 -0.4684455693 -0.8047592044 0.2920480072
0.002127538901 -0.06031490862 0.5653684735 -0.3592347503 -0.8987779021 0.1449226737
0.008666194044 -0.06945230067 0.5677289963 -0.284609586 -0.9561963677 0.06614235789
-0.04664723575 -0.1255530566 0.5816475749 -0.1245745197 -0.8266941309 0.5439706445
-0.05226253346 -0.1266889274 0.5786625743 -0.213639006 -0.8185104728 0.5289216042
-0.02553838491 -0.1200060546 0.5849872828 0.1954912543 -0.7774833441 0.589992106
-0.01834494993 -0.1189856455 0.581084609 0.2792933881 -0.7494602799 0.5972070098
-0.03278195485 -0.1206151694 0.5881096721 0.1281887144 -0.8036437631 0.5762212276
-0.07053408027 -0.1112906784 0.4909187257 0.5439729095 -0.5913308263 0.595166564
-0.0580236949 -0.09747070819 0.4874254167 0.4543374479 -0.5854549408 0.6677671075
-0.06278865039 -0.1008573994 0.4879911542 0.4940917492 -0.5936617851 0.6345123649
-0.06480421126 -0.09734666348 0.4944663644 0.5729267597 -0.587896049 0.5707253218
-0.06732624024 -0.09682415426 0.5000761151 0.5856218934 -0.579123199 0.5661742091
-0.05077746138 -0.08385775983 0.4988852739 0.3593426347 -0.7038251162 0.5995801687
-0.05799917504 -0.09214886278 0.4908179939 0.463306576 -0.5932596922 0.6580622196
-0.07141463459 -0.1012537107 0.4989614189 0.5833322406 -0.5781297088 0.5698272586
-0.06759565324 -0.1027010232 0.4919073582 0.5504236817 -0.5935393572 0.586873889
-0.06030910462 -0.09183274209 0.4966181815 0.5126687288 -0.62353158 0.5755466223
-0.05720544234 -0.1520271152 0.5365047455 -0.6160551906 -0.5603566766 0.5509777069
-0.02948319539 -0.1486098021 0.5515810251 0.08958708495 -0.7268651128 0.6719603539
0.04204377532 -0.08356541395 0.5315603018 0.2767956257 -0.7035744786 0.6486417055
0.03757153824 -0.09441962838 0.5227274895 -0.2565430105 -0.436473906 0.8240510225
0.02879070491 -0.09981794655 0.5227541924 -0.4985852242 0.05295434967 0.6418802738
0.03787846863 -0.08748319745 0.5299521685 0.07303589582 -0.4137613177 0.5886058211
0.03044035286 -0.09255858511 0.5262776017 -0.1580649167 -0.3033247888 0.6712747216
-0.002138181124 -0.07705773413 0.5272623301 -0.4120999277 -0.6708022356 0.5554398298
0.0001803639898 -0.07726922631 0.5333316922 -0.3883487284 -0.7032955289 0.4859600961
0.006646875758 -0.07330363989 0.5627933145 -0.2754637003 -0.9406865835 0.09626173228
0.007486714516 -0.08891110867 0.5222603083 -0.4258763492 -0.4520888329 0.7390312552
0.01032530516 -0.08978977799 0.5279858708 -0.4031430781 -0.4719038904 0.6806204319
0.008908879943 -0.0868525058 0.532004118 -0.3889019787 -0.5425227284 0.6022995114
0.00688764872 -0.08316898346 0.5363405943 -0.3737807274 -0.6269304156 0.512381494
0.01220984571 -0.08804143965 0.5382025242 -0.3641770184 -0.5601805449 0.541562438
0.004462791141 -0.07587602735 0.5494500995 -0.3262152672 -0.820782721 0.2809112072
0.001666081138 -0.08041876554 0.5289282203 -0.4039886594 -0.6270126104 0.5710617304
0.01327434368 -0.09096857905 0.5332025886 -0.3822482228 -0.4839217961 0.6313744187
0.00870586466 -0.07895416766 0.5531531572 -0.3103025258 -0.793546617 0.2694954574
0.005897679366 -0.07941751927 0.5438224077 -0.3464364111 -0.731010437 0.3845920265
0.004605885129 -0.08470445871 0.5255700946 -0.4150075018 -0.5387774706 0.6557466984
0.001469298615 -0.07661607862 0.538826406 -0.3672536314 -0.7461903095 0.4141880274
-0.0009078419534 -0.0717786625 0.5439063907 -0.3512147963 -0.8239045143 0.3400892615
-0.005957968999 -0.07053708285 0.5314030051 -0.4019776583 -0.7398714423 0.5120452642
-0.004278409295 -0.06998420507 0.5372718573 -0.3798513412 -0.7735331655 0.449160248
0.003512797877 -0.07256451994 0.5553842187 -0.3051454127 -0.8992436528 0.1877921671
-0.001613673405 -0.06831098348 0.5479930043 -0.3404244781 -0.8316495419 0.3446938097
0.02764258161 -0.0812843889 0.5412269235 0.05305727944 -0.7226695418 0.4881481826
0.01486358978 -0.07861487567 0.5546230674 -0.2589561343 -0.7967080474 0.2763044238
0.02046104893 -0.09524808079 0.5234109163 -0.281345278 -0.3721522987 0.806886375
0.0217952691 -0.07885366678 0.5493385196 -0.07727364451 -0.7872104645 0.356980592
0.02011633106 -0.09092125297 0.5307456255 -0.2459981292 -0.4820408225 0.6807160974
0.02521792427 -0.08932828158 0.5297551155 -0.09409049898 -0.5199009776 0.6900190711
0.01719920523 -0.08204967529 0.5473448634 -0.2322403938 -0.7084503174 0.3984509706
0.02081217803 -0.08401977271 0.5415655375 -0.1565264016 -0.6566992402 0.4927522838
0.02967365459 -0.08375582099 0.5357426405 0.08159185201 -0.6589915752 0.5797739029
0.01935061812 -0.08822993189 0.5356971025 -0.238656953 -0.5506661534 0.5963584781
0.02479469962 -0.08539641649 0.5364979506 -0.06489129364 -0.6198132634 0.5741932392
0.01195595134 -0.0844257623 0.545453012 -0.3409035802 -0.6569064856 0.4226108491
0.009141174145 -0.07643266767 0.5592380762 -0.2912605405 -0.8656672239 0.1761202067
-0.0451134555 -0.06187151 0.5218689442 0.1774299294 -0.7665659785 0.6120496392
-0.03727465123 -0.05752301216 0.5277758837 -0.008761796169 -0.7804538012 0.5993525386
-0.02825314924 -0.05877551436 0.5265344381 -0.2173607647 -0.7793596387 0.576572001
-0.03814889863 -0.06073442474 0.5233482718 0.008440317586 -0.7747406363 0.5968390107
-0.04204475135 -0.08337114006 0.4938988984 0.1558742821 -0.7340045571 0.6526431441
-0.03526125476 -0.086776793 0.4887871742 -0.007377718575 -0.7145628929 0.6975442767
-0.0342364721 -0.08277493715 0.4936885834 -0.02678715065 -0.7541075349 0.6535309553
-0.07122453302 -0.1010521427 0.5049393177 0.4900688827 -0.5649898648 0.5441009402
-0.07071730494 -0.1201507971 0.522375226 -0.2037164271 -0.5524852276 0.5021787286
-0.07062865049 -0.1144776121 0.5153353214 0.02383127809 -0.5564082265 0.5163982511
-0.06454033405 -0.09144679457 0.4996014833 0.5768674612 -0.5893016458 0.5647875667
-0.06842634082 -0.09272060543 0.5052697062 0.6018124223 -0.575294137 0.5535053015
-0.04584594816 -0.07403182983 0.5066120028 0.1935728788 -0.7691446543 0.606595695
-0.04966074601 -0.07867915183 0.5033655167 0.3263351321 -0.7327195406 0.5951787829
-0.05498434603 -0.08134740591 0.5022059083 0.4206411839 -0.7023515105 0.5718876123
0.01302799489 -0.06252671033 0.5421622992 -0.1531596929 -0.7279061079 0.5359357595
0.04266976565 -0.07292682678 0.5422744751 0.3194497526 -0.7234108448 0.596157074
0.03934707493 -0.06953833252 0.5464742184 0.2666943669 -0.7254609466 0.5987107754
0.03195625171 -0.06661400944 0.5470739007 0.148887828 -0.7268121839 0.5850816369
0.007408315316 -0.06178930402 0.5398018956 -0.2428831607 -0.7278997302 0.5193517208
0.02230289951 -0.06641212106 0.5410012007 -0.005343238357 -0.7260604501 0.5521367192
0.02015807666 -0.06342957914 0.5452192426 -0.03931795433 -0.7279370427 0.5571140647
0.02817079239 -0.06940359622 0.5398176312 0.09322116524 -0.723893106 0.5644143224
0.03266905993 -0.07309044898 0.5381268263 0.1855023652 -0.7191835046 0.5820795894
0.01787490211 -0.07062742859 0.5352660418 -0.02918495983 -0.7168836594 0.5585366488
0.02428142726 -0.07115504891 0.5369746089 0.05883016065 -0.7188718915 0.5668042898
0.03844710812 -0.07965355366 0.5343622565 0.3208338618 -0.709769845 0.6113057733
0.02595491521 -0.06415674835 0.5478622317 0.04240582511 -0.7337004542 0.5701675415
0.04166937619 -0.06837520748 0.5517606735 0.3038403988 -0.7271355391 0.6155931354
-0.001087170094 -0.06693156064 0.5534667373 -0.3081595004 -0.8657410145 0.2875778675
-0.009839693084 -0.05982067809 0.5431596637 -0.3368651569 -0.7776950598 0.5041797161
-0.007353920024 -0.0611545071 0.54820472 -0.3136634827 -0.8166502118 0.4203522801
-0.006008319091 -0.06431248039 0.5434123874 -0.3545650542 -0.788182497 0.4542339444
0.0002937665849 -0.06692700833 0.5585297942 -0.2802741528 -0.9018571973 0.2172058225
-0.01062812284 -0.05620478094 0.5492291451 -0.345059067 -0.7944072485 0.4504898787
-0.006347672082 -0.05928122625 0.5543012023 -0.3612907231 -0.8258525133 0.3445173502
-0.03011886589 -0.04076987877 0.5504913926 -0.1272433847 -0.8144755363 0.5534906983
-0.03779140487 -0.03973076865 0.5477762818 -0.04447638988 -0.8346212506 0.5438808799
-0.02722348273 -0.04493345693 0.5457574725 -0.2179187536 -0.8060712814 0.549457252
0.02142897807 -0.05785404146 0.5698422194 -0.3066272438 -0.9503679276 0.04968298599
0.02773455344 -0.06020433456 0.5670415759 -0.2988472581 -0.9255413413 0.2194724083
-0.07072519511 -0.06163249537 0.5401418805 0.4474771023 -0.6855021715 0.5740328431
-0.06388307363 -0.06040371954 0.5347204804 0.4190117717 -0.6986293793 0.5790914893
-0.06074310094 -0.05536705628 0.5378044248 0.3721315563 -0.7283371687 0.5742841363
-0.0657549426 -0.05591177195 0.5423178077 0.368416667 -0.7321347594 0.571295917
-0.07142530382 -0.1434784532 0.5249420404 -0.6814131737 -0.5420491695 0.4914762676
-0.07157773525 -0.1376597136 0.5284919143 -0.6904572248 -0.5424206257 0.4782993793
-0.06862422824 -0.1372393072 0.5348623991 -0.7166324258 -0.5243919492 0.4593342841
-0.06755503267 -0.148916021 0.5267101526 -0.6520298123 -0.5443331599 0.526488483
-0.0656208694 -0.1557875276 0.5256812572 -0.6322927475 -0.5524385571 0.5420039296
-0.07004257292 -0.1500131488 0.5212541819 -0.6582462788 -0.5406874418 0.5228343606
-0.006030972116 -0.1309615523 0.5545837283 0.5911496282 -0.6107450128 0.5261607766
-0.005573101807 -0.1341238469 0.5499309301 0.6410662532 -0.5527988076 0.5268639326
-0.002573673381 -0.1291449815 0.5492703319 0.657779336 -0.5501790643 0.5115641356
-0.02302251384 -0.1483132988 0.5483105779 0.1879245937 -0.6819060445 0.6978504062
-0.004660624545 -0.1379374415 0.5451159477 0.6796114445 -0.4969482124 0.5371466279
-0.009425735101 -0.140884161 0.548461318 0.5757309794 -0.5588149428 0.5908483863
-0.01986064576 -0.1550515145 0.5412755609 0.2748839259 -0.6432796121 0.6902490854
-0.009550311603 -0.1486828625 0.5411398411 0.5527998209 -0.5296516418 0.6275901198
-0.01823346317 -0.1496458501 0.5442441106 0.32096228 -0.6219522953 0.6642466187
-0.002379827434 -0.140782699 0.5396174788 0.7223380804 -0.4580803514 0.5150826573
-0.01388216391 -0.1442486048 0.5435966253 0.4335828424 -0.5634011626 0.6027219892
0.001948752208 -0.1362350434 0.5360700488 0.8089510798 -0.3884110153 0.4411789775
0.002259602537 -0.1303920299 0.5349996686 0.8507998586 -0.3252032399 0.3986466527
-0.0005190740922 -0.1320772022 0.5432233214 0.7816953659 -0.3973352611 0.4740868807
-3.792977805e-05 -0.142347008 0.5345034599 0.7666304708 -0.4230665863 0.4781475663
0.003061151365 -0.1320951432 0.5291038752 0.8708741665 -0.3084453344 0.3642235994
0.002172869397 -0.1385217905 0.5300130844 0.829208076 -0.3680966496 0.4053169489
-0.00455082627 -0.1478534341 0.5370405912 0.6771938205 -0.4835885763 0.5523597598
-0.006777790375 -0.14429079 0.5421993136 0.6394794583 -0.5036084652 0.5805886984
0.000182054966 -0.1483485252 0.5308777094 0.7599568963 -0.4393518865 0.4730390012
0.004855185281 -0.1057409197 0.5144767165 -0.5386950374 0.01922253147 0.7595671415
-0.009464423172 -0.09066112339 0.5013694167 -0.5039130449 -0.6636044383 0.5468996167
-0.0124909766 -0.09534578025 0.4886516929 -0.4536812901 -0.6384027004 0.6192678809
-0.007418034598 -0.09814380854 0.492387861 -0.5677537322 -0.6095004678 0.5290005803
-0.01087922603 -0.09392732382 0.4948314726 -0.4862375557 -0.6492651701 0.5727679729
-0.002653719857 -0.1009359509 0.4936254025 -0.6688673496 -0.577341795 0.4634175897
-0.02169849165 -0.1607954204 0.538362205 0.222299844 -0.6685180664 0.6984272599
-0.01512349211 -0.1368829906 0.5583850145 0.4459808469 -0.6930622458 0.5605727434
-0.02163140848 -0.1411813647 0.5574688315 0.2899010777 -0.7206240296 0.6253091097
-0.02961561456 -0.14390333 0.5553148389 0.1086679548 -0.7376922369 0.6516500711
-0.01039737742 -0.1322229207 0.5587588549 0.5152249932 -0.6597514749 0.5372321606
0.03776174039 -0.066413939 0.5563379526 0.054767441 -0.8314338923 0.5318766832
0.007497185841 -0.06157201529 0.570299089 -0.309240073 -0.9497215748 0.04881097376
0.01397369988 -0.06271784008 0.5708318949 -0.30672732 -0.9502554536 0.05400638282
-0.04168001562 -0.04361935705 0.5442679524 0.02851158939 -0.8092103004 0.5690377951
-0.04524835944 -0.04073766991 0.5488226414 0.1009382978 -0.7947432399 0.5840844512
-0.03670908138 -0.0466426909 0.5385088921 -0.08567252755 -0.7958105803 0.5964133143
-0.06132873893 -0.1541306973 0.5297234654 -0.6218475103 -0.5595424771 0.5458015203
-0.06343469024 -0.1494795084 0.5326341987 -0.650280714 -0.5317340493 0.5417248607
-0.06193144619 -0.1608141363 0.5290449858 -0.6145079732 -0.5599250793 0.5557212234
-0.04749728367 -0.1446713358 0.549642086 -0.3189705312 -0.6959682703 0.5813320279
-0.04046438634 -0.1442480236 0.552403748 -0.1473035365 -0.7199242711 0.6196160316
-0.05420742556 -0.1462095231 0.5458646417 -0.4902079701 -0.6512995362 0.5664955378
-0.04996510223 -0.1501284838 0.5438682437 -0.3891125917 -0.6658213139 0.6130571365
-0.05508954823 -0.161874935 0.531534493 -0.4926347435 -0.6514896154 0.5681144595
-0.04983160272 -0.1611394882 0.5338149071 -0.3739502728 -0.6715771556 0.6155610681
-0.03588840738 -0.1475201398 0.5545054078 -0.01756617799 -0.7548466921 0.6510313153
-0.04359160736 -0.158985272 0.5417010188 -0.2236837 -0.7385037541 0.6348189116
-0.03599755839 -0.1619164795 0.5389076471 -0.123548314 -0.7677224874 0.6276737452
-0.03071957082 -0.1573935002 0.5397990346 0.03295871243 -0.6926746964 0.6790704727
0.003204568289 -0.09606960416 0.5149794817 -0.6470503807 -0.2820008099 0.5698135495
0.001286364626 -0.09137108922 0.5133525133 -0.6962896585 -0.5107951164 0.4337543547
0.00176906446 -0.09249223024 0.5198856592 -0.5240321159 -0.2207798213 0.6898374557
-0.001320664305 -0.08763366938 0.5169395804 -0.5708768964 -0.4388167858 0.5731135607
-0.002234441228 -0.08379983902 0.5213894844 -0.4812926352 -0.4423541129 0.6324407458
0.005616462789 -0.1010180861 0.5180577636 -0.5725447536 -0.01222882606 0.7382462025
0.001687113894 -0.09809222817 0.5101161599 -0.642231524 -0.2903523147 0.5814822912
-0.004513396882 -0.09165061265 0.5042047501 -0.6345165372 -0.6087871194 0.4664383233
-0.003272114554 -0.08910221606 0.5095145106 -0.6292092204 -0.6155712008 0.4534423053
-0.004541800357 -0.0971256122 0.4983769953 -0.6069411039 -0.594073534 0.5030719042
-0.0008550240891 -0.100619413 0.5025234818 -0.6149258614 -0.4266651869 0.555578053
-0.003334491514 -0.09767955542 0.5066814423 -0.5128896832 -0.36844033 0.6414684057
0.002182395663 -0.1038037464 0.5060748458 -0.6110066772 -0.2625649869 0.6131833792
0.01722618937 -0.07926031202 0.5265653729 -0.07427004725 -0.6899493337 0.5718190074
0.007002716418 -0.08126068115 0.5199688673 -0.3933031261 -0.6483771205 0.500321269
-0.002907220041 -0.07651022822 0.5213862658 -0.4481129944 -0.6796580553 0.5346775055
0.02810726501 -0.08209329844 0.5277917981 0.07654982805 -0.6811013222 0.5710232258
0.00166340603 -0.08051981777 0.5186088681 -0.4920056462 -0.6457715034 0.4906504154
0.003278414253 -0.07691142708 0.5234956145 -0.3163793087 -0.6875676513 0.5529645085
0.0182810612 -0.08387406915 0.5216382742 -0.2262657136 -0.6432885528 0.5105274916
0.03231310472 -0.0863910988 0.5250502825 -0.0263309963 -0.6590514183 0.6716035604
0.02372242883 -0.08321195096 0.5246618986 -0.07048333436 -0.660594523 0.5374055505
-0.006781470031 -0.08290590346 0.5095697641 -0.534805119 -0.6671975851 0.5029468536
-0.003420854453 -0.0818489641 0.5135725141 -0.5851749182 -0.6482418776 0.4684933126
0.02504318208 -0.08883394301 0.5205316544 -0.2555960417 -0.5703786612 0.6623253226
0.008474329486 -0.08589597791 0.5153880715 -0.5438316464 -0.6035801768 0.4797095656
0.03176218271 -0.09519430995 0.5199617147 -0.2587656379 -0.3909238279 0.8314867616
0.01849589683 -0.08893123269 0.517852664 -0.3987182379 -0.5430924296 0.6133148074
0.02205675282 -0.09324108809 0.5170681477 -0.4222088456 -0.4178309739 0.720243454
0.0007119651418 -0.09142056108 0.5062779188 -0.7037317753 -0.5767170787 0.4128282964
0.0001382968621 -0.09370208532 0.5007035732 -0.6727217436 -0.5848733187 0.4514368773
0.01122420002 -0.0913484022 0.5135186315 -0.5913661718 -0.4681988657 0.5784779191
-0.01980177872 -0.07795225084 0.5046589375 -0.3414348662 -0.7398239374 0.5738684535
-0.01875339262 -0.04890568554 0.5490412116 -0.3800895214 -0.7713017464 0.4807884991
-0.01362855453 -0.05078746751 0.5518326759 -0.4724555314 -0.7489413023 0.4417752624
-0.03349275142 -0.04432798177 0.5441756248 -0.1438013464 -0.8086980581 0.5581672788
-0.06668782234 -0.07736573368 0.519446373 0.5062028766 -0.6416810155 0.5743989944
-0.07294540852 -0.08423480392 0.5205623507 0.5512599945 -0.6238639355 0.5532271862
-0.06219020486 -0.07490734756 0.5159187317 0.4764787257 -0.6625578403 0.5774686337
-0.0695438087 -0.08870419115 0.509334743 0.556849122 -0.6134603024 0.5569144487
-0.06973861903 -0.08319371194 0.5155513883 0.5268322229 -0.6370126605 0.5623735189
-0.0558658354 -0.07248854637 0.513964951 0.4107820392 -0.6974716783 0.5849664211
-0.05691817775 -0.06893194467 0.5182642341 0.3956569433 -0.6971167922 0.594404757
-0.05928374454 -0.07777846605 0.5110474229 0.4661865532 -0.677300632 0.5679126978
-0.05496808141 -0.07768557221 0.5064632893 0.39704144 -0.7172447443 0.5701428652
-0.06523714215 -0.07976526022 0.5131753087 0.503897965 -0.6515032649 0.5668529868
-0.06244624779 -0.08286940306 0.5062431097 0.5233128667 -0.6510849595 0.5492461324
-0.06133479998 -0.08556331694 0.5008304715 0.5362510681 -0.6273220778 0.5635752082
-0.05610756204 -0.08497777581 0.4970683455 0.4276462793 -0.6737116575 0.5998177528
-0.02176895738 -0.08298458159 0.500634551 -0.2560785711 -0.7329832315 0.5878449678
-0.02925822884 -0.08356907219 0.4962019026 -0.116946362 -0.7418949008 0.6281586885
-0.03512274846 -0.06782715768 0.5131975412 -0.03988501057 -0.7864876986 0.6075264215
-0.03979557008 -0.0703022629 0.5089075565 0.06542168558 -0.7720301747 0.6180972457
-0.04461479187 -0.08119916916 0.4987586439 0.2344210446 -0.7382779717 0.6162496805
-0.008732672781 -0.1535170972 0.53803128 0.5613091588 -0.5328466892 0.6301451921
-0.005706787109 -0.1555087119 0.5339129567 0.6205925941 -0.5158826709 0.5742117763
-0.0161081925 -0.162443921 0.5394836664 0.338473767 -0.6418055296 0.6823844314
-0.01103996299 -0.1607349813 0.5366210341 0.4717782438 -0.5837256908 0.6556257606
-0.01336856559 -0.1567474008 0.5397837758 0.4509374797 -0.5934081078 0.6647632122
0.005436936393 -0.1194462776 0.5278722644 0.158002317 -0.06046985462 0.6117928028
0.00547723053 -0.1254577935 0.524277389 0.6808384061 -0.1865326166 0.3936091065
-0.00568978535 -0.1264572442 0.5596907735 0.5525680184 -0.6460285187 0.5228100419
-0.007461547852 -0.1244459599 0.5653540492 0.4944196939 -0.6849429011 0.5316385627
-0.01467653457 -0.132771045 0.563711822 0.4339424074 -0.7136895657 0.5471690297
-0.01117611397 -0.1231515557 0.5706308484 0.4390797615 -0.7088945508 0.5505868196
-0.03239181265 -0.124886401 0.5833862424 0.1454618871 -0.7876797915 0.5959385633
-0.0311541874 -0.1282051206 0.5780536532 0.1597573608 -0.7777130604 0.6047840714
-0.02408928797 -0.1239656061 0.5809391737 0.2459550649 -0.7436938882 0.6211212277
-0.01385142095 -0.1279965788 0.5689029098 0.4342398643 -0.7101660371 0.5508021116
-0.01697748899 -0.1276921183 0.5734246373 0.3426431119 -0.7390383482 0.5776939988
-0.01980172098 -0.1241283044 0.5765555501 0.2936887443 -0.7444888353 0.5962741375
-0.02341569215 -0.1296910793 0.5730327964 0.2662863731 -0.7590501904 0.5899085402
-0.06229278073 -0.1464562565 0.5376627445 -0.6494027376 -0.5547090173 0.5181981921
-0.06413237751 -0.1397811621 0.5393383503 -0.6622601151 -0.5763898492 0.4777091444
-0.05942007154 -0.1418506503 0.5446353555 -0.6420143247 -0.6033627391 0.4690777063
-0.04913757741 -0.139797166 0.5614497066 -0.3576752245 -0.748018682 0.553856492
-0.04919586331 -0.1341172159 0.5695745349 -0.2684467733 -0.7979236841 0.5306755304
-0.05311041698 -0.140820682 0.5495501757 -0.467035383 -0.6654108763 0.5041880012
-0.05351242796 -0.1364011616 0.5582401752 -0.3832414448 -0.7469100356 0.5196588635
-0.06142047793 -0.1293063909 0.5583618283 -0.4700724483 -0.7459007502 0.4664157927
-0.04239989072 -0.1503521949 0.5522983074 -0.1684430242 -0.7396128774 0.6456371546
-0.03774483502 -0.1436194628 0.5589339137 -0.03239816055 -0.7715534568 0.6229496002
-0.04273755848 -0.141522333 0.5594010949 -0.1764004976 -0.7578846216 0.6222245097
-0.04486497864 -0.146290347 0.5556096435 -0.2339205295 -0.7437205315 0.6213937998
-0.03993372619 -0.1392241418 0.5636696815 -0.0768891871 -0.7863205075 0.598739326
-0.05174378306 -0.1360160559 0.5652660131 -0.3481710553 -0.7708837986 0.5295593739
-0.03682212159 -0.1287534088 0.5776023865 0.07154346257 -0.787268579 0.59729743
-0.05646012351 -0.1282370538 0.5725576878 -0.2971283495 -0.7985947728 0.5229055285
-0.04709810019 -0.1294763386 0.5715515614 -0.1500130594 -0.7835694551 0.5530226231
-0.04467475414 -0.1505804658 0.5473707318 -0.2399688512 -0.7240005136 0.6463906765
-0.04484515637 -0.1620693058 0.5376039743 -0.2570317388 -0.7369831204 0.6236722469
-0.04772049561 -0.1555037051 0.5456941128 -0.3355516493 -0.714381814 0.6060610414
-0.05592830479 -0.1579694152 0.5375672579 -0.508079052 -0.6392034888 0.5661405325
-0.04984119162 -0.1583939642 0.5406538248 -0.3831828237 -0.7077861428 0.5865505338
-0.05809256062 -0.1469802111 0.5416803956 -0.6098775864 -0.5780724883 0.5289826393
-0.03446113691 -0.1327180862 0.5740462542 0.06221361831 -0.8129392862 0.5764816403
-0.02927126177 -0.1361761242 0.5678937435 0.1468428224 -0.7882216573 0.5927624702
-0.04590418562 -0.1368825883 0.5644875765 -0.2610673606 -0.7595095038 0.5948731303
-0.05413512141 -0.1303891093 0.5664874911 -0.2980041802 -0.7781238556 0.5259196162
-0.0406300053 -0.1318431646 0.5724724531 -0.0510109514 -0.8067108393 0.5604449511
-0.0411221683 -0.134656027 0.5667758584 -0.05400906876 -0.796854794 0.5676892996
-0.03528124094 -0.1355067492 0.5691412687 0.05209770426 -0.8098105192 0.5826655626
-0.02830300294 -0.1322971582 0.5722712278 0.1948195696 -0.7771996856 0.5944114923
-0.03822113946 -0.1559007913 0.5412808061 -0.1311726868 -0.7074370384 0.6637080908
-0.02904661559 -0.1527012289 0.5451999903 0.05650527403 -0.6967003345 0.6936678886
-0.04037060961 -0.1553284973 0.5467004776 -0.1675920188 -0.7441319823 0.6450200081
-0.03861536458 -0.149597019 0.5481771231 -0.119941175 -0.7134612799 0.6652515531
-0.03409670293 -0.1528887451 0.54871279 -0.02153567784 -0.730446279 0.6764026284
-0.02589477971 -0.1588206142 0.5437248945 0.1269470006 -0.6949217319 0.6839757562
0.0100447312 -0.1040905491 0.5189917684 -0.546690762 0.1072776169 0.8030854464
0.01124637667 -0.0967297405 0.5211390257 -0.4608585238 -0.1527617723 0.8041522503
0.008990757167 -0.1087711602 0.5217462778 -0.4210707545 0.07523580641 0.7740834951
0.006370338146 -0.1125746518 0.5256227851 -0.2498732209 -0.02602821402 0.7190150619
0.0001623948774 -0.1253350228 0.5431787968 0.4966692328 -0.4302477837 0.5483749509
0.01023591403 -0.1109300703 0.5289185643 -0.007997416891 -0.174132213 0.7132865191
0.0133552067 -0.1044404879 0.525026381 -0.2063907981 -0.2679482102 0.7835915685
0.003471685108 -0.1208713055 0.5393257737 0.3250196278 -0.3370369971 0.6121966839
0.007889451459 -0.1144946739 0.5334746242 0.2187639624 -0.343971014 0.6487139463
0.02578455582 -0.1095059961 0.5207768679 -0.6787770391 0.4344708323 0.5827594399
0.03085721284 -0.1074650213 0.5214579701 -0.7151790857 0.4682870209 0.5167297125
0.01490538754 -0.127676338 0.5218749642 0.3103044331 0.009343969636 0.4132995307
0.008648286574 -0.1270076185 0.532654047 0.4029442966 -0.1336429715 0.457957983
0.02078223042 -0.1144853905 0.5224578381 -0.4931839705 0.3604336381 0.5398519039
0.01229918655 -0.1257849783 0.5276142359 0.2652695775 -0.0249106884 0.4515661001
0.01803258806 -0.1206648275 0.5221791863 -0.1168512478 0.1960460842 0.4805471599
0.005233518779 -0.1264586598 0.5385504365 0.538092196 -0.2138606608 0.4687195718
0.01121604443 -0.1225008145 0.5319046974 0.1392065436 -0.001151302247 0.4941947758
0.0161238499 -0.1178212911 0.5274803638 -0.2019851059 0.1925731152 0.5224033594
0.01535282005 -0.11149849 0.5248596668 -0.3310600817 0.1799139082 0.666161716
0.01847394183 -0.1034561619 0.5207924247 -0.5204447508 0.0003489983792 0.7559514642
-0.05656693131 -0.06128240749 0.5275465846 0.3674453497 -0.7160068154 0.5905095339
-0.05084843189 -0.06465764344 0.5203025341 0.2840210795 -0.7393891811 0.60613662
-0.0511460267 -0.06024990603 0.5255668759 0.2891071141 -0.7444703579 0.5988349319
-0.0632410422 -0.07179003209 0.5211130381 0.4711539745 -0.6548761129 0.589773953
-0.05910236016 -0.06659965217 0.5227219462 0.4204971492 -0.6890787482 0.586803019
-0.02756601386 -0.0499317348 0.5419184566 -0.184299767 -0.7876673937 0.5635417104
-0.04305559024 -0.04672913998 0.5399292111 0.09383819997 -0.8007704616 0.5844247937
-0.0570929721 -0.05808708072 0.5320453644 0.3583113551 -0.7219238281 0.5914611816
-0.03964471444 -0.05096446723 0.5355308652 0.03569956869 -0.7944231033 0.5951814651
-0.04331009462 -0.05367675424 0.5306968093 0.1090635806 -0.7835874557 0.605142653
-0.04865387082 -0.05455078557 0.5330757499 0.1921050847 -0.768291831 0.6014127731
-0.04574050382 -0.05824032798 0.5289046764 0.16312249 -0.7590906024 0.5935733914
-0.05938611552 -0.05114120245 0.5420942307 0.3360178471 -0.7479681969 0.5723762512
-0.06381460279 -0.05145647004 0.5456176996 0.3421683311 -0.7469839454 0.5700244904
-0.02736503817 -0.0553673394 0.531744957 -0.2228405625 -0.7760608196 0.5851921439
-0.03067885339 -0.05133070797 0.534933567 -0.1809783876 -0.7786145806 0.5952464342
-0.02604076266 -0.05270250142 0.5371932387 -0.2288449109 -0.7786830664 0.579092145
-0.01414679177 -0.05424132943 0.5395032763 -0.3753672242 -0.7537765503 0.5261994004
-0.01909468696 -0.05127200484 0.5414022207 -0.2883574367 -0.7754918933 0.5569325686
-0.0170266442 -0.05773920938 0.5351444483 -0.3634116352 -0.7517484426 0.5493366718
-0.04536579177 -0.07048299164 0.5110999942 0.1861941218 -0.7586547732 0.6229675412
-0.03844999522 -0.06445879489 0.5172861218 0.04167100787 -0.7866256833 0.607262671
-0.04340491071 -0.0656740889 0.5163570046 0.1449250877 -0.7786058187 0.6063207388
-0.05022787303 -0.06826291978 0.5157765746 0.2806946039 -0.7396945953 0.6009392738
-0.03184273839 -0.06264797598 0.5197486877 -0.1516923457 -0.795816958 0.5812698007
-0.02616581134 -0.06338664144 0.5216334462 -0.2447195053 -0.7769899368 0.5722283721
-0.02350629121 -0.05856615677 0.5291106105 -0.2911542654 -0.7697639465 0.5658383965
-0.02076021768 -0.06298317015 0.525837481 -0.3180499375 -0.7641247511 0.559569478
-0.03377240524 -0.0773992762 0.4996983707 -0.01832000911 -0.780406177 0.6247516274
-0.03811237216 -0.07549608499 0.5048550963 0.02426247112 -0.7784615755 0.5889474154
-0.031848602 -0.07696117461 0.5044413209 -0.08779428154 -0.7609757185 0.5790572166
-0.04076555744 -0.07920761406 0.5020084977 0.1418222338 -0.7444090843 0.5935300589
-0.02578862943 -0.07441303134 0.5060360432 -0.2400072664 -0.7738099694 0.5785241127
-0.03230496496 -0.07049316168 0.5069789886 -0.09710935503 -0.7850268483 0.6067771316
-0.05210646987 -0.1427368522 0.5565786362 -0.4291208088 -0.7280600667 0.530546844
-0.06209350005 -0.1379914433 0.5485391617 -0.6324468255 -0.6292369962 0.4473339617
-0.05090448633 -0.1515166014 0.5498712063 -0.4250043929 -0.6930744648 0.581374526
-0.05717159808 -0.1410592794 0.5533972383 -0.5277308822 -0.6927679181 0.4779386818
-0.05874274299 -0.1356639713 0.5551154017 -0.5175098181 -0.7227409482 0.4546377659
-0.06904824823 -0.1332207769 0.538762629 -0.7347305417 -0.5193079114 0.4305313528
-0.06296297163 -0.131437391 0.553435266 -0.5393702388 -0.7023425102 0.4539119601
-0.06532334536 -0.1316801757 0.5482346416 -0.6064608693 -0.6373491287 0.4465000331
-0.06253749132 -0.1282948554 0.5638796687 -0.4536499083 -0.7524837255 0.4722094834
-0.06099851057 -0.1251141876 0.5729708076 -0.3190141618 -0.7899292707 0.5227194428
-0.05846753344 -0.132678315 0.5618422031 -0.4481010735 -0.7460048199 0.4875293076
-0.0239160005 -0.1378454119 0.5626316667 0.2730807662 -0.7497983575 0.5988963842
-0.0341623351 -0.1386688799 0.564170301 0.07212277502 -0.7956175804 0.5992856026
-0.02209900133 -0.1339273751 0.5666925907 0.3146581352 -0.7455979586 0.5809669495
0.01958814636 -0.1005633771 0.5089184046 -0.5134931207 -0.2979389131 0.7549544573
0.009091622196 -0.1037249416 0.4995741844 -0.652915895 -0.288025558 0.6289820075
0.01315817423 -0.1026501879 0.503152132 -0.6007829309 -0.2860183418 0.6789768338
0.005332843866 -0.09523520619 0.5056682229 -0.6609354019 -0.5161913037 0.4876020253
0.02473389544 -0.09868534654 0.513803184 -0.4435042143 -0.3110826015 0.8134806752
0.009800925851 -0.09490755945 0.5100066662 -0.6219169497 -0.4669932723 0.5473866463
0.01473918743 -0.09846416116 0.5061941743 -0.5401849747 -0.4194667935 0.6667690277
0.01666876674 -0.09660470486 0.5118412375 -0.5402599573 -0.3952177763 0.6692180634
0.007206369657 -0.09864315391 0.4997000992 -0.6096456051 -0.501758039 0.5608978271
0.003567965468 -0.1023793519 0.4955766797 -0.6868487597 -0.4028339684 0.5389387012
0.01790945791 -0.105401881 0.5062060952 -0.5901608467 -0.1275470704 0.7691341639
0.02300338447 -0.1055275202 0.5101811886 -0.5860251784 -0.07154177129 0.7941095233
0.02782737091 -0.1042058021 0.5147654414 -0.5468418002 -0.05282124877 0.8264327645
0.01335836295 -0.1098530367 0.5026419759 -0.6961474419 0.0339002125 0.7010551095
0.01901561022 -0.1094350442 0.5095154047 -0.6559997797 0.1479029506 0.7162496448
0.004811386112 -0.108114928 0.4991906583 -0.7116236091 -0.3033993244 0.5054116249
0.005020670593 -0.1120377332 0.5084754825 -0.3167042732 -0.2662734389 0.4978969395
0.006146572996 -0.1193657294 0.519182384 0.2100349367 -0.1168857142 0.5039128065
0.007301547565 -0.113881886 0.5173643231 -0.2353864461 0.03264658526 0.6655292511
-0.05429001898 -0.05301291868 0.5360146165 0.317950815 -0.7423220873 0.5886728764
-0.04632990807 -0.04996429756 0.5372053981 0.1693058759 -0.7858260274 0.5906641483
-0.0522852093 -0.04589416087 0.5443367362 0.2358701229 -0.7905721068 0.5615980625
-0.007369420491 -0.07339908928 0.5221177936 -0.4367200136 -0.7069295049 0.5555643439
-0.01210749056 -0.06100239605 0.5336739421 -0.4047139287 -0.7436145544 0.5291412473
-0.01140720583 -0.06850480288 0.5264697075 -0.3910979033 -0.7298449278 0.5595781207
-0.009230363183 -0.06639632583 0.5320119262 -0.3931011558 -0.7344162464 0.5526046753
-0.01435592491 -0.06480753422 0.528834641 -0.369682461 -0.7461134195 0.5536468029
0.0142703075 -0.07380764931 0.5302218199 -0.05514231324 -0.7140340805 0.5823094845
0.01231681462 -0.06816123426 0.5354565978 -0.1246238947 -0.7192009687 0.5453608632
-0.006446357816 -0.05926370621 0.5366527438 -0.4516353607 -0.7278363705 0.4980119169
0.03324614465 -0.08002522588 0.5320227742 0.254698962 -0.7078151703 0.6113313437
0.003336479887 -0.07043971121 0.5289517641 -0.2320609242 -0.7174233794 0.5670430064
0.02823437378 -0.07620173693 0.5339087844 0.156489566 -0.7114300132 0.588868916
0.009264580905 -0.07027475536 0.5317959189 -0.1510863155 -0.7173860073 0.561814189
0.02270952426 -0.07543689013 0.5322526097 0.0741270259 -0.712295413 0.5875108242
-0.001153530669 -0.06626970321 0.5314475298 -0.3256358504 -0.721335113 0.5418682098
0.005660911556 -0.06500197947 0.5358841419 -0.2406480759 -0.7222669721 0.5285441875
-0.003863443621 -0.07086154819 0.5259219408 -0.3520244658 -0.7139722109 0.5660709143
0.007717314176 -0.07597709447 0.5263579488 -0.179897055 -0.705175817 0.5825524926
-0.01350450888 -0.08040843904 0.5070151091 -0.4257377684 -0.7188358903 0.5490520597
-0.01199950092 -0.071935229 0.5190864801 -0.4183908105 -0.7142953873 0.560851872
-0.01851207949 -0.06750456989 0.5215864182 -0.3371825218 -0.7508829236 0.5645213723
-0.01712368242 -0.07186506689 0.516151607 -0.3786483407 -0.7291272283 0.5654336214
-0.02281267196 -0.06796551496 0.517588973 -0.2912221253 -0.7646877766 0.5708081126
-0.01368038915 -0.07533184439 0.5140528083 -0.4364196658 -0.7054734826 0.5551427603
-0.008208347484 -0.07727956027 0.5177311301 -0.5159415603 -0.6755462289 0.5144137144
0.007438275963 -0.1266916245 0.5180763602 0.7401501536 -0.253370434 0.1909675151
-0.02835143171 -0.06972581148 0.5127717853 -0.1947919875 -0.7734360099 0.5871976018
-0.01827935874 -0.07517318428 0.5101353526 -0.3720389307 -0.7335867286 0.5659204721
-0.02347326837 -0.07223121077 0.5107944608 -0.2947444022 -0.7643660307 0.5733885169
0.006194960326 -0.1322765052 0.524199903 0.9083560705 -0.2460923642 0.3202796876
0.007903783582 -0.1390327811 0.5224058628 0.865757823 -0.3578739762 0.2761034667
0.009740605019 -0.1158520654 0.5039022565 -0.5362830162 0.1378869712 0.6450625658
0.01540002134 -0.1146554425 0.5090993643 -0.5039821863 0.192596823 0.6446382403
0.02192370221 -0.112789385 0.5158967376 -0.4625631571 0.2457064539 0.6318255663
0.0112276841 -0.1257931888 0.5140734315 0.6376374364 -0.283711344 0.07208520174
0.01808025874 -0.1169423014 0.514754355 -0.1282811314 0.07858993113 0.4610476792
0.01648402959 -0.1241491362 0.5177327394 0.3455158174 -0.07999549806 0.267470032
0.01063001901 -0.1225807443 0.5092468262 0.03488106281 -0.03544946015 0.4041517377
0.01088495087 -0.132295996 0.5173612833 0.9284437299 -0.3376035094 0.002450676868
