# .PCD v0.7 - Point Cloud Data file format
VERSION 0.7
FIELDS x y z normal_x normal_y normal_z
SIZE 4 4 4 4 4 4
TYPE F F F F F F
COUNT 1 1 1 1 1 1
WIDTH 512
HEIGHT 1
VIEWPOINT 0 0 0 1 0 0 0
POINTS 512
DATA ascii
0.08406616002 -0.1069819182 0.6704540253 0.7121477723 -0.3719075322 0.5936821103
-0.3778460026 -0.3801022768 1.183161378 0.6415189505 -0.7284879088 0.2392361462
-0.3724191785 -0.3813675642 1.181428909 0.6478671432 -0.7197244763 0.2490111887
0.08042811602 -0.09094046056 0.7081182003 0.114616774 0.3602882028 0.6336028576
0.07204172015 -0.08760717511 0.7122029662 -0.3251180053 -0.2790006101 0.8711393476
0.08811286092 -0.09072397649 0.6916491389 0.7264717817 -0.005148167722 0.517424345
0.08307961375 -0.0903891474 0.7005900741 0.551726222 0.4669925272 0.5587935448
0.08805105835 -0.1134727448 0.6693744063 0.7332084179 -0.3269992471 0.5908913016
0.01078031585 -0.08509677649 0.7122445107 0.3857973814 -0.6312832832 0.6675477028
0.01214189548 -0.08935512602 0.708462894 0.3803149164 -0.6042923331 0.6928684115
0.005371514708 -0.08869796991 0.712603569 0.4773114026 -0.5812442303 0.6566705108
0.09074493498 -0.1846150458 0.7136520147 0.7505607605 -0.1231950894 0.2810509801
0.08697034419 -0.1630510241 0.6956555843 -0.5715469122 0.0530279465 0.4851245582
0.0914363265 -0.1826247722 0.7203115821 0.945951581 -0.07558988035 0.2655563056
0.09139623493 -0.1687395722 0.7118098736 0.1683138609 -0.1029224247 0.2826083899
0.091382429 -0.1735471934 0.7142601013 0.4179936945 -0.09790030867 0.2770180404
0.09124924988 -0.1636686921 0.7063465714 -0.2092212439 -0.1341344416 0.290335685
0.08756667376 -0.1727422476 0.7015491128 -0.04683183506 0.02432559803 0.445012182
0.08973561972 -0.1907030344 0.7159689069 0.882475853 -0.2651284933 0.3448227346
0.08633319288 -0.2002402693 0.7268817425 0.8552289009 -0.3080450892 0.4135789573
0.09030925483 -0.1791075766 0.7262726426 0.911932528 -0.1542155445 0.3520753682
0.08716720343 -0.1790330708 0.7064592838 0.2227829397 -0.1082640961 0.4598295093
0.08813352138 -0.1867483556 0.7216960788 0.9018948078 -0.2282332182 0.3567705452
0.03090507723 -0.08179239929 0.7094016075 0.06409224123 -0.6704061627 0.7318858504
0.02572280914 -0.08512901515 0.7070000768 0.1663068384 -0.6674467325 0.7235010862
0.03765556961 -0.0814313516 0.7097085714 -0.03941004351 -0.6527900696 0.7550044656
0.04446785524 -0.08468057215 0.7072015405 -0.1264125854 -0.6448212862 0.753506422
0.08901708573 -0.1001856849 0.675239265 0.7693390846 -0.4006278217 0.491681993
0.06810430437 -0.09344994277 0.711589396 -0.3658866286 -0.3411681652 0.8636354208
0.07470556349 -0.09635880589 0.7162944674 -0.4224499166 -0.3418006897 0.8324559331
0.06550832093 -0.08779161423 0.7130254507 -0.3277767599 -0.4006159604 0.8539398909
0.0813222304 -0.09688179195 0.7194318175 -0.4410000443 -0.3074916601 0.8401683569
0.08273427933 -0.09618167579 0.7132964134 -0.1311626732 -0.00815821439 0.7860244513
0.07632467896 -0.08746597171 0.7047974467 0.0924564898 0.3791092932 0.617200017
0.08663103729 -0.1808955669 0.7338194251 0.8692590594 -0.2530787587 0.4246535599
0.08198516071 -0.2045476288 0.7315102816 0.8042017817 -0.3293218911 0.4811381698
0.08001514524 -0.210898459 0.7359700203 0.7736147642 -0.3533633947 0.5219439864
0.08664333075 -0.1949906647 0.7207868099 0.8514665365 -0.3071447611 0.4244931638
0.08724740893 -0.171194002 0.7088127732 0.07767881453 -0.05143281817 0.4842303991
0.08850322664 -0.1770341396 0.7187776566 0.5657622218 -0.1635403931 0.4291459024
0.08661378175 -0.167977646 0.7038592696 -0.1769929081 0.005050738342 0.5154730678
0.06984679401 -0.0967656225 0.6873869896 0.2240044028 -0.5166547298 0.6234124303
0.08769899607 -0.08779833466 0.6838678718 0.7688356638 -0.4433648288 0.4489884079
0.08394915611 -0.09251908958 0.6818718314 0.6515794992 -0.4594500363 0.5011350513
0.07856826484 -0.08640206605 0.6967633367 0.3578076363 0.7337890267 0.4181242287
0.07716278732 -0.09044653177 0.6888188124 0.4414739013 -0.4120230973 0.5321516395
0.05975101143 -0.09505354613 0.6973187327 -0.113775 -0.2371878922 0.6619802117
0.07110513002 -0.09096756577 0.6943181157 0.2104537487 -0.009539008141 0.5468196273
0.06682286412 -0.09375367314 0.6925238967 0.1317276955 -0.4886291921 0.6253572106
0.08364855498 -0.08727937192 0.6916344762 0.5765100121 0.1653383225 0.4450441003
0.08743021637 -0.09465564042 0.6775722504 0.7509084344 -0.4423502088 0.4891923964
0.07867521048 -0.1014441922 0.716498673 -0.4914851785 -0.2990319133 0.8133053184
0.07447767258 -0.1004137024 0.7127123475 -0.4818928242 -0.2887723744 0.820346117
0.08446104079 -0.1038700342 0.7198248506 -0.5292335153 -0.2913510501 0.7952071428
0.08293976635 -0.1079993248 0.7155162692 -0.5934442878 -0.2648900747 0.75895679
0.06801389158 -0.08529195935 0.7073956728 -0.04307292402 0.04766778275 0.6807115674
0.05497565493 -0.08648284525 0.7086597085 -0.1426339597 -0.5303987861 0.8325294852
0.05902016535 -0.08393777907 0.7124696374 -0.2187556624 -0.4809509218 0.8449118137
0.06316554546 -0.0930788219 0.7083204389 -0.2890050709 -0.4022482634 0.8616749644
0.0711017251 -0.08687300235 0.7000256181 0.203647241 0.4877190888 0.5160580873
0.06006189063 -0.08780766279 0.7035245299 0.0109209083 -0.1265952885 0.6879969835
0.06535513699 -0.09052304924 0.6985664368 0.06706380844 0.2058976442 0.5671018362
0.04972425103 -0.09558472037 0.6994134784 -0.2413557768 -0.6010317802 0.7573564649
0.05568375438 -0.09204180539 0.6997799277 -0.07409219444 -0.2358588576 0.6713774204
0.04940063879 -0.08817563951 0.7058020234 -0.1404075623 -0.6015384197 0.7839711308
0.02314976789 -0.1425211728 0.659840107 0.139300257 -0.6429427266 0.7488975525
0.01769322716 -0.1411246955 0.6625980735 0.2216988802 -0.6385906339 0.7330273986
0.01142732427 -0.1407110095 0.6642560959 0.3319467008 -0.5895703435 0.7304025292
0.03978116438 -0.1364411265 0.6621175408 -0.06333941966 -0.6486309171 0.7563562989
0.02908434346 -0.1315756589 0.6685028076 0.0758222267 -0.6594514847 0.7442415953
0.04871151596 -0.1442186385 0.6575154662 -0.2055413723 -0.5823950171 0.7810784578
0.04964428395 -0.1386905462 0.6638625264 -0.2169844359 -0.5972127318 0.7689300776
0.07283259928 -0.1048805192 0.7082283497 -0.5118492842 -0.2649480999 0.8134208322
0.06753337383 -0.1020479426 0.7055507898 -0.4179697335 -0.3125261068 0.8460079432
0.02220203541 -0.09485772252 0.7011556625 0.2078164965 -0.620837152 0.7529585958
0.01350029279 -0.09828642756 0.7008026838 0.3418514431 -0.5957961082 0.7260090709
0.0162948221 -0.09192813933 0.7040981054 0.3094565868 -0.6151764989 0.7244595289
0.05828300118 -0.0958249718 0.703920126 -0.2354312688 -0.5107752085 0.8215619326
0.05758167058 -0.1041612998 0.6974110603 -0.3652785718 -0.5350533128 0.7597456574
0.06224738434 -0.1031633168 0.7009494901 -0.394936949 -0.41209203 0.81003654
0.05532378331 -0.1768024713 0.7774691582 0.3864460289 -0.5236955881 0.7547284961
0.04771420732 -0.1781503856 0.7788306475 0.2967075706 -0.5446869135 0.7793015838
0.06312387437 -0.2083711922 0.7472954988 0.5532022715 -0.4560432136 0.6950313449
0.08617340773 -0.1933930814 0.7264321446 0.8577724099 -0.2939778268 0.4215114415
0.08688692749 -0.1855475754 0.7280409336 0.8693296313 -0.2709877193 0.4131321907
-0.009356668219 -0.2052476108 0.7445545793 -0.6694527864 -0.3761888742 0.6341406703
-0.01514360495 -0.1967909485 0.7393200994 -0.7848514318 -0.3032692671 0.5342274308
-0.01378954668 -0.2085727453 0.7412806749 -0.7113075256 -0.3669053316 0.5928962231
-0.01646772027 -0.2037802488 0.737624228 -0.7754180431 -0.3112633824 0.5452449918
0.03997431323 -0.2207474411 0.7538235188 0.1510850042 -0.5783553123 0.7883701921
0.04848450795 -0.2209660262 0.7525431514 0.3025383651 -0.565597713 0.7598022223
0.08955648541 -0.1630023122 0.7121356726 -0.05187462643 -0.2376344204 0.4403965771
0.08987690508 -0.168538481 0.7189708948 0.3156499863 -0.2718741596 0.4239903986
0.0876891613 -0.1594889611 0.7007809281 -0.5108222365 -0.07557787001 0.5008140802
0.09050127864 -0.1520823687 0.7053028345 -0.5629218221 -0.303073287 0.4253711998
0.08952388912 -0.1735971123 0.7224932313 0.5638747215 -0.2486993372 0.4284066558
0.09135150164 -0.1581126302 0.707559526 -0.2982506156 -0.1863715053 0.3307724595
0.09117526561 -0.1481704116 0.7013536096 -0.8205962777 -0.2899774015 0.3796621561
0.09139160812 -0.12077602 0.671577394 0.6712484956 -0.2338095158 0.6232429147
0.09150131792 -0.130468905 0.6848006845 0.02443715557 -0.3047050238 0.5172527432
0.09163098037 -0.1242077202 0.6777567863 0.3808048368 -0.2847130299 0.5610659122
0.09111926705 -0.1382471174 0.6910080314 -0.3277722299 -0.2962585688 0.4934927225
0.09115064889 -0.1445162743 0.6953768134 -0.6346993446 -0.3158974648 0.4450717568
0.0855794251 -0.1115515828 0.6989945173 -0.2139441222 -0.3096957505 0.6252052784
0.08923981339 -0.1029424444 0.6909179091 0.282538116 -0.3185473382 0.5232588649
0.09217195958 -0.104945749 0.6754084826 0.77379632 -0.3473149538 0.4616775811
0.09028167278 -0.1057590991 0.6832690835 0.4792195857 -0.3338959217 0.5061272979
0.08726216108 -0.1075024977 0.69537431 0.01333639678 -0.313542515 0.5781328678
0.09329349548 -0.09290528297 0.6824843884 0.827077806 -0.3271248043 0.4092236161
0.09273726493 -0.09828772396 0.6795734167 0.7944603562 -0.3357033432 0.4339090586
0.06093225628 -0.1039997414 0.6859474778 0.01097652968 -0.5414461493 0.6884970069
0.07199852169 -0.0994868353 0.6830714941 0.3117654324 -0.5035222173 0.607645452
0.05425401032 -0.1057737842 0.6886793375 -0.1788643748 -0.5659724474 0.7376603484
0.06329350173 -0.09970161319 0.6888334155 0.04592411965 -0.5391154289 0.6725494266
0.07852485031 -0.09711578488 0.6810705662 0.4917012751 -0.4806548953 0.5598497391
0.04541142657 -0.1354714632 0.6659687757 -0.1784249246 -0.6415377259 0.7450556755
0.05159129575 -0.1288443953 0.6746692657 -0.2226322293 -0.6309273839 0.7416369319
0.07386292517 -0.1448201835 0.6750437021 -0.4190849662 0.02858798578 0.8207198381
0.08147887886 -0.1366592199 0.6758002639 0.02575526386 0.2840508223 0.8885905743
0.04431224987 -0.1408360004 0.6621712446 -0.1740532666 -0.6335008144 0.7502427697
0.03297518566 -0.1421323568 0.6599712968 0.008917040192 -0.6370297074 0.7691335678
0.02890869789 -0.1390222013 0.6630547047 0.06518863887 -0.6461228132 0.7574648857
0.03870260715 -0.1431432217 0.6587049365 -0.07114826143 -0.6130322218 0.7789065242
0.08647914231 -0.1220682412 0.669213295 0.6283731461 -0.1367528737 0.7542202473
0.06581366062 -0.1252298057 0.667812407 0.1617535204 -0.3947052658 0.7980356216
0.05550940335 -0.1273884773 0.6696659327 0.007156897802 -0.5353990197 0.7599380612
0.06149531156 -0.1302842498 0.6670659184 -0.001684931223 -0.4548594356 0.7935180068
0.05146114901 -0.1324335933 0.6688535213 -0.153352648 -0.591878891 0.7565494776
0.0752254799 -0.1241278648 0.6657856107 0.3804197907 -0.2918830812 0.7891061902
0.08128073812 -0.1220738664 0.6670837998 0.5348424911 -0.2575622201 0.7540809512
0.06649243087 -0.1352916062 0.6622709036 0.1030868962 -0.4044803977 0.7737624049
0.07769261301 -0.1172288358 0.6675285101 0.4837107658 -0.2312593609 0.823515296
0.08234535158 -0.1136463955 0.6679155231 0.6620614529 -0.3103771806 0.6766619086
0.06108269468 -0.1235654056 0.6698220372 0.1456731558 -0.4558032453 0.776440382
0.04644823447 -0.1261708736 0.674235642 -0.1350886077 -0.6315019727 0.7493165731
0.07176234573 -0.1162619218 0.6702476144 0.3873880208 -0.3069538772 0.8051022887
0.0635836795 -0.1185734123 0.6721712351 0.2205345035 -0.402443856 0.7951190472
0.05540103838 -0.1202170178 0.6743798852 0.05941261351 -0.5032420754 0.7778279185
0.05300457031 -0.1053603962 0.6943905354 -0.3227515221 -0.5660386086 0.7556294203
0.04060379788 -0.0884751007 0.7036115527 -0.08075831085 -0.6392086148 0.7616536617
0.03418299183 -0.08846498281 0.7032667398 0.009082436562 -0.6312019229 0.774666965
0.03434539959 -0.128192395 0.6698346734 0.02188478224 -0.657905817 0.7490832806
0.02853708155 -0.1265858114 0.6725409031 0.1008786261 -0.6496422887 0.7494020462
0.001388835721 -0.1327787638 0.6790505052 0.5496214032 -0.5390195251 0.6367678046
-0.007799894083 -0.1418478936 0.6813043356 0.6686744094 -0.4742647409 0.5708462
0.004954366479 -0.1389168799 0.6697810292 0.4630815983 -0.5395461321 0.7003849745
0.0007345934282 -0.1377405673 0.6748043895 0.5473750234 -0.5208722353 0.6496023536
-0.004738677293 -0.08687217534 0.7235411406 0.6079010367 -0.5261343718 0.5943577886
-0.00712931063 -0.09249134362 0.7214711905 0.6299471855 -0.5065031052 0.5877959132
-0.001974117244 -0.08845012635 0.7190144062 0.5801067948 -0.5480515957 0.6006399393
0.001648350153 -0.08257844299 0.7214244604 0.5459492207 -0.5880128145 0.5962677598
-0.02526275069 -0.195078969 0.7279247642 -0.8134679794 -0.2802355886 0.5095354319
-0.02614311874 -0.1470880061 0.7138828635 0.6496711969 -0.3656342924 0.4542794824
-0.02897921763 -0.1820922345 0.7198431492 -0.7178637981 -0.0930826515 0.4249860048
-0.02884047292 -0.1762950569 0.7182669044 -0.490629077 -0.1217186227 0.4244935215
-0.02669877 -0.1842561513 0.7245830297 -0.8079840541 -0.1986868083 0.4628286362
-0.02705068886 -0.1539111435 0.7095341086 0.5479987264 -0.2807853222 0.4374087751
-0.02830231003 -0.1623668373 0.7104059458 0.2041251957 -0.1879655272 0.421675384
-0.02717619203 -0.1566179842 0.7041968107 0.6426452994 -0.2472298741 0.430016458
-0.02933304384 -0.1682191044 0.7143663764 -0.1562426239 -0.1260202229 0.4121941924
-0.02945096977 -0.1712105572 0.7080735564 -0.03721971065 -0.08868101984 0.4038698971
-0.02793884277 -0.1751226634 0.7112008929 -0.2193614542 -0.06936640292 0.4140868187
-0.03026583418 -0.1823582351 0.7140182257 -0.6286863089 0.01993862726 0.3930056989
-0.02698403969 -0.1644879431 0.7056946158 0.3463748097 -0.176620841 0.4262162745
-0.02695577778 -0.1918891668 0.7230122089 -0.8512619138 -0.1542135477 0.4698125422
-0.01992958598 -0.1985459924 0.7317327261 -0.824670732 -0.2019705474 0.4991851449
-0.0235821493 -0.1882386506 0.7285010815 -0.8374305367 -0.2296435237 0.4811375737
-0.00829037372 -0.21158503 0.7450498343 -0.6283373237 -0.4018011987 0.6592057943
-0.001550270594 -0.214453131 0.7473466992 -0.5358706117 -0.4208112657 0.7203086615
0.06861646473 -0.2097908705 0.7424501181 0.6151539087 -0.4201178253 0.6662915945
0.02403367683 -0.2217427492 0.7522026896 -0.1108628586 -0.5440676808 0.8129503727
0.08614818752 -0.1191757172 0.6908795834 -0.07506808639 -0.354476124 0.6005113721
0.08805450797 -0.118198812 0.6851617694 0.159642294 -0.3469273746 0.5849060416
0.08986223489 -0.1242334396 0.6840641499 0.1047141775 -0.3428504765 0.5329236388
0.08579022437 -0.1247144938 0.6952801943 -0.3326309323 -0.3582642972 0.574834764
0.09078879654 -0.1180863976 0.6777611971 0.4449175596 -0.3366704583 0.5556383133
0.08831586689 -0.1288173944 0.6910578012 -0.2368265986 -0.3506523073 0.5253290534
0.08877694607 -0.1385263652 0.6958532333 -0.5765236616 -0.3532290161 0.4684293568
0.08427613974 -0.1164952964 0.7010556459 -0.3965283632 -0.304207623 0.678866744
0.0911500752 -0.1110614464 0.6770130992 0.6000098586 -0.3325704336 0.5381377935
0.08850798756 -0.1119237021 0.6866999269 0.2229356021 -0.3239311874 0.5795974731
0.08870875835 -0.1275508702 0.6741727591 0.4250356853 -0.05085730925 0.7115479708
0.08789052069 -0.1317504495 0.6777566075 0.199236542 -0.01023024041 0.7117736936
0.09012258798 -0.1368145198 0.6846036911 -0.1240743399 -0.1948589534 0.5671326518
0.08502185345 -0.1437512636 0.6837871075 -0.3720654845 0.02624890208 0.6933050156
0.08805723488 -0.1438322961 0.6897543669 -0.4853163362 -0.08534878492 0.5956439972
0.08405207843 -0.1496224999 0.6841953993 -0.6086616516 -0.07710018009 0.6320864558
0.08637350053 -0.1513683945 0.6894200444 -0.7731662393 -0.2021410167 0.5310060382
0.0844977349 -0.1375672072 0.6803348064 -0.06710634381 0.1909555048 0.806865871
0.04722296074 -0.1214983016 0.6790565848 -0.1823599786 -0.6405376196 0.7440199852
0.06027356535 -0.1133257225 0.6762651205 0.1923077404 -0.5185146928 0.6960042119
0.05255421624 -0.1152688339 0.6787002683 0.01307882462 -0.5694476962 0.7292060852
0.06536203623 -0.1127000377 0.6739617586 0.3186970055 -0.48717466 0.6718539
0.04784666747 -0.1154318005 0.6812742949 -0.1090821028 -0.5970234871 0.7529857159
0.05633741617 -0.110422723 0.6823931932 -0.02951437049 -0.5391379595 0.7288338542
0.07618634403 -0.110146679 0.6703901887 0.5693428516 -0.4166147411 0.6247900128
0.05589634553 -0.1213626489 0.6826803088 -0.2827590406 -0.6424782872 0.7109948993
0.08393808454 -0.1589353383 0.6886873841 -0.789251864 0.09093989432 0.592826426
0.08119241893 -0.1444419473 0.679049015 -0.3500824571 0.09776928276 0.7633789778
0.07861956209 -0.1516131014 0.679980576 -0.6959133148 -0.04251790792 0.6810045242
0.06907424331 -0.1779701412 0.7655797005 0.5932100415 -0.477440089 0.6468393207
0.05732661113 -0.1402950287 0.6605049372 -0.1475120038 -0.4800456464 0.8041908145
0.05783522129 -0.136028409 0.6645789146 -0.1302967221 -0.4948162138 0.7940096259
0.03235737234 -0.135098353 0.6655466557 0.01935712621 -0.6587902308 0.7492451668
0.03821200877 -0.133254841 0.668123126 -0.04861300066 -0.6546087861 0.7531081438
0.04176494852 -0.1284889281 0.6725395322 -0.09886067361 -0.6552176476 0.7464663982
0.0675124079 -0.1100014523 0.6998950243 -0.5104666352 -0.4391517639 0.7314938903
0.07241065055 -0.1099914163 0.704241693 -0.540640831 -0.3071771562 0.7744063139
0.07722306997 -0.1115593165 0.7079327106 -0.6121176481 -0.2692170739 0.739108026
0.04584014043 -0.09261540323 0.7011894584 -0.1678384393 -0.6226885319 0.7640266418
0.05489384383 -0.09853687882 0.7005624771 -0.2895891666 -0.5491471887 0.7787701488
0.04700844362 -0.1024768725 0.694521904 -0.2094467878 -0.5865037441 0.780166328
0.03945753723 -0.09412997961 0.698895216 -0.07297671586 -0.629065454 0.770115912
-0.001160973916 -0.1116971076 0.7000563145 0.5725280046 -0.5309213996 0.6140788198
0.00541596394 -0.1096465066 0.6959730983 0.4709593058 -0.5672739148 0.6737404466
-0.02201537788 -0.1105597839 0.725625217 0.7503331304 -0.4151622355 0.5140889287
-0.02333826572 -0.1245295256 0.7214159966 0.7761500478 -0.3932029009 0.4926081896
-0.02221086808 -0.1170030758 0.7231796384 0.767303884 -0.3988398314 0.5020383
0.03320756182 -0.1249582767 0.675357759 0.02747817338 -0.6438109279 0.7607858777
0.04167542979 -0.1237605289 0.677020967 -0.1036445647 -0.6395335197 0.7529295087
0.03340152651 -0.1217479259 0.6796195507 0.02635102905 -0.6368899941 0.7545075417
0.02308158576 -0.1220628992 0.6805704236 0.1844743788 -0.6358136535 0.7475735545
0.02350541763 -0.1268961132 0.6752545834 0.1572806835 -0.6478364468 0.7443101406
0.007319860626 -0.1279666424 0.6785311699 0.4199072123 -0.6099863052 0.6707025766
0.01337765437 -0.1283410043 0.6764608026 0.3306708634 -0.6315111518 0.6947963834
0.005929218605 -0.1345322281 0.6745494008 0.4585312307 -0.5625292063 0.6840242743
0.01520285755 -0.1358911991 0.6679205894 0.266635716 -0.6341275573 0.7254832983
0.01174664777 -0.1333309859 0.6724378467 0.3371287584 -0.6152946949 0.7088882923
0.02154006064 -0.1381457448 0.6651827097 0.1593567282 -0.6483429074 0.7398142219
0.02299898118 -0.1323711723 0.6696709394 0.1500456333 -0.65535146 0.7385907769
-0.02542781271 -0.1523983628 0.6996079683 0.8406715393 -0.3048687875 0.441036135
-0.02216373384 -0.1462677568 0.6999213099 0.7831225991 -0.4133507907 0.4645710886
-0.02554875426 -0.1491467357 0.7053881288 0.8151912093 -0.3545799851 0.4513102174
-0.01449686196 -0.1504350156 0.6835992336 0.718819201 -0.4402464926 0.5364736319
-0.01133180968 -0.1504454166 0.6790434122 0.687985003 -0.4552389383 0.565128684
-0.0059559769 -0.1460972577 0.6760309935 0.6331130266 -0.4824293852 0.6022666693
-0.00037250889 -0.1456094086 0.6698465347 0.5265116096 -0.5036069751 0.6684648991
0.004383877851 -0.1437742263 0.6653882265 0.4506810009 -0.5250265598 0.7147948146
-0.003439015476 -0.1398379952 0.6786466837 0.6041504741 -0.5007907748 0.6096870899
0.05091401935 -0.1820342243 0.7767313719 0.340928942 -0.5399065018 0.7676845789
0.06224707514 -0.2170157135 0.7439032197 0.5191695094 -0.4695364833 0.7017858028
0.05749271438 -0.2188821584 0.7477924824 0.4455615878 -0.5120655894 0.7240687609
0.05867717043 -0.2127948254 0.7473554611 0.4869571328 -0.4893466234 0.7158755064
-0.0329211466 -0.1912612319 0.7170887589 -0.9139942527 0.002937451703 0.4037020504
0.002002369845 -0.1971428245 0.7609205842 -0.4964169562 -0.4990544319 0.7040548921
-0.001946372213 -0.1975209862 0.7570419908 -0.5721176863 -0.4662069678 0.673555553
0.03388829529 -0.1064895913 0.6881683469 0.0136547843 -0.6236518025 0.7805528641
0.04238073528 -0.09814866632 0.6956092119 -0.126908049 -0.6156475544 0.7757610679
0.03797473013 -0.1011832058 0.6934999824 -0.07041930407 -0.6158866882 0.7813446522
0.02693378367 -0.1050292104 0.6909729838 0.1409396082 -0.6109722853 0.774887085
0.0408353135 -0.1063424572 0.6895844936 -0.1123782992 -0.6059441566 0.7854194641
0.02714192495 -0.08990560472 0.7029288411 0.1398533285 -0.6460446119 0.7463015318
0.03398431093 -0.09475262463 0.6979836822 0.01215720363 -0.6299998164 0.7744849324
0.03151082247 -0.09978796542 0.6947306395 0.0471476689 -0.6188108325 0.7782559991
0.02554633468 -0.1003945991 0.6949495673 0.1673198342 -0.6120731235 0.7724867463
0.02008383535 -0.1057891324 0.6923915148 0.2467519492 -0.5981991291 0.7588762641
0.07338897139 -0.2037975341 0.7427304387 0.6768276095 -0.4000736773 0.616758585
0.07065229118 -0.214012146 0.73835361 0.6310222745 -0.4094302654 0.6580843329
0.07420770824 -0.2085353285 0.7380994558 0.6948987246 -0.3823835552 0.6038354039
0.02077903971 -0.2193034589 0.7559663057 -0.1520957798 -0.5480443835 0.8188560605
0.0878130421 -0.132573396 0.7054830194 -0.776144743 -0.3044342697 0.5261145234
0.08599615097 -0.1252143234 0.7075272799 -0.7408624291 -0.278098017 0.5884726644
0.09010981768 -0.1420642287 0.7027018666 -0.81762743 -0.3406282067 0.4492985904
0.08288215101 -0.1192906722 0.7068430781 -0.6588605642 -0.3118997812 0.6788641214
0.08878238499 -0.1000533998 0.6999022365 0.1155352443 -0.2975814641 0.5875395536
0.08594440669 -0.1057848632 0.7075751424 -0.3073065281 -0.2667568326 0.6627727151
0.0887169987 -0.09586303681 0.6955136657 0.2610684931 -0.27792871 0.5913839936
0.08393127471 -0.1027655974 0.7130153179 -0.4628753662 -0.2447456867 0.7805140615
0.08601862937 -0.09969929606 0.7053175569 -0.1450392455 -0.2589526176 0.6980059743
0.09123279899 -0.09699570388 0.6882628798 0.5207579136 -0.3077982962 0.4672582448
0.08428712934 -0.1115756556 0.7062571645 -0.475813508 -0.2628519237 0.6612256765
0.08703435212 -0.1568915099 0.6928529143 -0.8360425234 -0.04487776011 0.4921611249
0.08679837734 -0.1501565725 0.6955863833 -0.8176453114 -0.1816580743 0.4868764579
0.0811586082 -0.1544355005 0.6851161122 -0.7586238384 -0.09453804791 0.6182043552
0.07353445143 -0.1789448708 0.7594692707 0.6599861383 -0.4426127076 0.6025130153
0.06422933936 -0.1841286421 0.7654519081 0.5622760057 -0.487855494 0.6661791801
0.06342102587 -0.1785371751 0.7689530253 0.5341646075 -0.496493578 0.6804750562
0.05605627969 -0.180426091 0.772837162 0.4329556227 -0.5318688154 0.7272301316
0.054846026 -0.1872951835 0.7682977319 0.4330984652 -0.5415686965 0.7202460766
0.08210479468 -0.1920193136 0.7360894084 0.8422968984 -0.2851701081 0.4543598294
0.07245443016 -0.1975129992 0.7466499805 0.6667976379 -0.4037441313 0.6215270758
0.07882771641 -0.2046672553 0.7396332026 0.7545366883 -0.359108299 0.5436550975
0.07731950283 -0.1988703012 0.7427921295 0.7277696729 -0.3671495616 0.5724580288
0.08144778758 -0.1991678178 0.7333211303 0.8286863565 -0.3044857085 0.4684402645
0.08085792512 -0.1888765693 0.7424764037 0.8184674382 -0.2999018431 0.4893019199
0.08365767449 -0.1849887967 0.7380905747 0.8482975364 -0.278839916 0.4458132088
0.07748791575 -0.1858014315 0.7494195104 0.7516157031 -0.3796284497 0.5380623341
0.08058380336 -0.1761986166 0.7520799041 0.7787595391 -0.3514583111 0.5186789036
0.05694996193 -0.1425246894 0.6674363017 -0.3489550948 -0.3864169717 0.8097540736
0.05670570955 -0.1347537637 0.6721930504 -0.2821803987 -0.5813084245 0.7486786842
0.06454465538 -0.1423753649 0.6697866321 -0.363807857 -0.2978859842 0.829618156
0.07649308443 -0.1310659945 0.6699165106 0.2286847234 -0.1611655504 0.8205604553
0.07333470136 -0.1372773796 0.6718387008 -0.05060927942 -0.02674349211 0.8622448444
0.08292805403 -0.1269232929 0.6714273095 0.4487962723 0.005936190486 0.8406949639
0.07425358891 -0.1504762918 0.6762865782 -0.6550227404 -0.01129612885 0.7468170524
0.05817863345 -0.1463085562 0.6628943086 -0.36296314 -0.4295107126 0.7886274457
0.06372442096 -0.1479694545 0.6674464345 -0.4663878977 -0.2634820938 0.7804716825
0.06839319319 -0.1468271762 0.6727606058 -0.5328189731 -0.1263814718 0.8111949563
0.06916452944 -0.1191983968 0.6953722239 -0.5339466929 -0.5616678596 0.6186575294
0.0659725368 -0.1139561161 0.6956088543 -0.5054068565 -0.5263686776 0.6801528335
0.07663256675 -0.1177926511 0.7033392191 -0.6206238866 -0.3831181824 0.6808665395
0.06941885501 -0.1258939058 0.6900134683 -0.5324811935 -0.5964038968 0.5604262352
0.07597214729 -0.1375675648 0.687306881 -0.6813212633 -0.3907083571 0.5596920252
0.0735437125 -0.1322942823 0.6894130111 -0.6177271605 -0.5230062604 0.5369675756
0.07926087826 -0.1429825723 0.6864647865 -0.7520667911 -0.3137207627 0.5485625267
0.08195281029 -0.1414079517 0.6927903891 -0.7611719966 -0.4059797823 0.4644896984
-0.01328788139 -0.1086974964 0.7179628015 0.7041974664 -0.4534136057 0.545278132
-0.01580580324 -0.1042735502 0.7230037451 0.6965153813 -0.4561044574 0.5518339872
0.005690741818 -0.09590610117 0.7071812749 0.4826333523 -0.5601760745 0.6728836298
0.001927337726 -0.1008986235 0.7067182064 0.5280815959 -0.5333580971 0.6537216306
-0.006361019332 -0.1138273403 0.7030040622 0.6492887735 -0.5035166144 0.5692973137
-0.008161903359 -0.1090594083 0.7106726766 0.6653330922 -0.4767561853 0.5733623505
-0.001564440434 -0.1070468649 0.7034925818 0.5829361677 -0.521011889 0.6199490428
0.005007397383 -0.1051830798 0.7002499104 0.4740604758 -0.55449301 0.6836940646
-0.004319614265 -0.1341778189 0.6835968494 0.6324037313 -0.4922516048 0.596555829
0.01162943244 -0.1237907335 0.6806796193 0.3509112895 -0.6198514104 0.6976012588
0.01800210215 -0.123844251 0.6790630221 0.2615665495 -0.6398916245 0.7191359401
0.02738461085 -0.1220521852 0.6770532131 0.1229496747 -0.6343284845 0.7625986934
0.04128304124 -0.1145564318 0.6832746267 -0.1187970862 -0.6147868633 0.7744499445
0.03856629506 -0.1188209131 0.6792692542 -0.05978732556 -0.6347791553 0.7666130662
-0.0174375046 -0.1497382671 0.6883497238 0.7494806051 -0.4261782467 0.5065170527
-0.0141361095 -0.1456104368 0.6868665814 0.7223088145 -0.43656528 0.5351266265
-0.02153557166 -0.15112032 0.6947516203 0.7708976269 -0.4199846685 0.4786001742
-0.01626328006 -0.1423812658 0.6932167411 0.7525749207 -0.4274431765 0.4990151823
-0.0120722102 -0.1370858848 0.6905534863 0.7181269526 -0.4516487718 0.5284724236
0.06422461569 -0.2038532794 0.7509846687 0.56668818 -0.4601888061 0.6827419996
-0.0219112467 -0.1907123178 0.7350814342 -0.815366745 -0.2904976904 0.5005716085
0.01290949434 -0.2194173038 0.7542526722 -0.2750480771 -0.5166780353 0.8076571226
0.007378789131 -0.209692046 0.7564046383 -0.3884854913 -0.5015926957 0.7720471621
0.00736413803 -0.2187276036 0.7491963506 -0.3861720264 -0.4705813527 0.7896437049
-0.0002175423579 -0.2019569725 0.7539106011 -0.5432194471 -0.4543278217 0.7036390305
0.003833950264 -0.2114317864 0.751437068 -0.4494652152 -0.4710999429 0.7540491223
-0.004209049977 -0.2048741877 0.749365747 -0.5944274664 -0.4243395627 0.6815216541
0.001774753793 -0.2075396925 0.7548114657 -0.4777098298 -0.4765626788 0.7319418788
0.05804063007 -0.203903541 0.7539379001 0.4861535728 -0.4866485596 0.7212833762
0.05981943011 -0.2092720717 0.7516772151 0.5007128716 -0.4939250946 0.7062419057
0.04343907163 -0.2153556943 0.7580611706 0.235353291 -0.5579751134 0.7946174145
0.01878614165 -0.2142384946 0.7538394332 -0.1820589751 -0.5269867778 0.8239911795
0.01669635624 -0.2219605148 0.751311779 -0.2233279198 -0.5184927583 0.8180177212
0.003433646634 -0.1821886599 0.7714731693 -0.4983960986 -0.4887310863 0.7146388888
0.005275070202 -0.1745601892 0.7790839672 -0.4355357587 -0.4866022766 0.7550956011
0.06865367293 -0.1406186223 0.6760641932 -0.5154085755 -0.3104169667 0.7778928876
0.06690553576 -0.1345103383 0.6794602871 -0.4501759708 -0.4526287615 0.7333335876
0.07453907281 -0.1421204358 0.6812216043 -0.6761649251 -0.2154912055 0.6695216894
0.07144705951 -0.1377866566 0.6818071604 -0.583746314 -0.3410409689 0.6722501516
0.06639444083 -0.1294325143 0.6836646199 -0.4250147045 -0.5557467937 0.6689250469
0.06250417978 -0.1310194731 0.6782509089 -0.3405101597 -0.5526417494 0.7472144365
0.05646650121 -0.1283158511 0.6773558259 -0.2679927647 -0.6412881017 0.7184007764
0.06040233746 -0.1252687424 0.6824323535 -0.3093607426 -0.6555018425 0.6872452497
0.05646849424 -0.1931299269 0.762942791 0.470335871 -0.5274835825 0.7063267231
0.08191660047 -0.1802801341 0.7463997602 0.8127511144 -0.3064721823 0.4950790703
0.07341857255 -0.1853058934 0.7548205853 0.687297225 -0.419410944 0.5912749767
0.05353201553 -0.1457044184 0.6587985158 -0.2850174308 -0.5264567137 0.8006665707
0.06658707559 -0.1374319643 0.6672905684 -0.1278176457 -0.425663501 0.7773290873
0.07073684782 -0.1332512796 0.6664878726 0.08699595183 -0.3787377179 0.7666765451
0.06353189051 -0.1373231113 0.6739856601 -0.3837422132 -0.3755825162 0.8234786391
0.06216202304 -0.1197703555 0.6880338192 -0.3689293861 -0.6856181622 0.623165369
0.07808514684 -0.135197401 0.6935123801 -0.6774240732 -0.4954591691 0.4860546291
0.07505224645 -0.1261819899 0.6937887073 -0.5865497589 -0.6251928806 0.497579813
0.08228829503 -0.1343550831 0.6985101104 -0.7159948945 -0.4558187425 0.4928221703
0.07764665037 -0.1243392229 0.700165987 -0.6406105757 -0.480073154 0.5805953145
0.08150052279 -0.1267080903 0.70331949 -0.6973004341 -0.3889428973 0.5930836201
-0.005099109374 -0.1776730418 0.7678163648 -0.5940893292 -0.4565934539 0.6591796875
0.008152062073 -0.1783010811 0.7740793824 -0.4062836766 -0.5029423833 0.755794704
-0.009844426066 -0.179310903 0.7622435689 -0.6834981441 -0.4076096117 0.6038229465
-0.001026833546 -0.1748908758 0.7726408839 -0.5442488194 -0.4546713829 0.7035530806
-0.01480237581 -0.09574504942 0.7315889597 0.6706550717 -0.4636690319 0.5786706805
-0.01445945073 -0.09844966978 0.7268915772 0.6717213988 -0.4703654051 0.5702629089
-0.02078421973 -0.1048436314 0.7280666232 0.7237714529 -0.4352189004 0.5340127349
-0.0115419114 -0.1001307517 0.7220256925 0.6635729074 -0.4776527584 0.5750811696
-0.008122276515 -0.1002873182 0.7172238231 0.6541165709 -0.4804358184 0.582780838
-0.003350810613 -0.1033856422 0.7080420852 0.612388432 -0.5057002306 0.6075456142
-0.002195220673 -0.09689041227 0.7125703096 0.5988377929 -0.5078395605 0.617046535
0.03334404528 -0.1762182862 0.7838543653 0.04874532297 -0.5238096714 0.8479841948
0.0226056166 -0.109809272 0.6878757477 0.2064125538 -0.6084573269 0.7628254294
0.02687857859 -0.1133797914 0.6845236421 0.1338109076 -0.6133835316 0.7759808302
0.03277714923 -0.1135834083 0.6835634112 0.03311921284 -0.6191385388 0.7816435695
0.01696050726 -0.1140381619 0.6878406405 0.2789457738 -0.6035063863 0.7415777445
0.02132118493 -0.1172059625 0.6847405434 0.2146340162 -0.6203660965 0.7494710684
-0.02236352116 -0.1292613298 0.7152279615 0.7832815647 -0.3941447735 0.4803931117
-0.0201117713 -0.1814223975 0.7419807315 -0.813239336 -0.312002331 0.491133064
-0.01692214236 -0.1859057099 0.7451571226 -0.7935178876 -0.313459605 0.5214551091
-0.01806544513 -0.1907177418 0.7415880561 -0.8004378676 -0.2979593277 0.5195558667
0.01107717585 -0.2132811546 0.7536982298 -0.3347485065 -0.4887993336 0.8023091555
0.0009413147927 -0.1921274215 0.7643520236 -0.5243692398 -0.5029329658 0.6827945709
0.007663613651 -0.1931872815 0.7690938711 -0.4222745001 -0.5306205153 0.7343191504
0.01078709494 -0.1862263829 0.7711567879 -0.3664057851 -0.5344248414 0.7569556236
0.01992886327 -0.1810085326 0.7813850045 -0.1695136726 -0.5354431272 0.8251801729
0.03393515199 -0.2089157552 0.761719346 0.05400817096 -0.5560171604 0.82806319
0.04944611341 -0.1880584508 0.7726880312 0.3416217268 -0.5467826724 0.7607977986
0.06104718521 -0.1888740957 0.7629818916 0.5143390894 -0.5097997189 0.6826604009
0.06707830727 -0.1896151006 0.7579481602 0.6001518965 -0.4742886722 0.6415262222
0.0692115128 -0.1843066216 0.761390686 0.6009148955 -0.4726134241 0.6433015466
0.05967080966 -0.1843165904 0.7697402835 0.4789029956 -0.5048809052 0.7171709538
0.05797285959 -0.1166888997 0.6872830987 -0.3460553885 -0.637250483 0.6851404905
0.06089177728 -0.1106953323 0.6947077513 -0.4388638139 -0.5514582396 0.70470649
0.06369867921 -0.1069104522 0.6814302206 0.1245510504 -0.5104737282 0.6819760203
0.07653580606 -0.1029563397 0.6768657565 0.4854870141 -0.4604407847 0.591711998
0.07230651379 -0.1085383296 0.6745769382 0.4088109434 -0.4465024173 0.6440045834
0.06996638328 -0.1040175557 0.6800545454 0.2912792861 -0.4928864241 0.6328328252
0.08288348466 -0.1016438007 0.674039185 0.6703052521 -0.4311316609 0.5504657626
0.04997070879 -0.109544456 0.6897346377 -0.2589735091 -0.5871971846 0.7590666413
0.05160263926 -0.1146750525 0.6858845949 -0.289134413 -0.5981251597 0.7429285645
0.04542774335 -0.1110347584 0.6863288879 -0.189654097 -0.5993607044 0.776424706
0.01031759288 -0.1761278063 0.7794555426 -0.3458332717 -0.5133679509 0.7807160616
0.01569521427 -0.1762597561 0.782276392 -0.2179036587 -0.5423448682 0.808400929
-0.009307664819 -0.1210469976 0.7001703978 0.6794393063 -0.4816834927 0.5506649017
-0.009185692295 -0.1293045431 0.6932825446 0.6819072366 -0.4785434306 0.5529681444
-0.01662410982 -0.1362423301 0.6985216141 0.7686687708 -0.4237535894 0.4780055285
-0.01281771716 -0.128985405 0.6984348297 0.7224664688 -0.4571096897 0.515093565
-0.02223482355 -0.1429297477 0.7049141526 0.7880206108 -0.4074523151 0.461471498
-0.02431490831 -0.1391356587 0.7140482068 0.7896808386 -0.3957820237 0.4687268138
-0.01996466704 -0.1373451948 0.7048636079 0.7850108147 -0.4086016715 0.4654810429
-0.02243407629 -0.1354086995 0.7108873129 0.7890014648 -0.4006018639 0.4657040238
-0.01755853556 -0.1326090842 0.7030084729 0.7801358104 -0.4162298143 0.4668967426
-0.00536303455 -0.1967847794 0.7519780397 -0.6469504833 -0.3998301029 0.6409755349
-0.01360040903 -0.1953268796 0.7446781397 -0.7677012086 -0.335639745 0.5445895195
-0.01158586424 -0.2004301399 0.7475062013 -0.6949050426 -0.4019688666 0.5937818885
-0.01033889875 -0.191814214 0.7506977916 -0.7107043862 -0.3967254162 0.5782251358
-0.01352028362 -0.1830495149 0.7538003325 -0.7466486692 -0.3680199981 0.5540428162
0.04445738345 -0.2166012675 0.7529997826 0.2446031272 -0.564860642 0.7709994316
0.0314238593 -0.2152832448 0.7583880424 0.001135698054 -0.5712214708 0.817525804
0.0377900824 -0.214838177 0.7586092353 0.1262567639 -0.5618420839 0.8136546016
0.02581173554 -0.2145821005 0.7559497952 -0.05115816742 -0.5760833621 0.8143603802
0.04079522192 -0.2098130882 0.7558377981 0.2111281306 -0.5409367681 0.7953554988
0.02876746655 -0.2088058442 0.7572159171 -0.00260046334 -0.5439866781 0.8177806735
0.03531655297 -0.2087250203 0.7563644052 0.1174562573 -0.5352840424 0.8061180115
0.02932281606 -0.2206091285 0.7553249002 -0.02163037844 -0.5783485174 0.8123940229
0.006166162901 -0.2008233219 0.7579420209 -0.4247288406 -0.4928091764 0.7445901632
0.01709155738 -0.206233725 0.7584334612 -0.2236267626 -0.5337102413 0.8023891449
0.01052622031 -0.2045530379 0.7570872307 -0.3524004221 -0.5034884214 0.7723273039
0.01434354018 -0.2127090245 0.758030951 -0.2687929273 -0.5298324227 0.8021834493
0.02246701531 -0.2112906724 0.7600623369 -0.1468952745 -0.5494253039 0.8174573779
0.01321673207 -0.1964832395 0.7662478089 -0.3189695776 -0.5756254196 0.7503760457
0.006762290373 -0.1953718811 0.7639968991 -0.4338239431 -0.53058213 0.723554194
0.009768098593 -0.1999898851 0.7639272213 -0.3710836768 -0.5265578032 0.7624565363
0.01420757547 -0.1819900572 0.7746021152 -0.308454752 -0.528909266 0.7837401032
0.06719060242 -0.1982860118 0.7516539097 0.6052361131 -0.4499258995 0.6557925344
0.06339044124 -0.1945510954 0.7590343952 0.545776844 -0.5027584434 0.6695321202
-0.01489665359 -0.1183149293 0.7125475407 0.7455503941 -0.4189883173 0.5167532563
-0.01205482986 -0.1138111725 0.7127205133 0.7115820646 -0.4465480745 0.5400210619
-0.01079477184 -0.1187543571 0.7062898278 0.6999508142 -0.4603219032 0.5430037975
-0.01894416846 -0.1228257194 0.7147144675 0.773910284 -0.3906782568 0.4983851016
-0.01789271832 -0.116694957 0.7179254293 0.7615705132 -0.4059884548 0.5048761368
-0.01675630547 -0.1237875074 0.7091687918 0.7587937713 -0.4154184461 0.498592943
-0.02546894364 -0.1342660785 0.7206849456 0.7879789472 -0.3872147501 0.4786688983
-0.00263705058 -0.1266384721 0.6886565089 0.5889852047 -0.5290451646 0.6079389453
0.004114493728 -0.1234631613 0.6854445934 0.4835897386 -0.5773373246 0.6551954746
0.0164419394 -0.1207414493 0.6846741438 0.300927639 -0.6049920917 0.7101754546
0.003100550035 -0.1180920824 0.6905469894 0.502256453 -0.5615218282 0.651004076
-0.001018022653 -0.1188415587 0.6947619915 0.5705876946 -0.5341284871 0.6143904924
-0.005449238233 -0.1235603243 0.6942735314 0.6378706694 -0.5020011663 0.5824804306
0.01003279444 -0.1137616709 0.6900306344 0.3828022182 -0.584421277 0.7131388187
-0.02224968933 -0.1805578023 0.7366261482 -0.8172638416 -0.3011918664 0.4911538363
-0.02520557679 -0.1740102768 0.7243192792 -0.4183246791 -0.3060406148 0.4804081917
-0.02371454984 -0.1747337878 0.7307332754 -0.5572627783 -0.3132084012 0.4848311543
-0.02404356748 -0.1670759618 0.7271980047 -0.2395140231 -0.3353683352 0.4789719284
-0.02511895262 -0.1521418393 0.717579186 0.4440320432 -0.3690722883 0.4640527368
-0.02430841699 -0.1608100832 0.7237458825 0.03998338059 -0.3492747545 0.4727151692
-0.02533595823 -0.1581538022 0.7136161923 0.3934119046 -0.3136203587 0.4552485347
-0.02505077608 -0.1642121077 0.7149511576 0.1939186156 -0.2847206891 0.4559549987
-0.02416346595 -0.1815588474 0.730409503 -0.7719132304 -0.2859243155 0.4871067703
-0.02538274415 -0.1720515788 0.7181138992 -0.1614211351 -0.27493909 0.4661235213
-0.02226869576 -0.1613984555 0.7347425818 -0.1697664857 -0.3545707762 0.5008046627
-0.0227749534 -0.1561650485 0.7325032949 0.01890818216 -0.3627240658 0.4979105592
-0.02514928021 -0.1429281831 0.7237983942 0.4960955977 -0.3722813725 0.4800292253
-0.02393218502 -0.1496969908 0.7291914225 0.2470922321 -0.3674461544 0.4831658006
-0.02238015085 -0.1747454107 0.7372328043 -0.654615581 -0.3196053803 0.4902541041
-0.02314097993 -0.1678967178 0.7336767316 -0.4058262706 -0.3292723 0.4877955914
-0.01901272498 -0.1774212569 0.7470470071 -0.7511479259 -0.3468820155 0.5215745568
-0.01978026703 -0.1710134596 0.7434090376 -0.5175418854 -0.3553596139 0.5197453499
-0.003041523276 -0.1916018426 0.7607383728 -0.5880245566 -0.4776794314 0.6496941447
-0.005991139915 -0.18575266 0.7621091008 -0.636783123 -0.4400979877 0.628285408
-0.007402235642 -0.1895659268 0.7560988069 -0.6774333715 -0.419290036 0.6031343341
-0.001605170895 -0.1871881485 0.765042901 -0.5709705353 -0.4773741364 0.6654316187
-0.01347213797 -0.1788737923 0.7572638392 -0.7248235941 -0.3831809461 0.5720308423
0.05561084673 -0.1982985437 0.7591139674 0.4691874683 -0.5219557285 0.7031090856
0.04461017251 -0.2006782293 0.7617544532 0.2714183331 -0.5553577542 0.7630086541
0.04726742581 -0.2079440057 0.7555598021 0.3337406516 -0.5224385262 0.7838144898
0.04987518117 -0.1992487758 0.7606711984 0.3640359938 -0.5408468246 0.7320641279
0.04851470515 -0.1961191595 0.7665526271 0.3282093704 -0.5679231286 0.750864923
0.06104601547 -0.2000954002 0.7567008138 0.5234521031 -0.4912396073 0.6934506297
0.05525401607 -0.2082482576 0.7559587955 0.4427173138 -0.5085148215 0.7337878346
0.05306778103 -0.2168051749 0.7531526685 0.389434725 -0.5401863456 0.745287776
0.04470095038 -0.2071480453 0.7620066404 0.2770983875 -0.5314956903 0.7970324755
0.05109499022 -0.2073171139 0.7593810558 0.3907843232 -0.5173484087 0.7596529126
0.01411564369 -0.1925299168 0.7713659406 -0.3084991276 -0.5756109953 0.754021883
0.02053636685 -0.1946842819 0.7707189322 -0.1886630207 -0.5974236131 0.7758500576
0.01504391152 -0.1879452318 0.7755995393 -0.2816079855 -0.5570964813 0.7753600478
0.03978120536 -0.1921582669 0.7713626027 0.1942554116 -0.5640274286 0.788939774
0.04562214389 -0.1910612136 0.7692114115 0.321551621 -0.5594086051 0.7513437867
0.03398460522 -0.1963639706 0.7702330947 0.07001493871 -0.5717906356 0.8147039413
0.04229561612 -0.1972243041 0.7689214349 0.2373492122 -0.5520483255 0.7957935929
0.04008361697 -0.2023441046 0.7653309107 0.1903223395 -0.5492588282 0.8076856732
0.02727449872 -0.1879342496 0.7753000855 -0.06693201512 -0.5628114939 0.8061172962
0.01953244023 -0.1825777441 0.7756501436 -0.2103215754 -0.5339617729 0.793604672
0.02714483067 -0.1931535006 0.7728165984 -0.0660354048 -0.5843167305 0.8049478531
0.02373747155 -0.1849693954 0.7793424129 -0.1228705198 -0.5638907552 0.8152881861
0.02061295323 -0.1901245117 0.7748042941 -0.1946211457 -0.5823177099 0.7861783504
0.02971315198 -0.1814312488 0.7799761891 -0.0112095559 -0.5543240905 0.8110820651
0.03274692968 -0.1866895705 0.7773909569 0.03706986085 -0.5640133023 0.8145762682
0.04332084209 -0.176467821 0.7821573615 0.2075666934 -0.5436300635 0.8107224703
0.0259969309 -0.1765557677 0.7838606834 -0.04996199906 -0.5188914537 0.8519166708
0.04385299236 -0.1828271449 0.7794880867 0.2307005525 -0.5443150401 0.8060096502
0.03708222136 -0.182317704 0.7797904015 0.1326311231 -0.5566921234 0.8108014464
0.04183927178 -0.1880373657 0.7737652659 0.2347776294 -0.5606330037 0.7767543793
0.02660430968 -0.2012769133 0.7664717436 -0.07568787038 -0.5906882882 0.8003069162
0.02246722765 -0.2044639289 0.7629032135 -0.1370802224 -0.568081975 0.8072078824
0.02920857072 -0.2040282935 0.7623205185 -0.004767481703 -0.5720046759 0.8132170439
0.03380358219 -0.2007526308 0.765614152 0.07010868192 -0.5862725973 0.8047540784
0.0155983083 -0.2023333758 0.7630668283 -0.2752096653 -0.5461925864 0.7895575762
0.02001206391 -0.1990847886 0.7665225267 -0.1955461651 -0.5821457505 0.7831280828
