# .PCD v0.7 - Point Cloud Data file format
VERSION 0.7
FIELDS x y z normal_x normal_y normal_z
SIZE 4 4 4 4 4 4
TYPE F F F F F F
COUNT 1 1 1 1 1 1
WIDTH 512
HEIGHT 1
VIEWPOINT 0 0 0 1 0 0 0
POINTS 512
DATA ascii
-0.1124845296 -0.1368453503 0.5167459846 0.6219608784 -0.5804647207 0.5236998796
-0.1001295373 -0.1310666502 0.5118629336 0.4873120189 -0.6581032872 0.5685200095
-0.03752151132 -0.135927245 0.5124828815 -0.1479837745 -0.6243493557 0.5620005131
-0.02780293301 -0.12894319 0.5004368424 0.3224491775 -0.5291562676 0.6061643958
-0.04146822542 -0.1315951645 0.5213977695 -0.4069449306 -0.6385682821 0.5267005563
-0.0307852421 -0.1277087629 0.5060289502 0.1460866928 -0.5468526483 0.5844298005
-0.02746820264 -0.1356695145 0.496111989 0.4046619534 -0.5496298075 0.6245626211
-0.03076912835 -0.133838594 0.5025622845 0.2050556242 -0.5676327348 0.5993804932
-0.03372116759 -0.1349190176 0.5068055391 0.05229731649 -0.5929987431 0.5834438205
-0.02541764826 -0.1242281422 0.4991644919 0.4094769657 -0.4955615103 0.6097340584
-0.03346700966 -0.1298698932 0.509221673 0.0184908025 -0.573917985 0.5728098154
-0.02415159345 -0.1283929199 0.4947472513 0.5188419819 -0.5004613996 0.6277804971
-0.03026379459 -0.1388092339 0.4989424944 0.2800532281 -0.5808674693 0.614597857
-0.03693954647 -0.1299943179 0.5148565173 -0.1720643193 -0.599847734 0.5512858629
-0.04724020511 -0.1307173371 0.5211868882 -0.4964034557 -0.7205107808 0.4790232778
-0.03025469184 -0.1228672862 0.5092136264 0.1390223056 -0.5314726233 0.553462863
-0.02258808911 -0.1173844114 0.5007454157 0.5178346038 -0.4604049325 0.5706788898
-0.02736052498 -0.1231374294 0.5033687353 0.2947120667 -0.5076149106 0.5881322026
-0.0265726503 -0.1189677566 0.5065796375 0.31408903 -0.4957334101 0.5464867949
-0.02297920361 -0.1121703312 0.5054947138 0.5610004663 -0.4135227799 0.4999473095
-0.03882676736 -0.1266930699 0.5206980705 -0.2682677507 -0.5944411755 0.5053105354
-0.02010751702 -0.1128986925 0.5009939671 0.6296026111 -0.4321264625 0.543446362
-0.04488389939 -0.1410677135 0.5083687901 -0.2414002866 -0.8099379539 0.4679778516
-0.04254182428 -0.1452986002 0.5052532554 -0.1465969831 -0.7936582565 0.5023066401
-0.04046878591 -0.1508120894 0.4994429648 -0.005733483471 -0.8035940528 0.5274208784
-0.04548123479 -0.1348186135 0.5180870891 -0.4320591092 -0.7429224253 0.4746312499
-0.03394283354 -0.1433199644 0.5002661943 0.1546922773 -0.6504604816 0.5894836187
-0.04015411064 -0.1423334479 0.5096207261 -0.1751474887 -0.7101495266 0.5397741795
-0.03413807601 -0.1510377973 0.4926900864 0.2741144001 -0.722505033 0.5859082341
-0.03799202293 -0.1469650269 0.502009213 0.0114921229 -0.7282031775 0.555963695
-0.03787783533 -0.1533693373 0.4953510463 0.1245218813 -0.7849348187 0.555218637
-0.03074950911 -0.1471727937 0.4920588732 0.3803068697 -0.6500692368 0.6141710281
-0.0343061164 -0.1471024454 0.4969130456 0.1997223049 -0.6887255907 0.58557868
-0.03375522047 -0.1394761205 0.5039179921 0.09977316111 -0.6135804057 0.591991365
-0.04166936502 -0.1388403326 0.5152062178 -0.3100900948 -0.695258677 0.5284923315
-0.03591682389 -0.1479908079 0.4884473979 0.2551834583 -0.717967093 0.6081402898
-0.03977941722 -0.1512990594 0.4890157282 0.1516504288 -0.819993794 0.5505654812
-0.02908129804 -0.1433734745 0.4886519611 0.4369688928 -0.5603686571 0.687443614
-0.03059413284 -0.1113746092 0.5255516171 0.3919800818 -0.341488868 0.6429314613
-0.03481548652 -0.1137223691 0.5337354541 0.2213016301 -0.3518825769 0.7145525813
-0.03065501712 -0.1062092632 0.5253956318 0.6245453358 -0.2308941185 0.6559394598
-0.03643927723 -0.1078771502 0.5365278125 0.4607011974 -0.2121396363 0.7576454878
-0.03287998214 -0.1098111346 0.529833734 0.4277025163 -0.2867354453 0.6882432699
-0.03902987763 -0.1206079274 0.542145133 -0.1543988734 -0.4589981139 0.7755950689
-0.03260475397 -0.1153390333 0.529599607 0.1820260733 -0.4070640504 0.6704890132
-0.03794480488 -0.1160665751 0.5398340225 0.06748211384 -0.3724485934 0.7662551403
-0.03543739393 -0.1185469478 0.5351771712 -0.006300244946 -0.4488114417 0.7147886157
-0.02592717111 -0.1080410928 0.5164650083 0.6140329838 -0.3142799437 0.5654495955
-0.02820674889 -0.110929057 0.5209697485 0.4486267269 -0.3544023931 0.6003941894
-0.03445991129 -0.1202788502 0.5301385522 -0.04693657905 -0.4959962666 0.6525012255
-0.03082661144 -0.1174518168 0.515542686 0.1886630654 -0.4724570513 0.4996099472
-0.03995257616 -0.1257035732 0.5397330523 -0.3679452837 -0.5604051352 0.7256180048
-0.02402099967 -0.1100399345 0.5111359954 0.5653115511 -0.3753609359 0.503810823
-0.02846951224 -0.1150610149 0.5121064782 0.3244990408 -0.4432426393 0.4768634439
-0.03429921716 -0.1206120178 0.5245282054 -0.02251847647 -0.5064300299 0.5828304291
-0.03454013914 -0.1214744374 0.5181825757 -0.01752117649 -0.5248942375 0.500299871
-0.03116327152 -0.1173163578 0.5212011337 0.1546920389 -0.4646858275 0.5683383942
-0.04032129422 -0.1272521913 0.5275430679 -0.3533095121 -0.594391644 0.5679062009
-0.03352671117 -0.09887287766 0.5299167633 0.6897776723 -0.2211696059 0.6498138309
-0.02847214602 -0.09672179073 0.5198553205 0.7556983829 -0.3186430931 0.537804842
-0.03788771108 -0.1034643799 0.538949132 0.602830112 -0.1356543601 0.7779241204
-0.02924143337 -0.1375104785 0.4861893356 0.4309614301 -0.4663674831 0.7689946294
-0.03320526332 -0.1408881694 0.4861193299 0.3461134732 -0.5956580639 0.6992194653
-0.02293759584 -0.1060582474 0.5004253387 0.7239053845 -0.4280512929 0.5358939767
-0.02377924696 -0.09839328378 0.5100625753 0.800953567 -0.3765579164 0.4639411867
-0.06450485438 -0.1921197623 0.56013304 0.1936738491 -0.7632973194 0.6046414375
-0.0598000735 -0.1942667812 0.5563453436 0.2893708944 -0.7270686626 0.6132305264
-0.07089360058 -0.1918430626 0.5621494055 0.05182880536 -0.7803452015 0.6089941263
-0.07358929515 -0.1965438128 0.5617370009 0.01654316857 -0.7850015759 0.6087687016
-0.1161182523 -0.1400795728 0.5191224217 0.6412454247 -0.5668281317 0.5168349147
-0.1114744246 -0.131816268 0.5215241909 0.5919505954 -0.5956825614 0.538529098
-0.1000084877 -0.1227907166 0.5195454955 0.4305573106 -0.695255518 0.5728005171
-0.03003483824 -0.105344519 0.4982276559 0.6321348548 -0.4463614523 0.6309663057
-0.02863239497 -0.1018856838 0.502602756 0.6843479276 -0.4617918432 0.5548712611
-0.02884043567 -0.09818187356 0.5071353912 0.7373197079 -0.4779228866 0.4773151875
-0.07865358144 -0.1182875112 0.5191693306 -0.006916392129 -0.7954791784 0.6007275581
-0.1113539338 -0.2009033859 0.5098953247 -0.736938715 -0.5770680308 0.3500709534
-0.1154084653 -0.1962429583 0.5068458915 -0.859760046 -0.3562351465 0.3608869016
-0.1125662699 -0.1728166789 0.5234044194 -0.1528220922 -0.5768659711 0.4122541845
-0.1172393188 -0.1490228772 0.5185543299 0.5563185215 -0.5730511546 0.5018157959
-0.116494894 -0.1543044597 0.5236490965 0.3272798359 -0.5632740259 0.4754692316
-0.1137097776 -0.1673943996 0.5233774185 -0.01044012792 -0.5731457472 0.4309287965
-0.1116015315 -0.1808974594 0.530295372 -0.4804863632 -0.5638495088 0.3738391399
-0.1211210266 -0.1443152428 0.5240134001 0.65112257 -0.5506839752 0.5137697458
-0.1181733981 -0.1480071843 0.5235794783 0.5031000972 -0.5583959222 0.4978665113
-0.1100101843 -0.1893385798 0.5147941709 -0.5085003376 -0.5876055956 0.3760478497
-0.1097645387 -0.1953215301 0.5151406527 -0.6936766505 -0.5659686923 0.3560167551
-0.1148572564 -0.1854336262 0.5086168051 -0.5318220854 -0.4178517163 0.3909361959
-0.1085750461 -0.1523904502 0.4960927069 0.4908845723 -0.6864062548 0.5112131238
-0.1045233235 -0.1589762121 0.4878092706 0.2101265788 -0.6987895966 0.4939338565
-0.1075066626 -0.1719422191 0.4930005372 -0.183685109 -0.5841493011 0.4470738471
-0.1132138669 -0.1620031744 0.5056782365 0.203097105 -0.5639980435 0.4706231356
-0.1110217869 -0.1546211839 0.501694262 0.422065407 -0.6359365582 0.4980659485
-0.1065926775 -0.1642765701 0.4917021096 0.05816651881 -0.6404421329 0.4734629095
-0.1071431041 -0.1584564447 0.4933091402 0.2550089955 -0.6663665771 0.4915730655
-0.1122475937 -0.1713505089 0.5029258728 -0.1139122844 -0.5234742761 0.4416649044
-0.1091128513 -0.1659749746 0.4968190491 0.02919838019 -0.5966498256 0.4640294611
-0.1136106998 -0.1806611717 0.505030036 -0.40497756 -0.4516825676 0.4092213511
-0.1149304286 -0.1949485242 0.4973698556 -0.7311099172 -0.4045674205 0.3912809789
-0.1156588942 -0.1553923786 0.5088952184 0.5088146329 -0.5843146443 0.4959366024
-0.1152561232 -0.176878944 0.5026209354 -0.1648047417 -0.4867666662 0.4390964806
-0.1112689227 -0.1830290258 0.4932917356 -0.4140533209 -0.5076425076 0.4271525145
-0.110542208 -0.17710796 0.4933908284 -0.2406344116 -0.545081377 0.443751812
-0.1046194881 -0.1641604155 0.4851759374 0.07541058213 -0.6815640926 0.4848904312
-0.1126512066 -0.1645017713 0.5007155538 0.181876123 -0.5787117481 0.4750079513
-0.1060118973 -0.1537252218 0.4905516207 0.4200065434 -0.7138564587 0.5111585259
-0.102630876 -0.15860039 0.4827275872 0.2192154229 -0.7331819534 0.5019367933
-0.111914441 -0.1724885553 0.4972411394 -0.07707271725 -0.5498505235 0.4545356631
-0.1068494916 -0.1696249694 0.4881183207 -0.06190854311 -0.6273601055 0.4678290486
-0.11035157 -0.1604234874 0.4972833991 0.2750983834 -0.6271722317 0.4884509146
-0.1130889133 -0.1878071278 0.4956118166 -0.536015749 -0.4618844092 0.4123794138
-0.1153475791 -0.1672812998 0.5052514076 0.1347990185 -0.5314543247 0.4645847082
-0.1139176413 -0.1811953187 0.498913765 -0.3184576929 -0.4830194414 0.4290828407
-0.1161630228 -0.1863665581 0.5034456849 -0.4671838582 -0.4215950966 0.407885015
-0.1160890609 -0.1719980687 0.506737113 -0.01842228696 -0.4924955368 0.4470589161
-0.1160889268 -0.1981806159 0.5014503002 -0.8517325521 -0.35947451 0.372612834
-0.1141765341 -0.1917249411 0.5041289926 -0.7453581691 -0.3874474764 0.3762812614
-0.1120908484 -0.1858825535 0.5004115105 -0.5780887008 -0.4481789768 0.3979934752
-0.1153670102 -0.1445487291 0.5145685077 0.6264227629 -0.5780949593 0.5226029754
-0.1128615141 -0.1447651535 0.5096237063 0.6116445065 -0.5999330878 0.5153061152
-0.1144085601 -0.1498581171 0.5095192194 0.6078537107 -0.607075572 0.511304915
-0.05018787459 -0.1264501214 0.5238728523 -0.5059368014 -0.7001290321 0.5021135211
-0.05395091325 -0.1176892892 0.5348947644 -0.405172497 -0.5764975548 0.7057487965
-0.04539865255 -0.09683423489 0.5318859816 0.007948233746 0.220898211 0.5888783932
-0.05191452429 -0.1007518992 0.5322929025 -0.1503444016 0.09212590754 0.6246084571
-0.06368562579 -0.1076471955 0.5298750997 -0.2616648972 -0.5094350576 0.6566300988
-0.04905002564 -0.09868489951 0.5261445642 0.2498912811 -0.5497630835 0.5473194718
-0.03982262313 -0.09342049062 0.5304786563 0.2020714879 0.2071706206 0.5473763943
-0.0444396846 -0.1152730659 0.5418919921 -0.244471997 -0.4262112379 0.8593133092
-0.0394105576 -0.1093192026 0.5409266353 0.3175029755 -0.2322256714 0.8049654961
-0.0499692373 -0.1159631833 0.5396999121 -0.3382537365 -0.4672977328 0.8120711446
-0.1173650026 -0.134022817 0.5278656483 0.6280059814 -0.5732026696 0.5261667371
-0.1191719472 -0.1391364932 0.5264639258 0.6420683265 -0.5648752451 0.5181179643
-0.1197936833 -0.1306080371 0.535528481 0.6266473532 -0.5791103244 0.5214485526
-0.1156393439 -0.1363458037 0.5221477747 0.6290069222 -0.5677224994 0.5307397246
-0.04512968287 -0.1249174401 0.5345959067 -0.4491714537 -0.5463300943 0.6989428401
-0.04247058183 -0.1287566125 0.5324560404 -0.4648968875 -0.6113790274 0.615909338
-0.04635889083 -0.1277538538 0.5275475979 -0.5216701627 -0.6250296831 0.574123323
-0.03497729823 -0.1021743417 0.5331670046 0.6396077275 -0.1881150901 0.7149588466
-0.0273443684 -0.102547273 0.5186120272 0.7392217517 -0.2678901553 0.5747486949
-0.02038235217 -0.1049354821 0.5056676269 0.8216233253 -0.3147053719 0.4663624465
-0.0228996519 -0.1047578454 0.5104589462 0.7889968157 -0.2890883684 0.512082696
-0.02563387528 -0.097638987 0.5145429373 0.7821564078 -0.3490113914 0.4958003461
-0.08452151716 -0.1507798731 0.4786428511 0.1199777946 -0.7901208997 0.5851079822
-0.09081397206 -0.1514123529 0.4783761799 0.2002937496 -0.8073585033 0.5422959328
-0.09666926414 -0.1520541161 0.4786243141 0.2773038447 -0.8102450967 0.5150346756
-0.103163898 -0.1269362271 0.5159547329 0.5233309269 -0.6612395048 0.5362942219
-0.1050900668 -0.1219249144 0.5251927972 0.5125492811 -0.665050149 0.5424752831
-0.1083885431 -0.1262391657 0.5230944753 0.5673009753 -0.62579602 0.5314614773
-0.1092934087 -0.1323492825 0.5167919397 0.5939415693 -0.6026059389 0.5326201916
-0.1058703288 -0.1329833418 0.5120231509 0.5638680458 -0.6259024143 0.5372171402
-0.09471288323 -0.1480066627 0.4827679098 0.2622273266 -0.784635663 0.5601069927
-0.09493286163 -0.1330583543 0.503982842 0.3972287476 -0.7081635594 0.580824554
-0.08953003585 -0.131629169 0.5040034056 0.2535557151 -0.7503258586 0.5969451666
-0.07970341295 -0.1143231019 0.5219150186 0.02072970197 -0.8121740818 0.5776512027
-0.06277273595 -0.1988061368 0.5520344377 0.2657518387 -0.7571346164 0.5957140923
-0.07691063732 -0.2001404315 0.5588648319 -0.02316607349 -0.7838554978 0.606708467
-0.06756909192 -0.2012816966 0.5528034568 0.1896083206 -0.7695112824 0.606610477
-0.06860348582 -0.1965739429 0.5595259666 0.1200876385 -0.7770856023 0.6101933122
-0.07222519815 -0.2012369037 0.5551323891 0.08881238103 -0.775976181 0.6062507629
-0.1154954657 -0.162110433 0.5190032721 0.2131853402 -0.5726399422 0.4591066241
-0.1168248355 -0.1523100138 0.5140326619 0.5646113157 -0.5851351023 0.4991000593
-0.1171390712 -0.1609140188 0.5241838694 0.17796731 -0.5554872155 0.4568689764
-0.1166480258 -0.1567911208 0.517989397 0.3811964393 -0.5739870667 0.4787419438
-0.1152680293 -0.1716491878 0.5280076861 -0.1850990206 -0.547031343 0.4150550365
-0.1094599217 -0.1781191826 0.5446752906 -0.2712212801 -0.651915431 0.4787347615
-0.111765638 -0.179123655 0.5367878079 -0.3733144403 -0.5918441415 0.4264269769
-0.1093975455 -0.1885505021 0.5392745733 -0.6607521176 -0.5966237187 0.3971828818
-0.112758413 -0.1727913916 0.5370230079 -0.1635297835 -0.6027940512 0.4575693905
-0.1168068647 -0.1580927372 0.5320109129 0.2747063637 -0.5869095325 0.4963209927
-0.1190232858 -0.1519263238 0.52825737 0.4440840483 -0.5679779649 0.5026167035
-0.1140299588 -0.1647602618 0.5372817516 0.1021905839 -0.6163875461 0.4968281686
-0.1140430048 -0.175842613 0.5312911868 -0.313867867 -0.5557665229 0.4086610973
-0.1065343022 -0.184844777 0.5501661301 -0.4431453943 -0.6838924289 0.480022639
-0.1093525216 -0.1829153299 0.5397922397 -0.4646093249 -0.6199424267 0.4234883487
-0.1080386341 -0.1837545484 0.5446872711 -0.4521771967 -0.6501682401 0.4505145848
-0.1160437688 -0.1641738713 0.5289297104 0.05393747613 -0.56474787 0.4464110136
-0.1102593988 -0.18455863 0.5342525244 -0.5625772476 -0.5839117765 0.380168736
-0.1143633127 -0.1682911366 0.5322309732 -0.05258237571 -0.5826328993 0.4471966326
-0.06482023746 -0.1220992431 0.5202494264 -0.2653560638 -0.7547363639 0.5562099814
-0.05550468713 -0.1243028939 0.5213425756 -0.431664288 -0.7308903933 0.5109371543
-0.05138384923 -0.1294000447 0.5168703198 -0.4402151704 -0.7609522939 0.4749285281
-0.06050950661 -0.1196787059 0.5283994079 -0.3004253209 -0.6578832865 0.6587537527
-0.06927461922 -0.1199092865 0.522261858 -0.1632983088 -0.7333980203 0.630628407
-0.06055480987 -0.1146580502 0.5336593986 -0.3254377246 -0.6173440814 0.7058668137
-0.06621110439 -0.1165396944 0.5278728008 -0.2280716747 -0.6801983118 0.6714099646
-0.06021827832 -0.1221179366 0.5233037472 -0.337770164 -0.7169373035 0.5680546165
-0.05452460423 -0.1208665818 0.5306637883 -0.3956399858 -0.6250674725 0.6524705887
-0.05313577503 -0.1228055358 0.5262503624 -0.462282896 -0.6797420979 0.5550275445
-0.06050013751 -0.1094879955 0.5231887698 -0.1165249422 -0.6855627894 0.5959069729
-0.04877076298 -0.1053005978 0.516469419 0.2196497619 -0.6084089279 0.5421667099
-0.05236654729 -0.1049037948 0.5201579332 0.1304622144 -0.6090523601 0.5865305066
-0.04442134872 -0.1039420441 0.5137895346 0.342705071 -0.5824580789 0.5190162659
-0.06577923894 -0.1112197191 0.526361227 -0.2665665746 -0.7181940675 0.6226320267
-0.03478010371 -0.09697412699 0.5128074884 0.650169611 -0.5048167109 0.4846634865
-0.04656439647 -0.1001156494 0.5209128261 0.3217979372 -0.5774953961 0.5423929691
-0.03381690383 -0.09332968295 0.5171453953 0.7080790997 -0.5045233369 0.4617647231
-0.0558459796 -0.1043828204 0.5246504545 0.04672201723 -0.6317502856 0.5974833965
-0.03958487138 -0.09988936782 0.5136998892 0.5012946129 -0.5317252874 0.5169721842
-0.03906841204 -0.09585976601 0.5190893412 0.5513800383 -0.5350277424 0.4935559034
-0.04425278679 -0.09629320353 0.5240554214 0.4156168103 -0.5685833097 0.5138623714
-0.0478710942 -0.1204828843 0.5380529165 -0.3837022781 -0.5415477753 0.7448155284
-0.03278436512 -0.09425101429 0.526868999 0.7767967582 -0.2793767154 0.5505552292
-0.03730689362 -0.0969196856 0.5336440802 0.7363871932 -0.2496450692 0.6213610172
-0.03119689785 -0.09109008312 0.5221107602 0.7930803299 -0.3587235212 0.4807997346
-0.04222786799 -0.09633444995 0.5358621478 0.09618803859 0.4475737512 0.627135098
-0.04968938604 -0.1230053455 0.5309687853 -0.4742073119 -0.6082698107 0.63155967
-0.06049980968 -0.1047261357 0.5330360532 -0.2349051088 -0.2908722758 0.6799132824
-0.06193168834 -0.1026579514 0.5383008122 -0.1918178052 -0.352807641 0.7575454712
-0.06745603681 -0.1030744389 0.5405222178 -0.1522644013 -0.6058342457 0.7629349828
-0.06849611551 -0.1062266007 0.5348452926 -0.1966327429 -0.6828679442 0.6837972403
-0.01929398999 -0.1155954301 0.4964134395 0.6837252975 -0.4307074547 0.5855654478
-0.02317488939 -0.109940812 0.4965113401 0.662394762 -0.4400513172 0.6027186513
-0.02592993714 -0.1285217106 0.4855932593 0.3585315943 -0.389795661 0.8471505046
-0.0209842734 -0.1205101013 0.4933842719 0.6280382276 -0.4494177103 0.6339611411
-0.02417239919 -0.1232733428 0.4893476069 0.4840752482 -0.4225605428 0.7462912202
-0.02898204513 -0.1222293153 0.4873050153 0.4414736629 -0.4164389074 0.7798008919
-0.02682717144 -0.1159663349 0.4912932813 0.548132658 -0.450935632 0.6923558712
-0.1055092141 -0.1377886832 0.5094502568 0.5406674743 -0.6232979894 0.5592854619
-0.101398699 -0.135637477 0.5036221147 0.5365617275 -0.6429189444 0.5450983644
-0.09942436218 -0.1317519695 0.5064777136 0.490986377 -0.6635321379 0.5621603727
-0.1094340757 -0.1412115544 0.5082336664 0.5919101834 -0.6142328382 0.5214972496
-0.1056422442 -0.1391444504 0.5049006939 0.5707038641 -0.6320426464 0.5233147144
-0.09625408053 -0.137175113 0.5002145171 0.3848007619 -0.7162156701 0.5743874311
-0.08571315557 -0.1458101571 0.4817163944 0.1132469103 -0.7733826637 0.6227232218
-0.08853708208 -0.1105598807 0.5266961455 0.1633007228 -0.8168558478 0.5447441339
-0.08671061695 -0.1139834002 0.523496151 0.1397551596 -0.7960340977 0.5859045982
-0.09472506493 -0.1129851565 0.5281107426 0.2724804282 -0.7845545411 0.553953588
-0.1006640941 -0.1183283255 0.525782764 0.4231518805 -0.7126877308 0.5472571254
-0.09009857476 -0.1068217978 0.5334088206 0.1890073866 -0.8354344368 0.5119517446
-0.07569236308 -0.1058248132 0.5355077386 -0.08702670783 -0.8234199882 0.5550829172
-0.08429633826 -0.1058432087 0.5348872542 0.086746566 -0.8350127935 0.5238673091
-0.09523657709 -0.1263876259 0.5137452483 0.380055964 -0.7003364563 0.582167387
-0.09530384839 -0.1228778809 0.5175442696 0.3416263163 -0.7159873247 0.5854426622
-0.08672137558 -0.123282142 0.5158136487 0.1817914546 -0.7433683276 0.5932164192
-0.0956094563 -0.1282918155 0.5088354945 0.3894114196 -0.70459342 0.5875557065
-0.08566093445 -0.1290210783 0.5067766905 0.1625599563 -0.7663353086 0.6008837819
-0.0793261677 -0.1223380715 0.5154922605 0.02407518402 -0.776617825 0.602162838
-0.08465721458 -0.1263069659 0.5110206604 0.1475148946 -0.7572647333 0.5977975726
-0.08996444941 -0.1282622665 0.5100213289 0.2787202001 -0.7250959873 0.5894860625
-0.08399746567 -0.1345832944 0.4963582158 0.1257449389 -0.7925385833 0.5952480435
-0.08498626202 -0.1314754784 0.5005351901 0.1442692429 -0.7864172459 0.6003274322
-0.0580991134 -0.1283546686 0.5125746131 -0.3453402817 -0.7778457999 0.5127215385
-0.06314912438 -0.1261452585 0.5138264894 -0.2636724114 -0.7822699547 0.5393990278
-0.06086594611 -0.1295321286 0.508708477 -0.293255806 -0.7845073342 0.5353368521
-0.06942925602 -0.133127287 0.49709481 -0.1096365601 -0.8064630032 0.5773541927
-0.06282850355 -0.1399430633 0.4930218756 -0.1791083962 -0.7916617393 0.5826976299
-0.0634714067 -0.1331706196 0.501249671 -0.224652946 -0.7942709327 0.5636896491
-0.05477858707 -0.1259738356 0.4977256358 0.04150287807 -0.6998754144 0.5928730369
-0.04080920294 -0.1158532128 0.4968173206 0.3451132476 -0.5574046969 0.6368840933
-0.04798740149 -0.1220600978 0.4960399866 0.1969727725 -0.6335297823 0.6134824157
-0.06175026298 -0.1331293583 0.4955771863 -0.09355997294 -0.7770767212 0.5692636967
-0.06006228179 -0.1288497746 0.4992460907 -0.08077804744 -0.751003921 0.5769706368
-0.1143062636 -0.1678329408 0.5173721313 0.07580044121 -0.5775241852 0.4383497834
-0.1128088161 -0.1812386662 0.5234193802 -0.3902090192 -0.5611752868 0.382520467
-0.1149551347 -0.1586113274 0.5131790638 0.3967595994 -0.5920914412 0.4780629277
-0.1124664098 -0.1748908907 0.5149840713 -0.08880952001 -0.587166369 0.4225605428
-0.1109005734 -0.1843787581 0.5190740824 -0.4147073925 -0.5810086727 0.3839506209
-0.1099756807 -0.1899774373 0.5215116739 -0.6073561907 -0.5773490667 0.361117661
-0.1118511036 -0.1779962182 0.5190300345 -0.2337073237 -0.5822215676 0.4043428302
-0.1103814393 -0.1862800866 0.5253008604 -0.5563759208 -0.573924005 0.3650670946
-0.1118412167 -0.1933859438 0.5252640843 -0.7671529055 -0.5459691882 0.3339140117
-0.1152602881 -0.1708087325 0.5122086406 -0.02078045532 -0.5148843527 0.4360215366
-0.1133213043 -0.1933089495 0.5187310576 -0.7801289558 -0.4683036804 0.3458839953
-0.1146159619 -0.1908599734 0.5130232573 -0.7048696876 -0.4188582897 0.3647912443
-0.115526557 -0.1766660213 0.5103504062 -0.2237134427 -0.463969022 0.4190292358
-0.1158255115 -0.1650413424 0.5102221966 0.1733951271 -0.5233926177 0.4596987367
-0.1149597466 -0.182103768 0.5123796463 -0.4065593183 -0.4576523602 0.3964208066
-0.1048951969 -0.1932608336 0.5383327007 -0.6744022369 -0.6219202876 0.3787814975
-0.1025622487 -0.1953569651 0.5441141725 -0.6256414056 -0.6514770985 0.421679616
-0.1079650223 -0.1910970956 0.5347527266 -0.7221266627 -0.5858441591 0.3584210575
-0.1043041646 -0.1896093637 0.5517411232 -0.5528439879 -0.6889408827 0.4649893045
-0.1067625508 -0.189590022 0.5460041761 -0.6048160195 -0.6512829661 0.4368082583
-0.09795167297 -0.1928586513 0.5554261208 -0.4896103442 -0.7081385255 0.5041284561
-0.07809752971 -0.1943790317 0.563664794 -0.04904480278 -0.7905196548 0.6080903411
-0.09356788546 -0.1903909743 0.5603470206 -0.3766623735 -0.7227215171 0.5631646514
-0.08187577873 -0.1914366782 0.5619727373 -0.1622835249 -0.7663931251 0.6005982161
-0.08767834306 -0.1905618906 0.5614376068 -0.2716611326 -0.7437351346 0.5808122158
-0.07600005716 -0.190024823 0.5642688274 -0.07080542296 -0.7829787135 0.6128305197
-0.08241032809 -0.199074477 0.5609818101 -0.1173146591 -0.784249723 0.6083708405
-0.1026649401 -0.2019969076 0.5337011218 -0.6890287399 -0.6157438755 0.3810286522
-0.1014646441 -0.2001257688 0.5434259772 -0.6365617514 -0.6462774277 0.4195818901
-0.100086309 -0.1979465932 0.5478973389 -0.5846126676 -0.6740071774 0.4456758797
-0.1028910652 -0.1932281852 0.5487824082 -0.596668601 -0.6673702002 0.4439459145
-0.1031722277 -0.2101623714 0.5168972611 -0.7000473142 -0.6107935309 0.3678413332
-0.1103476956 -0.2094766349 0.5105842948 -0.7313329577 -0.5843029618 0.3516147733
-0.1120165214 -0.2055020332 0.507443428 -0.7334927917 -0.5826146603 0.3500217795
-0.06359033287 -0.1140515804 0.5213987231 -0.2300173938 -0.7481420636 0.5580598712
-0.05464036763 -0.1098956466 0.5171709061 0.03498612717 -0.6753281951 0.533831954
-0.03643070161 -0.1009161621 0.5092573166 0.5753094554 -0.5244879127 0.4884928465
-0.04523246363 -0.1085323095 0.5091168284 0.275968492 -0.5956636071 0.5473986864
-0.04951005802 -0.1097176522 0.5119842291 0.1698824912 -0.6376194358 0.5275645852
-0.05735395476 -0.1135628819 0.5153048038 -0.05200850591 -0.7089498639 0.5257564783
-0.04112463817 -0.1093530282 0.5040927529 0.3457816839 -0.5488049984 0.606949091
-0.04044643417 -0.1053613052 0.5080467463 0.4248566926 -0.5549060106 0.5314486623
-0.03382612392 -0.1021497026 0.5052049756 0.6115812063 -0.4945892394 0.5336735845
-0.05093280599 -0.1142025292 0.5080660582 0.09211374074 -0.642785728 0.5858086944
-0.04595509917 -0.112088345 0.5056196451 0.2203688473 -0.5949728489 0.5995202661
-0.05257200077 -0.1193179712 0.5032218695 0.07626023144 -0.6635901332 0.5930421948
-0.03501987085 -0.1083090678 0.4991391301 0.5072903037 -0.4909260869 0.6319428086
-0.05670360848 -0.1183343902 0.5087533593 -0.04654210061 -0.7001408935 0.5743809938
-0.06170469895 -0.1225340813 0.5085577369 -0.1630090028 -0.7505545616 0.5661230683
-0.06456968933 -0.1184820011 0.5167018771 -0.2682823837 -0.7720419168 0.5442233086
-0.07243800163 -0.1094887182 0.5311226845 -0.1695204675 -0.8042651415 0.5661466122
-0.06621734798 -0.1128074676 0.5317352414 -0.2487623543 -0.6701543331 0.6824352741
-0.07337128371 -0.1167845502 0.5226960182 -0.1183787584 -0.7741357088 0.6102377176
-0.07169833779 -0.1128096282 0.5278590918 -0.1684887111 -0.7739268541 0.5978084207
-0.08178452402 -0.1121349558 0.5267288685 0.02613294311 -0.8012176752 0.5733010769
-0.08634574711 -0.1101841629 0.531452775 0.09884300828 -0.7974426746 0.5518189669
-0.07863496244 -0.108440876 0.5328257084 -0.04444852844 -0.80958426 0.5568087697
-0.1129772887 -0.1234430596 0.5319040418 0.5767531395 -0.6169784665 0.5340940952
-0.1129637957 -0.1277393997 0.5266449451 0.6118491888 -0.5919431448 0.5245750546
-0.1162244454 -0.1279879361 0.5313842893 0.6114707589 -0.5920550823 0.5248228908
-0.1180129051 -0.1246022284 0.5388592482 0.5832142234 -0.6135510206 0.5307428241
-0.1147069708 -0.1213295907 0.5365334749 0.5637764931 -0.6253354549 0.5377984643
-0.04822323844 -0.1082880348 0.5407348275 -0.233210057 -0.1643970609 0.8994583488
-0.05608133227 -0.1119311675 0.5382048488 -0.3255485892 -0.4795854688 0.8065416813
-0.06274486333 -0.1087685302 0.53780967 -0.2708059251 -0.5769268274 0.7643981576
-0.1065551043 -0.1198891625 0.5295789242 0.5196759701 -0.6607892513 0.5395079851
-0.1067657247 -0.1155073717 0.5339852571 0.4836262763 -0.6808995605 0.5484431982
-0.1099323332 -0.1193915531 0.5337718725 0.5221270919 -0.654907167 0.5422777534
-0.1053672731 -0.1446057409 0.4984052181 0.5346968174 -0.6658732891 0.5132912993
-0.1020687968 -0.1450010389 0.4926024973 0.4823054373 -0.7017921209 0.5160298944
-0.1059216708 -0.1480333358 0.4942557514 0.4810242355 -0.6938964128 0.5131042004
-0.1032807231 -0.1509782821 0.4861879647 0.3987949491 -0.7451614141 0.5154403448
-0.09663771838 -0.1429718435 0.4907504022 0.3881711662 -0.7261752486 0.5461847782
-0.09915719181 -0.1473067701 0.4856737554 0.3799982369 -0.750044167 0.5264389515
-0.09941361099 -0.1487209797 0.4911030233 0.3717133105 -0.7326227427 0.5374110937
-0.1074685454 -0.1499774456 0.5005435944 0.4886395633 -0.6726397276 0.5222529769
-0.1112396121 -0.15026021 0.5049452782 0.5490549803 -0.6433009505 0.5141060948
-0.0987624079 -0.1518960744 0.4840500951 0.3235131204 -0.7711914778 0.5327136517
-0.08957431465 -0.1349446326 0.499412328 0.236204654 -0.7626354694 0.5973396897
-0.08092203736 -0.1401921213 0.4873266816 0.06283377856 -0.7831668854 0.6165361404
-0.09568508714 -0.1185551286 0.5210593939 0.3207670152 -0.7465125322 0.5792251825
-0.09068445861 -0.1208075657 0.5154066682 0.2426156849 -0.7604857087 0.597879231
-0.09134551883 -0.1154005677 0.5239144564 0.2251015306 -0.7848078012 0.567137599
-0.08769841492 -0.1169032604 0.5189005136 0.1798141748 -0.7843984962 0.5883843303
-0.07613985986 -0.1280828416 0.5022451282 -0.007926707156 -0.7941786647 0.6048918366
-0.08072265983 -0.1265016198 0.5053524971 0.07216745615 -0.7879480124 0.6064146161
-0.07521349937 -0.1227713749 0.511135757 -0.05923430622 -0.796693027 0.6000458002
-0.07253262401 -0.1187391132 0.5179233551 -0.156449616 -0.7954998612 0.5771006346
-0.0686282739 -0.122874476 0.5113883018 -0.2065642476 -0.7882201672 0.5650370121
-0.0712987259 -0.1252156347 0.507450223 -0.1250991076 -0.7906457782 0.5845805407
-0.06644357741 -0.1262084246 0.5074990988 -0.2264395654 -0.7895905972 0.5655597448
-0.08346070349 -0.1187537163 0.516397655 0.1111721694 -0.7919724584 0.5960621238
-0.08038691431 -0.1233251095 0.5096210241 0.0658922866 -0.7913527489 0.6024637222
-0.0382886976 -0.21158427 0.5196480155 0.5818529725 -0.6255461574 0.5197148919
-0.1027712226 -0.1972527504 0.5350883007 -0.6390652657 -0.6358451247 0.4035716057
-0.09506589919 -0.2031682879 0.5419344902 -0.4842434824 -0.7312648296 0.4764709175
-0.08050331473 -0.1986047775 0.5537174344 -0.1467987001 -0.7762951255 0.5475025177
-0.08928100765 -0.2024749666 0.5468079448 -0.3441151679 -0.7654519081 0.4968584776
-0.05743531138 -0.1359057128 0.5008053184 -0.2609257698 -0.8201515079 0.5080299973
-0.05919548497 -0.1241584122 0.5041401386 -0.09061074257 -0.7304801345 0.581630528
-0.03080415167 -0.1101654768 0.4939279854 0.5879780054 -0.4602755606 0.6618841887
-0.03527966142 -0.1122187153 0.4956774414 0.4819045663 -0.5024888515 0.6485137343
-0.04716295376 -0.1184165105 0.4996396303 0.1958742291 -0.616435051 0.6165316105
-0.05413952097 -0.1326230466 0.5096399188 -0.345135808 -0.7971148491 0.4920205772
-0.04355276003 -0.1496266872 0.4956413507 0.00282487506 -0.8287069798 0.5306598544
-0.04981151596 -0.1473696679 0.4931561351 -0.09252534062 -0.8052312732 0.564702034
-0.05066449568 -0.1415712982 0.4978957176 -0.1781117022 -0.8287200928 0.5211407542
-0.04857892543 -0.1351748258 0.5118579865 -0.3632092178 -0.8159258962 0.443865329
-0.05482072383 -0.1346606016 0.5050432682 -0.2999860048 -0.8229159713 0.4817059636
-0.04755721614 -0.1397705227 0.5037600398 -0.2082694918 -0.8376412392 0.4781509042
-0.04579892382 -0.144064188 0.4994756281 -0.1008914113 -0.8404782414 0.501081109
-0.02591449767 -0.1380656809 0.4900229275 0.5117667317 -0.5183588862 0.6782699227
-0.02518487163 -0.1333822012 0.4883967638 0.5057458878 -0.4579536915 0.7246834636
-0.03049557097 -0.1303797215 0.4844169915 0.3663195372 -0.4066689014 0.8352823853
-0.09486271441 -0.1987496614 0.5512589216 -0.4460918009 -0.7280465364 0.5071491599
-0.08459094167 -0.2011637688 0.5556954741 -0.1716661751 -0.7835293412 0.5894386768
-0.08992193639 -0.1996925324 0.553982079 -0.2813980281 -0.7707103491 0.5651832223
-0.08756610006 -0.1977483481 0.5591011643 -0.2081083655 -0.7766311169 0.587213397
-0.09291822463 -0.1955472678 0.557852447 -0.3160952032 -0.7599778771 0.5613429546
-0.09972476214 -0.2037065178 0.5395843983 -0.6324020624 -0.6529115438 0.4136705697
-0.09753174335 -0.2076382041 0.534689784 -0.6138874888 -0.6694401503 0.4108185768
-0.04817812145 -0.1505920887 0.4882027507 -0.01978253201 -0.7128221989 0.6846936345
-0.05031306297 -0.1520661414 0.4826406837 -0.0310376063 -0.72190696 0.6752713919
-0.04115072265 -0.1468890309 0.4853510261 0.1551361084 -0.7443008423 0.6292473674
-0.04593278468 -0.147372663 0.4826206863 0.06311997026 -0.766063571 0.606939733
-0.05644116178 -0.1428139657 0.4930846095 -0.1889282167 -0.7964422107 0.5738459229
-0.05682593584 -0.1393323094 0.4965443313 -0.2286190987 -0.8139815331 0.532394886
-0.03804875165 -0.1424534321 0.4848748744 0.2359507978 -0.6723275781 0.6621751189
-0.04289283603 -0.1427090168 0.4821612239 0.1544697583 -0.5817266703 0.7358861566
-0.05020366609 -0.1446278989 0.4811818004 0.01180964336 -0.7026307583 0.6633544564
-0.03384494036 -0.1351093799 0.4847676456 0.3386493623 -0.4663218856 0.8094527125
-0.05162670836 -0.1366351247 0.4902477264 0.04875199869 -0.7229556441 0.6379672885
-0.04104209691 -0.1377524734 0.4864445627 0.2165413797 -0.66856879 0.6930124164
-0.04340080917 -0.1331154853 0.4878716469 0.1652911454 -0.592811048 0.7203143239
-0.04374393076 -0.122644648 0.4926803112 0.2730839252 -0.5869671106 0.6472216249
-0.03430007398 -0.1204267889 0.489677012 0.4111049175 -0.4719512463 0.72705549
-0.0535424687 -0.1321896166 0.4919865429 0.0266404245 -0.677654624 0.6417615414
-0.04149074852 -0.1261481792 0.4898427725 0.2485399842 -0.5435772538 0.7093426585
-0.03679056838 -0.1277930439 0.486902386 0.2780583501 -0.475463599 0.7784348726
-0.03957010806 -0.1188688129 0.4928233027 0.3739272356 -0.5471906662 0.6526446342
-0.04682613537 -0.1289430261 0.4907285869 0.1485894769 -0.6024587154 0.680708468
-0.03373206034 -0.1156574711 0.4919345975 0.4854775369 -0.4833676815 0.6823403239
-0.05118795484 -0.1276800632 0.4933187068 0.117440857 -0.6646268368 0.6194044948
-0.1089157388 -0.20206891 0.5144302249 -0.7342917919 -0.5819901228 0.3494324982
-0.1108636782 -0.2006581277 0.5202373266 -0.749632597 -0.5658659935 0.3422292471
-0.1102851033 -0.206773445 0.5151277781 -0.737588346 -0.5771448612 0.3497704268
-0.07640813291 -0.1113532335 0.5258917212 -0.05546440929 -0.816809237 0.5632860065
-0.04412453994 -0.1016758606 0.5401328206 0.1073502228 0.1671516895 0.8967067599
-0.05726347491 -0.1006921604 0.5408359766 -0.1535382569 -0.1328236163 0.8458331227
-0.04841337726 -0.09770356119 0.5378091335 -0.1738380045 0.4408530295 0.7074206471
-0.05184071884 -0.100719355 0.5404997468 -0.1540014893 0.06769709289 0.9045088291
-0.0547725372 -0.1065869406 0.5405859947 -0.3184678257 -0.3947352469 0.8466652632
-0.1117759496 -0.1157977656 0.5382760167 0.5367229581 -0.6442809701 0.5445811152
-0.1066452041 -0.1114702821 0.5391458869 0.416739285 -0.7387751937 0.5284691453
-0.09806487709 -0.1109365895 0.5325175524 0.3215357959 -0.7721216083 0.5458906293
-0.09862590581 -0.1398337781 0.4960877299 0.4612466991 -0.7008731365 0.5300657153
-0.09162992984 -0.1442137808 0.4868626297 0.2250045389 -0.7751294374 0.5851434469
-0.1005620882 -0.1409402192 0.5005722642 0.4408490658 -0.6888055205 0.5518606305
-0.09156084061 -0.1382805407 0.4953842163 0.2654824853 -0.7658932209 0.5784442425
-0.1079973131 -0.1451382041 0.5039337873 0.544423759 -0.6496456265 0.5178786516
-0.08315462619 -0.1397519857 0.492701292 0.1019988507 -0.7817195058 0.6062868834
-0.07787041366 -0.1358728856 0.4962174296 0.02629293315 -0.7897225022 0.6051411629
-0.07311952114 -0.1369924843 0.4944101572 -0.05987584591 -0.7917342782 0.6051687598
-0.07413876802 -0.1324969679 0.4996342063 -0.02698224783 -0.7953975201 0.6016576886
-0.06921906769 -0.1311894059 0.5023463368 -0.124517478 -0.7948673368 0.5814544559
-0.06792157888 -0.1389666051 0.4930668175 -0.1447558999 -0.7891787887 0.5945097804
-0.03806779161 -0.1648603827 0.4988828301 0.2574090362 -0.7403532267 0.5502957106
-0.03688824549 -0.1954638213 0.5229658484 0.6485909224 -0.5089046955 0.5477541685
-0.03553688899 -0.1806587279 0.5061624646 0.5243193507 -0.2767960131 0.5759831071
-0.03821393475 -0.1606463045 0.4956640005 0.199674964 -0.7792249918 0.5509643555
-0.03663607314 -0.1837193221 0.5127314329 0.4941814542 -0.5346323848 0.5592034459
-0.02966549993 -0.1897978038 0.5065886974 0.5761091113 0.2157883942 0.6578791738
-0.03436454386 -0.1890363395 0.5135678053 0.5633120537 -0.2785994411 0.5891917348
-0.03355902433 -0.1769272536 0.5019590855 0.4098323286 -0.2360049188 0.6089186668
-0.03700892627 -0.1905795038 0.5191726089 0.5811880231 -0.5500251055 0.5492568612
-0.03108966351 -0.1849288642 0.5047581792 0.5132386684 0.04997733235 0.6400752068
-0.03743383288 -0.172708869 0.5046595931 0.3536132574 -0.6560407877 0.5546121597
-0.0333346799 -0.1944188923 0.5128945708 0.7446347475 0.09944454581 0.5985720158
-0.03428228199 -0.186562866 0.5085873604 0.6178350449 -0.08569078147 0.5902597904
-0.03591154143 -0.1697544605 0.4990121722 0.3378250301 -0.4602748752 0.578520596
-0.03673779592 -0.2023176253 0.5196804404 0.6121692061 -0.586040318 0.5297827125
-0.03671003133 -0.2072410882 0.5172649026 0.5939328671 -0.6113154292 0.5227535963
-0.04363396019 -0.2119440734 0.5230413079 0.583063364 -0.624120295 0.5200193524
-0.08959902078 -0.2060954571 0.5416964293 -0.3594118655 -0.7656198144 0.5095677972
-0.09394884855 -0.2063064873 0.5378418565 -0.4880339801 -0.7175556421 0.4803673029
-0.09523033351 -0.2015772611 0.5471048951 -0.4577438831 -0.7196079493 0.4936686754
-0.09188632667 -0.2105746865 0.5358772278 -0.4560110867 -0.7519102693 0.4597593248
-0.09971284866 -0.2040523142 0.5300319791 -0.6058521271 -0.6584197283 0.4325635135
-0.1056171805 -0.1994351149 0.5224705338 -0.6894128323 -0.6071437001 0.379988879
-0.1086821109 -0.1928549707 0.5297959447 -0.7451708913 -0.5661304593 0.3494258523
-0.1046148315 -0.2042963505 0.5256816745 -0.714081347 -0.588473022 0.3790286481
-0.106826596 -0.1979426742 0.5312755108 -0.7188559175 -0.5884733796 0.3695917726
-0.07493739575 -0.138256669 0.489318639 -0.01267084852 -0.790984869 0.6071821451
-0.05650858209 -0.1453005821 0.481801033 -0.06517611444 -0.7602927089 0.6267014146
-0.06248696521 -0.1436883956 0.4843144417 -0.08268839121 -0.7709271312 0.6177437901
-0.05490819365 -0.1413126141 0.4860614836 0.03439063206 -0.7471389771 0.637579143
-0.04974140972 -0.1402549744 0.4866365194 0.1009450853 -0.7325306535 0.6496425867
-0.05794556066 -0.138018176 0.4912346005 -0.0402469486 -0.7763848901 0.5999705791
-0.05835204199 -0.145434007 0.4877871275 -0.1510336101 -0.7874078751 0.5964383483
-0.05380982906 -0.1484058797 0.4854932129 -0.1323042661 -0.7817479968 0.6084443331
-0.06725697219 -0.148746714 0.478326261 -0.09146174043 -0.7519695163 0.6501357555
-0.06231570244 -0.1504675895 0.4804327786 -0.06848285347 -0.7727945447 0.6279692054
-0.05712287128 -0.1507774591 0.4804774821 -0.1135369614 -0.7742097974 0.6205355525
-0.02908210456 -0.1946910471 0.5097367167 0.6414729953 0.2913388312 0.6619846821
-0.0322936438 -0.2003541887 0.5131259561 0.6921258569 -0.2459393591 0.5606227517
-0.03455572203 -0.1967331767 0.5171783566 0.743573904 -0.05987942591 0.5818836689
-0.04025905579 -0.2014679611 0.5243121982 0.6342274547 -0.5076416731 0.538957715
-0.04381569847 -0.2066184431 0.5265446305 0.5969974399 -0.6051062942 0.5262177587
-0.05188922957 -0.2145300806 0.5272088051 0.4881223142 -0.6797431707 0.5443037152
-0.04275725037 -0.1975394785 0.5321637392 0.6411587 -0.5406207442 0.5443313718
-0.0395760946 -0.2065457851 0.522282064 0.5977715254 -0.6067934036 0.5237192512
-0.06946156174 -0.2032412291 0.5481795073 0.127688989 -0.7915526628 0.5805089474
-0.08422615379 -0.2046175897 0.5489912033 -0.1600967348 -0.8026695251 0.5722799301
-0.07551434636 -0.202994898 0.5519123673 0.02277955785 -0.8051895499 0.5912021995
-0.045434203 -0.2027366757 0.5308400393 0.59894526 -0.584239006 0.5467564464
-0.04900440201 -0.2096915245 0.530363977 0.5304884911 -0.6342815757 0.5609702468
-0.103863813 -0.2087281793 0.5223501325 -0.7100619674 -0.5881773829 0.3865105808
-0.09973578155 -0.2131912112 0.5207872987 -0.6643432379 -0.6362431645 0.3885732591
-0.09345968068 -0.2109172493 0.5312010646 -0.491921097 -0.7093557715 0.438200146
-0.09298136085 -0.2157536596 0.5282697082 -0.4984137118 -0.7462394834 0.4116011262
-0.09549523145 -0.2127862871 0.5246428251 -0.5493246317 -0.6892760396 0.4086967707
-0.08612272143 -0.2144334763 0.5337533355 -0.2568692565 -0.8419141769 0.4583463371
-0.1049615741 -0.2034393698 0.5185790062 -0.7103051543 -0.5991176963 0.3671409786
-0.09976579249 -0.2093093693 0.5254528522 -0.6831141114 -0.6093927622 0.4016525745
-0.0689207986 -0.1435516924 0.485231936 -0.1127366647 -0.7842023969 0.6089501381
-0.07370004803 -0.1452454925 0.4822997451 -0.01574910618 -0.7773669958 0.6285706162
-0.08009190112 -0.1437608004 0.4826083183 0.0531391874 -0.7764062285 0.6271291971
-0.08000537008 -0.1476971507 0.4785224497 0.05513800681 -0.7674019337 0.6378363967
-0.0761109516 -0.1430555284 0.4867362976 0.001079522772 -0.7814900875 0.6159440279
-0.07368344814 -0.1484336257 0.478299439 -0.008362520486 -0.7610376477 0.6470733881
-0.08693045378 -0.142512247 0.4900221527 0.1608483344 -0.7773707509 0.6065005064
-0.08311580867 -0.1446922123 0.4864318669 0.1091771275 -0.7738948464 0.6181833744
-0.07046601921 -0.2067512274 0.5426669717 0.1329008043 -0.7725500464 0.5649879575
-0.08174148947 -0.2085392177 0.5404512286 -0.1419098973 -0.7968411446 0.5274239182
-0.07538667321 -0.2072050571 0.5423423052 0.01148665324 -0.7865247726 0.5505102277
-0.07871758193 -0.207227543 0.5482603312 -0.05322057754 -0.8152472973 0.5714874864
-0.0819203034 -0.2122951299 0.5369161367 -0.1730601192 -0.827377975 0.5122917295
-0.08667203784 -0.2101368755 0.5381816626 -0.273284018 -0.8109630346 0.5040380955
-0.06668646634 -0.2137128115 0.5357472897 0.1811278313 -0.8009781837 0.5613484383
-0.07136789709 -0.2117920518 0.5385848284 0.08291062713 -0.8182011247 0.5476594567
-0.0848589167 -0.2149712443 0.5239754915 -0.2951670289 -0.7037906647 0.4572106004
-0.07372494787 -0.2159997225 0.5337039828 0.0008846967248 -0.8401677012 0.5263118744
-0.07533247769 -0.2162426263 0.5276618004 -0.04828698561 -0.7578521371 0.5077904463
-0.06780830771 -0.2179807723 0.5292238593 0.1530041993 -0.7965485454 0.536542654
-0.09122373909 -0.2142866254 0.5216303468 -0.4576470554 -0.6732695699 0.421179086
-0.08737698942 -0.2143247426 0.5283436775 -0.3335019052 -0.7671968341 0.450814873
-0.08162112534 -0.2149646431 0.531278789 -0.1928768754 -0.8067122102 0.4840792716
-0.0767326057 -0.2139920741 0.5370152593 -0.04791811854 -0.8450310826 0.5300673246
-0.05529711768 -0.2121866494 0.5325891972 0.4189801514 -0.6999881864 0.5755879879
-0.04932331294 -0.203246668 0.5350466371 0.556666255 -0.6116721034 0.5584990978
-0.05720053986 -0.1996570826 0.5461142063 0.3697676063 -0.7101615667 0.5898838043
-0.05978062376 -0.2111638784 0.536629498 0.3364877105 -0.7338202 0.5867279172
-0.05476185679 -0.2084870636 0.5358202457 0.4426434338 -0.6745921373 0.5891669393
-0.0629594326 -0.2088024318 0.5403417349 0.284093678 -0.7602936029 0.5823844671
-0.05747919157 -0.2038476914 0.54227072 0.4276610315 -0.6913341284 0.5760902762
-0.06388989836 -0.2055693865 0.545345962 0.2657376528 -0.7562324405 0.5951936841
-0.05227790028 -0.1989192069 0.54421103 0.4599044919 -0.6521269083 0.6016464233
-0.05193722621 -0.2026859224 0.5398211479 0.4820493162 -0.6500691772 0.5868034959
-0.04591954872 -0.1988170892 0.5364553332 0.5951904655 -0.5702804923 0.5602810979
