# .PCD v0.7 - Point Cloud Data file format
VERSION 0.7
FIELDS x y z normal_x normal_y normal_z
SIZE 4 4 4 4 4 4
TYPE F F F F F F
COUNT 1 1 1 1 1 1
WIDTH 512
HEIGHT 1
VIEWPOINT 0 0 0 1 0 0 0
POINTS 512
DATA ascii
-0.0101608336 -0.05804499611 0.5157788396 -0.2613608837 -0.6257894635 0.5849468708
0.00158038619 -0.04890730232 0.5022421479 0.3462985456 -0.5370054245 0.471385926
0.005616554059 -0.04190409184 0.5019155741 0.5797294974 -0.4042111337 0.4498730302
0.004761601333 -0.04644704983 0.498557061 0.5108414888 -0.5133618116 0.4405466914
-0.003300797427 -0.04935928807 0.5116193295 0.1149437353 -0.4852852821 0.5337837338
0.008144021966 -0.04353903979 0.4949662089 0.6876479387 -0.4804860353 0.4090826213
-0.005875364877 -0.05465035513 0.5109046102 -0.03919140622 -0.59180969 0.5437676311
-0.0003093377454 -0.04503992945 0.5104012489 0.2824183404 -0.409932971 0.5138860345
-0.0008878814406 -0.04957762361 0.5064889789 0.2265021503 -0.5225508809 0.5009340048
0.003813800868 -0.04044117033 0.507204771 0.5046409965 -0.3419478238 0.4803140759
0.002540614922 -0.04462454468 0.5050959587 0.4184609652 -0.4361189604 0.4781415462
0.01034067292 -0.04731645063 0.4884051085 0.7294237614 -0.5382828116 0.3582720757
-0.009460876696 -0.05939793959 0.5098884106 -0.1630364507 -0.6449909806 0.5490548611
-0.01290023699 -0.06309998035 0.5069891214 -0.2111180127 -0.6866545677 0.5463219285
-0.01325987373 -0.06175978109 0.5138282776 -0.3313265145 -0.6660974622 0.5846738219
0.005912845023 -0.05004942417 0.4930790365 0.5319564939 -0.5625971556 0.4002299607
-0.004122467246 -0.05632913113 0.5033179522 0.09012366086 -0.6189389825 0.4934084713
0.001652024337 -0.05251997337 0.4982355535 0.3313116133 -0.5836961269 0.4441697001
0.0008906061994 -0.04052111134 0.4865379035 0.7313200831 -0.498775214 0.4640754163
0.008091470227 -0.02917025797 0.499985069 0.8493107557 -0.2688841224 0.4396633804
0.006185059901 -0.02912613936 0.5086299181 0.8233565092 -0.0943107903 0.5009446144
-0.02320639417 -0.0878348425 0.48030442 -0.163881585 -0.6976802349 0.6895637512
-0.02466297522 -0.08297450095 0.4839574397 -0.2069215775 -0.7059082985 0.6709193587
-0.02816252224 -0.09188275784 0.4741592407 -0.06086292118 -0.653151691 0.7516477108
0.01085830666 -0.0392582044 0.4951365292 0.8073693514 -0.4020029306 0.4003739059
0.01072919555 -0.03455917165 0.4987995923 0.8439647555 -0.2999655902 0.4151985347
0.006294250023 -0.03384502232 0.4944714606 0.7969080806 -0.3962570429 0.4401749074
0.006073452998 -0.03969167918 0.489244014 0.7602722645 -0.4855942428 0.4301467538
-0.07234209776 -0.1418701559 0.5242728591 -0.6489628553 -0.4805447757 0.5895870924
-0.07265248895 -0.136002481 0.5280423164 -0.655013442 -0.5007023215 0.5653392076
-0.07315147668 -0.07719605416 0.496740222 0.4517627358 -0.64312011 0.6179671288
-0.06593524665 -0.06864472479 0.5006405115 0.3783895969 -0.6676137447 0.639348805
-0.0007672132342 -0.02483996563 0.5073187947 0.7741540074 -0.2811066806 0.4949513376
-0.002517628716 -0.02605343796 0.5182608962 0.7141363025 0.0448240228 0.6219409704
0.001681337948 -0.02658141777 0.5117484331 0.7706632018 -0.07712303847 0.54751724
-0.005340070464 -0.02575800195 0.5229020715 0.6755412817 0.1358703971 0.6745952368
0.00624824129 -0.02687586099 0.5034243464 0.8349622488 -0.2524683774 0.4542032778
-0.06169404462 -0.1496956199 0.5246992111 -0.5002741814 -0.552543819 0.6617869735
-0.06635841727 -0.1518817097 0.5212302804 -0.5247254372 -0.5400896072 0.6510903239
0.001372086816 -0.0296413675 0.5161898732 0.7229229808 -0.04859542102 0.6159949303
-0.006770673674 -0.02973961644 0.5288031697 0.4821680188 -0.03585039079 0.8372226357
-0.00267169578 -0.03015823849 0.5227912664 0.5774050951 -0.07270601392 0.7411518693
-0.03862831742 -0.1530510187 0.5290001035 0.006754237693 -0.5764584541 0.7370491624
-0.05378196016 -0.14864555 0.5290000439 -0.3893554211 -0.5678799152 0.6781484485
-0.03186770529 -0.1500448138 0.5290000439 0.1673858464 -0.570992887 0.7100467682
-0.04783209413 -0.1501932442 0.5290000439 -0.2344175875 -0.5709078908 0.6993240118
-0.0269747097 -0.1494109482 0.5290000439 0.2886324227 -0.5699192286 0.7070278525
0.0004380574974 -0.13344495 0.5146301985 0.67046386 -0.5008630157 0.5471377373
0.0002118422854 -0.1275249869 0.5175372958 0.6900297999 -0.4774109125 0.5439221859
-0.002679309109 -0.1385913193 0.5174832344 0.6577150226 -0.5086232424 0.5554947853
-0.005020602606 -0.1423083097 0.5203574896 0.6509337425 -0.5090042949 0.5631320477
-0.07538327575 -0.1172275394 0.4925829768 -0.08737931401 -0.5685005188 0.6370326877
-0.08056234568 -0.1401362717 0.5135823488 -0.6609011292 -0.4984902143 0.5552301407
-0.0786613524 -0.1309362352 0.5060524344 -0.445582062 -0.5247743726 0.5859415531
-0.07050941139 -0.1044559255 0.4789635539 0.2650475204 -0.6217820048 0.6825248599
-0.07663606107 -0.124957338 0.4985640347 -0.262391299 -0.548897922 0.6112506986
-0.07239715755 -0.1104512438 0.4847314358 0.1101563796 -0.5998211503 0.6618533731
-0.07415775955 -0.1146877781 0.4889673293 -0.00218168227 -0.5814300179 0.6480074525
-0.07851119339 -0.1026088297 0.4922522306 0.2440713942 -0.5981805325 0.6298831701
-0.07390695065 -0.102124393 0.4822835624 0.2905409336 -0.6111675501 0.673437953
-0.07959146798 -0.09527293593 0.4901794791 0.4367634058 -0.6166061759 0.6316379309
-0.07562638074 -0.1057589427 0.4880515635 0.1788000017 -0.5963628292 0.6516215801
-0.07697804272 -0.09933593124 0.487090081 0.3445842266 -0.611473918 0.6493877172
-0.079855524 -0.1169493198 0.5035715699 -0.1575537473 -0.5534610748 0.5943438411
-0.07835237682 -0.1214964613 0.5031036139 -0.2709775567 -0.5441383123 0.6010002494
-0.07921819389 -0.1141680479 0.5250900388 -0.5387424231 -0.525790453 0.5056116581
-0.07871199399 -0.08672599494 0.4991344512 0.4431937337 -0.6158574224 0.6004033089
-0.07883472741 -0.09441288561 0.5044978261 0.1982327402 -0.5958173871 0.5801380873
-0.07874196768 -0.09411110729 0.4954890311 0.3466758728 -0.6205421686 0.6099385023
-0.07260940224 -0.06183255091 0.5144348145 0.4014727175 -0.6648744345 0.6271496415
-0.07187210023 -0.07191101462 0.5040932894 0.4397993088 -0.6457137465 0.6180403829
-0.0710419789 -0.06477127969 0.5101587772 0.4047006667 -0.661878705 0.6271751523
-0.06593181938 -0.0641945675 0.5057277083 0.3718773723 -0.6736667156 0.6376139522
-0.06935052574 -0.06757895648 0.5048975945 0.4050516188 -0.6630911231 0.6262347698
-0.07561461627 -0.0753672719 0.501655519 0.4722331464 -0.6412207484 0.6034477353
-0.07593410462 -0.07186801732 0.5079095364 0.4627314508 -0.6382977366 0.6102676392
-0.07880587131 -0.07818778604 0.504393816 0.4969349205 -0.6233713031 0.6008918881
-0.02534309216 -0.05072967336 0.5229606032 -0.3357365727 -0.6252895594 0.7005579472
-0.0317165032 -0.04944308102 0.5201874375 -0.2924663424 -0.6654325724 0.6800982952
-0.03025373816 -0.04664517939 0.5252427459 -0.2936822474 -0.61116606 0.7272769213
-0.03354576603 -0.1579416692 0.5312202573 0.146356672 -0.601614058 0.7800915837
-0.07570966333 -0.145881176 0.5161094069 -0.6221314669 -0.505685091 0.5949116349
-0.07083550841 -0.1483057886 0.518446207 -0.5871139765 -0.5107265711 0.6275648475
-0.06892983615 -0.147397086 0.5239769816 -0.6086899638 -0.508008182 0.6064640284
-0.04546199739 -0.1604465693 0.52946347 -0.1382240951 -0.6159752607 0.7741644979
-0.04001099989 -0.1597354859 0.5296561122 -0.007787436247 -0.5806788206 0.8080617189
-0.0442160964 -0.1544122249 0.528993547 -0.1229505911 -0.587582767 0.7446109056
-0.03678813949 -0.0862307027 0.476757437 -5.820956358e-05 -0.6546122432 0.7516114116
-0.04481567815 -0.08129158616 0.479532212 0.06269577891 -0.6749011278 0.7314851284
-0.03898939863 -0.08179604262 0.4793944061 -0.0147722559 -0.679295063 0.7271239161
-0.0212410409 -0.09107445925 0.4766075611 -0.1453849226 -0.7120389938 0.6864836216
-0.03024237975 -0.08309815824 0.4804943502 -0.1262343228 -0.6869227886 0.7093065381
-0.03177380562 -0.08772991598 0.4747013748 -0.05252497271 -0.6496623158 0.7567017078
-0.01833749004 -0.09038102627 0.480245918 -0.1956476718 -0.7187497616 0.665940702
-0.03625757992 -0.09212585539 0.4742701352 0.02159091458 -0.6319907904 0.7648634911
-0.04435664043 -0.08805774897 0.4768489003 0.08451140672 -0.6508916616 0.7432703972
-0.0441782251 -0.09483620524 0.4745126367 0.09979806095 -0.6308722496 0.7480332255
-0.06070460379 -0.09781945497 0.4759291112 0.2563168108 -0.6363688707 0.7112044692
-0.04721033201 -0.08436641842 0.4749007821 0.1276217699 -0.6197651625 0.7730005383
-0.05853422359 -0.09249603003 0.4751737416 0.263206929 -0.6241775751 0.7269707918
-0.05368683115 -0.09558844566 0.4750145376 0.1987817287 -0.6294679642 0.7302438021
-0.04976270348 -0.09191605449 0.474704206 0.1716091931 -0.6255115867 0.7432517409
-0.04165647179 -0.08392867446 0.4754000306 0.04788003862 -0.6358262897 0.7642028928
-0.0002219065645 -0.03620040044 0.4904192388 0.7530506253 -0.4880386293 0.4384903908
-0.07551372051 -0.0937641263 0.4851562977 0.4399607182 -0.625572443 0.6419568062
-0.07429870963 -0.09722243249 0.4813506007 0.3967171311 -0.621671021 0.672145009
-0.07059706748 -0.1005651578 0.4759949744 0.3490157127 -0.6260360479 0.6972919106
-0.02739553526 -0.0418453142 0.5333207846 -0.2654289007 -0.5087140799 0.8144131899
-0.02151147649 -0.04010520875 0.5356318355 -0.2199432552 -0.3879961967 0.8879213333
-0.01189575437 -0.04819684476 0.5369159579 -0.2579470575 -0.4094206095 0.8746811748
-0.01632931456 -0.04458630085 0.5373957157 -0.2505822182 -0.4434342682 0.8573198915
-0.002814559499 -0.04327135906 0.523968935 0.09772446752 -0.3446577787 0.7144994736
-0.005859002937 -0.04625388235 0.5286063552 -0.08338021487 -0.3796978593 0.7785639167
-0.008612320758 -0.04987293854 0.5326963663 -0.2580803335 -0.4155879915 0.8359632492
-0.003695561318 -0.03832419962 0.5257354975 0.1557377428 -0.3060082495 0.7766903043
-0.007982094772 -0.03439765051 0.5327940583 0.06685743481 -0.2808483839 0.9392393827
-0.007186648902 -0.03893819079 0.5312586427 0.001350759412 -0.3226480782 0.8711952567
-0.0005356569309 -0.03969927132 0.5206220746 0.2539438307 -0.3097545803 0.6719634533
0.004690686706 -0.03228487819 0.5127381086 0.6247920394 -0.2215754092 0.5950295925
0.002066099551 -0.03600256518 0.5166976452 0.438680619 -0.2658020258 0.6337212324
-0.0202975776 -0.1200096756 0.5569292307 0.4087783396 -0.6772320867 0.6097136736
-0.01964421012 -0.1523975134 0.5276468992 0.4596535861 -0.5970618725 0.6547847986
-0.02499756962 -0.1538159698 0.5296816826 0.3531930149 -0.5973179936 0.7166163921
-0.01907592639 -0.1480125785 0.5300286412 0.5004820228 -0.5731400847 0.6449692249
-0.0012280714 -0.1297671348 0.5111595392 0.5798361897 -0.5261865258 0.5568504333
-0.002404609695 -0.1266435087 0.507809341 0.4972507954 -0.5457775593 0.5668615103
-0.006060950458 -0.1164524406 0.4992467165 0.2707698047 -0.5989876986 0.5929735899
-0.008579517715 -0.1088924408 0.4954130948 0.1484533697 -0.6270723343 0.6053776741
-0.01092928741 -0.1013607979 0.4889646173 -0.01713523082 -0.662748754 0.62518543
-0.002660364844 -0.1194903702 0.5088587999 0.4857926667 -0.530716002 0.5665249825
-0.01362862904 -0.09492515028 0.4819271863 -0.1926460713 -0.7067932487 0.646055162
-0.004484627862 -0.1157048047 0.5040748715 0.3688087761 -0.5617038608 0.5804920793
-0.001214253483 -0.123746857 0.511862874 0.5695971251 -0.511508286 0.5571837425
-0.005864963401 -0.1313967407 0.524538517 0.6772338748 -0.4825433791 0.5552242398
-0.002899604384 -0.1282430142 0.5216270685 0.6873627901 -0.4769173265 0.547611475
-0.01240169164 -0.02810149081 0.5311791301 0.2475494593 -0.0619703345 0.9265431166
-0.01366900746 -0.03350586817 0.5332095027 -0.07454511523 -0.3218376637 0.934122324
-0.01708003692 -0.03775430471 0.5362864733 -0.2077068388 -0.3520476222 0.9106112123
-0.01836593635 -0.03242395446 0.53414464 -0.1964722276 -0.3307984769 0.9215772748
-0.01180524938 -0.03850526363 0.536018908 -0.1315157861 -0.3643521965 0.9119089246
-0.01028250158 -0.04242502525 0.5383785963 -0.167701453 -0.376377821 0.8992865682
-0.06955427676 -0.1354249269 0.5318952203 -0.6559851766 -0.513307035 0.5526357889
-0.04987492785 -0.1175979823 0.5679631829 -0.08352188766 -0.783882618 0.5969941616
-0.04719953239 -0.1174025536 0.5723115206 -0.07190734148 -0.7967692614 0.5964473486
-0.08074026555 -0.1294204444 0.522164166 -0.6843072176 -0.5039584637 0.5256609917
-0.07686727494 -0.1307854056 0.5262272358 -0.6755585074 -0.4983779192 0.5415344238
-0.07919850945 -0.134345293 0.5200366378 -0.6677221656 -0.4969046116 0.5538178086
-0.06983342767 -0.1296681464 0.5321999788 -0.665915668 -0.5619518161 0.4893869758
-0.07412560284 -0.1348952204 0.5228170156 -0.6633130312 -0.5112833381 0.5440345407
-0.07903033495 -0.1359661222 0.5097335577 -0.5550148487 -0.5127694011 0.5697029829
-0.07806116343 -0.1358140707 0.5148246288 -0.6328786016 -0.5023237467 0.5590349436
-0.07594953477 -0.1268934011 0.5041211247 -0.3695577383 -0.5376490951 0.5951122642
-0.0742514953 -0.1202825531 0.4969415963 -0.1861704737 -0.5622510314 0.6202379465
-0.07599873096 -0.1068839207 0.4944118857 0.111099042 -0.5955979824 0.6229833364
-0.07424843311 -0.1122655571 0.4939447641 -0.005444281735 -0.5837578773 0.629078269
-0.07723353058 -0.1130787879 0.5012670159 -0.06790942699 -0.5718815327 0.6001908183
-0.07747416198 -0.1301144511 0.5129407644 -0.5166276097 -0.5164557099 0.5664532781
-0.07787125558 -0.1204853281 0.515696466 -0.4031459391 -0.5437162519 0.5465580225
-0.07835245132 -0.1035045907 0.5011894107 0.1077565849 -0.598062396 0.592454493
-0.07763759792 -0.1258244067 0.524784565 -0.6395388246 -0.5254870653 0.5131518841
-0.07803467661 -0.1190834045 0.507700026 -0.2471902519 -0.5499176979 0.5788461566
-0.07817319781 -0.1111090258 0.5056940913 -0.08770423383 -0.5742270947 0.5802506804
-0.07778845727 -0.1260912567 0.5163049698 -0.5018488169 -0.5268291235 0.5489307046
-0.07836903632 -0.1207220554 0.5248888731 -0.6009799242 -0.5275261998 0.5087916255
-0.07842731476 -0.1142986864 0.5171458721 -0.3600448966 -0.5519000292 0.5354692936
-0.07275790721 -0.141591683 0.5197739601 -0.6267874241 -0.5019749403 0.5934002399
-0.06610016525 -0.07218258083 0.4969967008 0.3907479942 -0.6629127264 0.6360498667
-0.02144078352 -0.06173594669 0.5122326612 -0.3802074492 -0.7235146165 0.5753116012
-0.05930911377 -0.1507343352 0.5297256708 -0.4727711678 -0.567029953 0.6672303677
-0.05533120409 -0.1553304046 0.5291359425 -0.3856339157 -0.5937433839 0.696618557
-0.06101536378 -0.1554681063 0.525721252 -0.4965179861 -0.5658166409 0.6475018263
-0.05150078237 -0.1609524935 0.5287725925 -0.3147166967 -0.615021348 0.7212226391
-0.04977094755 -0.1546493918 0.5317342877 -0.2507682145 -0.5950478315 0.7553820014
-0.05133711174 -0.148770079 0.5351614952 -0.2893744111 -0.6001281738 0.7351997495
-0.04549649358 -0.1530213654 0.5335531235 -0.1215465665 -0.5746082067 0.8083817959
-0.05723737553 -0.1459778845 0.5345093608 -0.4506624639 -0.5662698746 0.6869289875
-0.06470393389 -0.1468275338 0.5275647044 -0.5695560575 -0.5344302654 0.6243233681
-0.06087677926 -0.1416347474 0.5345486403 -0.5198135972 -0.5637546182 0.6375812292
-0.06159906834 -0.1365538985 0.5363593102 -0.5296267271 -0.604454875 0.5830557942
-0.059865769 -0.1455412358 0.5293082595 -0.5152924061 -0.5539189577 0.6458779573
-0.0684151575 -0.139926821 0.5281879902 -0.6375533938 -0.4844149351 0.5964288116
-0.06594850868 -0.1389104128 0.5323852897 -0.6295651197 -0.51523 0.5780014992
-0.0456017293 -0.07781007886 0.483040005 0.05457934737 -0.6954640746 0.7120150924
-0.03730499372 -0.07697464526 0.4831814468 -0.06091757864 -0.7129179835 0.6945174932
-0.02279637381 -0.07833203673 0.4887791574 -0.2657592893 -0.7210297585 0.6393248439
-0.0310867019 -0.07858679444 0.4846222997 -0.150385946 -0.7081312537 0.686317265
-0.01895476133 -0.08585509658 0.4840033352 -0.2447658777 -0.7200806141 0.649227798
-0.01808327623 -0.08030942827 0.4858717918 -0.2529084384 -0.7225348353 0.6430206299
-0.02663123235 -0.08610348403 0.4762403965 -0.132894963 -0.7086356878 0.6924465895
-0.005313888658 -0.06266224384 0.4870277643 0.2304887325 -0.6298901439 0.5128549933
0.006064449437 -0.05055750161 0.4872363806 0.6243630052 -0.5567073822 0.4015641212
-5.534902084e-05 -0.04810867086 0.4860482514 0.6014350653 -0.5470397472 0.4620883167
0.006366526708 -0.04548100755 0.4866708815 0.7350863218 -0.5287426114 0.3989634216
-0.005004138686 -0.05248882622 0.4858512878 0.4487789869 -0.574028492 0.5105579495
-0.01436947379 -0.07382216305 0.4870450199 -0.1151625961 -0.696485579 0.6013135314
-0.008515588939 -0.06650879234 0.4897270799 0.06862667203 -0.6613135338 0.5355689526
-0.007709838916 -0.06338339299 0.4941743016 0.07174308598 -0.6583638191 0.5129534006
-0.01454623882 -0.06606408209 0.5030531287 -0.2155353129 -0.7069487572 0.5498924255
-0.001152947312 -0.05697649717 0.4931591451 0.3053021431 -0.6155562997 0.4525912404
-0.009593311697 -0.06150510907 0.5017374754 -0.03603899106 -0.6743355393 0.5061205029
-0.01242937054 -0.07022932917 0.4905357957 -0.07191862166 -0.6869676113 0.5709246993
-0.0006746211438 -0.05870168284 0.4887976646 0.3463327587 -0.6102665663 0.4624398351
-0.01272368152 -0.06739539653 0.4966852665 -0.1165596396 -0.6919741035 0.5533438325
-0.004968659952 -0.05938300863 0.496334821 0.1549197286 -0.6417741776 0.4791256785
0.003048593877 -0.05533390865 0.4876927435 0.4819126427 -0.5856919289 0.4299210608
-0.0168475192 -0.07156146318 0.4970566928 -0.261958003 -0.7187621593 0.5921952128
-0.02146957256 -0.07023505121 0.5007835031 -0.3379900455 -0.7274617553 0.5953416824
-0.02031942084 -0.0756379962 0.493983835 -0.2956146896 -0.7252905369 0.6192649603
-0.02471320704 -0.07311826944 0.4934825003 -0.3036062717 -0.7215539217 0.6216140985
-0.01676380634 -0.06102412194 0.4867907763 0.1905632615 -0.6466110349 0.5747923851
-0.01927303895 -0.07489510626 0.4870870411 -0.1724496037 -0.7125602365 0.6298838258
-0.01638771407 -0.0658191219 0.4867634177 0.06781843305 -0.6650826931 0.5913205147
-0.01137309521 -0.05068779737 0.4862025678 0.468839407 -0.5852184296 0.5266151428
-0.02506454661 -0.0608991161 0.4876566529 0.1754720807 -0.674973011 0.5911381245
-0.02830880135 -0.06633933634 0.488008678 0.02811159007 -0.7087011933 0.6173183918
-0.008800229989 -0.05732544884 0.4859505892 0.3034528494 -0.6036488414 0.5453420877
-0.02235974371 -0.07064679265 0.4873985946 -0.0697735846 -0.7057737708 0.6208117604
-0.01143746544 -0.06239945814 0.4862383902 0.1668695211 -0.633754611 0.5689736009
-0.02083294839 -0.06396971643 0.4872227013 0.1056735069 -0.6729182601 0.5936470628
-0.03135923296 -0.07189036906 0.488340795 -0.1216769591 -0.7422122359 0.6435060501
0.002288367599 -0.02866113372 0.4974710345 0.7889560461 -0.4055486321 0.4615393281
0.0007272112416 -0.03269204497 0.4938256741 0.7777215242 -0.4351164103 0.4532707036
0.001442986191 -0.02576825395 0.501231432 0.8034749031 -0.3915920258 0.447994262
-0.02804305963 -0.0431734249 0.5137550235 -0.03819274157 -0.6663779616 0.6031509042
-0.009052659385 -0.03318304196 0.5023838878 0.537045598 -0.48321262 0.5082774758
-0.01047629584 -0.03036493249 0.5075329542 0.5177140832 -0.4948970675 0.4960252345
-0.01571932063 -0.03405435756 0.5095506907 0.352686584 -0.5460011363 0.5272738934
-0.005773320794 -0.02931689098 0.5029991269 0.6506600976 -0.4503544271 0.4802716076
-0.003940082621 -0.02462717704 0.5118938088 0.7338631153 -0.1861321032 0.5421494842
-0.02433732152 -0.04250171781 0.5102240443 0.07462640107 -0.6406444907 0.5787531734
-0.004120811354 -0.03463576734 0.4953384995 0.690779388 -0.4699400961 0.4614153802
-0.01955650374 -0.03981370106 0.507533133 0.2191325277 -0.5929406285 0.5559934378
-0.01494480483 -0.03705678135 0.5051016808 0.3582886755 -0.545471251 0.5350270271
-0.02454966307 -0.0543525815 0.5176431537 -0.3720918298 -0.688043654 0.6187795997
-0.02903191559 -0.05252172798 0.5174844861 -0.3251647949 -0.6914511919 0.6411795616
-0.02408206277 -0.04608239606 0.5318359137 -0.2847476006 -0.5002014041 0.8137982488
-0.015991088 -0.05098050833 0.5325013399 -0.2863899469 -0.4342930317 0.8521308303
-0.02175797708 -0.04952162504 0.5283235312 -0.3185924292 -0.538523078 0.7715896368
-0.02432115562 -0.03447884321 0.5340707302 -0.1734626442 -0.3264249861 0.9244439006
-0.03666065261 -0.1170620024 0.5700264573 0.08303261548 -0.7754675746 0.6233362556
-0.03609701991 -0.1484617293 0.5314796567 0.08411554992 -0.5810901523 0.7200332284
-0.04241665825 -0.1479736269 0.5328762531 -0.06070104986 -0.5874420404 0.7269451618
-0.03246742114 -0.1478119344 0.5345379114 0.208534047 -0.5961794853 0.753133893
-0.02408346906 -0.1465085298 0.5326900482 0.4150455892 -0.5737425089 0.7052557468
-0.02720126696 -0.1448555291 0.5369853377 0.3595700562 -0.6034468412 0.7092461586
-0.01003295928 -0.1421037614 0.5223410726 0.5786437392 -0.5283927917 0.6053777337
-0.01186870132 -0.1469510049 0.5248091221 0.5960249305 -0.5401879549 0.5877260566
-0.01643743552 -0.1428460032 0.5292975307 0.5448083282 -0.529289484 0.6361163259
-0.02161904238 -0.1412394643 0.5355151296 0.5031134486 -0.5560725927 0.6586543918
-0.00466582831 -0.1352209747 0.5202367306 0.6621056199 -0.5019816756 0.5561749935
-0.04842178896 -0.0725973174 0.48955971 0.1058871299 -0.726469934 0.6683443189
-0.0497671403 -0.07537720352 0.4854446054 0.1427474767 -0.7051907778 0.6880621314
-0.05959567428 -0.07846113294 0.4855343997 0.3547681272 -0.6676233411 0.6472176313
-0.05254530907 -0.08002305031 0.4809358716 0.1973133087 -0.6643356085 0.7156916857
-0.03996431082 -0.07209457457 0.4899382591 -0.04898329452 -0.7404102683 0.666154027
-0.03545850143 -0.07470495999 0.4869884253 -0.1079838201 -0.7186974883 0.6852301955
-0.027713269 -0.07501364499 0.4897171557 -0.2343748808 -0.7320168018 0.6372179389
-0.0546159707 -0.1170113161 0.5712425709 -0.1920169741 -0.8001951575 0.5670099854
-0.05794856697 -0.1167735606 0.5676513314 -0.2496400476 -0.7844262123 0.5605704188
-0.07494517416 -0.1255632043 0.5362207294 -0.6738661528 -0.5486110449 0.4913063645
-0.07567109168 -0.1251798421 0.5294873714 -0.686111927 -0.532794416 0.4944440722
-0.07335301489 -0.1225483268 0.5442303419 -0.6652976274 -0.5897962451 0.4568551481
-0.07626970112 -0.1198110506 0.5405128598 -0.6771893501 -0.569640696 0.4643495679
-0.08050724864 -0.1057660878 0.5091745853 -0.08118484169 -0.5682159662 0.5612174273
-0.0809045434 -0.123469539 0.5102035403 -0.3545984626 -0.5313373804 0.5716186762
-0.08079346269 -0.1238684654 0.5208418369 -0.5770654678 -0.5174941421 0.5249490738
-0.08072260767 -0.1177226603 0.5200009346 -0.4674470723 -0.5317918062 0.5224429965
-0.08081250638 -0.1085146815 0.500803709 0.06176783144 -0.5751021504 0.5980596542
-0.08080486953 -0.1147527099 0.5089359283 -0.1975986362 -0.5517077446 0.5683956146
-0.08041535318 -0.1078033373 0.5144938231 -0.2184189856 -0.5550307035 0.5430949926
-0.08061598986 -0.09755501896 0.4991495609 0.2599875331 -0.5985783935 0.5973957777
-0.08041538298 -0.1025000289 0.5135935545 -0.09485371411 -0.5638748407 0.5482940078
-0.0805233866 -0.08565747738 0.5034151673 0.4264911115 -0.6061964631 0.5886141062
-0.08034697175 -0.1099742278 0.5194996595 -0.3506790996 -0.5423921943 0.5258822441
-0.08054131269 -0.09962373972 0.5045649409 0.1225888133 -0.5852800608 0.578894496
-0.08059599251 -0.09193169326 0.4995533824 0.367082864 -0.6053144932 0.5984897614
-0.08043851703 -0.09491591901 0.5144655704 0.06588115543 -0.586550355 0.5498538017
-0.08029736578 -0.1128150448 0.5307869315 -0.5631152391 -0.5450600982 0.4902452826
-0.07086487114 -0.09334225208 0.4811664224 0.4153058529 -0.632881403 0.6517052054
-0.0234299656 -0.06446945667 0.5065035224 -0.3399549723 -0.7393235564 0.5808069706
-0.02964379825 -0.07025334239 0.4956465662 -0.210468024 -0.7490828037 0.6203325391
-0.01921585202 -0.06715501845 0.5073216558 -0.3632504642 -0.7344318032 0.5727472901
-0.02794238552 -0.05646752194 0.5138251781 -0.3304430544 -0.7208436728 0.6066271663
-0.01195059344 -0.04221734032 0.4945172966 0.4884418249 -0.5624676943 0.4926063716
-0.01601525955 -0.04613026232 0.4943810403 0.3722823858 -0.6171731949 0.5090968609
-0.02037370205 -0.04677283019 0.4978580177 0.2812948525 -0.6168422699 0.5374894142
-0.008142043836 -0.0420066826 0.4911212623 0.5646352768 -0.5685815215 0.4667385519
-0.03410029784 -0.04797483236 0.5148172379 -0.2005233318 -0.7270652056 0.6294817924
-0.009943352081 -0.0378930755 0.4980886281 0.5265869498 -0.52146703 0.4916925728
-0.02815749496 -0.04879161716 0.5052136779 0.03068918921 -0.6798603535 0.5856074095
-0.03273129463 -0.05328288302 0.5040823221 -0.06598519534 -0.7214303613 0.6038811803
-0.02164378017 -0.04403262213 0.5040996671 0.1943559796 -0.6223343611 0.5546286702
-0.0248949863 -0.04831645638 0.5014788508 0.1429603249 -0.653000474 0.5643158555
-0.01769951358 -0.04140525684 0.5030016899 0.2974994183 -0.5877608061 0.5351002812
-0.03587352112 -0.05205040053 0.5104928613 -0.2009469718 -0.7455703616 0.6295023561
-0.03587559611 -0.05707484484 0.5021319985 -0.1212630719 -0.7507288456 0.6143120527
-0.03126486018 -0.04798068106 0.5108741522 -0.09630048275 -0.7041499615 0.6097100377
-0.07392872125 -0.04419146851 0.5339957476 0.3039640188 -0.7360936403 0.6047646999
-0.06977080554 -0.0406463258 0.5349586606 0.2941392958 -0.7423981428 0.6019239426
-0.07920238376 -0.04459363222 0.5409173369 0.3063399196 -0.7394152284 0.5994852781
-0.02586552128 -0.02917864174 0.5325454473 -0.1366095692 -0.3990499973 0.8888781667
-0.03373899311 -0.03043661267 0.5327367783 -0.06826774776 -0.534922421 0.8222926259
-0.03028721362 -0.03799683973 0.5327985883 -0.1818175465 -0.4850342274 0.8410964608
-0.03617717326 -0.03530251235 0.5328800678 -0.09672188759 -0.5916852355 0.7837778926
-0.04488606751 -0.03616159782 0.5332480073 -6.142138773e-06 -0.6699835062 0.6981317401
-0.03568408266 -0.04011981562 0.5321409106 -0.1805681139 -0.5877836943 0.75898844
-0.03884849697 -0.03070363589 0.5335990191 -0.003517766716 -0.6123250723 0.7890640497
-0.0120552266 -0.05704788119 0.5261729956 -0.378382206 -0.5424889326 0.7298021317
-0.01800873131 -0.05289399624 0.5264367461 -0.3463385105 -0.5334436297 0.7618694901
0.007506923284 -0.0352034457 0.5067112446 0.699780941 -0.2449589223 0.4750044644
-0.004840690177 -0.04943359643 0.5201190114 -0.01152540371 -0.4354806244 0.6501376629
-0.007325863466 -0.05214584246 0.524271369 -0.1663884521 -0.4623643458 0.7087099552
-0.00902247522 -0.0537543036 0.5294347405 -0.2908526957 -0.4623588026 0.786054492
-0.002041637199 -0.046195779 0.5171946883 0.1487931609 -0.3913846314 0.6122828126
0.003046561498 -0.0400849767 0.5140333772 0.4228843153 -0.2942380309 0.5780365467
-0.008423968218 -0.05408411101 0.5190216899 -0.1778009385 -0.5300986767 0.6209332943
-0.01505251043 -0.05919710174 0.5202931166 -0.4327210188 -0.6314865351 0.6397992969
-0.02022930048 -0.05610338226 0.5196061134 -0.3993926942 -0.6602367163 0.6326557994
-0.02326584049 -0.1180067286 0.5613785982 0.3208200634 -0.7201882601 0.6069805622
-0.03764302656 -0.1207938269 0.5659267902 0.1324844509 -0.7746265531 0.6164366603
-0.02995582297 -0.1177042127 0.5658105612 0.1857617497 -0.7660804391 0.6122504473
-0.04244435206 -0.1205199882 0.568801105 0.006009019911 -0.7800236344 0.6174407601
-0.01674256846 -0.1346109509 0.5388924479 0.5759662986 -0.5528486371 0.6006039381
-0.0158260297 -0.1392736584 0.5331048369 0.5950161815 -0.5149290562 0.616466701
-0.02021559142 -0.1319394112 0.5420387983 0.5137153864 -0.5930077434 0.59960711
-0.01946832053 -0.1230900884 0.5519478917 0.4380283356 -0.672450006 0.596337378
-0.05461002141 -0.07360430062 0.488864392 0.2402553856 -0.7015590668 0.668494463
-0.05598104745 -0.06959368289 0.4939458668 0.242434442 -0.7048125267 0.663867414
-0.0608179532 -0.07069174945 0.4957672358 0.3273552358 -0.6815778613 0.6434279084
-0.06298331171 -0.0740718171 0.4924836457 0.3933053017 -0.6704348326 0.6275550127
-0.04058112577 -0.05076977983 0.5121402144 -0.1034836993 -0.7510196567 0.6435337067
-0.03276915848 -0.05659227073 0.5127397776 -0.2170414329 -0.7318404913 0.6212869883
-0.05103037879 -0.1373803765 0.546154201 -0.2715822458 -0.6945488453 0.6483667493
-0.04815461114 -0.1407087892 0.5435873866 -0.1879672706 -0.6538136005 0.7150222063
-0.05718142539 -0.1393248737 0.539548099 -0.431941539 -0.6344748139 0.6369777918
-0.05188382417 -0.1417538077 0.5399150848 -0.3254826069 -0.6383288503 0.6911143064
-0.04668547586 -0.1431313455 0.5388908982 -0.1787287891 -0.6333910227 0.7068151236
-0.04577475786 -0.1382865012 0.547539413 -0.1094036549 -0.7027743459 0.6871878505
-0.05577222258 -0.1335455179 0.540722847 -0.3908208907 -0.6577990055 0.5803635716
-0.06573757529 -0.1301079988 0.5358245969 -0.6099651456 -0.5899655223 0.5013215542
-0.06101020426 -0.1319612563 0.5381006598 -0.5062748194 -0.621599257 0.5413669944
-0.06301166117 -0.08128210902 0.4881009161 0.3641040325 -0.6454225183 0.6516144276
-0.05857179314 -0.08230302483 0.483004123 0.2942723036 -0.6567400694 0.6704009771
-0.06729819626 -0.0759523809 0.4939546287 0.4364160597 -0.6565033197 0.615062058
-0.07701636851 -0.08143694699 0.4996755123 0.508441627 -0.6166936755 0.6003485322
-0.06687605381 -0.08031677455 0.4915686548 0.4325181842 -0.6418219209 0.6285711527
-0.05836221576 -0.07535243779 0.4914038479 0.2870683372 -0.6864620447 0.6455279589
-0.04365540296 -0.07336396724 0.4860738516 0.02268292941 -0.7291254997 0.6809092164
-0.05033180863 -0.06943392754 0.4927035868 0.1510861218 -0.7246092558 0.6619013548
-0.04546471685 -0.06836922467 0.4926842451 0.05316302553 -0.7378766537 0.6698485613
-0.05730565637 -0.08333839476 0.4782207906 0.302072674 -0.6301611662 0.7089499235
-0.06222782284 -0.08715441078 0.4806793034 0.312248677 -0.6468811035 0.6782615781
-0.06073519215 -0.0878354013 0.4760936499 0.3303603828 -0.6303055882 0.6992676258
-0.06753802299 -0.09595591575 0.4770333767 0.3652308881 -0.6354039311 0.6796749234
-0.06379377097 -0.09191525728 0.477040112 0.3418852389 -0.6417619586 0.6813122034
-0.05604899302 -0.08810777217 0.4784970284 0.1931176782 -0.6602146626 0.715110302
-0.05240919814 -0.08408637345 0.4756890833 0.2018767446 -0.6261050105 0.7496030331
-0.02166886255 -0.03565491736 0.5146393776 0.221780926 -0.5681712627 0.5967469215
-0.02533845603 -0.03807749972 0.5162339807 0.1085785031 -0.6027627587 0.619269073
-0.02972712927 -0.0396688953 0.519534111 0.00417092815 -0.6238344312 0.6664729118
-0.03123471141 -0.03739776462 0.5236803293 -0.002594729187 -0.6043419242 0.7124698758
-0.03603580594 -0.04043043777 0.5259107351 -0.1365640461 -0.6425464749 0.7480876446
-0.02771959454 -0.03422082588 0.5244656205 0.07889404148 -0.4685602188 0.7206409574
-0.01183453575 -0.02543830499 0.523692131 0.3939594328 0.2244935185 0.7402139902
-0.01330026612 -0.02794203535 0.5165160298 0.4397838116 -0.2451855242 0.6224498749
-0.00807828363 -0.02475878038 0.5175291896 0.53025949 0.05359849706 0.6491625309
-0.02302198671 -0.03234696388 0.5211410522 0.2040596753 -0.4369214177 0.6768957376
-0.0226938799 -0.03091198206 0.5264902711 0.1551228166 -0.1222482175 0.763142705
-0.01655965485 -0.02859286778 0.5216019154 0.3242195845 -0.1115578562 0.6972669363
-0.01719859242 -0.02751212381 0.5277704597 0.2481222302 0.2041535974 0.7946774364
-0.009170114994 -0.02659995109 0.5122858286 0.5633384585 -0.2905482352 0.5630741119
-0.01736453921 -0.03049041331 0.5154243112 0.3725000322 -0.4947045445 0.5968078375
-0.02842360735 -0.03330025077 0.5303935409 -0.1500143409 -0.4635770023 0.8488004208
-0.02119887806 -0.02901419997 0.5314658284 -0.1156066209 -0.248522386 0.9017202258
-0.05657020584 -0.04144845158 0.5261907578 0.2102945596 -0.7150266767 0.6500601172
-0.04025296122 -0.0414567329 0.5301303864 -0.09775298834 -0.6058456898 0.7395665646
-0.04919779673 -0.03934189305 0.5294957757 0.07923162729 -0.6832672358 0.6821891069
-0.06302060932 -0.03604836017 0.5349469781 0.2489844859 -0.750252068 0.6122583747
-0.06332678348 -0.04445740953 0.5253123641 0.3001995385 -0.7354647517 0.6073117852
-0.06203025952 -0.04056166112 0.5290837288 0.2745096982 -0.7339690924 0.6205376387
-0.06633166224 -0.04275098443 0.5300703645 0.2950693071 -0.7406827211 0.6034605503
-0.05759302154 -0.03750458732 0.529501617 0.2244122773 -0.7308447361 0.6417615414
-0.05793890357 -0.03469322249 0.5333752632 0.2282760888 -0.7511259317 0.618544817
-0.04847561941 -0.03420775011 0.530390203 0.1003824621 -0.7029415369 0.700153172
-0.04583673552 -0.03046136908 0.5341324806 0.09531004727 -0.6809010506 0.7192541957
-0.0524491705 -0.03248091415 0.5342920423 0.1584531665 -0.7317419648 0.6539156437
-0.01203923672 -0.1315089911 0.5337297916 0.6559584141 -0.4905628562 0.5710657835
-0.008038804866 -0.1290243417 0.5307029486 0.6954803467 -0.4697967768 0.543685019
-0.005635558628 -0.1257455498 0.52746135 0.6955964565 -0.4701003134 0.5432719588
-0.009814695455 -0.126574263 0.5349898934 0.6966354251 -0.4728161991 0.5395760536
-0.01216635294 -0.1362459511 0.5305674672 0.6383539438 -0.4993548095 0.5850118995
-0.007385614794 -0.13807486 0.5251458883 0.6657642126 -0.4949497581 0.5577126741
-0.01622843184 -0.1286148429 0.5439781547 0.552521348 -0.5912613273 0.5867302418
-0.02130708098 -0.1285687536 0.5473323464 0.4389087856 -0.6646098495 0.6025743484
-0.01644233055 -0.1245598197 0.5475462079 0.5139027834 -0.6236054897 0.5850802064
-0.02393290773 -0.1234844476 0.5559443831 0.3943775594 -0.6926023364 0.6030495763
-0.0277077686 -0.1261954457 0.5554636717 0.3422808349 -0.7110862136 0.6088600159
-0.03364016861 -0.1240879968 0.5618085265 0.1971185654 -0.7588406205 0.6191593409
-0.02702105045 -0.1210264489 0.5601631403 0.3075398505 -0.7173013687 0.6121553183
-0.066691719 -0.1207340285 0.5545374155 -0.5517591238 -0.6715696454 0.4917955697
-0.06423214823 -0.1194826514 0.5595126748 -0.4080170691 -0.7354943156 0.5232034326
-0.07865533978 -0.1195041463 0.5297247767 -0.702119112 -0.5172727108 0.4889949858
-0.07860233635 -0.09158038348 0.5100423694 0.1805169433 -0.5906670094 0.5627538562
-0.07874479145 -0.1076863408 0.5259608626 -0.3771001697 -0.5608774424 0.5057767034
-0.07857804745 -0.09959434718 0.5182493925 -0.09839315712 -0.5772144198 0.5333992243
-0.08035002649 -0.1031031162 0.5227145553 -0.2306990623 -0.5694590211 0.5202864408
-0.03971021622 -0.055658333 0.5057840347 -0.1180253923 -0.7618147731 0.6324201822
-0.04449430481 -0.05277181789 0.5094870925 -0.0217079781 -0.7573335171 0.6506174803
-0.026069602 -0.1383099556 0.541533649 0.4109118879 -0.6213048697 0.6643843651
-0.03653973714 -0.1360057294 0.546851337 0.1255033761 -0.7019903064 0.6767472029
-0.03488650173 -0.1328383833 0.5513617396 0.2080614418 -0.7302327156 0.6483489871
-0.03189628944 -0.1354462057 0.5462855697 0.2498408407 -0.6841832995 0.6763258576
-0.02445385419 -0.1336298883 0.5450043678 0.423287034 -0.6517755985 0.6284916401
-0.02616016194 -0.1311933845 0.5486248136 0.3928286135 -0.6785964966 0.6196665168
-0.04102573544 -0.1434672624 0.539711535 -0.01381470636 -0.6321941614 0.7352020741
-0.04125074297 -0.1405928284 0.544735074 0.004183823708 -0.6729297638 0.7230623364
-0.03598463163 -0.1412785351 0.5428525805 0.1401781142 -0.6546225548 0.7394254804
-0.04096654058 -0.1350692809 0.5504726768 0.02474077977 -0.748274684 0.6451758742
-0.03063837253 -0.142010361 0.540302515 0.2927706242 -0.6206402183 0.7183081508
-0.02870252728 -0.1509547979 0.5341041088 0.2585116029 -0.6116357446 0.7450146675
-0.03844593465 -0.1554999799 0.5338917375 0.04769352078 -0.6084246039 0.7883586287
-0.04271069542 -0.1486721188 0.5381830931 -0.04672240093 -0.6097177267 0.7870701551
-0.03588443995 -0.1461059153 0.5390442014 0.1323671639 -0.6210122705 0.7717875838
-0.07160907984 -0.08778556436 0.4863253236 0.4477701783 -0.6339155436 0.6303067207
-0.06721922755 -0.08412960172 0.4858081341 0.4434153736 -0.6393935084 0.6279397011
-0.06870292127 -0.08930812776 0.4817174673 0.4207836986 -0.6341133714 0.6484313011
-0.07357336581 -0.08191269636 0.4933858216 0.4600698948 -0.6336405277 0.6217803359
-0.07609505206 -0.08661562949 0.4925659299 0.4744570553 -0.6206655502 0.6241711974
-0.0388847962 -0.067431584 0.4921656847 -0.07484011352 -0.7560834289 0.6476758122
-0.03912087157 -0.06134705991 0.4993031025 -0.1097256616 -0.760630548 0.6346132159
-0.04151384905 -0.06520454586 0.4954886436 -0.0327167958 -0.7534671426 0.6519642472
-0.03450809047 -0.06642453372 0.489821136 -0.02052132972 -0.7356424332 0.6314721107
-0.02802755125 -0.05964820459 0.4912663996 0.1082975492 -0.6943608522 0.5963155031
-0.01832257584 -0.05406600237 0.4880785048 0.3343313336 -0.6282545924 0.5541346073
-0.02537371963 -0.05295247212 0.4964545071 0.1326084137 -0.681135118 0.5729291439
-0.006977772806 -0.04555025697 0.4866851568 0.5841194987 -0.5528463721 0.5002632141
-0.02484655194 -0.05563432351 0.4927819967 0.1665403098 -0.6747429371 0.5774819851
-0.03086558543 -0.05684737861 0.4973956347 0.01003937237 -0.7178526521 0.5984860659
-0.02773372456 -0.06579873711 0.5015467405 -0.2758134604 -0.7459641099 0.6005983949
-0.04771124199 -0.04045528919 0.5241840482 0.01217684057 -0.7275723219 0.67692554
-0.03588733822 -0.04554599151 0.519349277 -0.2110534012 -0.7164170742 0.6608142257
-0.04888885468 -0.04836399853 0.5172269344 0.07085897028 -0.7338594198 0.6669135094
-0.04029595107 -0.04464252293 0.5229372382 -0.1165975779 -0.6759075522 0.7115560174
-0.04036517814 -0.04916779324 0.5189321637 -0.08836319298 -0.679581821 0.7082498074
-0.03540349752 -0.04540265352 0.5255260468 -0.1856620908 -0.6107146144 0.7504293323
-0.03169775754 -0.04277449474 0.530156076 -0.2598885298 -0.5623872876 0.7788773775
-0.04133734107 -0.03385158256 0.5299727321 -0.02015377767 -0.6616495848 0.7454689741
-0.04250250757 -0.0400833711 0.5245971084 -0.06905935705 -0.7015370727 0.7054156661
-0.01330371294 -0.1296190172 0.5390138626 0.6144749522 -0.5412301421 0.5689299703
-0.01179131959 -0.1252166331 0.5406448245 0.6216717958 -0.5459299684 0.5577219129
-0.0123838149 -0.1221289188 0.5448921919 0.5712167025 -0.5854200721 0.5654889941
-0.01530437265 -0.1201502159 0.550965786 0.4978887141 -0.6361335516 0.5811383724
-0.03926521167 -0.1317767799 0.5539109111 0.08619377017 -0.7659395933 0.620470047
-0.04884462431 -0.1231249869 0.5671672821 -0.1208334863 -0.7997555137 0.5854123235
-0.04527268559 -0.1301876009 0.55351758 -0.05443756655 -0.7531145811 0.6041573286
-0.03470766544 -0.1284188628 0.5562588573 0.209618181 -0.7444323897 0.6260399818
-0.05684784055 -0.1331838369 0.5465086699 -0.4093506336 -0.7067323327 0.5658188462
-0.05188413337 -0.1327964664 0.5488539934 -0.2780148089 -0.7311432958 0.6055135727
-0.06040915474 -0.1324830651 0.5434975624 -0.493532449 -0.6649582982 0.5492200255
-0.04709682614 -0.1288378537 0.5581082106 -0.1046940088 -0.7794439793 0.6121280193
-0.05151357502 -0.1309120953 0.5539224744 -0.2566932738 -0.76789397 0.5768691301
-0.05184740946 -0.1266734153 0.5593471527 -0.2079713643 -0.7753977776 0.5883046389
-0.03985368833 -0.1258742213 0.5594858527 0.06738483906 -0.7616866231 0.606916368
-0.04454297572 -0.1244430989 0.5608844161 -0.03793258965 -0.7696518898 0.5965997577
-0.05990384892 -0.1224793345 0.5580842495 -0.3728841841 -0.7508378029 0.5366511941
-0.05257551745 -0.1200206429 0.5647962093 -0.1505809128 -0.7801365256 0.5879200101
-0.05461959541 -0.1228915453 0.5609176159 -0.229657352 -0.7745405436 0.5769985318
-0.05908204615 -0.119834967 0.5623505712 -0.3067334592 -0.7711561918 0.5517300367
-0.07902372628 -0.1166931242 0.537683785 -0.6852033734 -0.552734077 0.4734349251
-0.04810719192 -0.05282199383 0.5135275722 0.05487207323 -0.7361577153 0.6632421613
-0.0584775582 -0.05541687831 0.5128449798 0.2445216328 -0.7141019106 0.6422647834
-0.05387777463 -0.05631942302 0.5102618337 0.1791907847 -0.7195367813 0.6554857492
-0.07456052303 -0.1174030304 0.5453363657 -0.6391047835 -0.6047434211 0.4701823592
-0.07047095895 -0.1189672872 0.5526276827 -0.5898256898 -0.6534225941 0.4724991024
-0.06328760087 -0.05708951503 0.5114251375 0.3210576773 -0.7045004964 0.6325612068
-0.0669381395 -0.05692975223 0.5146849155 0.346663326 -0.6926342249 0.6315967441
-0.06626734138 -0.06056722254 0.5098841786 0.3554865718 -0.6827877164 0.6375945807
-0.05698972568 -0.06045041233 0.5053324699 0.2663805485 -0.7058646679 0.6555591822
-0.06180759892 -0.06381896883 0.5026932359 0.3185416758 -0.6911130548 0.6477392316
-0.0591599755 -0.06676673144 0.4986921251 0.2823090851 -0.6900662184 0.6629850864
-0.05587821081 -0.06378241628 0.5007830858 0.2431356013 -0.7039512992 0.666035831
-0.03504887596 -0.06606508046 0.4965845942 -0.1582088321 -0.7594951987 0.6287887692
-0.003853605827 -0.04134622216 0.4879238605 0.6608797908 -0.5408524275 0.460373044
-0.02080208808 -0.05036756024 0.494766891 0.2445552051 -0.6516389847 0.5481739044
-0.01183060836 -0.04591690376 0.490862608 0.4634873867 -0.5914462805 0.5061238408
-0.06727218628 -0.1234904751 0.5492996573 -0.5977898836 -0.6493853331 0.4694518447
-0.06410909444 -0.1289992929 0.5451194644 -0.5634634495 -0.653093338 0.5028024912
-0.06352607906 -0.1257440001 0.5513632298 -0.517611742 -0.6859677434 0.5099052787
-0.05706437677 -0.1285866499 0.5531028509 -0.3787290156 -0.7415727973 0.5440246463
-0.06992130727 -0.1244819313 0.5407521129 -0.641996026 -0.6049643159 0.4672003686
-0.06747464836 -0.1300653219 0.5411109924 -0.6429467201 -0.5834339857 0.4911659062
-0.07113049179 -0.1298869252 0.5374079347 -0.6585515141 -0.549808383 0.5105919838
-0.05624841526 -0.05005774647 0.5184044838 0.1846479625 -0.7233877182 0.6462254524
-0.06058393791 -0.04780194536 0.5213029385 0.26060763 -0.7160288095 0.6391989589
-0.06562531739 -0.05062179267 0.5212427378 0.3240062296 -0.7087256312 0.6212601662
-0.05307504535 -0.046433229 0.51960814 0.1532114446 -0.7275587916 0.6608365774
-0.06224478036 -0.05328097939 0.5158513188 0.3047579229 -0.7127937675 0.6294788122
-0.04775501788 -0.04438627511 0.5199697614 0.03108445369 -0.7343766689 0.6652387977
-0.05278366804 -0.03816225007 0.5266820788 0.1375542432 -0.7217793465 0.6736852527
-0.05720762536 -0.04422478005 0.5224168301 0.2256557196 -0.721087575 0.6535533667
-0.04485875741 -0.05758649483 0.5034448504 -0.01914422214 -0.7630900145 0.645373404
-0.04635108635 -0.06517530978 0.4966737628 0.05997955799 -0.7413597107 0.6652821898
-0.04619209468 -0.0613367632 0.5008673668 0.04730549827 -0.7456451654 0.6644209623
-0.05198242888 -0.06594637036 0.4969671369 0.1541295201 -0.7196472287 0.6722047925
-0.03448625281 -0.06417646259 0.5014274716 -0.1556243598 -0.74499017 0.6223285794
-0.04078782722 -0.05598555133 0.5104572773 -0.06156013906 -0.7408460975 0.6500613093
-0.04097960889 -0.06033239886 0.5046371818 -0.04668490216 -0.7426823378 0.6448773146
-0.02619085833 -0.06181987002 0.5097746253 -0.3013905287 -0.7350158691 0.5862447619
-0.03163121641 -0.06188913062 0.5068923831 -0.2071932256 -0.738653481 0.6074337363
-0.0537388064 -0.05057814345 0.5133333206 0.1963305622 -0.7412987947 0.641734302
-0.04850757495 -0.05661686882 0.5082657337 0.08920060098 -0.7306297421 0.6669988036
-0.05251378193 -0.06074486673 0.5020269156 0.1462127268 -0.7370230556 0.6538532376
