# .PCD v0.7 - Point Cloud Data file format
VERSION 0.7
FIELDS x y z normal_x normal_y normal_z
SIZE 4 4 4 4 4 4
TYPE F F F F F F
COUNT 1 1 1 1 1 1
WIDTH 512
HEIGHT 1
VIEWPOINT 0 0 0 1 0 0 0
POINTS 512
DATA ascii
0.1090310812 -0.118074581 0.6715481877 0.7575415373 -0.4483126104 0.4564878643
0.1023735255 -0.1104252711 0.6741992831 0.6388908625 -0.5063500404 0.5540606976
0.1023630127 -0.1172335595 0.6684523225 0.559561491 -0.5702360868 0.6009655595
0.1008913219 -0.1025468707 0.6876550317 0.6456510425 -0.4778133035 0.5838193893
0.1048486829 -0.1068414822 0.6799353957 0.7502659559 -0.3846197724 0.5293360353
0.01925044693 -0.2287552506 0.7360509634 -0.2142322659 -0.5620476007 0.7968068719
0.01347977109 -0.2279233932 0.7353511453 -0.2931315899 -0.5518288612 0.7738980055
-0.01930797286 -0.1141776964 0.7119753957 0.7627667189 -0.4520075321 0.4619692564
-0.01269167755 -0.1860113293 0.7398828268 -0.6706343293 -0.4237529933 0.6053369641
-0.01594646461 -0.1871056408 0.7352249622 -0.7200796008 -0.3815282583 0.5699546337
-0.009085547179 -0.1999105811 0.7344192863 -0.6831675768 -0.4002647698 0.6097119451
-0.01223856304 -0.1912235916 0.7370992303 -0.7030677795 -0.415263772 0.5758950114
0.04259101301 -0.09370952845 0.6912432909 -0.1167194471 -0.6788184643 0.7232554555
0.03513504937 -0.0948073715 0.6886405945 -0.02100530826 -0.676455915 0.7356950045
0.08136099577 -0.2048366517 0.7190325856 0.8160006404 -0.3672457039 0.4462750852
-0.02328743972 -0.1600681692 0.6810637712 0.8341887593 -0.2616503239 0.4723647237
-0.01483195927 -0.1957940757 0.7308834791 -0.7557848692 -0.3538199961 0.5495622158
-0.01829720475 -0.1925133169 0.7274019718 -0.7859354019 -0.3240895569 0.5247567892
0.04706503451 -0.185645014 0.7654138803 0.237440899 -0.5450898409 0.8019318581
0.02781253681 -0.1841286421 0.7666567564 -0.02310786396 -0.5767829418 0.8136760592
0.02852424607 -0.1896508932 0.7629420161 -0.01458159462 -0.5868343115 0.8068062663
0.03401925042 -0.1923540533 0.7600259781 0.05835825577 -0.5797982216 0.8111893535
0.06087367237 -0.2299010158 0.731652379 0.4770626724 -0.4556228817 0.749569118
0.07757630944 -0.2034173012 0.7248278856 0.7810781002 -0.3954074383 0.4828373492
0.1092271954 -0.1187107116 0.6776089668 0.814788878 -0.3714630604 0.4208155572
0.1066175327 -0.1139544249 0.6839667559 0.8005617261 -0.2873496711 0.5035436749
0.1037539095 -0.1104907095 0.6906647682 0.7889573574 -0.2105280608 0.562373817
0.1085743532 -0.1129861847 0.6753071547 0.7893396616 -0.3883140683 0.4695744812
-0.02342528105 -0.1444983631 0.6954602003 0.791260004 -0.3940172195 0.4675967991
-0.02261000127 -0.136054039 0.6977667212 0.779394269 -0.4135993719 0.4704787135
-0.02254134417 -0.1360454559 0.7035422921 0.7843673229 -0.4154472351 0.4605377316
-0.0228927061 -0.1236868277 0.7165514231 0.7723508477 -0.4341638684 0.4631336331
-0.02211258188 -0.1202212498 0.7222417593 0.7682721019 -0.4405819476 0.4639574289
-0.02240509167 -0.1309661269 0.709780395 0.7790116072 -0.4236829579 0.4617883563
0.03374506161 -0.1849712729 0.7674136162 0.06492443383 -0.5561475158 0.8277181983
0.03292844445 -0.1795062274 0.7701600194 0.05678199977 -0.5616403818 0.8164842129
0.04167762026 -0.1839951575 0.7673001885 0.1665965021 -0.5475873947 0.8179704547
0.04714496434 -0.1798247248 0.7663753629 0.2375609428 -0.5284721255 0.8085080981
0.06113994867 -0.1875917614 0.7551817894 0.4341614544 -0.5288646221 0.7196746469
0.0699095428 -0.1846093833 0.7511664033 0.5916892886 -0.4913570881 0.6384938955
0.06154070422 -0.1824062467 0.7572012544 0.4404736161 -0.5038768649 0.7332311273
0.07324640453 -0.186441496 0.7459343076 0.6336762309 -0.4782873988 0.6074377298
-0.0253139548 -0.1525264233 0.6903921366 0.7802355886 -0.3919167221 0.4873549044
-0.02342760563 -0.1538095623 0.685459435 0.7747161388 -0.3879115283 0.4992902875
0.04283553362 -0.1251632571 0.6649342775 -0.1363148242 -0.6429565549 0.7504492402
0.077106677 -0.1080882624 0.7026185393 -0.408783108 -0.4500147104 0.7788871527
0.08535022289 -0.1143360734 0.7101995349 -0.04140554368 -0.220980987 0.8745976686
0.08025996387 -0.109088704 0.7067680955 -0.2968192399 -0.3639753759 0.8328260183
0.08108316362 -0.1054428518 0.7113850713 -0.1711220145 -0.2985757887 0.8999862671
0.08500680327 -0.1071369275 0.7147027254 0.04649949446 -0.1088420823 0.9630264044
0.08850060403 -0.1125955805 0.7155115008 0.1890642047 -0.03337622434 0.966807425
0.0007385124918 -0.1859677881 0.7557119727 -0.5062654614 -0.4775798619 0.7150939107
0.004882821813 -0.1856042892 0.7597760558 -0.4440678358 -0.4854293168 0.7503895164
0.09947369993 -0.1095858216 0.6995449066 0.7039860487 -0.1285739243 0.6366789937
0.04848854989 -0.1447669566 0.6502531767 -0.2774183154 -0.6575142145 0.6970276237
0.02691666968 -0.1232725084 0.6651267409 0.1226645559 -0.6515388489 0.7485007644
0.02765371092 -0.127087146 0.6607168913 0.1028841361 -0.6581140161 0.7448384166
0.08502750844 -0.2072302848 0.7110530734 0.8140578866 -0.365983814 0.4499668181
0.08114444464 -0.2115663737 0.7150815129 0.7956638932 -0.3752038479 0.4738201201
0.08913641423 -0.2017742544 0.7059259415 0.8280315399 -0.3586638868 0.4293672144
0.0867902115 -0.1990038306 0.7120797038 0.8291320801 -0.3517555892 0.4344142079
0.08737347275 -0.192168653 0.7103446126 0.8633265495 -0.3374394774 0.3611092269
-0.02409345843 -0.1753345728 0.7105462551 -0.3970609903 -0.1884483844 0.4201132655
-0.02381076291 -0.1823524386 0.7127633691 -0.656743288 -0.1470054686 0.4117207527
-0.02486576512 -0.147252202 0.7032082081 0.6535428762 -0.3783765137 0.4666211009
-0.02461208962 -0.1689939797 0.7082841992 -0.1636487246 -0.222025618 0.4255852997
-0.02329158224 -0.1694379896 0.7157808542 -0.1235553846 -0.335370034 0.4871917963
-0.02308243327 -0.1760138124 0.7180603743 -0.3649988472 -0.2998144329 0.4810673594
-0.02399210818 -0.1614173502 0.7104968429 0.1517090797 -0.3392737508 0.4735157788
-0.0249564983 -0.1554222852 0.7040699124 0.3384282589 -0.3031386435 0.4423677325
-0.02088217065 -0.1808421612 0.7233700752 -0.5193793774 -0.3296348155 0.506788969
-0.02155006863 -0.1869082898 0.7268480062 -0.7275798321 -0.3196051419 0.5131420493
-0.01443322934 -0.155619055 0.6714860201 0.7320592403 -0.4023581147 0.5491008759
-0.0179611221 -0.1597793996 0.6750850081 0.7482649088 -0.4021126926 0.527385354
0.07692291588 -0.1995831728 0.7287977934 0.7570778131 -0.4039678276 0.5083934069
0.07140667737 -0.2081404477 0.7270363569 0.7005526423 -0.4151341319 0.575926125
-0.001650630846 -0.2116909623 0.736011982 -0.569917798 -0.4442985952 0.6889225245
-0.02353617549 -0.1890452802 0.7175377607 -0.8765826821 -0.1530025601 0.4277238846
0.03725198284 -0.1965313256 0.7588775754 0.08978354186 -0.5914040804 0.7987113595
0.03982051834 -0.1924361289 0.7618883848 0.1307707727 -0.5741623044 0.8046131134
0.04098457843 -0.2029264867 0.7517361641 0.1566527337 -0.5923230648 0.7860345244
0.03251939639 -0.2002702653 0.7560254931 0.009319069795 -0.5973081589 0.7988874912
0.04813985154 -0.2307187021 0.7346670628 0.2695879936 -0.5308519602 0.7964183092
0.05396641046 -0.2264472395 0.7325863838 0.4019644558 -0.4638496041 0.7852740288
0.06371068209 -0.2213346213 0.7274059057 0.565471828 -0.4356161654 0.6861060858
0.07785645127 -0.1916936189 0.7351884246 0.7562189698 -0.4079788625 0.5082084537
-0.02044549398 -0.1173254326 0.7178608179 0.7687110901 -0.4433856308 0.4605711102
-0.01160621457 -0.1024106145 0.7128924727 0.6854013801 -0.5458221436 0.4793620706
-0.02153166756 -0.1047114804 0.7221454382 0.7355493307 -0.4865396023 0.4705980718
-0.01797199063 -0.1038440987 0.7161273956 0.7183148861 -0.507371068 0.4731975198
-0.02306820452 -0.112207301 0.7277578115 0.7605001926 -0.4525807202 0.4655437469
0.001958582783 -0.1922060698 0.7532175779 -0.5001907945 -0.5064447522 0.7011312246
0.05846061185 -0.2232602388 0.735586226 0.4448532164 -0.4712933302 0.7582669258
0.06619009376 -0.1968575269 0.7432259917 0.5674127936 -0.5005711913 0.629594624
0.07168143988 -0.1959694028 0.7386702895 0.662268281 -0.4624135494 0.5691599846
0.07024441659 -0.1924560964 0.7450917363 0.61251086 -0.4921882451 0.6162689924
0.05942514166 -0.09557691962 0.6957544684 -0.4038980901 -0.620611608 0.668674171
0.06405903399 -0.0947503373 0.6993579865 -0.4517650902 -0.6105824709 0.6502374411
0.05937712267 -0.09076056629 0.6997910142 -0.4300920069 -0.6388782859 0.6377032995
0.06524770707 -0.1001270413 0.6961611509 -0.4494093359 -0.5798383951 0.6787363887
0.05125029013 -0.09162589908 0.6949849129 -0.2752628922 -0.6782756448 0.6773992777
0.02329892479 -0.08849074692 0.6966823339 0.175822407 -0.704685092 0.6813902259
0.01658176258 -0.08923579007 0.6985214949 0.3010721207 -0.6797643304 0.660441637
0.08950906247 -0.1858222485 0.7093233466 0.8924841881 -0.3091631532 0.3145332932
0.04191116244 -0.1509130299 0.6444798708 -0.1835189015 -0.6635080576 0.7030853033
0.02387767285 -0.1498997509 0.6423225403 0.1294384152 -0.6503683329 0.7183102369
0.01361516584 -0.1497751623 0.6414018273 0.3082194328 -0.6426382065 0.6812018156
0.03114550188 -0.1477285326 0.639970839 0.04194256291 -0.6640843749 0.7314075232
0.07127529383 -0.09609466791 0.7062741518 -0.3590321541 -0.5138477087 0.7476258278
0.07047907263 -0.1003773659 0.7005506754 -0.428432852 -0.5493548512 0.706771791
0.07771790773 -0.09912630916 0.709544301 -0.240431875 -0.4263697863 0.8377094865
0.08131878078 -0.09974182397 0.7020677328 -0.1528480202 -0.3571000099 0.8436169028
0.08919395506 -0.09839755297 0.6909514666 0.1953163743 -0.7091440558 0.560693264
0.07335614413 -0.09516105056 0.6988152266 -0.2514604628 -0.6359626055 0.6282866001
0.08515511453 -0.09779819101 0.6968735456 0.02743573301 -0.6972725391 0.6002724767
0.07887791842 -0.09613929689 0.697575748 -0.114934288 -0.6632981896 0.6117134094
0.02235720307 -0.1855714768 0.7662429214 -0.09838597476 -0.5822191834 0.8047218919
0.02493997663 -0.1795190573 0.7701419592 -0.05164094642 -0.5750896335 0.815038681
0.01700223982 -0.1820022762 0.7660210729 -0.2165606618 -0.5338773727 0.7947272658
0.00781371817 -0.1899140626 0.7568358779 -0.3955898881 -0.5257018209 0.746270597
0.0113587454 -0.1866318733 0.7627483606 -0.3204496205 -0.5287297964 0.7782107592
-0.008494351991 -0.1862148792 0.7441549301 -0.6217043996 -0.4602823555 0.6328524947
-0.003935183864 -0.1864535511 0.7513210177 -0.5631988645 -0.4693078697 0.6782520413
0.0942331776 -0.1148199141 0.7098094821 0.4454731643 -0.06270932406 0.8308070302
0.0904051587 -0.1078224033 0.7100812793 0.2994009554 -0.05759296939 0.8674054742
0.09461535513 -0.1089003086 0.705355823 0.4897021353 -0.08965136856 0.7569767237
0.09836512059 -0.1132722422 0.7034292221 0.6439084411 -0.1045776382 0.6948029399
0.05090497807 -0.1512753665 0.6424947977 -0.3019631207 -0.6425574422 0.6963467598
0.04403781891 -0.1459792256 0.641628325 -0.1546330601 -0.6586483717 0.7352252007
0.04693843052 -0.1377908438 0.6532281041 -0.2265293896 -0.6557751298 0.715487361
0.05390048772 -0.1451010257 0.650901556 -0.3667021096 -0.6154571176 0.6973301768
0.05274554342 -0.1399659812 0.6550540924 -0.3332007229 -0.6177452207 0.7093940973
0.07402062416 -0.2120447606 0.7221714854 0.7392424345 -0.3989984691 0.5363624692
0.07231169939 -0.2190853506 0.7219250798 0.6875945926 -0.4168771803 0.5925700068
0.07789368927 -0.2148481309 0.718652606 0.7646530867 -0.3861244321 0.5073142648
0.06285642833 -0.2164035887 0.7308053374 0.5500531197 -0.468331933 0.6777947545
-0.001765439869 -0.2164885253 0.7310975194 -0.5692493916 -0.4412164688 0.6894426346
-0.0005457892548 -0.2236326784 0.7306563854 -0.5158205032 -0.4924788177 0.6994704604
-0.00599634368 -0.2208932936 0.7276271582 -0.5926842093 -0.4334663749 0.6775602102
-0.02068318799 -0.1910411268 0.7219983339 -0.8264220953 -0.2530785203 0.4829054773
-0.02035789192 -0.1968754828 0.718313992 -0.812446177 -0.2756430805 0.4988692403
-0.0233040154 -0.1929819882 0.712816 -0.8423600793 -0.21637927 0.4660076201
0.01243075915 -0.2223314494 0.7363755703 -0.3293726146 -0.5354622602 0.7740123272
0.008528689854 -0.2130214721 0.7407116294 -0.3878698349 -0.5221638083 0.7572829127
0.01331866067 -0.2167007774 0.7401512265 -0.2935830057 -0.5391616225 0.7875591516
0.006921180524 -0.2188662738 0.737057507 -0.4227114022 -0.5172972083 0.7435439229
0.005682017189 -0.2237170637 0.7336432338 -0.4482140541 -0.5090032816 0.73442173
-0.003669364611 -0.1927869916 0.7478343248 -0.5702043772 -0.4842992127 0.6590511203
-0.007556027733 -0.1954088509 0.7389934659 -0.6558139324 -0.4384204149 0.6136630774
0.01844808459 -0.1879242659 0.7626526952 -0.1761523038 -0.5742088556 0.7911260724
0.0239156764 -0.1933742315 0.7614272833 -0.1332654208 -0.5926392078 0.793645978
0.02786913328 -0.1950687021 0.7572878599 -0.04230017588 -0.5788251758 0.7958900928
0.01394128986 -0.1917303652 0.7581580877 -0.2654068172 -0.5643204451 0.7753840089
0.04555006698 -0.1903095096 0.7596627474 0.2251373529 -0.554096818 0.7960510254
0.05146917328 -0.1859125644 0.7601053119 0.2976182103 -0.5292711854 0.7889447808
0.05820314959 -0.1939958185 0.7534203529 0.4384058118 -0.5504259467 0.704477787
0.05905062705 -0.1974943131 0.7495863438 0.447124809 -0.5490894914 0.7051262259
0.06426259875 -0.19089441 0.7504674792 0.5040864944 -0.5343496203 0.6713824868
0.05664604902 -0.189149186 0.7590081096 0.402910322 -0.5429589152 0.7316550016
0.04000690207 -0.2274720818 0.7375436425 0.1284586638 -0.5330566764 0.8358575106
0.03463343158 -0.2281197608 0.7365104556 0.05032752454 -0.5388358831 0.8344683647
0.02939845994 -0.23024562 0.7360541821 -0.05120616034 -0.5491064191 0.8225469589
0.01943730004 -0.222122997 0.7402330637 -0.1987816244 -0.545140326 0.8137053251
0.02231677063 -0.2171017677 0.7436491251 -0.149300158 -0.5415526032 0.8255585432
0.02497351356 -0.2264673263 0.7380179763 -0.1231389493 -0.5591199398 0.8162450194
0.08705853671 -0.1888097972 0.7158901691 0.8277454972 -0.3560184836 0.4331507385
0.08168559521 -0.1949515939 0.7234030962 0.8000978827 -0.3789895177 0.4635527432
0.0862294212 -0.1847371012 0.7241668701 0.8525899053 -0.3083886504 0.4095981419
0.0911751315 -0.1828899235 0.7206607461 0.8816898465 -0.2621691823 0.3745264113
0.08292569965 -0.1861538589 0.7315588593 0.8271120191 -0.3374070823 0.4445967078
0.09268075973 -0.1799475402 0.7139447331 0.9109728932 -0.221801281 0.3369311094
0.06508165598 -0.1084059477 0.6860482097 -0.4067339897 -0.5706787109 0.6685295105
0.07982246578 -0.106366016 0.6845686436 -0.01911250316 -0.6261491179 0.6165909171
0.07188549638 -0.107983157 0.6847113967 -0.2230758667 -0.5895422697 0.6480589509
0.09541736543 -0.1118168831 0.674577713 0.4251326919 -0.6016289592 0.6009154916
0.09032413363 -0.1076029837 0.6805796027 0.2677776217 -0.6368406415 0.5930169225
0.08660452813 -0.1022363678 0.6875391006 0.1413224936 -0.688144505 0.5750032067
0.09750688821 -0.1041931733 0.6826408505 0.4425494075 -0.6917251348 0.5541278124
0.08481617272 -0.1103200987 0.6788837314 0.13427338 -0.5936093926 0.623385787
0.09346732497 -0.1003110036 0.6879870892 0.3154005408 -0.7250061035 0.545247376
0.08130998164 -0.1002618894 0.6902936697 0.003249894595 -0.6735214591 0.5893870592
0.07635762542 -0.102737315 0.6890567541 -0.1222084984 -0.6444478631 0.6128057837
0.07484022528 -0.09799915552 0.6934719086 -0.1643888354 -0.6533837318 0.6080027819
0.07123180479 -0.1078682169 0.6965876818 -0.458797127 -0.5100803971 0.7246527076
0.06728508323 -0.1070581004 0.6918755174 -0.4769504964 -0.5397704244 0.6920689344
-0.02000606619 -0.1245565936 0.7050296068 0.7800753713 -0.42404145 0.4599575102
-0.01988391206 -0.1286229193 0.7000505924 0.7804796696 -0.4179299474 0.464885205
-0.01440896094 -0.1224675104 0.6982091069 0.7526379228 -0.4393083155 0.486548841
-0.01694637723 -0.1308409125 0.6959869266 0.7524018288 -0.4373362958 0.4892998338
-0.01926279068 -0.1196537837 0.7093151212 0.7733181119 -0.4377482235 0.4580568969
-0.0005227640504 -0.09951482713 0.6981976628 0.5505330563 -0.5969700813 0.5834980607
0.002764197532 -0.09388998896 0.7019356489 0.5358424783 -0.5963087678 0.5967757106
0.005530264229 -0.09851909429 0.6957691908 0.5001029372 -0.5937823057 0.6301003098
-0.002641667146 -0.09702076018 0.7047402859 0.594943583 -0.5772363544 0.5584487319
0.03056927025 -0.2147592157 0.7437796593 -0.02480223216 -0.5610591173 0.8218127489
0.02421872132 -0.2114151716 0.7462773919 -0.1415410787 -0.5747742057 0.8023709059
0.01735696383 -0.2083800435 0.7467715144 -0.2475937605 -0.5765832663 0.7739738226
-0.004544336349 -0.2015221566 0.7388800979 -0.6246330142 -0.4387561679 0.6431517601
0.009621115401 -0.2020543069 0.7489247322 -0.4190157056 -0.5450729728 0.7234100103
-0.001805556472 -0.2063177824 0.7379794121 -0.6025566459 -0.4349408448 0.6618632674
0.003356257686 -0.2109482735 0.7389096022 -0.4976663589 -0.4821864367 0.7196937799
0.005637012422 -0.2066266686 0.743463397 -0.4769459963 -0.5118193626 0.7129326463
0.05390862375 -0.182029292 0.7637189627 0.3265089989 -0.526452899 0.7806539536
0.05950916186 -0.1796849817 0.7617110014 0.3974209428 -0.5186449289 0.755857408
0.05489687622 -0.2159867585 0.7378877997 0.3987060487 -0.5069484711 0.7630816698
0.04875091463 -0.2241705656 0.7353386879 0.2915997803 -0.5074754357 0.8041186333
0.03039927594 -0.2194751948 0.7391018271 -0.0171495378 -0.5468723774 0.8316065669
0.04323088005 -0.2214099914 0.7379122376 0.1898040771 -0.5318387747 0.8148757219
0.03710509837 -0.2213638276 0.7380598187 0.08915269375 -0.5407195091 0.82349509
0.05001973361 -0.211427182 0.7439907789 0.282415241 -0.5440858006 0.7812975049
0.04863892496 -0.2175627798 0.7403819561 0.2771192491 -0.5236032605 0.8005348444
0.05467180908 -0.0966584906 0.6925640106 -0.3315266073 -0.6288042068 0.703003943
0.04834357649 -0.09545148164 0.6915887594 -0.2017879486 -0.6628139615 0.7141430378
0.06029773131 -0.1018653736 0.6918097734 -0.3953696489 -0.6006460786 0.6931512356
0.02116286382 -0.0933310613 0.6929353476 0.210875988 -0.6725741625 0.7021729946
0.01521728467 -0.09439248592 0.6938909292 0.3257130384 -0.6468003392 0.6863327622
0.05127643794 -0.09982534498 0.6877206564 -0.2887714505 -0.6297905445 0.7210703492
0.02103904262 -0.097103782 0.6884183884 0.2119418979 -0.6611790657 0.7165048122
0.0126250945 -0.09862735868 0.6913921833 0.3500076532 -0.6315854192 0.6915877461
0.01656431705 -0.1016188487 0.6876937151 0.2848571241 -0.6313310266 0.7149238586
0.02349144407 -0.1017636582 0.685115993 0.1857836843 -0.6439273357 0.7393603921
0.03639678285 -0.1468911022 0.6404590011 -0.04278374091 -0.6664535999 0.7440315485
0.01663473435 -0.1304603815 0.6617968678 0.2953557372 -0.6438238025 0.7030052543
0.01769314148 -0.1237406731 0.6684428453 0.2714881599 -0.6299564838 0.72442168
0.02186905965 -0.1209338382 0.6702226996 0.1961160451 -0.6365338564 0.7438931465
0.03379662335 -0.1100263596 0.6766570807 0.006948135793 -0.6410719752 0.7658516765
0.02500935458 -0.1150107309 0.673891902 0.1584677696 -0.6357979774 0.7551830411
0.02775489539 -0.1179564968 0.6699258089 0.1286552548 -0.6467471123 0.7511845231
0.03564013168 -0.1232717782 0.6641330123 -0.04397898912 -0.6601523161 0.7478913665
0.007536076475 -0.1206841022 0.6751098037 0.4252330959 -0.5893594623 0.6843692064
0.01234096382 -0.1218552515 0.6718094945 0.3412803113 -0.6094984412 0.7132578492
0.09675820172 -0.1030138209 0.6922644377 0.5963782072 -0.3910411298 0.6156577468
0.09513114393 -0.1053433642 0.6987791061 0.6082741022 -0.1310926825 0.7191912532
0.08734146506 -0.103032507 0.7060353756 0.1274698228 -0.06499893218 0.9514195919
0.09027861059 -0.1027630493 0.6963231564 0.125340268 -0.1655005515 0.9206349254
0.06992194057 -0.1362111121 0.6644499302 -0.3440532684 -0.4758113623 0.7601383924
0.06454339623 -0.1374349892 0.6619901061 -0.4113252461 -0.5478268266 0.708794713
0.03961302713 -0.1192051172 0.6705318689 -0.06867227703 -0.6435198784 0.7520049214
0.03487205505 -0.1150354147 0.6719263196 -0.0125844134 -0.6414035559 0.76692307
0.08109001815 -0.1158725843 0.7017463446 -0.4117234349 -0.3693454862 0.7776862979
0.08670924604 -0.1214438304 0.705498755 -0.1733173132 -0.1808596104 0.8454642296
0.08174812049 -0.1210552827 0.6977282166 -0.5489143729 -0.3370205164 0.7576364279
0.07689315081 -0.1139442697 0.6968756914 -0.5024279952 -0.410181433 0.7587201595
0.07079580426 -0.1213859022 0.6841449142 -0.589099288 -0.5152400732 0.6183290482
0.09754347801 -0.1419695765 0.6762369871 0.1610351205 -0.5272473097 0.5917497277
0.08882503211 -0.1540966481 0.679267168 -0.2358166575 -0.6581754684 0.5990077853
0.09860797226 -0.1447042972 0.6697053313 0.3808973134 -0.614844203 0.5569870472
0.09298766404 -0.1482822001 0.6778560281 -0.04733015224 -0.5950649977 0.5957382321
0.09539539367 -0.1388124228 0.6859658957 -0.1866173893 -0.4085057676 0.6429222822
0.08852338046 -0.1579540819 0.6743468642 -0.1097558439 -0.7471821904 0.5716310143
0.09233695269 -0.1398808807 0.6916854978 -0.4553733468 -0.3761539459 0.6710702181
-0.007016839925 -0.1448279023 0.6685019135 0.6703515649 -0.4543454647 0.5817358494
-0.003354797605 -0.1433149576 0.6639863849 0.6242133975 -0.4919372499 0.6050500274
0.02291030437 -0.1319220066 0.6601162553 0.1770281047 -0.6621131301 0.7242990136
0.03843685985 -0.1286941022 0.6623071432 -0.0723522231 -0.6552033424 0.7383853793
0.02225774713 -0.1263350248 0.6651516557 0.1917925924 -0.6495695114 0.7323507071
0.01211495139 -0.1452707201 0.6475099921 0.3475570977 -0.6452346444 0.6790841222
0.0110210944 -0.1416096389 0.6517534852 0.37005198 -0.6440321803 0.667484045
0.008035490289 -0.1389086097 0.6565639377 0.4267351031 -0.6304731965 0.6478723884
0.004868602846 -0.1437986046 0.6565780044 0.4889847636 -0.6032470465 0.62814188
0.01161761675 -0.1364043206 0.6601804495 0.3794694543 -0.6195699573 0.6788107753
0.0009815895464 -0.1367836744 0.6657107472 0.5313341618 -0.5572770834 0.6337550879
0.003222839441 -0.1402277201 0.6617561579 0.5242798328 -0.5658197403 0.629398644
-0.01980182156 -0.2118520439 0.7159923315 -0.7679677606 -0.3497055471 0.5364044309
-0.02175747789 -0.2061407268 0.7111164331 -0.7794258595 -0.3356887996 0.5285784006
-0.02139808424 -0.2047484368 0.7183174491 -0.777208209 -0.3396058381 0.5293587446
-0.02570477501 -0.1958911568 0.7081858516 -0.9016531706 -0.1532920152 0.3969885707
-0.02325228415 -0.199072808 0.7133132219 -0.8344338536 -0.255800873 0.4711012244
-0.01740932837 -0.2079126388 0.7221062183 -0.7429220676 -0.3581688702 0.5640894175
-0.01722053811 -0.1994965672 0.725597918 -0.7668895125 -0.3352119923 0.544888258
-0.01677792147 -0.1513857096 0.6758259535 0.7484664917 -0.4034222662 0.5258226395
-0.01149312779 -0.1483512521 0.6708139181 0.7262270451 -0.4067254961 0.5537273288
-0.008721617982 -0.1507771909 0.6648118496 0.7087294459 -0.408156395 0.5751168132
0.0631775111 -0.2103449106 0.7335940599 0.5531418324 -0.4560857117 0.6755660772
0.07182121277 -0.2046319544 0.7330748439 0.6736513972 -0.4538513422 0.582942903
0.06841892749 -0.2092818171 0.7336168289 0.6446571946 -0.4650159478 0.6060681343
0.06938375533 -0.2150864452 0.7286714315 0.6500117779 -0.4462983906 0.6138854623
-0.01149797346 -0.2077943981 0.7256903648 -0.7293678522 -0.3524746597 0.5836096406
-0.01379056927 -0.2123950273 0.7215776443 -0.7514720559 -0.343782872 0.5627965331
-0.006616362371 -0.2069416493 0.7327747941 -0.6759255528 -0.3879263699 0.6260374784
-0.01181319542 -0.2027564049 0.7295251489 -0.7091321349 -0.3655191958 0.602865696
0.001837616088 -0.1993893534 0.7451871634 -0.5365877748 -0.4994083047 0.6767265797
-0.00357610709 -0.1964669973 0.7436524034 -0.606026113 -0.4655549228 0.644582212
0.0438384749 -0.1978947371 0.7551254034 0.2102628499 -0.576289475 0.7824445963
0.04661485553 -0.2033325285 0.7518830895 0.2409775704 -0.5824016333 0.7722956538
0.05193687603 -0.2057628334 0.7470760942 0.3296264112 -0.5801725388 0.7402890325
0.05108811706 -0.1966921687 0.7545060515 0.3182458282 -0.5697365999 0.7547497153
0.05353518948 -0.200708136 0.7504864931 0.3618550599 -0.5716823936 0.7360284925
0.05202071741 -0.1919978261 0.7595797777 0.3369496167 -0.5576588511 0.7575436831
0.08017626405 -0.1935993433 0.7288399935 0.8083871007 -0.363647908 0.4614987671
0.08380971849 -0.1987753361 0.7183066607 0.8311495781 -0.3475470841 0.4337926209
0.08674650639 -0.1918705404 0.7218003869 0.8588628769 -0.3043723404 0.4031226933
0.09350673854 -0.1865600497 0.7169023156 0.8926890492 -0.2526083291 0.3599396348
0.08647747338 -0.1362850964 0.6909299493 -0.5937244892 -0.4599018395 0.6310714483
0.08438891172 -0.1404379159 0.6834495068 -0.5568292141 -0.6588335633 0.494448483
0.09454327822 -0.1325343847 0.66436553 0.2484066635 -0.3778788447 0.858297646
0.08200187236 -0.1327437609 0.6877808571 -0.6189622879 -0.5602339506 0.528891623
0.08059180528 -0.1248690188 0.693539083 -0.6244495511 -0.367058903 0.6810450554
0.07011147588 -0.1248041317 0.6794791222 -0.5728005171 -0.5614340901 0.596198082
0.06994586438 -0.1136417538 0.6886858344 -0.5131124258 -0.4865289629 0.6993109584
0.07455062121 -0.1200283542 0.6900320649 -0.5988419056 -0.4565679431 0.6487552524
-0.01843179762 -0.1353834271 0.6918098927 0.7688794136 -0.4210236073 0.4807394147
-0.01866341569 -0.1418887228 0.6891684532 0.7616916895 -0.4099988639 0.4983488321
-0.01590845361 -0.136891827 0.6853069663 0.7540317774 -0.4204707742 0.5041085482
-0.02172095329 -0.1469524652 0.6895667911 0.7843108773 -0.3913728297 0.4809768796
-0.01665858738 -0.1425478309 0.6823104024 0.7684035301 -0.4016953707 0.4976532161
-0.01825842634 -0.1481216401 0.6811339259 0.7715101838 -0.3920386434 0.5007686019
-0.0121011585 -0.1415819824 0.6778334975 0.7226128578 -0.4240444899 0.54517138
-0.01676956005 -0.1117437556 0.7177500129 0.7323493361 -0.48679775 0.4732821584
-0.01461367588 -0.1080396101 0.7106725574 0.7166970372 -0.5056605935 0.4783619344
-0.01940916851 -0.1106200069 0.7241958976 0.7428078651 -0.4729813337 0.4721731842
-0.007477408275 -0.1005073115 0.7077293992 0.6485206485 -0.5641798973 0.5080963969
0.04413964599 -0.2078935206 0.7478386164 0.1973061562 -0.5958512425 0.7751076221
0.0355254598 -0.2120132297 0.7465540171 0.05175828561 -0.5781611204 0.8137609959
0.04229318351 -0.2138929069 0.7449259758 0.1348660141 -0.5608023405 0.8148295879
0.0384969525 -0.2080762088 0.7496612668 0.09305772185 -0.5933746696 0.7967162132
0.04044331238 -0.2186395079 0.7425904274 0.1176266819 -0.5624777675 0.8166139126
0.03261827677 -0.2050128728 0.7524008155 0.01201868989 -0.601189971 0.796630919
0.02507971786 -0.2067535073 0.7506781816 -0.1221602261 -0.5907332301 0.7932989001
0.02999984659 -0.2098901719 0.7487903833 -0.03405873105 -0.5811854005 0.8088644743
0.02729483508 -0.20263125 0.7544264197 -0.07316376269 -0.5954284072 0.7977215648
0.01674075052 -0.1059123576 0.6823910475 0.2936064899 -0.6154077649 0.7311813831
0.03182892501 -0.1058806702 0.6804355979 0.04304720089 -0.6391145587 0.7631152272
0.03948295116 -0.1025698781 0.6831342578 -0.09198638052 -0.6395385265 0.7586612701
0.04001878202 -0.09737002105 0.6868131757 -0.08572179824 -0.662130475 0.7412726283
0.1039987877 -0.1370758414 0.6676951051 0.6433652639 -0.5662056804 0.495860666
0.1035569534 -0.1330420673 0.6750025749 0.4358525276 -0.4749773145 0.5021418333
0.1089716405 -0.1252804995 0.6734932661 0.6997761726 -0.4459789693 0.3998830318
0.1012299433 -0.1323193908 0.681597352 0.1677469909 -0.410073489 0.540289402
0.1068204343 -0.1311117858 0.6700670123 0.6996507049 -0.5098811984 0.4444357753
0.1010561511 -0.1389005929 0.6723681092 0.4006248116 -0.5317178369 0.5526197553
0.103781864 -0.1267667562 0.6665166616 0.5599249005 -0.5493140817 0.5965994
0.09932516515 -0.1298041791 0.6650591493 0.4077988863 -0.471141398 0.7481729388
0.09921445698 -0.1403351873 0.6655415893 0.4437285662 -0.4954301417 0.6911010742
0.09174697846 -0.1535379887 0.6713403463 0.06878592074 -0.6682865024 0.6124110222
0.07940453291 -0.1510669291 0.6555523872 -0.2152469605 -0.3929496706 0.8108602762
0.09271026403 -0.1408398002 0.6628443599 0.1583269835 -0.3459537625 0.8948203325
0.08843204379 -0.1457568109 0.6611523628 0.03003397584 -0.3441725671 0.8776578903
0.07378968596 -0.1516366005 0.6515231729 -0.3594766557 -0.4300873876 0.7668225765
0.08638979495 -0.1400428712 0.6616945863 -0.03573981673 -0.2471458465 0.937693119
0.01820834912 -0.1363013834 0.6556847692 0.2607783079 -0.6605184674 0.6988609433
0.01846195571 -0.1465388536 0.6466645598 0.2575612366 -0.6500862837 0.7107676864
0.02258349769 -0.1416163296 0.6504663229 0.1927696615 -0.6767733693 0.7091571093
0.01677412167 -0.1414266676 0.6516957283 0.2900865674 -0.6563720107 0.6945279837
0.0319131799 -0.1313863993 0.6599110365 0.02532813326 -0.6639814377 0.7316884995
0.0280615557 -0.1335992366 0.655761838 0.0802270025 -0.6626729369 0.7405984998
0.03938107193 -0.1317437291 0.65706563 -0.1059744358 -0.6697386503 0.7299440503
0.04190231115 -0.1362429559 0.655257225 -0.1510049701 -0.6707069278 0.7205055356
0.0505936034 -0.1268087178 0.6652874351 -0.2664034665 -0.6212001443 0.7328416109
0.0475871712 -0.1211304143 0.6698917747 -0.1924172044 -0.6383452415 0.7411726117
0.05394720286 -0.1193830445 0.6728655696 -0.3218923509 -0.605881393 0.7236271501
0.0455102101 -0.1304754168 0.659722805 -0.1945779771 -0.6403037906 0.7383209467
0.09409471601 -0.1938475072 0.7070117593 0.8611606956 -0.3040994704 0.3927590847
0.0969427824 -0.1869639903 0.7099925876 0.8924899101 -0.2552798688 0.3561680317
0.07215388119 -0.1546154171 0.6563711166 -0.4549636543 -0.5235839486 0.7147538662
0.08296898007 -0.1501333266 0.661596477 -0.1533198655 -0.4410874248 0.8064344525
-0.0002543023729 -0.1452893913 0.6600154638 0.5876735449 -0.528572917 0.6116412282
0.007605076768 -0.1497215778 0.6440916657 0.407282263 -0.6270965338 0.6607422829
0.004425878171 -0.1480737627 0.651217103 0.4829543531 -0.5894103646 0.6382046938
-0.0001581354154 -0.1508090794 0.6544388533 0.5737896562 -0.528621614 0.6145381331
-0.003844847437 -0.1503434181 0.6595749855 0.6436571479 -0.4738515913 0.5981299877
0.06090906635 -0.2024477869 0.7455995083 0.4832927585 -0.5428503752 0.6836223602
0.06756515056 -0.2022727281 0.7385946512 0.6030408144 -0.4859756529 0.6203069091
0.05644786358 -0.2082377523 0.7434903979 0.4165146947 -0.532353878 0.7317084074
0.06423309445 -0.2058240324 0.7411110401 0.5577441454 -0.5110661387 0.6519070268
0.06234593689 -0.21795021 0.7372569442 0.5067346096 -0.4864882231 0.7081196904
0.06334147602 -0.2125120312 0.738936305 0.5325894356 -0.4971423745 0.6824100018
0.08254472911 -0.1529480964 0.6753612161 -0.3375362754 -0.7212490439 0.5734235048
0.08063912392 -0.1469049901 0.6760936975 -0.4223335087 -0.6778893471 0.5672867894
0.06529381126 -0.1215403527 0.6755455732 -0.4223898053 -0.5745648742 0.6725358963
0.07817489654 -0.1187420338 0.6732651591 -0.05812295899 -0.5645578504 0.6698520184
0.09302528948 -0.1192628592 0.6690387726 0.3313894868 -0.5549533963 0.6654744744
0.07134307921 -0.1205619276 0.6743315458 -0.2540493309 -0.5700384974 0.6711605191
0.08614284545 -0.1211775467 0.6700783968 0.1333507448 -0.5605165362 0.6667647958
0.0888504833 -0.1158620045 0.6724241972 0.2488503009 -0.5761823058 0.6332062483
0.05917592719 -0.1209201962 0.6747410893 -0.4157226086 -0.5838333964 0.6881043911
0.06004791334 -0.1102759242 0.6836747527 -0.4298061728 -0.5855327845 0.6850053072
0.06405930221 -0.1160956249 0.6819607615 -0.4937978387 -0.568408668 0.6513661742
0.05581504479 -0.1148138866 0.6772617698 -0.3609789014 -0.5950921178 0.715329051
0.06947305799 -0.1154731214 0.6795367002 -0.3249657154 -0.5738992095 0.6532318592
0.08396466076 -0.1150273904 0.6749598384 0.1036189869 -0.5797793269 0.6295213699
0.0752332136 -0.1142591909 0.6799117327 -0.1951558143 -0.5743017793 0.6378194094
0.06028186902 -0.1250400543 0.6705702543 -0.4206392467 -0.5881374478 0.6896593571
0.07943468541 -0.1302544177 0.6661499739 -0.07845623046 -0.4292706847 0.7901656628
0.07286181301 -0.1309853941 0.666433394 -0.2289790809 -0.4587848485 0.7740808725
0.09159961343 -0.126674369 0.666159451 0.2304604203 -0.4255688787 0.777633667
0.06572641432 -0.1286692768 0.6674866676 -0.350033462 -0.5619248152 0.6975567937
0.08612178266 -0.1277058721 0.6662943959 0.09926316142 -0.4405103922 0.7722495794
0.08600120991 -0.1338935494 0.664819181 0.01241369732 -0.2998818755 0.8892245293
0.09803178161 -0.1218334734 0.6669257283 0.438878119 -0.5068099499 0.7077986598
0.06947186589 -0.1299329698 0.6739361882 -0.5102618933 -0.5958322883 0.6174670458
0.07351784408 -0.1243354678 0.6706804037 -0.1915262043 -0.5716860294 0.6724250317
0.07980223745 -0.1237957701 0.6681652665 0.00511496095 -0.5680574179 0.6731216311
0.07654156536 -0.1350763589 0.6650787592 -0.20385544 -0.3583037555 0.8521844149
-0.01491125114 -0.1185254827 0.7022342086 0.752071619 -0.452134639 0.4771732092
-0.01336375438 -0.1129901111 0.7055440545 0.7261678576 -0.4930140674 0.47770226
-0.01070383284 -0.1125366092 0.6999080777 0.690102756 -0.5064833164 0.5146775246
-0.009525288828 -0.1079942957 0.7041488886 0.6698618531 -0.5308064222 0.5172445774
0.004196850583 -0.1259213835 0.6730546951 0.4797242284 -0.5793583393 0.6583513021
0.0005947473692 -0.1256264597 0.6771342754 0.536008358 -0.553935647 0.6368750334
-0.004933263641 -0.1260000616 0.6817227006 0.6088584065 -0.5116134286 0.6033003926
-0.001909265993 -0.130034253 0.6746596694 0.5619969964 -0.5385115743 0.6265802979
-0.003335941816 -0.1353968531 0.670992434 0.594358325 -0.519693315 0.6132490635
-0.01370785292 -0.1314273775 0.6880366802 0.7159371972 -0.452747792 0.5229910016
-0.009832032025 -0.1317997277 0.6818732619 0.6734541655 -0.4684284329 0.5689508319
-0.007751228288 -0.1224689335 0.6876990795 0.6634394526 -0.4925041795 0.5598363876
-0.01160051767 -0.1264982522 0.6894729137 0.7045066953 -0.4663326144 0.5284195542
-0.01223140862 -0.1210481077 0.692774415 0.7151955962 -0.4639032483 0.5223107338
0.02084359154 -0.198759228 0.7565006018 -0.1889377832 -0.5834686756 0.7860310674
0.01514896285 -0.1972123981 0.7558228374 -0.27936849 -0.5743870139 0.7692427039
0.01741214469 -0.2035407275 0.7520558834 -0.258769244 -0.5754781365 0.7744461298
0.04088856652 -0.1125727966 0.6749437451 -0.109909825 -0.6399812102 0.7561252713
0.03935443237 -0.1079511121 0.6787518859 -0.0841081962 -0.6396035552 0.7602261901
0.0460088402 -0.1058311164 0.6815373898 -0.2036804706 -0.631115675 0.7463672757
0.05466625467 -0.1059552953 0.6846857667 -0.3432704806 -0.6010209918 0.7205178738
0.04892868176 -0.1104890406 0.6774228215 -0.2588104606 -0.6243727207 0.7343415022
0.04922514036 -0.115340881 0.6741971374 -0.2480861992 -0.6197339892 0.7399126887
0.02954618633 -0.1448924541 0.6455150843 0.05786582083 -0.6636134982 0.7415291667
0.03476499021 -0.1380024105 0.6522220969 -0.0292849429 -0.6836404204 0.7285366058
0.02798855491 -0.1409206986 0.649327457 0.08153332025 -0.6696748734 0.7339593768
0.03900946304 -0.1420861036 0.6498773694 -0.1051082015 -0.6786327958 0.7201920152
0.0359772332 -0.1425947398 0.6454362273 -0.0428301841 -0.6745350361 0.7368010283
0.04360492155 -0.1423334181 0.6461194754 -0.1587091833 -0.6676854491 0.7256835699
0.003097425448 -0.1311334968 0.669647634 0.4998662472 -0.5741786361 0.6475934386
0.007360753603 -0.1332051009 0.6638376713 0.4340913296 -0.6089001894 0.6634024382
0.09499355406 -0.1221865043 0.7039186358 0.1151751429 -0.1340165436 0.7389168739
0.09327552468 -0.127880007 0.7020891905 -0.2557356358 -0.1716966033 0.7307307124
0.09186330438 -0.1196593195 0.7157478929 0.3016491532 -0.02639951743 0.9452354908
0.0910679549 -0.1251624078 0.7088676095 -0.1101662815 -0.108584933 0.8555042744
0.09796389937 -0.1194815785 0.6987016201 0.2802832127 -0.1665675342 0.6309019327
0.0897712186 -0.1350562423 0.6967862844 -0.6342049241 -0.3076878786 0.7069231868
0.08644881845 -0.1297527701 0.6970527768 -0.6031849384 -0.279101789 0.7438836694
0.1070999876 -0.1237996519 0.6789838076 0.5671861172 -0.3868476748 0.4357629418
0.1021754369 -0.1171213388 0.6927885413 0.6013633609 -0.2208345234 0.5532115698
0.09951216727 -0.1294518113 0.6888498664 -0.01177164726 -0.3270175159 0.5710455179
0.1015466303 -0.1225730777 0.690041244 0.3559484184 -0.2771327794 0.5501422286
0.09521712363 -0.1333500594 0.6939345002 -0.3671764135 -0.3017415404 0.645618856
0.09688340127 -0.1261119246 0.6960579157 -0.002443652833 -0.2411645949 0.6330956817
0.1040774584 -0.1240021437 0.6843795776 0.4177437127 -0.3378283679 0.4955228865
0.09777421504 -0.1786138266 0.7090549469 0.9387042522 -0.1360497922 0.3132311404
0.08931407332 -0.1749631613 0.6945789456 0.4722460806 -0.486821115 0.3820717335
0.08919721097 -0.1850496978 0.7033546567 0.8305971622 -0.3299838305 0.2835363746
0.08643373847 -0.1641113907 0.6782671809 -0.1022381708 -0.7382520437 0.5400369167
0.09286626428 -0.1779813021 0.6992723942 0.6401391029 -0.3327198327 0.4018569589
0.09483885765 -0.1830575764 0.7064241767 0.8938561678 -0.2005895972 0.3528724313
0.08882130682 -0.1778851151 0.6900544167 0.3187972605 -0.5624658465 0.4947170913
0.08770927042 -0.1714850664 0.684153676 0.1075163707 -0.6510879993 0.5249347091
0.09011933208 -0.1906509697 0.7036228776 0.827057004 -0.3466879427 0.3651880026
0.08880266547 -0.1824285686 0.6960900426 0.5560127497 -0.4590235949 0.4062277675
0.09213156253 -0.1395646185 0.7003484368 -0.4790455699 -0.2204470783 0.6705221534
0.09277676791 -0.1535807103 0.7044373155 0.03743534535 -0.2052076906 0.5419813395
0.08678141981 -0.1448014528 0.688926518 -0.3814545274 -0.5465684533 0.5004786849
0.09200431406 -0.1682558656 0.7035535574 0.5288170576 -0.3078664839 0.3694248796
0.08877240866 -0.1541612297 0.6945695877 -0.01894077472 -0.4560680687 0.4460316598
0.09314782917 -0.1736199111 0.7067927718 0.7365920544 -0.2558738291 0.3382790089
0.09298121929 -0.1626472473 0.7046858668 0.3288413584 -0.251439184 0.452029556
0.08888117224 -0.166085273 0.6885159612 0.172045961 -0.5640568137 0.4702669084
0.08940522373 -0.1606871635 0.6965628266 0.2164482623 -0.4359813333 0.3974251747
0.08808216453 -0.1599088162 0.6893617511 0.04433837533 -0.5550399423 0.4542049468
0.0851091221 -0.1470858455 0.6832608581 -0.3885356486 -0.665546298 0.4840810895
0.09285216779 -0.1459811777 0.699981153 -0.287211597 -0.2488383055 0.6151044369
0.08846586198 -0.1607850492 0.6833459139 -0.09391901642 -0.6132378578 0.5490400791
0.09168305993 -0.1490594447 0.6956833601 -0.2628342509 -0.3422705233 0.6045137644
0.09325833619 -0.1658525318 0.6981884241 0.3595040441 -0.3055324852 0.4493795931
0.09365423024 -0.1586541384 0.7006097436 0.1586434394 -0.2476845533 0.5027659535
0.08897151053 -0.1546410322 0.6859598756 -0.255038172 -0.5523380637 0.5925534368
0.09356305748 -0.1725124121 0.6981377602 0.5866246223 -0.3129494786 0.3917730153
0.05150923505 -0.1495773643 0.6478008032 -0.3257363439 -0.6380307674 0.6923553348
0.0574259311 -0.1509082019 0.6491281986 -0.4039967358 -0.6035655737 0.6833180189
0.07426603138 -0.1519848704 0.6624616981 -0.4074809253 -0.585441649 0.6983358264
0.06163866073 -0.1445604265 0.6560471654 -0.4334650338 -0.5766581893 0.6913636327
0.0670235008 -0.1460905522 0.659095943 -0.4626651406 -0.5409986973 0.7013314366
0.06751079112 -0.1509010047 0.6557240486 -0.4655973017 -0.5214750171 0.7138941884
0.06388499588 -0.1532441378 0.6493110657 -0.4726797342 -0.5321802497 0.698548913
0.07568020374 -0.1398917139 0.6610453725 -0.2153837085 -0.366276294 0.8462479115
0.07275138795 -0.1464049369 0.6563349962 -0.3289467692 -0.4121943712 0.7950079441
0.0139770247 -0.1150618643 0.6767338514 0.3374443054 -0.5962609053 0.727583766
0.008168905973 -0.1163187847 0.6799118519 0.4196106195 -0.5800372958 0.6896606088
0.01364072878 -0.1105491966 0.6806511879 0.334043771 -0.6027603745 0.7240967155
0.02494041622 -0.108533144 0.6786737442 0.1589540839 -0.6383704543 0.7519006729
0.010405262 -0.1034564376 0.6883512139 0.3794094026 -0.6098316312 0.6940216422
0.01925278082 -0.1125236005 0.677590847 0.2445192039 -0.6199464202 0.7390303612
0.07485605031 -0.1315995902 0.6784459949 -0.5901984572 -0.587539494 0.5506470203
0.07411631197 -0.1264421195 0.6829336882 -0.6241003871 -0.5436269641 0.5589069724
0.0785247758 -0.1270216554 0.688771069 -0.6406080127 -0.5019699931 0.5692961216
0.07987551391 -0.1339962035 0.6827881932 -0.6268852353 -0.6134357452 0.4791385829
0.07856335491 -0.1372581422 0.6784251928 -0.5650500059 -0.6172919273 0.5416111946
0.0765055865 -0.1402932256 0.6711931229 -0.4450065792 -0.5771135688 0.6752894521
0.07018020749 -0.1425422281 0.6644585133 -0.492249161 -0.5527803302 0.6704718471
0.07127540559 -0.1368270963 0.6704235673 -0.5256396532 -0.5670495629 0.630041182
0.05309849605 -0.1329192817 0.6617870331 -0.3140769601 -0.6118451953 0.7226985693
0.05591452494 -0.1284053922 0.6663817763 -0.3440037668 -0.6082767248 0.7130396366
0.06106622517 -0.1314281672 0.6654012203 -0.4282289743 -0.5860214829 0.6873801947
0.05866691098 -0.1352703869 0.661590755 -0.3979202807 -0.5906892419 0.7006083727
0.05859358981 -0.1403264701 0.6571727395 -0.4069283009 -0.5951794982 0.6917939186
0.001815045136 -0.114552401 0.6840384603 0.5172952414 -0.5520343184 0.6514134407
-0.001340635703 -0.1132018045 0.6889657974 0.5739334822 -0.5365066528 0.6095841527
0.004762697034 -0.1102229729 0.6857074499 0.4810382724 -0.5641341805 0.6685444713
-0.00133256102 -0.1191970184 0.6825060844 0.5578680634 -0.5421757698 0.624813199
-0.005844341125 -0.1145082042 0.6923831701 0.6461669207 -0.5154976845 0.5615823865
0.09018191695 -0.1477275491 0.666405797 0.04567218944 -0.4076661766 0.8636226058
0.07606384158 -0.1570881158 0.6600216627 -0.366286993 -0.598233223 0.6841644049
0.07008992136 -0.1567264646 0.6509188414 -0.4806285799 -0.5027034283 0.7047981024
0.0816013813 -0.1589552462 0.6684256196 -0.2767628431 -0.6995816231 0.6353987455
0.07827928662 -0.1550354064 0.665263176 -0.3368708193 -0.6365354657 0.6876145601
0.07525032759 -0.1460928023 0.6660547853 -0.5036373734 -0.5557945967 0.6543610692
0.0795436278 -0.1502621472 0.6702542901 -0.3735702932 -0.6431307793 0.6429317594
0.0002284428192 -0.1067158133 0.6938576698 0.5471958518 -0.5615019202 0.612977922
-0.005107119214 -0.1097194552 0.6977522373 0.6190458536 -0.5262624621 0.5749195814
0.005471604411 -0.1058734655 0.6890328526 0.4723529518 -0.5786637664 0.6641961932
-0.006390826311 -0.1039503291 0.702281177 0.6263212562 -0.5559154749 0.5461560488
0.0847672224 -0.1525229216 0.6674200892 -0.1322192252 -0.566223681 0.7647971511
