# .PCD v0.7 - Point Cloud Data file format
VERSION 0.7
FIELDS x y z normal_x normal_y normal_z
SIZE 4 4 4 4 4 4
TYPE F F F F F F
COUNT 1 1 1 1 1 1
WIDTH 512
HEIGHT 1
VIEWPOINT 0 0 0 1 0 0 0
POINTS 512
DATA ascii
0.07960596681 -0.2132770717 0.7163617611 0.7968408465 -0.4019406438 0.4427777827
0.09927864373 -0.109276332 0.6871595383 0.7586323023 -0.190249905 0.5904467702
0.08397435397 -0.1464007497 0.6612135172 -0.07164803147 -0.2923737466 0.8881576061
0.08394922316 -0.1519308388 0.6624603271 -0.2541071773 -0.09826266766 0.8870838881
0.09057635814 -0.1468502134 0.6634889245 -0.05639121681 -0.0525348708 0.9588973522
0.01701760106 -0.2308330536 0.734593749 -0.1901521087 -0.5271481872 0.8015807271
0.07772663236 -0.2068993002 0.7220492959 0.7880063653 -0.4150189161 0.4523529112
-0.02108696848 -0.1146081239 0.7134475708 0.783986032 -0.4367718697 0.4404507577
0.09744140506 -0.1062095836 0.6830542088 0.5855571032 -0.5619958043 0.5834690928
0.08302875608 -0.2081030458 0.713001132 0.8893507719 -0.2997225523 0.3406047225
-0.02195061557 -0.1062251255 0.7226138711 0.7573282123 -0.4588637948 0.464200139
-0.02243078314 -0.1137200296 0.7281781435 0.7746796608 -0.4484278262 0.4454892576
-0.0247076489 -0.1192051172 0.7251762748 0.7931869626 -0.4309429526 0.4296548367
-0.01055851951 -0.1550266743 0.6641651988 0.6675925851 -0.4298037291 0.6077000499
-0.009335853159 -0.148337841 0.6681175232 0.6747311354 -0.4539147913 0.5807338953
-0.01678402722 -0.146961242 0.6806063652 0.7483024597 -0.4326822162 0.50205338
-0.01262613945 -0.1430038363 0.6783803105 0.7093502283 -0.4566478431 0.5358361602
-0.01186124422 -0.2074918747 0.7294672132 -0.6975312829 -0.3763212264 0.6044703126
-0.01405898016 -0.211863637 0.7244172096 -0.725751102 -0.3537417352 0.5895041227
0.08188141882 -0.1579076201 0.6645601988 -0.4216641784 0.0337006636 0.8489935994
0.0742931366 -0.1569937021 0.6635712385 -0.4302642941 -0.2565713525 0.8339611888
0.06959462166 -0.1441221833 0.6677429676 -0.4917878211 -0.5564395189 0.6636227369
0.07201503217 -0.1495991498 0.6652746797 -0.5027567744 -0.4379658997 0.73016572
0.07005864382 -0.1563773751 0.6588969231 -0.4408229291 -0.3637835085 0.7983958125
0.07305824757 -0.1513094008 0.6581367254 -0.3010727167 -0.4340817332 0.8008065224
0.07785667479 -0.1470829397 0.6593055725 -0.1400083452 -0.4075882137 0.8389234543
0.04335219041 -0.1856316924 0.7692680359 0.2089497447 -0.5968416333 0.770242095
0.05182678252 -0.2060789317 0.7499357462 0.3454451859 -0.5709600449 0.7425031662
0.08634273708 -0.1073538139 0.7067784071 0.2321756929 0.06193661317 0.8969951272
0.09520065784 -0.1109204665 0.6965164542 0.7049268484 0.05344872177 0.6815699339
0.05058592558 -0.2097717077 0.7459027767 0.3453559279 -0.5690201521 0.7445108294
-0.02415689453 -0.1222189292 0.7188364863 0.8015929461 -0.4220105708 0.4232107103
0.0144000696 -0.225676015 0.7350506783 -0.2787688076 -0.5143678188 0.7856024504
0.02210132778 -0.2275616378 0.736065805 -0.1177646741 -0.5345401168 0.8246418834
0.05609962717 -0.2329586446 0.7293230891 0.4020382762 -0.5609070063 0.7207658291
0.08500208706 -0.1982840151 0.7128462791 0.9310804605 -0.2214118242 0.2824323475
0.08576107025 -0.1950779408 0.7079077959 0.9439389706 -0.1584950984 0.2623545527
0.07898045331 -0.1983155608 0.7276610732 0.7973949909 -0.3978662193 0.4536505938
0.0841909349 -0.1979708821 0.7197351456 0.8689790964 -0.3132598102 0.3723047972
0.08800666034 -0.2028301656 0.7073895931 0.9350161552 -0.2241405249 0.2738333941
0.07977844775 -0.2016090304 0.7216922045 0.8284285665 -0.3552055061 0.402661711
-0.01546430215 -0.2161069661 0.7186768651 -0.7584367394 -0.3596043587 0.5352457166
-0.01990314946 -0.2122682482 0.7124559283 -0.8190723062 -0.2678828239 0.4689809382
-0.02683641762 -0.2060941011 0.7028675079 -0.8949248195 -0.09329091758 0.3737529516
-0.02550051175 -0.2097238749 0.7081242204 -0.8452321887 -0.2453420609 0.4401750267
0.01368647534 -0.1941010207 0.7621267438 -0.2983317077 -0.5748429894 0.7607424855
0.01946794428 -0.1967100054 0.7611473203 -0.1998500228 -0.5908181071 0.7757396698
0.03498027846 -0.1850412935 0.7707248926 0.0397118628 -0.5903833508 0.8052780032
0.02498046309 -0.1919572651 0.7653992772 -0.1117097065 -0.5923457742 0.7973753214
0.03048868477 -0.1929671913 0.7643305659 -0.009895382449 -0.6013306975 0.793925941
0.02674329281 -0.1963973343 0.7607962489 -0.07471073419 -0.607548058 0.7884864807
-0.0150339948 -0.1507820785 0.6744853258 0.7198911309 -0.4376339316 0.5383366346
-0.01973521337 -0.1541730016 0.6792651415 0.7493779063 -0.4262851477 0.5064514875
0.08636818081 -0.1845938265 0.7137615085 0.9347367883 -0.09013102204 0.2848444879
-0.01496394072 -0.1079651192 0.7108699083 0.7472820878 -0.4668375254 0.4720251262
0.05860058591 -0.09618216753 0.6986033916 -0.4077241421 -0.6137513518 0.6750289798
-0.01307225227 -0.1362463534 0.6830487251 0.732920289 -0.454321295 0.5059800148
-0.007893394679 -0.1371096671 0.6768045425 0.6519386768 -0.4986995459 0.5674850941
0.03018693998 -0.08934559673 0.6972455382 0.04706545174 -0.7054815292 0.7016407251
0.0292828884 -0.09461474419 0.6915666461 0.06147190556 -0.6756724119 0.7297393084
-0.02513108775 -0.1747354269 0.6845236421 0.1633424908 -0.2387628704 0.4254984558
-0.02422092482 -0.1636471897 0.6801357865 0.7440831065 -0.3323704302 0.4874247015
-0.01913600415 -0.2100110501 0.7214492559 -0.7672501802 -0.3458068669 0.5381785631
-0.01721360348 -0.2042340189 0.725189507 -0.7504342198 -0.343503058 0.5645638108
-0.02259803563 -0.2146492153 0.7182682157 -0.7865582108 -0.3540391922 0.5040909052
-0.02368941158 -0.2185943276 0.7136067748 -0.8037144542 -0.346971482 0.4832396805
-0.02284627222 -0.2044674307 0.7217857242 -0.7760856152 -0.3519090116 0.5205773115
-0.01137072034 -0.1985496581 0.7375628352 -0.6670533419 -0.4364279211 0.6017738581
-0.01890741661 -0.2223071605 0.7182480693 -0.7528847456 -0.3605724573 0.5428441167
-0.01400239486 -0.22143583 0.7227655053 -0.7068309784 -0.3664645553 0.6018561721
0.002733535133 -0.222272113 0.7332382798 -0.4965795577 -0.4743325114 0.7218953967
-0.009878234006 -0.21729213 0.7280697227 -0.668546617 -0.3899721503 0.6328600645
0.07957793027 -0.09992061555 0.6947297454 0.05371594056 -0.5819212198 0.6437752247
0.07806127518 -0.10481406 0.6911064982 -0.02198811248 -0.5644304156 0.6365236044
0.08488520235 -0.1036578491 0.6892350912 0.2230374366 -0.5728820562 0.6164927483
0.06585940719 -0.1007006988 0.6960180998 -0.3409266472 -0.5891208053 0.6601968408
0.07254030555 -0.1012241021 0.6937666535 -0.1329594702 -0.5867350698 0.6438382864
0.09171868861 -0.1429092288 0.684238255 -0.3038552403 -0.4610888064 0.4526894689
0.09342195839 -0.1473516375 0.6797587276 0.1524626166 -0.3803421557 0.3068284094
0.09805198759 -0.1452989131 0.6720032692 0.5340553522 -0.384663552 0.3891149163
0.09001442045 -0.1565313488 0.6830666661 0.337789923 -0.2556749582 -0.01361365244
0.09373065829 -0.1527841687 0.6774988174 0.516445756 -0.2924036682 0.1235821694
0.09645502269 -0.1528629363 0.6723227501 0.8122389317 -0.2660847902 0.1399509758
0.09240556508 -0.1597522646 0.6755250096 0.7224021554 -0.1013967395 0.004621912725
0.1012390554 -0.1197744012 0.6714353561 0.6628773808 -0.476151228 0.57694906
0.09885118902 -0.1111394688 0.6769029498 0.6082665324 -0.5422312021 0.5771944523
0.1073503196 -0.1181674898 0.6727125645 0.7156170607 -0.4501883388 0.533536613
0.04588321224 -0.2032980621 0.7547054887 0.2554168105 -0.5864640474 0.7670007348
-0.02532091178 -0.1411705166 0.702673912 0.8016396165 -0.4122877419 0.4325421751
0.009358490817 -0.2317413241 0.7363868356 -0.3419632316 -0.4986594915 0.7848177552
0.01443680841 -0.2301757783 0.7410749197 -0.2490658015 -0.4911616445 0.8248383403
0.01155971736 -0.2241867781 0.7413908243 -0.3031854928 -0.497317344 0.8020288348
0.007020256948 -0.2266111225 0.7367571592 -0.3860036731 -0.5037352443 0.7662750483
0.02256526798 -0.2065953016 0.7518981695 -0.1299428046 -0.6043931246 0.7758837938
0.02934297547 -0.2061770409 0.7536436915 -0.01888235658 -0.6129812002 0.7881940603
0.09122849256 -0.1467599422 0.7062993646 -0.1359605789 -0.2106090188 0.5720817447
0.08867114037 -0.1710338891 0.7000842094 0.6298653483 -0.03694726154 0.265285939
0.09055025876 -0.1516156346 0.7022410631 -0.08030936867 -0.222080633 0.4753312469
0.08779123425 -0.1477033943 0.6936180592 -0.5372399688 -0.4080652893 0.403812021
0.09109787643 -0.1604223847 0.7036236525 0.323579073 -0.09936322272 0.4097404182
0.08892163634 -0.1613778621 0.6966565251 0.1207844317 -0.2028816789 0.3131742179
0.09022475034 -0.1414255202 0.7016222477 -0.5136500001 -0.3479717076 0.5635533929
0.0522332415 -0.1841793954 0.7684785724 0.3056268692 -0.5945487022 0.742349267
0.04490024224 -0.216211915 0.7451497316 0.2374339104 -0.5767365694 0.7815212011
0.05788508803 -0.2264440954 0.7308293581 0.482617557 -0.5217338204 0.700704515
0.07050449401 -0.2234874219 0.7237620354 0.6546645761 -0.4735367298 0.5817245841
0.06557636708 -0.2278045714 0.7252195477 0.5739552379 -0.4995280802 0.6303625107
0.07052530348 -0.2166273445 0.7246410847 0.674515903 -0.4659053385 0.5679881573
0.07531122863 -0.2177462727 0.7205659747 0.7293929458 -0.4438527226 0.5181275606
0.0637415722 -0.2225651145 0.7285444736 0.5714521408 -0.4948678911 0.651325345
0.06631471962 -0.2177544087 0.7305282354 0.6073222756 -0.4750266969 0.6330735087
0.06645022333 -0.21210365 0.7344721556 0.6197158694 -0.4800557196 0.6180882454
0.003946984187 -0.2146154791 0.7405934334 -0.4503262043 -0.4923294485 0.7414441705
-0.004724125843 -0.2134736627 0.7342194915 -0.6077936888 -0.4247986376 0.6700254083
-0.001530666836 -0.2106936127 0.7403584719 -0.5636475086 -0.4434512854 0.6955416203
-0.0008971773786 -0.2186179161 0.7363561392 -0.5340709686 -0.4568403959 0.7099320889
0.02479299344 -0.2218112797 0.7414873838 -0.04379507154 -0.5386952162 0.8408282399
0.07035012543 -0.211298883 0.72862643 0.6766811609 -0.4569480419 0.5654666424
0.07144114375 -0.2064539343 0.7330724001 0.686165452 -0.4677965045 0.5560275316
-0.02319025621 -0.2067534029 0.7159981728 -0.8225989938 -0.3040406108 0.4790121615
0.008451128379 -0.1990022659 0.7535082698 -0.3959825635 -0.5527490377 0.7229908705
0.004570678342 -0.2023027688 0.7484337091 -0.4699766934 -0.5306864381 0.6960815787
0.01037337538 -0.2076897323 0.7478934526 -0.3503631651 -0.568536222 0.7373823524
0.006166001782 -0.193836838 0.7582395673 -0.4147132635 -0.5311594605 0.7375534773
0.03250888735 -0.2002622336 0.7585431337 0.03270393237 -0.6077324748 0.7912846804
0.04068150744 -0.2054092288 0.7515681982 0.1809923947 -0.5972842574 0.7683653235
0.09024430811 -0.1982436627 0.7022738457 0.949664712 -0.1628795415 0.2310755551
0.09056848288 -0.1929882467 0.699952364 0.9658170938 -0.09773357213 0.1850322336
0.08796032518 -0.1893377006 0.7040399909 0.9629169703 -0.1140211821 0.2200606316
0.02927079238 -0.1507237405 0.6468000412 0.07615080476 -0.5509796143 0.8278416991
0.0294938609 -0.1446380615 0.6493019462 0.05331558734 -0.5930700302 0.8006091714
0.02107228711 -0.08992356807 0.698972702 0.211077556 -0.6871418953 0.6857988834
0.03846055642 -0.08920297027 0.6978109479 -0.09149587899 -0.7048950791 0.6976863742
0.04783080891 -0.0903852433 0.6992306113 -0.2345499843 -0.6686604023 0.7020965219
0.05294299126 -0.09642524272 0.6950852871 -0.3434713781 -0.6182230711 0.7042191625
0.01126392744 -0.1392101347 0.6606892347 0.3492481411 -0.58852458 0.7233290672
0.01379754394 -0.1435903013 0.6563036442 0.3150200546 -0.5783388615 0.7506862879
-0.0279652942 -0.1874969453 0.6954613924 -0.4183511436 -0.0643305257 0.3649578691
-0.02664880827 -0.1882490069 0.702966094 -0.4565207362 -0.1747786403 0.4233030677
-0.02628056705 -0.1769697517 0.6949781179 0.1302040815 -0.2193596065 0.4573225081
-0.02803797089 -0.1922488362 0.6992553473 -0.6654763818 -0.0525230132 0.3543527722
-0.02345008217 -0.1957631409 0.7195203304 -0.8414778113 -0.2586679459 0.4737231433
-0.02663308941 -0.2003891617 0.7084274292 -0.8649328351 -0.2267718315 0.4249970019
-0.0257635098 -0.1971074343 0.7136026621 -0.8555852771 -0.2490402609 0.4533213675
-0.02919442765 -0.1988005191 0.7014346719 -0.9134758115 -0.09608228505 0.3270707726
-0.0242681969 -0.1721666604 0.7149195671 -0.09994053841 -0.3594763279 0.4835830033
-0.02499535307 -0.1843547225 0.7148131132 -0.4875664711 -0.3011032641 0.468642801
-0.02241487615 -0.1865588576 0.7265036702 -0.542267859 -0.364289701 0.5372838974
-0.02518473566 -0.1512186378 0.7057487965 0.5539849401 -0.4008983672 0.4522725046
-0.02548454516 -0.1673488766 0.708468616 0.04474462941 -0.341660291 0.4499292076
-0.02437723055 -0.178324908 0.7159814239 -0.2943288982 -0.3370078504 0.4828311503
-0.02175310068 -0.1920150667 0.7307189703 -0.7101900578 -0.3650041521 0.5565682054
-0.02530056238 -0.1611675918 0.7068921328 0.2395566553 -0.3578271866 0.4457873404
-0.02565911971 -0.1733288616 0.7091169357 -0.1444819123 -0.3171033263 0.4466820359
-0.02464409731 -0.1909799129 0.7157232165 -0.696002841 -0.266882062 0.4615830779
-0.02370025776 -0.1578884274 0.682058394 0.7814978957 -0.3783916235 0.4879895449
-0.01554729976 -0.2011144906 0.7307219505 -0.7274947762 -0.366810441 0.5794174075
-0.02214272134 -0.1986106783 0.7264167666 -0.7641866207 -0.3530869186 0.5365797281
-0.0212503951 -0.1691215336 0.7198686004 -0.0310136769 -0.3988979459 0.5121148229
-0.02299459465 -0.1582466811 0.71232301 0.3174423277 -0.4051298499 0.4808026552
-0.01694901474 -0.188273102 0.733820796 -0.66231215 -0.3862857819 0.5670858622
-0.02199533768 -0.1648631543 0.7157917023 0.1045688093 -0.3908835948 0.4911192954
-0.02217254229 -0.186236456 0.7201004624 -0.5423943996 -0.300444752 0.484305203
-0.02088449709 -0.17946814 0.7218648791 -0.3512175679 -0.3512897789 0.5060759187
-0.01942688599 -0.1745939553 0.7244817615 -0.219435811 -0.397459507 0.5301924348
-0.02112524584 -0.1914862245 0.723929286 -0.7134320736 -0.2978931069 0.4999979436
-0.01783643104 -0.1829724461 0.730386734 -0.4915069044 -0.3919270337 0.5539479852
-0.01628186554 -0.1939469725 0.7332861423 -0.7191649675 -0.3992177546 0.5641958117
-0.01688114926 -0.1574297994 0.6716026664 0.7125819325 -0.4254926443 0.5542792082
-0.02190640196 -0.1704341024 0.6797212958 0.3326781392 -0.3032276034 0.4680579305
-0.02757830359 -0.1848883927 0.6867143512 -0.4134468436 -0.08874968439 0.3172995746
-0.02004302666 -0.1639499515 0.675300777 0.6274920702 -0.3916053176 0.5088620782
-0.03041533381 -0.1901849359 0.6900022626 -0.677986443 -0.01179903373 0.2563979328
-0.009777075611 -0.2241947204 0.726190865 -0.6517438889 -0.3855157197 0.6519882679
-0.004694702569 -0.2272009104 0.7255809307 -0.5880607367 -0.4379737973 0.6426584721
0.0001937586349 -0.2295820415 0.730660975 -0.4987494946 -0.4692246616 0.7192070484
-0.005839442834 -0.221631974 0.7310607433 -0.603738904 -0.4105600119 0.6819767356
0.06900626421 -0.1043514758 0.6995560527 -0.4037959278 -0.5266658068 0.7405595183
0.0899810791 -0.183492139 0.7023259997 0.9733324051 -0.008856154978 0.2047261149
0.08746127784 -0.1905070245 0.715465188 0.9272005558 -0.1621789634 0.3123790026
0.08540674299 -0.1911001801 0.7221152782 0.9006657004 -0.2393992096 0.3574469388
0.04881084338 -0.1872416735 0.7635586262 0.279563576 -0.5980319381 0.7366706729
0.04854311794 -0.1932621598 0.7615643144 0.3010101318 -0.6044079065 0.7346035838
0.03606785089 -0.1950082332 0.7617973089 0.08989717066 -0.609805584 0.7840544581
0.04347219318 -0.1949716359 0.7592405081 0.2097811848 -0.608866334 0.7537384629
0.03596264124 -0.1899195015 0.7666559815 0.07224082202 -0.6009725332 0.7943222523
0.04130465165 -0.1909296662 0.7653130293 0.1706997156 -0.6030842662 0.7735832334
0.04000077769 -0.2002408803 0.7579091787 0.1583193988 -0.5968782306 0.7823210955
0.06740324199 -0.1856983453 0.7549799085 0.5464317203 -0.5130674243 0.6537522674
0.06184918061 -0.1869778484 0.7593955398 0.4469411969 -0.550429523 0.7017771602
-0.01306149364 -0.1279185563 0.689629674 0.7239381075 -0.4719860256 0.5022054315
-0.01951158792 -0.1356263161 0.6978870034 0.7822725773 -0.432652235 0.4479281306
-0.01964120567 -0.1391098648 0.6919147372 0.7796680331 -0.4265329838 0.4583086967
0.08266708255 -0.1232246086 0.7019893527 -0.546741724 -0.2575668097 0.7952528
0.05496245623 -0.1867795438 0.7616907954 0.3778001368 -0.5937150717 0.7091155052
0.06106595322 -0.1904493421 0.7547000051 0.4972246587 -0.5474687815 0.6679326892
0.08115112036 -0.1930235773 0.7313304543 0.7752872705 -0.4078880847 0.4700856507
0.05716733262 -0.2069253027 0.7450538278 0.4373643696 -0.5595656037 0.6969726086
0.05617170408 -0.2121489793 0.7416158319 0.4331425726 -0.5413756371 0.7119010091
0.06284856796 -0.2112826556 0.7400562763 0.5294423699 -0.5195485353 0.6691307425
0.05714089423 -0.2172674388 0.7369627953 0.4501003623 -0.5214851499 0.7246776223
0.06120900065 -0.2210906446 0.734672904 0.5224074125 -0.5198411345 0.6754858494
0.07521712035 -0.1950425953 0.7376369238 0.6891202331 -0.4732169509 0.5453765988
0.07351519167 -0.2000609785 0.735121429 0.6903332472 -0.4689444005 0.5473716259
0.0324658677 -0.2132826298 0.7481746674 0.03567224741 -0.5971879959 0.7981847525
0.03529733047 -0.2084408253 0.7516624331 0.07436241955 -0.6025505662 0.7941020727
0.04531119764 -0.2085620314 0.7484359145 0.2638050616 -0.5840483904 0.7627536058
0.04001307115 -0.2128673643 0.7493698001 0.1838783771 -0.5980875492 0.777906239
0.01364499237 -0.1485738903 0.652394712 0.3200508952 -0.5574673414 0.765185833
0.01860659011 -0.1516086012 0.6478449702 0.2272787541 -0.5429714918 0.8065612316
0.023797784 -0.1466616988 0.6484518051 0.1263664514 -0.5783090591 0.8047007322
0.04172401503 -0.2268512398 0.7388084531 0.2201341093 -0.5640394092 0.7936988473
0.03166616336 -0.2216516435 0.7409412265 0.04870064557 -0.5656790137 0.8175288439
0.03582150117 -0.2173543423 0.744346261 0.1049926803 -0.5844817162 0.8031113148
0.03875641897 -0.2213682532 0.7404517531 0.1710002124 -0.5697453022 0.799562335
0.03538748994 -0.2261241078 0.737572968 0.1665203124 -0.5555828214 0.8137227893
0.05082108453 -0.2167323977 0.7408034205 0.3234329224 -0.5645189881 0.7578676939
0.05246061832 -0.2216427773 0.7365947962 0.3748216033 -0.5492526889 0.7412548661
0.04480289295 -0.2213927954 0.7413119078 0.2222923338 -0.5889284611 0.7763832808
0.05265857652 -0.227297768 0.7340822816 0.3365558386 -0.5772082806 0.7426156402
0.01711877622 -0.2208355516 0.7390035987 -0.2171949446 -0.5064262748 0.8184675574
0.006743966136 -0.2191575915 0.7365761995 -0.4165545106 -0.4623981416 0.7709870934
0.01240945049 -0.2148195654 0.7434291244 -0.2943410575 -0.5022496581 0.8087328076
0.004122965969 -0.2077012509 0.7452892661 -0.4725603163 -0.5215076208 0.7083066106
-0.007012500428 -0.204310149 0.7385759354 -0.6550798416 -0.4184796214 0.6271206141
-0.005781779066 -0.1997865736 0.7418974638 -0.6066900492 -0.4745231569 0.6323328614
0.002227427205 -0.1943290383 0.7528784871 -0.4864521623 -0.5212141275 0.6974631548
-0.006736569572 -0.1902649552 0.7461577654 -0.6054727435 -0.4788019061 0.6354544163
-0.003653941909 -0.1947983056 0.7486135364 -0.5716276765 -0.4863065481 0.6602577567
-0.001783348387 -0.2015682906 0.7457924485 -0.5708409548 -0.49050951 0.6579261422
0.01666898467 -0.201458171 0.7563152909 -0.2192258388 -0.5940503478 0.7698454261
0.02290837467 -0.2005137056 0.7553520799 -0.1354004741 -0.6034566164 0.7615445256
0.01418099273 -0.1862083673 0.7662371993 -0.2474764287 -0.5646334887 0.7832187414
0.01893748343 -0.190024808 0.7640712261 -0.1898663938 -0.5754989386 0.786331594
0.0245474726 -0.1852668226 0.7704020739 -0.09941858053 -0.5776742101 0.8092525601
0.09030927718 -0.1775141358 0.6911228895 0.9869931936 -0.00846949406 -0.04521549866
0.09058178216 -0.1827518195 0.6951823831 0.995475173 0.01964468509 0.0791580826
-0.002629932016 -0.13606067 0.6729114652 0.5703247786 -0.5401214957 0.6047497988
-0.007900715806 -0.1418395489 0.6714436412 0.6645921469 -0.4846559465 0.567420125
0.001406826312 -0.1350364834 0.6686737537 0.5034703612 -0.5774027705 0.6405742168
0.08275441825 -0.1396266818 0.6882652044 -0.6760002375 -0.5725488067 0.4585087001
0.07984809577 -0.1323927194 0.6912625432 -0.6697953343 -0.4718104601 0.5704059601
0.01660172828 -0.137149781 0.6581659317 0.2519364059 -0.6132662296 0.7471970916
0.00229769526 -0.1197496057 0.6830541492 0.5023308396 -0.5724042654 0.647261858
-0.00101166754 -0.1162344888 0.6869390607 0.5485861897 -0.5645335913 0.614146769
0.06620173156 -0.1525422037 0.6562966108 -0.4213384092 -0.4810155928 0.7576996088
0.05966868624 -0.1497745216 0.6546596289 -0.4119003415 -0.5260215402 0.7425701022
0.05142762512 -0.1391890943 0.6570288539 -0.3207005858 -0.5959406495 0.7336319089
0.04568586871 -0.1388036013 0.6562748551 -0.210956499 -0.6163926125 0.7564257383
0.05325248092 -0.1452949494 0.6535774469 -0.3446641266 -0.5676771998 0.7459431291
0.05342660099 -0.1506592929 0.6495759487 -0.3359643221 -0.5414393544 0.7694961429
0.04524924234 -0.1443899125 0.6516860127 -0.2007843703 -0.5791525841 0.7899753451
0.04735859483 -0.1496710181 0.6486945152 -0.240649879 -0.5568600893 0.7934984565
0.03797468916 -0.1442532986 0.6505548954 -0.07200057805 -0.5861679316 0.803542316
0.0400926657 -0.1493169218 0.6478216648 -0.1184652746 -0.5674063563 0.8096085787
0.003569232533 -0.1430368423 0.6594548225 0.4561476409 -0.5471507907 0.7004059553
0.0054680584 -0.1365447193 0.663910687 0.4461578429 -0.5816252232 0.6780782938
-0.003904714249 -0.1431207061 0.6652006507 0.5975696445 -0.503995657 0.622162044
-0.02671305649 -0.158978194 0.6871586442 0.7839531898 -0.3010998964 0.469768554
-0.026809223 -0.1637568623 0.6980222464 0.3381222486 -0.3552002311 0.461060375
-0.0262580961 -0.1703469604 0.6908290982 0.4319506884 -0.2438231856 0.4691883624
-0.02613131143 -0.1829895824 0.7072072625 -0.3524589539 -0.2832612991 0.4573766887
-0.02668100223 -0.169300124 0.7019801736 0.09428931773 -0.344963938 0.4578275681
-0.0276889056 -0.1582832485 0.6948136091 0.476986438 -0.3576599956 0.4367986023
-0.02625722438 -0.1890628487 0.710396111 -0.6157540679 -0.2568469942 0.4438129365
-0.03194240108 -0.1951395422 0.6943314075 -0.9329664111 0.04475777969 0.222146824
-0.02806297876 -0.1944847554 0.7065404058 -0.8432367444 -0.1419463754 0.3681315482
-0.02940378152 -0.1815993786 0.6976389289 -0.3983860612 -0.1491510719 0.3374829292
-0.02672965825 -0.1773627996 0.7047030926 -0.199157238 -0.2985567749 0.4438295662
-0.02873635106 -0.1716129929 0.6962137222 -0.02460095473 -0.2352908999 0.3775139153
-0.02880534902 -0.1642090082 0.692527771 0.2664196491 -0.2651883066 0.3859370351
-0.02730510198 -0.1525720507 0.6916383505 0.7584949732 -0.3858219087 0.4592445791
-0.02949423157 -0.1774792671 0.6891021729 -0.05658462644 -0.106735602 0.3388195932
-0.02754188888 -0.1668104529 0.6857802868 0.5289873481 -0.2055416256 0.4266218543
-0.03060646541 -0.1827507913 0.6913847327 -0.3803068399 -0.06093117595 0.2901682556
0.0805375278 -0.1012285501 0.7009640932 0.01661918499 -0.3498750329 0.7651414871
0.08880637586 -0.104167074 0.6947203279 0.3570443392 -0.2284396887 0.7387459874
0.0674470365 -0.09611734748 0.7045208216 -0.3762773275 -0.5720348358 0.7200388908
0.07508821785 -0.09835673869 0.6984059811 -0.1036010087 -0.5798236132 0.6705226898
0.09059331566 -0.1082583815 0.6997489929 0.4977142513 0.1926758885 0.8353418708
0.07476389408 -0.1067399979 0.7025091052 -0.3101374209 -0.4293422997 0.8416655064
0.07190116495 -0.1007577702 0.7055216432 -0.2985525727 -0.420338273 0.8166706562
0.08769284934 -0.1577603072 0.66879493 -0.06203452125 0.1741325557 0.6485701203
0.08792313188 -0.1641620845 0.6762601733 0.8158167005 0.02310007252 -0.1677310318
0.080577299 -0.1628314555 0.668407321 -0.05310305208 -0.04396989569 0.5757547617
0.07495558262 -0.1502468288 0.6711505055 -0.1159883291 -0.3657185137 0.4230036736
0.07817167789 -0.1555996388 0.6715887785 0.09294962138 -0.2292863429 0.3217118084
0.0828505829 -0.1613890529 0.6743680835 0.5773040056 -0.0801500231 -0.02560923621
-0.003431409365 -0.1137280092 0.6913848519 0.568787396 -0.5585891604 0.6026994586
-0.02467473596 -0.1310385466 0.7107930779 0.8160213232 -0.4077448845 0.4095052481
-0.02270509489 -0.133158356 0.7033677101 0.7988066673 -0.4194476008 0.4299892485
0.0889179334 -0.1137630939 0.7041935921 0.09755213559 -0.02285481989 0.8865143657
0.08190112561 -0.1173347235 0.7048165202 -0.440023452 -0.2759174109 0.8312959671
0.07941982895 -0.1103720516 0.7072735429 -0.3026014864 -0.2267877758 0.898011446
0.08267059922 -0.1110300869 0.7121573687 -0.2603700459 -0.1645762175 0.9174083471
0.08631911129 -0.1184872836 0.7100448012 -0.361938417 -0.2205490023 0.8708108664
0.07921946049 -0.1037711129 0.7129567266 -0.1548183113 -0.1150393784 0.9712996483
0.1052260548 -0.1324711591 0.6729654074 0.5250173807 -0.4395303428 0.5628464818
0.1014717221 -0.1346324682 0.6773184538 0.2521562278 -0.4461303353 0.5384580493
0.09800854325 -0.1343664825 0.6885349751 -0.06296689808 -0.4041642249 0.6022840738
0.09341564029 -0.137317121 0.6928834319 -0.3881696761 -0.4187578559 0.5607369542
0.09915388376 -0.1350464523 0.6829389334 0.05786645412 -0.4306327105 0.5585603118
0.08980289102 -0.1416273415 0.6899645329 -0.5881381631 -0.4725410044 0.4520630538
0.09210202098 -0.1354273707 0.7028385997 -0.557907939 -0.3647980094 0.653283596
0.09243144095 -0.1331844926 0.7089881301 -0.591393888 -0.3205677867 0.733807385
0.08563779294 -0.1375132799 0.6939529777 -0.6960043907 -0.3935081065 0.5798612833
0.08628878742 -0.132489264 0.6988050342 -0.6211026311 -0.2966633737 0.7190660238
0.09758988023 -0.1321499348 0.6968511343 -0.1623693407 -0.3526459038 0.6934316158
0.1073556319 -0.1269721389 0.6735838056 0.5988971591 -0.4336324334 0.5735706091
0.1016507223 -0.1286399662 0.6881897449 0.1283724606 -0.3853577673 0.6431285143
0.1043811291 -0.1297895312 0.6797440648 0.3906204402 -0.4098466337 0.6105006933
0.1042415053 -0.125031665 0.6836865544 0.2878223658 -0.4052547216 0.6105694771
0.08804705739 -0.1298096925 0.7038286328 -0.583904326 -0.2676309049 0.766087234
0.05199139565 -0.2005672455 0.7541852593 0.3483016789 -0.5838456154 0.7318675518
0.05494274199 -0.19115825 0.7579880953 0.3954353929 -0.5856058598 0.7028775215
0.05641780794 -0.1957502067 0.7532769442 0.4370511472 -0.5680737495 0.6899995804
0.0634290576 -0.2066249549 0.742842257 0.5313680768 -0.5458567739 0.647174716
0.06729114801 -0.2018868029 0.7398874164 0.6174460649 -0.498169899 0.598577261
0.06021701545 -0.2018523216 0.7482509017 0.4779349864 -0.5599368811 0.6703124642
0.07088849694 -0.1969663054 0.7423816323 0.628269136 -0.5034767985 0.5904958248
0.06606675684 -0.1992175728 0.7456364632 0.5721336007 -0.5328291059 0.6225197315
0.06227484718 -0.1946202368 0.7502061129 0.527956605 -0.536031127 0.657107234
0.06756118685 -0.1932835728 0.7465078235 0.5783807039 -0.5166034102 0.6257869005
0.07157407701 -0.1865959764 0.7494646311 0.613648653 -0.4964511693 0.6127898097
0.07542304695 -0.1886059642 0.7439354658 0.6516866088 -0.4902715087 0.5768815875
0.04953238741 -0.2330573201 0.7315173745 0.3297244012 -0.5511774421 0.7608334422
0.04462508112 -0.2297556698 0.7340317965 0.2719024718 -0.5560336113 0.7799470425
0.02143969573 -0.2355509251 0.7410536408 -0.09129016846 -0.5214673877 0.8450658917
0.03795384988 -0.2325862646 0.7375546694 0.1656693667 -0.5450757146 0.803868711
0.02945923246 -0.2345575541 0.739579916 0.03030141257 -0.5313186049 0.8247073293
0.02769849263 -0.2155507654 0.7450776696 -0.03813240677 -0.5560278893 0.8137837648
0.01861901768 -0.2155510634 0.7441592216 -0.184850052 -0.5152826905 0.8275268674
0.01920547523 -0.2258228362 0.7443919182 -0.1715950668 -0.5099967718 0.8386000991
0.01589116454 -0.2205179334 0.744954288 -0.2311609387 -0.5261034966 0.814196825
0.01617231965 -0.2067885399 0.7516158819 -0.2375861704 -0.5740435719 0.7807682157
0.02056682482 -0.2118855417 0.7486922145 -0.161973685 -0.5409691334 0.819001317
0.02594347857 -0.2251479924 0.7458979487 -0.04646493867 -0.5562615395 0.8230460882
0.02585585229 -0.2310038358 0.7420050502 -0.01957217231 -0.5336928368 0.8353743553
0.08255824447 -0.187582776 0.7265112996 0.8443076611 -0.2841779292 0.4119473398
0.0866067335 -0.1829328835 0.7075672746 0.9435474277 -0.05248789489 0.2465549707
0.07903787494 -0.1888390183 0.7371380925 0.7366072536 -0.4241909683 0.515237093
0.01114008017 -0.1321083903 0.6665704846 0.3504974246 -0.6181175113 0.6973736882
0.01689005829 -0.1328809857 0.6632112265 0.2591965497 -0.6318379045 0.7275909185
0.0584846288 -0.1251293719 0.6747646332 -0.4237391055 -0.5926023126 0.677729249
0.09324427694 -0.1213094369 0.6722198725 0.4461894929 -0.4843609631 0.6334238648
0.02509778179 -0.1274625361 0.6635455489 0.1320434809 -0.6424902678 0.7545207143
0.0231992472 -0.1345739365 0.6592857838 0.151104033 -0.6404487491 0.7516376972
0.01931764185 -0.1413320005 0.6538078189 0.2053045779 -0.5993704796 0.7697646022
0.03339830041 -0.1373747885 0.655216217 -0.01215368509 -0.6247468591 0.7784387469
0.02751511335 -0.1395269334 0.6535565257 0.07069025189 -0.6164838076 0.7801876068
-0.007315858267 -0.1188323349 0.6901435852 0.6468709111 -0.5202131867 0.5519003868
-0.00354380277 -0.1220996752 0.6842493415 0.5882776976 -0.5422635078 0.5984239578
-0.01083758567 -0.1232438162 0.6936365962 0.697378099 -0.4911298156 0.5176930428
-0.007910157554 -0.1254538745 0.6882010102 0.6588853002 -0.5061607957 0.5502180457
-0.003389084246 -0.1279352307 0.6807251573 0.5807054043 -0.5282033086 0.614569664
-0.008599953726 -0.1311627924 0.6836138368 0.6605568528 -0.4888481498 0.5666021109
-0.01458381768 -0.1312621534 0.6952729225 0.7304412127 -0.4618460834 0.4931537211
-0.01521621831 -0.1337216496 0.689670682 0.7369169593 -0.4552057981 0.4937815368
0.05679726228 -0.1415363848 0.6580250263 -0.3970487118 -0.5647369027 0.7198151946
0.06405901909 -0.1459543407 0.6606003046 -0.4263642728 -0.5411074758 0.7241484523
0.0794082135 -0.1387681067 0.6629117727 -0.04924625158 -0.4229283035 0.8334512711
0.07056915015 -0.1427210122 0.6602557302 -0.266716361 -0.4715862274 0.773078382
0.05998495221 -0.1300554574 0.6700736284 -0.4438022971 -0.5859938264 0.6732390523
0.1027484015 -0.126338318 0.6676368117 0.6535137296 -0.4497664571 0.6041328907
0.09790611267 -0.132867381 0.6643873453 0.4679231346 -0.4635410905 0.737279892
0.1046429127 -0.1356578767 0.667521894 0.6924003363 -0.4400449991 0.5689547658
-0.0156395603 -0.1087994874 0.7175104618 0.7417050004 -0.478871733 0.4677565098
-0.01916998252 -0.1033566147 0.7167307138 0.7418849468 -0.4720468819 0.4754485488
-0.01032268722 -0.1018100157 0.7102380395 0.6852304339 -0.5403723121 0.4865918756
-0.005978681613 -0.1520104557 0.6608516574 0.6239923835 -0.4355537593 0.6462106109
-0.001314411755 -0.1462428719 0.6605989933 0.5313793421 -0.5047106147 0.6778593659
0.0005136089167 -0.1523833424 0.6552944779 0.5014936924 -0.4688691795 0.7220673561
0.008798887022 -0.1510149091 0.6537850499 0.3963994682 -0.526001513 0.7438423634
-0.0215493422 -0.1453682035 0.6888475418 0.778275013 -0.4219611883 0.4649625421
-0.02425884828 -0.1444994658 0.6948511004 0.7876093388 -0.4148514867 0.4555120468
0.1011815295 -0.1395538747 0.6704555154 0.5224871635 -0.4323815405 0.523545742
0.09765810519 -0.1404905319 0.6759788394 0.1952157468 -0.4449716806 0.49908638
0.09751807153 -0.1448576897 0.665764153 0.3040603399 -0.1290114969 0.7640221715
0.09631943703 -0.139236778 0.6638958454 0.3153935671 -0.3147324026 0.8200259805
-0.02121991478 -0.1212139875 0.7134199142 0.7964676023 -0.4236989617 0.4308274984
-0.01897825673 -0.1139207631 0.719602108 0.7690284252 -0.4507374763 0.4525371492
-0.01374895032 -0.1124320477 0.705951333 0.7454182506 -0.465241015 0.4754517376
-0.008583524264 -0.1145993024 0.6953414679 0.6711015105 -0.512350738 0.5316083431
0.1025003344 -0.1139247566 0.6802073121 0.7462869287 -0.3238139451 0.5472021699
0.1032824963 -0.1184676215 0.6838411689 0.5782203078 -0.2089202106 0.6543803811
0.09330088645 -0.122720845 0.7008946538 -0.1577741504 -0.1453044713 0.7940933704
0.09540516138 -0.1162230074 0.6988295317 0.4054764807 0.06632355601 0.788159132
0.09757317603 -0.1233000234 0.6929399967 -0.01758860983 -0.2689428627 0.7242179513
0.09936022013 -0.115377821 0.6911675334 0.6242614388 -0.03395821154 0.7042433619
0.09520984441 -0.1296121031 0.7027977109 -0.3633532226 -0.3204777241 0.7287371159
0.1064912453 -0.1221600026 0.6778042316 0.4706530869 -0.4159732461 0.5875065923
0.09203346074 -0.127068609 0.7080197334 -0.348148793 -0.2099395841 0.7872252464
0.09197047353 -0.1189086586 0.7047643661 0.07982052118 -0.01709447987 0.825333178
0.006035527214 -0.1892088205 0.7611943483 -0.3903782964 -0.530611515 0.7506459951
-1.721528861e-05 -0.1893639117 0.7558436394 -0.5066320896 -0.4971175194 0.7035010457
-0.01326803304 -0.1897409111 0.7409589887 -0.6819235086 -0.42158252 0.5967069864
0.06421422213 -0.1300405264 0.6748304963 -0.5107495785 -0.578397274 0.6324276328
0.06892029196 -0.1389860213 0.6714048386 -0.5138335228 -0.5920785069 0.6198160648
0.06910337508 -0.1365790367 0.6656512618 -0.3204077184 -0.5182760358 0.7265669107
0.07298752666 -0.1322661936 0.6695101261 -0.2406780571 -0.4857772291 0.7521543503
0.09638804942 -0.1250270307 0.6689628363 0.5225964189 -0.4574221373 0.6720649004
0.08680343628 -0.1273265481 0.6693397164 0.2117904723 -0.4851673543 0.6772065163
0.08153104782 -0.1249006316 0.6726920605 0.05960737914 -0.5108448267 0.655402422
0.08879844844 -0.1373627782 0.6628879905 0.2053130567 -0.364035666 0.8859301805
0.0904423967 -0.1312604547 0.6660692692 0.298715204 -0.4289778471 0.7596259117
0.08297374099 -0.1335738301 0.6666198373 0.04908555746 -0.4258957803 0.8049656153
0.01769864745 -0.1273395419 0.6673586369 0.2464456111 -0.6468916535 0.7195185423
0.03217500076 -0.1264194995 0.6660426855 0.002093635034 -0.6514104009 0.7533276081
0.0138367312 -0.1242552176 0.6708883047 0.3065111339 -0.6357392669 0.7076138854
0.02108506113 -0.1227988601 0.6702393293 0.1888563931 -0.6420661211 0.7385231853
0.05246592686 -0.1035205573 0.690166533 -0.3241621554 -0.6062725186 0.722281754
0.05893214047 -0.101146102 0.6947547793 -0.4084353447 -0.6006503105 0.6860990524
0.05834816024 -0.105521515 0.6906050444 -0.4084770977 -0.5806853175 0.7006580234
0.07623870671 -0.1326477379 0.6852463484 -0.639822185 -0.537242353 0.5477628112
0.06942401081 -0.127787441 0.6817839146 -0.5941189528 -0.5444042683 0.589394629
0.06947080791 -0.1325662285 0.677531004 -0.5632238388 -0.5748997331 0.5891524553
0.08690377325 -0.1498469114 0.6875551939 -0.2485541403 -0.3513626456 0.1760599613
0.0840048641 -0.155679673 0.6790463924 0.2740762234 -0.2731414139 -0.003701546928
0.08158432692 -0.1430539638 0.6815602779 -0.6784185171 -0.5189518332 0.3532419205
0.08029059321 -0.1490796208 0.676535666 -0.1534003615 -0.457742095 0.2926002443
0.0784188658 -0.143121019 0.6765828729 -0.581944406 -0.5904598832 0.4937321246
0.08921081573 -0.1615892947 0.6871637106 0.4212000072 -0.1895361692 -0.01823354699
0.08975824714 -0.1708701998 0.6929573417 0.7327182293 -0.06004811451 0.05662697554
0.08719036728 -0.1690157056 0.6805005074 0.9645941257 0.0264168717 -0.2223884016
0.08869836479 -0.1738991588 0.6857923865 0.980925858 0.01328887604 -0.1299253553
0.08759486675 -0.1546979994 0.6932659745 -0.1677433401 -0.3035758734 0.2999036014
0.08781719953 -0.167238012 0.6873788238 0.7661815286 -0.06121837348 -0.1063844413
0.08827351779 -0.1769976765 0.6987927556 0.8706748486 0.02344610356 0.1777685732
0.07672774047 -0.1382121891 0.6802359223 -0.5600417852 -0.64298141 0.5116461515
-0.01269259304 -0.1203500405 0.7025483847 0.7215078473 -0.4646787941 0.5070158243
-0.009180778638 -0.1139958948 0.7019680738 0.6893180013 -0.4764884412 0.5435608029
-0.01724728756 -0.1266142428 0.6984351873 0.7640318274 -0.4455157816 0.4630264342
-0.01870018616 -0.128936708 0.7049251199 0.7829837203 -0.4392017722 0.4402828813
-0.01882688142 -0.1178964898 0.7079626322 0.7761186361 -0.4426551163 0.4466587901
-0.02106444538 -0.1244356036 0.7076694965 0.8019239902 -0.4236963093 0.4209675491
0.01108511724 -0.09702041745 0.6970213056 0.384517163 -0.6361470222 0.6655743122
0.0147908479 -0.09112502635 0.7003260851 0.3249413669 -0.6781935692 0.6569219232
0.01767241582 -0.09545324743 0.6942777634 0.2767258584 -0.6544131041 0.6990892887
0.01413678378 -0.10054636 0.6918380857 0.325820595 -0.6299097538 0.704698801
0.001990459627 -0.1085179374 0.6925727725 0.5009091496 -0.5814960599 0.6374425888
0.007303975523 -0.1050174907 0.6919171214 0.4173472822 -0.6093657613 0.6722027063
0.000209979713 -0.1036468893 0.6975700259 0.5263729095 -0.593192637 0.6068227291
-0.004455455113 -0.1099541113 0.6995387077 0.6121228337 -0.5191531181 0.583650589
-0.004572376143 -0.1040191054 0.7027561665 0.6196960807 -0.5549995303 0.5507887602
0.06935391575 -0.1112727597 0.6951473355 -0.4742546678 -0.4639843702 0.7412707806
0.07467078418 -0.1151818708 0.6971364617 -0.444837153 -0.3765864372 0.8111594915
0.04848298058 -0.1053721234 0.6857084632 -0.2646627724 -0.6057360172 0.7460966706
0.008694587275 -0.1236552745 0.6746714711 0.3881975114 -0.6117928624 0.681946218
0.002853065729 -0.1301146001 0.6726439595 0.4763730466 -0.5912836194 0.6498467922
0.001440186286 -0.1249231547 0.6775989532 0.4967628717 -0.576710701 0.6448534131
0.0329794623 -0.1197942346 0.672250092 -0.01593204029 -0.642665267 0.7615194321
0.02654874884 -0.1208261251 0.6714221835 0.09676096588 -0.6437654495 0.7555323243
0.0255544316 -0.1161438078 0.6750005484 0.1152236015 -0.6383713484 0.76087147
0.0798753798 -0.1266810298 0.6950942874 -0.6085910797 -0.3236855268 0.7168722153
0.07484938204 -0.1267123222 0.6889437437 -0.6305038929 -0.4757733345 0.6085042357
0.06998334825 -0.116631344 0.691891253 -0.540361166 -0.4685678482 0.6949945688
0.07199750096 -0.1215010509 0.6903894544 -0.5872843266 -0.4484438002 0.6683024764
0.07745555043 -0.1207665876 0.6975201368 -0.5326908827 -0.3003365397 0.7831714749
0.09459980577 -0.1061894 0.6908459663 0.6633353233 -0.06540355086 0.6485849619
0.02458658628 -0.09940937161 0.6893945932 0.153663069 -0.6616190672 0.7324703932
0.02015403472 -0.1063974202 0.6837362051 0.2125142515 -0.6343967319 0.7392851114
0.05411558598 -0.1276110113 0.6709032059 -0.3593772054 -0.6107373834 0.696056962
0.04709203169 -0.1243419498 0.6704003215 -0.2433482707 -0.6329805255 0.7292253971
0.03797180578 -0.1241818294 0.6683467627 -0.09758771956 -0.6489537358 0.7526055574
0.02857614495 -0.1317467839 0.6613457799 0.05986217409 -0.6578580737 0.7430662513
0.03487401828 -0.1325164884 0.6599206328 -0.0492634438 -0.6569010019 0.7500144243
0.06336957216 -0.1357962042 0.6697835326 -0.4611563087 -0.592777431 0.6582998633
0.06322164088 -0.1403574049 0.6648426056 -0.4319235384 -0.5710501075 0.6953862309
0.05813808739 -0.1357089579 0.664169848 -0.4121558964 -0.5892963409 0.692442596
0.05238918588 -0.1314472556 0.6641105413 -0.3347869813 -0.6119343042 0.7158555388
0.04884563014 -0.1347522885 0.6602604389 -0.2852977514 -0.618518889 0.7296023965
0.045655936 -0.1285055578 0.6648788452 -0.2180396616 -0.6419863701 0.7330080867
0.0339480266 -0.1089960784 0.6810978651 -0.0006642516237 -0.630104959 0.77041471
0.03446907923 -0.1139299273 0.6761626005 -0.02984650061 -0.6344935894 0.7719576359
0.01147034578 -0.1098843887 0.6848261356 0.3601944447 -0.6145655513 0.7002555728
0.01480250712 -0.1051070467 0.6869601607 0.3081515431 -0.6192778945 0.7217063308
0.006821257528 -0.1161813885 0.6816980243 0.42939201 -0.5950641632 0.6779658198
0.01366179436 -0.1172816455 0.677559495 0.320610106 -0.6223251224 0.7086478472
0.01530912891 -0.1120958328 0.6813184619 0.2942901552 -0.6234679818 0.7214621902
0.02247464471 -0.1112674102 0.6794239283 0.1602444053 -0.6426464915 0.7487380505
0.0669060424 -0.1219488904 0.6840946078 -0.5787932277 -0.522437036 0.6246073246
0.07699541748 -0.1123303175 0.6841041446 -0.08869300783 -0.5529193878 0.6246952415
0.08559668809 -0.1104535237 0.6826155782 0.1859826297 -0.5590191483 0.6060490012
0.0667751655 -0.1141075566 0.6852030754 -0.3824720979 -0.5499364138 0.6500540376
0.09071007371 -0.1067827269 0.6852083206 0.3890578449 -0.5628250241 0.6007167697
0.07068571448 -0.1067031845 0.6855005622 0.002174309455 -0.5793107748 0.6698097587
0.08173006773 -0.1077346504 0.6852921844 0.1744180173 -0.5658798814 0.6272763014
0.06474936754 -0.1064861193 0.6863244772 -0.135581702 -0.5826540589 0.6893855333
0.06411987543 -0.1056592166 0.693872571 -0.4340000451 -0.5621327162 0.6769749522
0.06289231032 -0.1119908318 0.689233005 -0.4547364414 -0.5378192067 0.7052960992
0.05336093903 -0.1220759898 0.6729898453 -0.3406501114 -0.6196636558 0.7070650458
0.0459939912 -0.1187044829 0.6742662191 -0.2153396755 -0.6314942241 0.7428756356
0.03014558926 -0.1022586748 0.6865422726 0.05033704638 -0.6415829062 0.7586336732
0.02850211225 -0.10722626 0.6805896163 0.09060287476 -0.643659234 0.759608686
0.03686858714 -0.1015967801 0.6855047941 -0.06885724515 -0.6513703465 0.7537553906
0.04300487787 -0.1005859897 0.6872737408 -0.1848670393 -0.631370306 0.7525997162
0.04099103436 -0.1074733287 0.6826423407 -0.1275776774 -0.6215423346 0.7698538303
0.03381177783 -0.09832821786 0.689006567 -0.02148579434 -0.6602435708 0.74694556
0.04002410173 -0.09409231693 0.6927390099 -0.1223104075 -0.6778608561 0.7205079794
0.04553792626 -0.09618289024 0.6921972036 -0.2114552259 -0.6576448083 0.7219703794
0.05401286483 -0.1087020636 0.6860809922 -0.3506835997 -0.6034544706 0.7141804099
0.04682114348 -0.1114803925 0.6804817319 -0.2563774288 -0.6209089756 0.7402834892
0.07758568227 -0.1187134236 0.6761654019 0.0361334011 -0.5433340073 0.6295024753
0.06084367633 -0.1202885807 0.6786304712 -0.4498497248 -0.5852758288 0.6655144691
0.08803320676 -0.1193961576 0.6740098596 0.3026521504 -0.5152193308 0.6031655073
0.0696471259 -0.1244441792 0.6754873395 -0.3042633235 -0.5574119091 0.6350156665
0.0611204803 -0.1166220978 0.6834039092 -0.4800824523 -0.5614366531 0.6662173271
0.0552707389 -0.1145360917 0.68081671 -0.3682308495 -0.6030055881 0.7070465088
0.07161790878 -0.1159872785 0.6799356341 -0.1737973392 -0.5747281909 0.6393250823
0.09016044438 -0.1118972227 0.6781665683 0.3612663746 -0.5665776134 0.5964559317
0.09395541996 -0.1157422215 0.6747477651 0.4998920262 -0.516610086 0.5926179886
0.08292991668 -0.1151674464 0.6774021387 0.1750850081 -0.5579457879 0.6153900027
