# .PCD v0.7 - Point Cloud Data file format
VERSION 0.7
FIELDS x y z normal_x normal_y normal_z
SIZE 4 4 4 4 4 4
TYPE F F F F F F
COUNT 1 1 1 1 1 1
WIDTH 512
HEIGHT 1
VIEWPOINT 0 0 0 1 0 0 0
POINTS 512
DATA ascii
-0.109322466 -0.1287917197 0.742916882 -0.7846107483 0.05822697282 -0.03185908496
-0.1073358729 -0.1075980961 0.733841598 -0.7547879815 0.3708580136 -0.4355011582
-0.1064539552 -0.1344079524 0.7454217076 -0.7892655134 -0.02673529088 0.07517077774
-0.01418380532 -0.05863133445 0.6916934252 -0.8581267595 0.266830802 -0.4338320494
-0.1017454267 -0.0812414214 0.7394522429 -0.7178353667 0.4443798363 -0.5355641842
-0.1081549972 -0.09573108703 0.7414928675 -0.7397787571 0.427834183 -0.5191693902
-0.1105371788 -0.1028239727 0.7350372076 -0.752504766 0.423194319 -0.5044998527
-0.1045356169 -0.09283267707 0.7345077991 -0.739975214 0.4282516241 -0.5186070204
-0.1041656435 -0.1190587282 0.7313343883 -0.7586478591 0.2596143186 -0.2970705628
-0.1056279391 -0.1494388282 0.751126349 -0.8074066043 -0.2436130345 0.353261441
-0.1045343578 -0.1268985122 0.7364141345 -0.7711918354 0.1299791336 -0.1295549124
-0.1063395888 -0.1209074557 0.7392148376 -0.7709028125 0.1744860262 -0.1834874749
-0.1058136448 -0.1412901878 0.7476682067 -0.7969028354 -0.1237441227 0.1993416995
-0.1067681983 -0.1460509598 0.7441700697 -0.7968246341 -0.1736598164 0.2563670576
-0.1059246957 -0.1315410137 0.7331489921 -0.7715360522 0.07640663534 -0.06812687218
-0.1066641584 -0.150202468 0.7274678349 -0.7588061094 -0.04072526097 0.08772082627
-0.1030873731 -0.1360068619 0.7101114988 -0.6935341358 0.3338220716 -0.3928050101
-0.1106189415 -0.1589891911 0.7392964959 -0.8036820889 -0.3028389513 0.4217773676
-0.1060863659 -0.1450293064 0.7177813649 -0.7305885553 0.1257364005 -0.1236485466
-0.1101415604 -0.159395501 0.7299910188 -0.788475275 -0.198051393 0.2958011925
-0.1070941612 -0.1502409428 0.7211167216 -0.7490683198 0.02532429621 0.007892927155
-0.1118441373 -0.1657882929 0.7337887883 -0.8113773465 -0.3228076994 0.4590733945
-0.1055081114 -0.1250177175 0.7301467657 -0.7626553774 0.1813971102 -0.2021604925
-0.108062543 -0.1132590026 0.7313352823 -0.7572950721 0.3253872395 -0.3814512491
-0.1086396575 -0.1365182698 0.7378829718 -0.7830181718 -0.02734185755 0.06481808424
-0.1044188142 -0.1129197255 0.7254937887 -0.7471565604 0.3743830025 -0.4471239448
-0.1104419902 -0.1562482864 0.7461876869 -0.8093428612 -0.3443609476 0.4693936408
-0.1105932072 -0.1173332334 0.7365599871 -0.7686703205 0.2335995585 -0.2621021271
-0.02774211764 -0.07267591357 0.7185177803 0.1869980693 0.5801563263 -0.7740587592
-0.02068871073 -0.07406778634 0.7276895642 0.2545451224 0.5512924194 -0.704218626
-0.0144385267 -0.07562356442 0.733964026 0.3846776783 0.5203066468 -0.652941227
-0.003559664823 -0.07498989999 0.7464256287 0.6504487991 0.4900241494 -0.5592547059
-0.00402265694 -0.0795615837 0.7424625158 0.6543165445 0.4657516181 -0.5619354248
-0.0178774558 -0.06575006992 0.7357189655 0.4719141126 0.6526879668 -0.5426365137
-0.02793964185 -0.05958770961 0.7279362679 0.3484320641 0.7654260993 -0.5302479267
-0.0261928197 -0.0699736625 0.7250296474 0.1036136374 0.5974518061 -0.7369936705
-0.02405686118 -0.06574664265 0.7292114496 0.2880200148 0.6616928577 -0.6180644035
-0.02498695999 -0.06318511069 0.7231821418 -0.1474246979 0.4635017812 -0.7066222429
-0.008386914618 -0.07109441608 0.7431311011 0.5907508135 0.5483098626 -0.5470980406
-0.03184626251 -0.1023834273 0.6749534011 -0.3957900107 0.2613300085 -0.7886872292
-0.02757146396 -0.09816334397 0.6759990454 -0.4923220277 0.1952694952 -0.783223927
-0.03637559712 -0.1182204857 0.6752288342 0.1202945113 0.3480964303 -0.8830230236
-0.03254920989 -0.1115920097 0.6758177876 -0.06991388649 0.2847581208 -0.8559208512
-0.04341814294 -0.1139524579 0.6721405387 -0.1291886717 0.4403702617 -0.8046081662
-0.01103834342 -0.07609550655 0.6816895008 -0.8118889332 0.2343781888 -0.5318851471
-0.01569755189 -0.08120933175 0.6778637171 -0.7901362181 0.2233245671 -0.5690472722
-0.009603411891 -0.08255634457 0.6799288392 -0.8087349534 0.2019704431 -0.5514778495
-0.02570043877 -0.06000872329 0.7164821029 -0.1743498743 0.5344584584 -0.5831372142
-0.03316519409 -0.05764598027 0.7199088335 -0.2208670825 0.5659270883 -0.7023086548
-0.041674532 -0.05711466447 0.7269673944 -0.01512832846 0.644369781 -0.7634538412
-0.02575112879 -0.05742859095 0.7020510435 -0.626333952 0.4106370807 -0.5334875584
-0.03053245321 -0.05753435194 0.7129749656 -0.3762980402 0.5063829422 -0.6365119219
-0.02888564579 -0.05737551302 0.707105875 -0.5031193495 0.4577614963 -0.5802371502
-0.04468060657 -0.06138087064 0.7229038477 0.01549106464 0.6423665285 -0.7609860301
-0.03674964979 -0.05823915452 0.7144671082 -0.273932904 0.5416048765 -0.6559939981
-0.04067927599 -0.05779827386 0.7202907801 -0.1354124844 0.595518291 -0.7066395879
-0.04285956547 -0.07093224674 0.7152303457 0.07060037553 0.6149728894 -0.7852846384
-0.02163183317 -0.06153731421 0.7067075968 -0.6535897255 0.2885891199 -0.6495848894
-0.02010532841 -0.05768665299 0.6935654879 -0.8283679485 0.3183090687 -0.4560251832
-0.03492135555 -0.05962559208 0.7261641026 -0.01662208885 0.6427665353 -0.7528642416
-0.03838105872 -0.06571057439 0.7213591933 -0.007496413775 0.6261886954 -0.7784796953
-0.04153136164 -0.06426952779 0.7154084444 -0.08503795415 0.5888367295 -0.7242457867
-0.03744346276 -0.06375745684 0.7100049853 -0.2306797653 0.5336699486 -0.6712991595
-0.09739367664 -0.1495373845 0.7788466811 -0.6523041725 -0.4758147895 0.5838736296
-0.1052395627 -0.08094221354 0.7450707555 -0.7170510292 0.4480729997 -0.5336019397
-0.1088771001 -0.08916892856 0.7462810278 -0.7311354876 0.4333800972 -0.5267212391
-0.1020113304 -0.07576713711 0.7442221642 -0.7043305039 0.466229707 -0.5350295901
-0.1027349457 -0.086902529 0.7371612191 -0.7309847474 0.4265168011 -0.5326640606
-0.09494975954 -0.07496067882 0.7361870408 -0.6836836934 0.4948610663 -0.5362048745
-0.09782094508 -0.08066815883 0.7353905439 -0.7051648498 0.4627799988 -0.5354364514
-0.08917526901 -0.07387857139 0.7300775051 -0.608430624 0.5276978016 -0.5884442329
-0.1029596105 -0.1608257741 0.7572365403 -0.7973378897 -0.3536878526 0.4886723459
-0.1087246314 -0.1554107219 0.7531232238 -0.8124179244 -0.3351849914 0.4768266976
-0.06392499059 -0.1537315845 0.7998028994 -0.1795653254 -0.5832048655 0.7911993861
0.006766353268 -0.1673794389 0.735411644 0.9230073094 -0.1258150488 0.3324985802
0.005456041545 -0.1737905592 0.7384245992 0.7920483351 -0.3355229199 0.4927267134
0.002193001099 -0.1668213606 0.7468513846 0.8094878793 -0.3102871776 0.4834735096
0.0005010639434 -0.1792802662 0.7441000342 0.7656937838 -0.3712392151 0.5252033472
-0.0106847873 -0.1200990975 0.69240731 0.7092677355 0.2113523334 -0.6228222847
-0.01050218008 -0.11261978 0.6891461611 0.6777896285 0.06325956434 -0.6419078112
-0.1045175716 -0.1635933518 0.7508547306 -0.8107736111 -0.3408312798 0.4756651521
-0.1093123406 -0.163152799 0.7457475662 -0.8171767592 -0.3303310275 0.4722262621
-0.06541736424 -0.1589740813 0.7942072153 -0.2120556384 -0.595390439 0.774092257
-0.07008162886 -0.154063642 0.7975034714 -0.2903413773 -0.5793966055 0.7600525022
-0.08593520522 -0.1586937606 0.7806946039 -0.5601590872 -0.5228936672 0.6370842457
-0.08783443272 -0.1516945213 0.7849760652 -0.5583825111 -0.5233643055 0.6419529319
-0.1029355079 -0.1824472398 0.7492800355 -0.7904800773 -0.3146203756 0.5250690579
-0.1083158627 -0.1676039696 0.7378700376 -0.8120027184 -0.3309533298 0.4805392027
-0.1110614836 -0.1727690548 0.7356949449 -0.8052785993 -0.3140431046 0.5028793216
-0.1089528725 -0.1696032733 0.7437095642 -0.812663734 -0.322365433 0.485029012
-0.03140249476 -0.06735011935 0.7215681076 0.01297503058 0.6323147416 -0.7544239163
-0.04444949329 -0.07934519649 0.7084780335 0.07554384321 0.6170340776 -0.7829986811
-0.04835613072 -0.1204863265 0.6730552316 0.05431319773 0.5483732224 -0.8131383061
0.000351989147 -0.08335433155 0.7405017018 0.7037223577 0.458665967 -0.5419082046
0.002309678122 -0.07562924922 0.7503668666 0.6873698235 0.4763923585 -0.548007369
8.71559314e-05 -0.08161171526 0.746712625 0.7032612562 0.4577213228 -0.5432613492
-0.03692002594 -0.0700571537 0.7173954248 0.08274236321 0.6135032177 -0.7852493525
-0.03813394904 -0.0764773488 0.7125170231 0.09904343635 0.6039668322 -0.7905650139
-0.03139112517 -0.07547998428 0.7150936723 0.1861339658 0.5769776106 -0.7890468836
-0.02631327137 -0.0789944008 0.7136043906 0.3602045476 0.529468894 -0.7646122575
-0.0189081952 -0.06731685251 0.7264510393 -0.177730009 0.3421449661 -0.7484397292
-0.0147151323 -0.06924508512 0.7318361998 0.03971563652 0.378934741 -0.6978012323
-0.01479347982 -0.07325072587 0.7269533873 0.04848852009 0.3604534268 -0.6936317086
-0.008312734775 -0.07560059428 0.7360224724 0.3825676739 0.4200905859 -0.616163373
-0.03286927566 -0.08499546349 0.7072073817 0.1839016676 0.6363642812 -0.7280849218
0.004479854833 -0.09723189473 0.738995254 0.7661119699 0.3980594277 -0.5045974851
-0.0005746099632 -0.09718686342 0.733787477 0.7542078495 0.4091231823 -0.5124022365
-0.0642599389 -0.06288879365 0.7227376103 -0.2365871519 0.6470602155 -0.7230319977
-0.05971119925 -0.05753527209 0.7265194654 -0.1424400806 0.6908831 -0.7047664523
-0.06863579154 -0.05940535665 0.7270392776 -0.2840141058 0.667393744 -0.6859704852
-0.07253126055 -0.06455786526 0.7246534824 -0.3715046048 0.6163886786 -0.6911141276
-0.01247098017 -0.09596130252 0.6782984734 0.07428693026 -0.1355026364 -0.7251061201
-0.01646148972 -0.08875022084 0.6774545312 -0.6586405039 0.09408663958 -0.7231994271
-0.01420558803 -0.07111902535 0.6833148599 -0.8444880843 0.2402816862 -0.4773954451
-0.01151165925 -0.0645577535 0.6865723729 -0.8709954619 0.2553422451 -0.4187702239
-0.1015166119 -0.1522649229 0.7716599703 -0.7279772758 -0.4447740316 0.5203658938
-0.1035739332 -0.1514246762 0.7656008601 -0.7361516356 -0.4086452723 0.5277752876
-0.1056112498 -0.1546451449 0.7581860423 -0.7865412235 -0.3772944808 0.4857851267
-0.09245478362 -0.1539155841 0.7811505795 -0.6215593815 -0.4919121861 0.6089147329
-0.08288883418 -0.07207071781 0.7251641154 -0.5139370561 0.5691491961 -0.6391918063
-0.08153083175 -0.07632879913 0.7194128036 -0.4945751429 0.5571138859 -0.6661396027
-0.06952984631 -0.06795276701 0.7207518816 -0.3137786984 0.6148142219 -0.7173812389
-0.07599934936 -0.07198555768 0.7201836705 -0.4082235396 0.5949217677 -0.692110002
-0.05461307615 -0.1534014642 0.8022871614 -0.05820658803 -0.5803744793 0.8118588924
-0.01373472717 -0.1583764404 0.7795411944 0.6056931615 -0.4765430391 0.6340780854
-0.07462345064 -0.1891736835 0.7664371729 -0.3831168115 -0.5200146437 0.7624391317
-0.0766929239 -0.1852509975 0.7702602744 -0.4136072993 -0.5210977793 0.7407196164
-0.0846240446 -0.1934486926 0.7618231773 -0.5344094634 -0.4571540356 0.7082246542
-0.06883828342 -0.1932894588 0.7668277621 -0.3206178248 -0.5264137983 0.7861526608
-0.0763951391 -0.1685391814 0.7810257077 -0.4115717113 -0.5561210513 0.7140523195
-0.08863986284 -0.163232103 0.77631706 -0.6259515285 -0.4968370199 0.6007564664
-0.06795978546 -0.1475419402 0.8016842008 -0.2165346295 -0.5856661797 0.7762798071
-0.06005831435 -0.1478060931 0.8030528426 -0.1113953069 -0.5784745812 0.8059527278
-0.0009423394804 -0.124519214 0.7089745998 0.7389316559 0.4131210446 -0.5319831967
-0.001262240577 -0.1594109237 0.75563097 0.7909792066 -0.3373500407 0.5104190111
0.00362676545 -0.1258795857 0.7136591673 0.7537490129 0.4112640321 -0.5124237537
0.002499517053 -0.132520467 0.707960844 0.7364890575 0.4065341651 -0.5404538512
-0.02438689396 -0.16893062 0.7799245119 0.4567863941 -0.5332155824 0.7113451362
-0.05656643584 -0.1203939393 0.6715165377 -0.06810341775 0.6313272715 -0.7682817578
-0.05111221597 -0.1187791154 0.6793683171 0.03167118132 0.5869457722 -0.7925505042
-0.05801993236 -0.1159105077 0.681250751 -0.09232881665 0.617131412 -0.764257431
-0.04949798808 -0.09653493762 0.6951609254 -0.01627582684 0.6361542344 -0.7701254487
-0.0221236106 -0.08207186311 0.6760001779 -0.7235831022 0.1866639256 -0.6558734179
-0.03551640734 -0.08636107296 0.6842317581 -0.4569935501 0.3292417228 -0.7293758392
-0.02685225755 -0.08452818543 0.6787273288 -0.6195123792 0.2196201682 -0.6999299526
-0.05448023602 -0.09090491384 0.6954879165 -0.1050462648 0.5871754289 -0.7779215574
-0.04857195541 -0.0941356197 0.6887021661 -0.1981911212 0.5175249577 -0.7614864111
-0.0355059132 -0.09358098358 0.6793830395 -0.4280760884 0.3355097771 -0.7369289398
-0.04096611962 -0.09389466047 0.6832169294 -0.3317546248 0.4118703008 -0.7470659614
-0.04320508614 -0.08931128681 0.6882696748 -0.3068829477 0.4260553122 -0.7584373355
-0.04963067919 -0.1055295169 0.681230545 -0.1552773118 0.5558418036 -0.7596507668
-0.0418058373 -0.1052376404 0.6754434109 -0.3140713274 0.4174288213 -0.7655028105
-0.0518174246 -0.1149871424 0.6706547141 -0.1611004025 0.5642608404 -0.7658997774
-0.04983860999 -0.1095991656 0.6761020422 -0.1728052497 0.5464097261 -0.7629109621
-0.05594591796 -0.1135461479 0.6757822633 -0.06877883524 0.6424373984 -0.7614709735
-0.02340284362 -0.08902762085 0.6763044596 -0.6468989849 0.1364080459 -0.7437591553
-0.04208205268 -0.1001701206 0.6813925505 -0.2876594365 0.4378634691 -0.7576537728
-0.03049792722 -0.09137968719 0.6779623628 -0.5205921531 0.2543186545 -0.7367717624
-0.05442728847 -0.1011573821 0.6915664673 -0.0659687072 0.6324233413 -0.7715616226
-0.04778102785 -0.1045460775 0.6880645752 -0.04099060223 0.607023716 -0.7930746078
-0.002705274615 -0.1305960566 0.7033666968 0.7298234701 0.3997883499 -0.553866148
-0.007846662775 -0.1253749728 0.6973612309 0.7431616783 0.3418309391 -0.5719197989
-0.0927445516 -0.1481663138 0.7854293585 -0.5722927451 -0.5011628866 0.6487137675
-0.0854787156 -0.1479448229 0.7907001972 -0.5099461079 -0.5279893875 0.6778379083
-0.07525366545 -0.1476319581 0.7996622324 -0.3249350488 -0.5697703362 0.7505850792
-0.07892837375 -0.1495375931 0.7946392298 -0.4230076969 -0.5543075204 0.714736104
-0.07649367303 -0.1574074477 0.7903206944 -0.4217576385 -0.5592178106 0.7132602334
-0.05611534044 -0.1931613237 0.7678695321 -0.07204781473 -0.5341911912 0.8096287251
-0.06599286944 -0.1887034625 0.7688385844 -0.269096911 -0.5357787609 0.7948071361
-0.05246092752 -0.1892907619 0.771502316 -0.0102966046 -0.5324128866 0.8332610726
-0.06028918177 -0.1873726994 0.7713052034 -0.1661417186 -0.5338095427 0.8176255226
-0.05615507439 -0.08456282318 0.702757895 -0.06817954779 0.6184431911 -0.7817114592
-0.050783135 -0.07627947628 0.7067696452 -0.1201105714 0.5940594077 -0.7490863204
-0.04636447132 -0.07196940482 0.7058309913 -0.2373014838 0.5516086221 -0.7023841739
-0.05095938221 -0.06728575379 0.7146919966 -0.08881931007 0.6116547585 -0.7453366518
-0.03142307699 -0.06104480848 0.7013958097 -0.545871377 0.4355188906 -0.5625463128
-0.04441116005 -0.06606910378 0.7082627416 -0.2943516672 0.5375262499 -0.6723290086
-0.03835097328 -0.06569494307 0.7030667663 -0.4364555478 0.4790944159 -0.620298028
-0.06297517568 -0.06834045798 0.7181136012 -0.1999335289 0.6300714016 -0.7471122146
-0.05824949592 -0.06454133987 0.7205236554 -0.1199901104 0.6570137739 -0.7382475138
-0.04975393042 -0.07394278049 0.7124507427 0.01069040038 0.6138019562 -0.7867646813
-0.0511373207 -0.06350465119 0.7212412357 -0.02731874771 0.6634176373 -0.7455445528
0.005210498348 -0.0815692693 0.7502939105 0.7125638127 0.4479619861 -0.5394062996
0.003925232682 -0.08936604112 0.745940268 0.7324258089 0.4283517599 -0.5280511975
0.006901212502 -0.08823075891 0.7518318295 0.7243667245 0.4364321828 -0.533670187
0.003365973011 -0.08940137178 0.7399166226 0.7307519913 0.4305158257 -0.5287533998
-0.005106817465 -0.08257734776 0.7371101379 0.6733415127 0.4635287523 -0.5607474446
-0.008393230848 -0.06519304216 0.6937538385 -0.6718667746 0.3013191819 -0.4172029197
-0.006591456942 -0.07953258604 0.7111178637 0.06613516808 0.3722018898 -0.4846666157
-0.007808877621 -0.06986507028 0.6999512911 -0.4161232412 0.3278648853 -0.4404733777
-0.007372125518 -0.07343992591 0.7067751884 -0.1614882499 0.3614806235 -0.4632512927
-0.007233191282 -0.07807327062 0.6940011382 -0.4676897824 0.2888703644 -0.5066710114
-0.007878899574 -0.07153521478 0.6868878603 -0.7733265162 0.2543006241 -0.4558003545
-0.007649108302 -0.07143512368 0.694065392 -0.5592575669 0.2889969945 -0.4386107028
-0.0199303925 -0.07906392962 0.7203423381 0.424464643 0.5272319317 -0.702922523
-0.01900069043 -0.07153489441 0.7218462229 -0.1396984905 0.3357455432 -0.7390659451
-0.01046535373 -0.07890153676 0.7283185124 0.2918265164 0.3855775595 -0.6354650259
-0.004542996176 -0.08537265658 0.7318351269 0.6290485859 0.4292202294 -0.5560324192
-0.008054049686 -0.08114331961 0.7199595571 0.2930151522 0.4069488943 -0.543183744
-0.01301622018 -0.07226876915 0.7136506438 -0.1580631286 0.3509660959 -0.5929083824
-0.01361071412 -0.06821840256 0.7084892988 -0.376513809 0.3283850253 -0.5750755668
-0.01802561432 -0.06939891726 0.7162622213 -0.2782945633 0.3268088996 -0.6916010976
-0.01363855228 -0.07722838223 0.7218155265 0.1195943281 0.3762155175 -0.6475077271
-0.01282111742 -0.06270324439 0.6992765665 -0.6860069633 0.300480783 -0.511993289
-0.005738498177 -0.1007642969 0.7222540379 0.7297819257 0.4292793274 -0.5304466486
-0.02665238269 -0.09082911164 0.7069864869 0.4020649791 0.6404387951 -0.6090983748
-0.02020993084 -0.09200587124 0.7133079171 0.461961031 0.5372419953 -0.6329069734
-0.006308685988 -0.08925746381 0.7269912362 0.6940751076 0.456071794 -0.5503829718
-0.009539455175 -0.0977331847 0.7183926702 0.6867827773 0.4527210593 -0.5585457683
-0.01315607037 -0.0865682736 0.7220311165 0.5674489141 0.4830311835 -0.6263780594
-0.01401117258 -0.09327284247 0.7167432904 0.6039233804 0.4719124138 -0.6119369864
-0.02157519758 -0.08511605114 0.7142392397 0.4709691703 0.503287375 -0.7011268139
-0.006237149239 -0.09468583763 0.7238560915 0.7131150961 0.4476248026 -0.5394230485
-0.007228025701 -0.09010922164 0.7086703181 0.199949488 0.3760153353 -0.5256091356
-0.006328963209 -0.09188316762 0.714322567 0.3749608397 0.3981533647 -0.5271359086
-0.006110076327 -0.08498028666 0.7144690752 0.2441466898 0.388050586 -0.5285478234
-0.006660880055 -0.08199114352 0.7009550929 -0.2032116055 0.3228491545 -0.513594985
-0.01324865874 -0.09902002662 0.7136699557 0.6537775397 0.503662467 -0.5452464819
-0.01758044399 -0.09885116667 0.709251523 0.6020677686 0.5577792525 -0.5438402295
-0.06010298803 -0.1623096168 0.792214632 -0.1360820979 -0.5983874798 0.7859361768
-0.00811727345 -0.1567772031 0.773584187 0.7032826543 -0.4132133722 0.577074945
-0.01800579764 -0.07551640272 0.6794509888 -0.8041596413 0.2369074225 -0.540986836
-0.03514905274 -0.08081201464 0.686662674 -0.5097027421 0.3904772997 -0.6435019374
-0.04605805501 -0.08534305543 0.6923920512 -0.2873305678 0.5042937398 -0.7134640217
-0.02824226022 -0.07961662114 0.6815471053 -0.641435802 0.3128240705 -0.6165693998
-0.02279016376 -0.07266703993 0.6828500628 -0.7779308558 0.2716000676 -0.5329919457
-0.06882543862 -0.0744607076 0.7151734829 -0.2894642949 0.6013274193 -0.7391542792
-0.06240106001 -0.07615423948 0.7114493847 -0.1883596033 0.6099521518 -0.7672414184
-0.05594342202 -0.07416250557 0.7121807337 -0.07195266336 0.6186624765 -0.7808111906
-0.05557207018 -0.07895326614 0.7086699605 -0.06776652485 0.6128154397 -0.7864225507
-0.02679829113 -0.1885104179 0.7647092938 0.4190637767 -0.5509008169 0.7155151367
-0.06192558259 -0.1967284977 0.7685696483 -0.2021233886 -0.542449832 0.8041191697
-0.05516836792 -0.199966833 0.7697387338 -0.04183104262 -0.5585572124 0.8171668649
-0.04903648049 -0.200392738 0.7692201734 0.05490297824 -0.5696381927 0.8197433352
-0.03076342866 -0.1638821661 0.7858815193 0.3400169909 -0.569827497 0.7446316481
-0.01809393428 -0.1560627371 0.7844669223 0.5103442669 -0.5090253353 0.6892965436
-0.02302673832 -0.1620864719 0.7838820219 0.4650356174 -0.5359264016 0.7019950151
-0.05383686349 -0.1883939505 0.7775239944 -0.04431256652 -0.5367467403 0.8410474658
-0.05326322094 -0.1955085397 0.775072813 -0.02726630867 -0.5490631461 0.8337823749
-0.04771257564 -0.1885350794 0.7772834301 0.06030390784 -0.5554361939 0.8266521096
-0.08177030832 -0.1765126437 0.7715244293 -0.507122457 -0.4921238422 0.7006288767
-0.08877227455 -0.1888834685 0.7632800937 -0.5674186945 -0.4456324279 0.6917034388
-0.0831855759 -0.1827117354 0.770324409 -0.4983640015 -0.5054265857 0.6985652447
-0.08025131375 -0.17423594 0.777310133 -0.4758711457 -0.5489495397 0.6849048734
-0.07333990186 -0.1740733385 0.7775048018 -0.3581773639 -0.5563380718 0.7289910316
-0.08153437823 -0.1849835366 0.7646185756 -0.4860523939 -0.4795741737 0.7274711728
-0.07563100755 -0.1798276752 0.7738202214 -0.4075840414 -0.5420600176 0.7325988412
-0.08907303959 -0.1722427011 0.7683662176 -0.626791358 -0.4388982058 0.6355770826
-0.08538540453 -0.17005606 0.7734616995 -0.5739893913 -0.5071415305 0.6396682262
-0.08296783268 -0.165370509 0.7787830234 -0.5378237367 -0.5257893205 0.6459670067
-0.07657263428 -0.1630660743 0.7854406238 -0.4167529345 -0.5619751811 0.7117359042
-0.08270233124 -0.1576462984 0.7873986959 -0.500084281 -0.5341335535 0.680664897
-0.0162996687 -0.1800061613 0.7620346546 0.5867694616 -0.4601377249 0.6391119361
-0.006809692364 -0.1763413399 0.7581834793 0.7471891046 -0.3705135286 0.5505093932
0.000123853577 -0.1726849377 0.7483808994 0.7709904313 -0.3657554686 0.5211348534
-0.001471964526 -0.1654140949 0.7540481091 0.7910789847 -0.3349386752 0.5118239522
-0.003475559177 -0.1779997647 0.7514815927 0.7683969736 -0.3704608381 0.521787405
-0.006494338624 -0.1704862565 0.7608899474 0.7591233253 -0.3603774905 0.5414195657
-0.006905512419 -0.1603065431 0.7685460448 0.7274456024 -0.3800197244 0.5706601143
-0.003611675231 -0.1576305479 0.761649251 0.7598505616 -0.360648483 0.53946805
-0.00461626472 -0.1643161625 0.7593171597 0.7627967 -0.3628378808 0.5309736729
0.004116159398 -0.1267999113 0.7199535966 0.7609143853 0.3392174542 -0.4135452807
0.004220150411 -0.13203834 0.7244731188 0.7669212222 0.2278846502 -0.2611185014
0.004926641937 -0.1374572217 0.7294811606 0.7709935904 0.1260909885 -0.1226076707
0.005441366229 -0.1404195875 0.7220441699 0.76079458 0.1954101026 -0.2131194919
0.005071638152 -0.1524828821 0.7388481498 0.7846707702 -0.1548295319 0.2639513016
0.004787271842 -0.1474695653 0.7345706224 0.7797586918 -0.05420232192 0.1263716519
0.004656657111 -0.1333756 0.7175341249 0.7572718859 0.3077692986 -0.3669781685
0.005847427528 -0.1630625576 0.7411875129 0.869928658 -0.2127551138 0.4052615464
0.003419774817 -0.1582747698 0.7494851947 0.7950367332 -0.3337755799 0.5064350367
0.003101244103 -0.1461905688 0.7413337827 0.7812821865 -0.09972978383 0.1842132509
0.003621730488 -0.1533970982 0.745996356 0.7899829745 -0.2435594648 0.3821997941
0.004573247861 -0.1293292642 0.7333298922 0.7736313343 0.1572387964 -0.1657307297
0.00470374478 -0.1393945664 0.7370342612 0.7804688215 0.00416978728 0.04389600456
0.00467865495 -0.1265515983 0.7268164158 0.7658983469 0.2740143239 -0.3266043663
0.004199778195 -0.1157846823 0.7360278368 0.7726097703 0.2589373887 -0.303676188
0.004510444589 -0.1205385029 0.7281077504 0.7655444145 0.3178936243 -0.38609007
0.003927395679 -0.1383776665 0.7436950803 0.7852440476 -0.06741032749 0.1423338652
0.002435868606 -0.1478790492 0.7483404875 0.7874091864 -0.2044908255 0.3280617893
0.004272343591 -0.11433734 0.7280614376 0.7633641958 0.383302182 -0.4754185677
0.002760479227 -0.1279973537 0.7422937155 0.777394712 0.07169277966 -0.04909516871
0.003580640536 -0.12238729 0.7340854406 0.7695977688 0.2297365665 -0.2655779123
0.003050250001 -0.1224373803 0.740362525 0.7750088573 0.1493910551 -0.1549757272
0.00373216439 -0.1208554059 0.7196204662 0.7568737864 0.407525897 -0.5108842254
-0.01857544482 -0.1646034867 0.7790766954 0.5545347929 -0.4959003925 0.6621955037
-0.01019655634 -0.1632453501 0.7724866867 0.6910575628 -0.4105168581 0.5933553576
-0.1029320583 -0.09888714552 0.7286574244 -0.744974196 0.4272961915 -0.5122564435
-0.1017642468 -0.11869739 0.7132461071 -0.7063903213 0.4497731328 -0.544549346
-0.1058790237 -0.1360763758 0.7232221365 -0.7384746075 0.1369320005 -0.1471464187
-0.1042293534 -0.1253910661 0.7199735641 -0.7299484015 0.2918968797 -0.3443531692
-0.1025627628 -0.1309458464 0.7067334652 -0.6794713736 0.4217244089 -0.5078836083
-0.1083822697 -0.1487215906 0.7347755432 -0.7737569809 -0.131848976 0.1961487383
-0.1062244996 -0.1370637417 0.7296267152 -0.7581889629 0.06250982732 -0.05076511949
-0.1050563976 -0.1308249086 0.7257947922 -0.7466068268 0.1764829159 -0.1959317327
-0.1031093672 -0.1188392267 0.7204794884 -0.7316770554 0.3681145608 -0.4401350319
-0.1041914076 -0.1357237399 0.7165265679 -0.7117789388 0.2509346902 -0.2900190353
-0.1030179709 -0.1285322905 0.7133014798 -0.7026926875 0.3663931787 -0.4371495843
-0.1079833582 -0.1436762512 0.7372757196 -0.7832995057 -0.1061967239 0.1638984531
-0.1058268994 -0.142288059 0.7233583331 -0.7339823246 0.09362592548 -0.0898251757
-0.1092715859 -0.1517914236 0.7406675816 -0.7926675081 -0.2331808507 0.325733304
-0.1068850607 -0.1431353688 0.7300752997 -0.7577238083 -0.004599367268 0.03490943462
-0.04984949529 -0.1126308888 0.682600379 0.01494696364 0.6309061646 -0.7721261382
-0.04422558844 -0.1094018668 0.6853709817 0.04861257225 0.6137264371 -0.7853084803
-0.0443078205 -0.1173987463 0.6800324917 0.1147976294 0.572524786 -0.8089988232
-0.08208395541 -0.119044058 0.6875433326 -0.5273749828 0.5271879435 -0.6627292037
-0.07755685598 -0.1134770066 0.6876519322 -0.4514581859 0.5661646724 -0.6873481274
-0.08908325434 -0.1237079799 0.6887684464 -0.5779932141 0.490031451 -0.6520985365
-0.03485260531 -0.08969382942 0.7026979327 0.09453842789 0.6494652629 -0.7542175651
-0.04296280816 -0.08596470952 0.7036446333 0.07351048291 0.6189439893 -0.7816496491
-0.03786808252 -0.09524959326 0.6972519159 0.01716131531 0.6631914377 -0.7455056906
-0.04551037028 -0.09202218801 0.699164629 0.04409257323 0.6448501945 -0.762834847
-0.05156846344 -0.08981266618 0.7006937861 -0.02436239459 0.6247694492 -0.7789049745
-0.04908950627 -0.08550989628 0.70369488 0.01495449711 0.6113328338 -0.7884216905
-0.0326019302 -0.09446656704 0.7006667256 0.1346270293 0.6450189948 -0.721031189
-0.01572598144 -0.105176039 0.7062917948 0.625169158 0.4879676104 -0.5525682569
-0.02534813434 -0.09641002864 0.7046873569 0.3900980353 0.6130030155 -0.6214702129
-0.003530927468 -0.1059893668 0.7178764939 0.7447527051 0.420042485 -0.5179319382
-0.007327241823 -0.1081354767 0.7131488919 0.7261490226 0.440167129 -0.5264252424
-0.002823876217 -0.1129498407 0.7134921551 0.7538529634 0.4128414989 -0.5106933713
-0.006898870692 -0.1009464189 0.7125397325 0.5682579279 0.4221452177 -0.5317320824
-0.00769085763 -0.08543760329 0.6961560249 -0.2347389758 0.3171278536 -0.5140480399
-0.006873620674 -0.09331460297 0.7018284798 0.08874696493 0.3529283702 -0.5238639712
-0.007538932841 -0.08308140188 0.6887117624 -0.5194150805 0.260709554 -0.525693357
-0.05640845001 -0.1101183593 0.6805337071 -0.06765433401 0.6459799409 -0.7587775588
-0.06212656945 -0.1190317869 0.6730132699 -0.1681663096 0.6187373996 -0.7652788758
-0.07141711563 -0.1103481352 0.6873580217 -0.3633350432 0.5925431252 -0.7186254859
-0.06643981487 -0.1127812639 0.6821699142 -0.2543643713 0.6160728931 -0.7414230704
-0.06390225142 -0.107822746 0.6858944297 -0.1999405324 0.6551647782 -0.7282837033
-0.03700413182 -0.1214881018 0.6798662543 0.2629632354 0.3834863305 -0.8361602426
-0.02603103593 -0.1221310422 0.6849728823 0.4972067475 0.2162281722 -0.7751489878
-0.03511982784 -0.1158518344 0.6828439832 0.193953529 0.4175162613 -0.8672060966
-0.02381824329 -0.1204731688 0.6787675023 0.4063955545 -0.02618367411 -0.8913155794
-0.01968220435 -0.1165320128 0.6812998056 0.5200292468 -0.06054402888 -0.8198475838
-0.01678048633 -0.106965594 0.6784909368 0.5041864514 -0.2058199942 -0.8173471093
-0.02983307093 -0.1222300008 0.6764363647 0.2836747169 0.1179828271 -0.9366793633
-0.07936146855 -0.1223747879 0.6818022132 -0.4665978253 0.5188263655 -0.7064524889
-0.08486244828 -0.1249845847 0.6845065355 -0.509540081 0.5044466853 -0.689247787
-0.002842806512 -0.0969054848 0.7286813259 0.7405526638 0.4234897792 -0.5201920271
0.0002206891077 -0.08879489452 0.7344009876 0.7173165083 0.443772018 -0.5370340943
0.000543357979 -0.1034040451 0.725941658 0.7516534328 0.4106116891 -0.5158603787
0.003501469269 -0.1025747508 0.7329955101 0.7655323148 0.401137352 -0.5030004382
-0.06578674912 -0.1668348908 0.7879917026 -0.2314579338 -0.6038292646 0.7622219324
-0.07240539789 -0.1676960289 0.7855056524 -0.357714653 -0.579859376 0.7316039801
-0.07141491771 -0.1616414934 0.7904319763 -0.3418932259 -0.5794659853 0.7396529317
-0.05284486338 -0.1696430445 0.7873672247 -0.024583444 -0.5999682546 0.7957134247
-0.04637683183 -0.1690273136 0.7873697877 0.08311453462 -0.5998318791 0.7925076485
-0.05425150692 -0.1641797572 0.7910156846 -0.04875981808 -0.6032136083 0.7951291203
-0.05963385478 -0.168741256 0.7871167064 -0.1377156377 -0.6046575904 0.7800778747
-0.06473923475 -0.1735453308 0.7824940681 -0.2086827457 -0.5939919353 0.7765225768
-0.01979295537 -0.06741523743 0.6836278439 -0.837767005 0.2700068951 -0.4687194526
-0.03032832965 -0.06488724053 0.6958191395 -0.6118949652 0.4057172835 -0.5422717333
-0.02597519755 -0.06078913063 0.6953547001 -0.7132243514 0.3744077981 -0.501292944
-0.02324773185 -0.06393616647 0.6885094643 -0.7922995687 0.3215361834 -0.4637059867
-0.04023758322 -0.07129719108 0.7002240419 -0.3732725978 0.4939734936 -0.6416376829
-0.02828133851 -0.0686289072 0.689037323 -0.6823812723 0.3600993156 -0.5103402734
-0.04944725707 -0.08052897453 0.700338006 -0.1871483028 0.5645228624 -0.7240986824
-0.03472176194 -0.07107917964 0.6938915849 -0.5198152065 0.4266521931 -0.5788192749
-0.04348098487 -0.07664594799 0.6977918148 -0.3213829994 0.5088640451 -0.6653957367
-0.03173081577 -0.07475354522 0.6881039143 -0.6036012173 0.3736054897 -0.5716558099
-0.03884337842 -0.07811837643 0.6912352443 -0.4561555088 0.4473244846 -0.6210488081
-0.02586817741 -0.1748792231 0.7769033313 0.4302193522 -0.5308235884 0.729609549
-0.02268108912 -0.1922214478 0.7639718652 0.4819310009 -0.5367862582 0.6852458119
-0.02036950924 -0.176754728 0.7720233202 0.5187660456 -0.5001320839 0.6881155372
-0.03437305242 -0.1694738418 0.7855184078 0.287455529 -0.5813249946 0.7592728734
-0.03172343224 -0.1757263243 0.7782909274 0.3326367438 -0.5599601269 0.752620101
-0.03657825291 -0.1970612407 0.7646687627 0.2661865056 -0.5699688792 0.7452149391
-0.03020547144 -0.195192188 0.7617589831 0.3770743012 -0.5683444738 0.7028291225
-0.04499287158 -0.1930517256 0.7710032463 0.1370224655 -0.5145937204 0.8391540051
-0.04111052677 -0.1972245872 0.7682325244 0.2017844766 -0.5538861156 0.7946794629
-0.05060136691 -0.1606287658 0.7941398025 0.01668558829 -0.5995481014 0.7957618833
-0.05480915681 -0.1577339023 0.7970839739 -0.0497424528 -0.6070356369 0.7917190194
-0.04690998048 -0.1473932713 0.8028213382 0.02558111027 -0.5887255669 0.8069412708
-0.0459456481 -0.1566433311 0.7977886796 0.09121807665 -0.5954514742 0.7961166501
-0.06567381322 -0.1830223948 0.7747917175 -0.2636414766 -0.5511827469 0.7907782197
-0.07080454379 -0.1844564825 0.7727446556 -0.3341028988 -0.5463545322 0.7637143135
-0.06806568056 -0.1778751761 0.7797892094 -0.2976917028 -0.5586909056 0.7682837248
-0.05875575542 -0.1921276599 0.7750526667 -0.1341173351 -0.5513759255 0.8192557693
-0.06022245437 -0.1865177006 0.7781078219 -0.1699852794 -0.5446483493 0.817540586
-0.06237183511 -0.18064031 0.7803065777 -0.2152514607 -0.5433855057 0.8112298846
-0.05818941444 -0.1750403941 0.7835235596 -0.1231762245 -0.5860198736 0.7970978618
-0.09841496497 -0.1629881859 0.7637004256 -0.7646679282 -0.3879404068 0.5128586292
-0.1004408225 -0.157482177 0.7667712569 -0.7550716996 -0.4052619636 0.512404561
-0.09243965149 -0.1665203869 0.7689155936 -0.6835792065 -0.4394947588 0.5793492198
-0.09586898237 -0.1605041772 0.7705211639 -0.7109166384 -0.449288547 0.538928628
-0.1005096734 -0.168080166 0.7568640709 -0.7797243595 -0.3624356091 0.5097192526
-0.1042558551 -0.1698368639 0.7508528829 -0.8046383262 -0.3378688097 0.4877415895
-0.01045188308 -0.1678995341 0.7673177719 0.700404346 -0.4217662215 0.5739637017
-0.01681403071 -0.1715642959 0.7721944451 0.5820519924 -0.472147584 0.6574573517
-0.01131049823 -0.1744552404 0.7632282376 0.6701518893 -0.4315410852 0.5965852737
-0.01481419057 -0.166253224 0.7749058008 0.6198147535 -0.4621525109 0.6335702538
-0.01661273651 -0.1801685095 0.7675790787 0.5866864324 -0.4865831733 0.645817399
-0.007403290365 -0.184266597 0.7552102804 0.7086035013 -0.3781107068 0.5955540538
-0.00504710665 -0.1840578467 0.7497929931 0.7261299491 -0.4005325437 0.5472842455
-0.02156718262 -0.1934818774 0.7581720352 0.5131373405 -0.569092989 0.6389747262
-0.01424474549 -0.1905433834 0.7559876442 0.6063703299 -0.4978369176 0.605758667
-0.01564278454 -0.1901240647 0.761444211 0.6071087122 -0.4971262813 0.6193116903
0.001752220094 -0.1153299287 0.7181584239 0.7585121989 0.4053198695 -0.5102220178
0.003991690464 -0.1079621315 0.7299134135 0.7656313777 0.4018709064 -0.5022827387
0.0001763895561 -0.1084720641 0.7214214802 0.7595487833 0.4053294957 -0.5087023377
-0.09029883146 -0.1195899174 0.6943098903 -0.6005193591 0.4836745262 -0.6361992955
-0.08226021379 -0.1126020998 0.6917485595 -0.5184859633 0.5370820761 -0.6628280878
-0.01369585749 -0.1157444417 0.6976142526 0.7411119342 0.3338118792 -0.5721594095
-0.0390945524 -0.0999193117 0.6931695342 -0.0557670258 0.6283710599 -0.7736399174
-0.03153816238 -0.09975077212 0.697045207 0.09252610058 0.6271231174 -0.6983426809
-0.02587150596 -0.1019422263 0.6999458671 0.2831813991 0.5805270672 -0.6392695308
-0.01972601376 -0.106074661 0.7020837069 0.4879481196 0.5071388483 -0.5873588324
-0.02465073578 -0.1092203781 0.6943008304 0.3771556318 0.437833935 -0.6675702929
-0.03037127294 -0.1056191325 0.6936359406 0.143142432 0.5374468565 -0.7213827968
-0.01934518106 -0.1109085232 0.6970601082 0.5474624634 0.4125943482 -0.6093562245
-0.02973227762 -0.1104034111 0.6895796061 0.252715826 0.4358486831 -0.7618988156
-0.0392794162 -0.1073183119 0.6876115203 0.05584727973 0.5348134637 -0.8306516409
-0.021199435 -0.1108111963 0.677153945 0.3114395738 -0.1114164218 -0.8657886982
-0.01944733411 -0.09647610784 0.6773393154 -0.1321344823 -0.04739752039 -0.7798271179
-0.02281562798 -0.1014811918 0.6769611239 -0.218865186 0.03140000626 -0.8165159225
-0.02708140202 -0.1074728221 0.6766409278 -0.1744079739 0.1452082545 -0.8513126969
-0.02643175237 -0.1153318509 0.676589787 0.0691754669 0.04192763194 -0.9026210308
-0.02886257507 -0.1153351814 0.6848925948 0.3069445789 0.2882237136 -0.8846827149
-0.02445715107 -0.114958711 0.6888256669 0.4768100083 0.309984386 -0.7491096854
-0.07340518385 -0.1159067005 0.6831692457 -0.3718790412 0.5850906372 -0.7176809311
-0.06494489312 -0.1185833514 0.6803292632 -0.2101653814 0.6035276055 -0.7417818308
-0.07359847426 -0.1215624213 0.6771728396 -0.3514484763 0.5448203683 -0.7601997256
-0.06836687773 -0.1205951869 0.6751678586 -0.2705124915 0.5797740817 -0.7644966841
-0.04329970479 -0.1744291037 0.7834615111 0.1313564032 -0.5992511511 0.7870829105
-0.04044393823 -0.1660012007 0.7896526456 0.1821880937 -0.5961793065 0.7784984708
-0.03756178916 -0.1746110171 0.7817051411 0.233724311 -0.5866901278 0.7714170814
-0.05461191013 -0.1805206984 0.778619945 -0.06524833292 -0.5601993203 0.824100852
-0.0493314676 -0.178742066 0.7814454436 0.02569017373 -0.5711426735 0.8153834939
-0.02898806147 -0.1795757115 0.7732114792 0.3842996657 -0.5382718444 0.7410123348
-0.02471872419 -0.1814916432 0.7685841322 0.4493277073 -0.5168982148 0.7234455347
-0.03912767768 -0.1805238575 0.7787207961 0.1909174472 -0.5669668317 0.7943787575
-0.02805902809 -0.1858963221 0.7702328563 0.3913910985 -0.5469591022 0.7385108471
-0.02505285852 -0.1520814002 0.7925846577 0.3669117689 -0.5667936802 0.7359920144
-0.09385277331 -0.1913761795 0.7576757669 -0.6498025656 -0.394207269 0.6484516859
-0.1034810543 -0.1746071726 0.7463750243 -0.8042312264 -0.3136502802 0.5046105385
-0.0961926803 -0.1724782288 0.7598853111 -0.7408387065 -0.3540870249 0.5667053461
-0.09968875349 -0.1760682017 0.751396358 -0.7910449505 -0.3108779192 0.5260830522
-0.09835345298 -0.1842699051 0.7541410923 -0.7325409651 -0.3423210979 0.5823928714
-0.1028689444 -0.1237965524 0.7066797614 -0.6860801578 0.4615447521 -0.5618280768
-0.0588927716 -0.09145242721 0.7000222206 -0.1253502518 0.6136978269 -0.7742766738
-0.007832420059 -0.1182129085 0.7002684474 0.7923997641 0.327860415 -0.5126823783
-0.004988653585 -0.1221116036 0.7029892802 0.753360033 0.3817856014 -0.5329464078
-0.008812035434 -0.1129316092 0.7059714794 0.7563028336 0.4087803364 -0.5090786815
-0.004381378181 -0.1168454587 0.7082116604 0.7615478635 0.3948809206 -0.5132907629
-0.008195688948 -0.1106120795 0.6948617101 0.4140401781 0.2939713597 -0.5155916214
-0.01231763978 -0.1033717915 0.6820348501 0.5084441304 -0.1425454915 -0.7162126899
-0.009110643528 -0.104108572 0.6881971955 0.1294086576 0.2028084695 -0.5463734865
-0.009983276017 -0.09014327079 0.678955555 -0.4457731843 0.07361922413 -0.5958644748
-0.01884762011 -0.1161446348 0.6911534071 0.6434561014 0.2212581635 -0.6945620179
-0.01460776757 -0.1123668924 0.684448123 0.6248894334 -0.0488002114 -0.7316198349
-0.01732329652 -0.1231902838 0.6889983416 0.6850985885 0.1266329736 -0.7104967833
-0.04472151026 -0.1830351949 0.7770287991 0.1460031271 -0.5307141542 0.8332065344
-0.03965400532 -0.1855414212 0.7745296359 0.2161422074 -0.5470671654 0.8021847606
-0.03377395123 -0.1876813322 0.7684876919 0.2932363153 -0.5570233464 0.7710347772
-0.04517098144 -0.1862220317 0.7717682719 0.09553408623 -0.5432859063 0.8100617528
-0.02476052195 -0.1571290195 0.7878214121 0.3983872235 -0.5521251559 0.7301104069
-0.03006757051 -0.1569781899 0.7911743522 0.300979495 -0.579584837 0.7488484979
-0.03735356033 -0.1591897905 0.793246448 0.1974226385 -0.6025035977 0.7713606954
-0.0433694236 -0.1613484174 0.7940265536 0.1483520269 -0.596927464 0.7865124345
-0.0322332643 -0.1556011289 0.7963870764 0.285862118 -0.5906198025 0.7540180087
-0.02972690947 -0.1495702714 0.7956815362 0.2702835202 -0.5840024352 0.7569749355
-0.04278637469 -0.1509382576 0.8001205921 0.09149627388 -0.5972167253 0.7943056822
-0.03760007396 -0.1479970068 0.8007708192 0.1729726791 -0.5933740735 0.7756326199
-0.09452494979 -0.1798511147 0.7562507391 -0.7285151482 -0.3376947343 0.5847663283
-0.09282699972 -0.1795299053 0.7622879744 -0.6622825265 -0.3864236474 0.6390056014
-0.08755532652 -0.1824739426 0.7649918795 -0.5800578594 -0.4273489714 0.6932624578
-0.06608649343 -0.09204577655 0.7003870606 -0.2275608629 0.6036690474 -0.7638913393
-0.06243255362 -0.09702123702 0.6946601272 -0.1678189337 0.6111932993 -0.7708428502
-0.05573659763 -0.1052841097 0.685654819 -0.05300668627 0.6496503353 -0.7574802637
-0.06483528018 -0.1030259505 0.6906554103 -0.2170558274 0.6331184506 -0.7422468066
-0.06375771761 -0.08483424783 0.7050296068 -0.1945618689 0.6016874313 -0.7736538053
-0.06816006452 -0.08038070798 0.7098832726 -0.2900768518 0.588383317 -0.7539409399
-0.1025262326 -0.1131308153 0.7119657993 -0.7100943327 0.445968926 -0.5447259545
-0.1049736291 -0.1106505319 0.7184877992 -0.7243773341 0.4384604096 -0.5310149193
-0.1017231941 -0.103496246 0.7247068882 -0.7361173034 0.4351707697 -0.5183160305
-0.09590914845 -0.09748211503 0.7198176384 -0.7020993233 0.4502537549 -0.5500004888
-0.1000815257 -0.1052794084 0.7182378769 -0.7105486989 0.4480113983 -0.5420997143
-0.09545103461 -0.08859225363 0.7248781323 -0.698710978 0.4501192272 -0.5548992753
-0.09813593328 -0.08519303799 0.7313589454 -0.7187829614 0.4424823821 -0.5359085798
-0.1003570184 -0.09179652482 0.729917407 -0.7345291972 0.428796351 -0.5257822871
-0.09922539443 -0.1243189499 0.7014147043 -0.6636770964 0.4672500193 -0.5837181807
-0.09378622472 -0.1280591786 0.6922441721 -0.6089259982 0.4796658754 -0.6307525635
-0.09719140083 -0.1295153648 0.6973392963 -0.6373656392 0.474358201 -0.6071115732
-0.09458057582 -0.1234043241 0.6973424554 -0.630736053 0.4732221365 -0.6130341291
-0.008498339914 -0.1051933393 0.7042363286 0.5071271658 0.3981703222 -0.5039886832
-0.00821131561 -0.09640362859 0.6944762468 -0.06410831213 0.3166643083 -0.5189557672
-0.00757023599 -0.08939522505 0.6908665895 -0.3496878743 0.2686926425 -0.5440036654
-0.006912597921 -0.09849667549 0.7038501501 0.2355790734 0.3643774688 -0.5338282585
-0.008402585983 -0.09418226033 0.6876485944 -0.328666538 0.266980201 -0.5188165307
-0.007818733342 -0.1040993258 0.6968830824 0.2194042504 0.3287149668 -0.5116394758
-0.08168876171 -0.1046836376 0.6979054213 -0.5012310147 0.539722681 -0.6756343842
-0.08132337779 -0.09937956184 0.7018545866 -0.4912660718 0.5431988835 -0.6801890135
-0.0872522369 -0.0948196277 0.7110757828 -0.5709787607 0.5007407665 -0.6495219469
-0.09232470393 -0.09485085309 0.7158871889 -0.6596276164 0.4698364139 -0.5858367682
-0.08382300287 -0.08198077232 0.7177662849 -0.5336238742 0.5287008882 -0.6508826017
-0.07930494845 -0.08241827786 0.7139908075 -0.4514493942 0.556430757 -0.689488709
-0.08986356109 -0.0863487944 0.7192855477 -0.6353153586 0.4787155986 -0.6050310731
-0.08660706878 -0.07902604342 0.7223439217 -0.5820845962 0.5198863745 -0.6244287491
-0.09153294563 -0.07858658582 0.7269718051 -0.6540206075 0.5001470447 -0.5664722323
-0.07545635104 -0.08701330423 0.7083053589 -0.3796600997 0.5649971366 -0.7286100984
-0.08294068277 -0.08959233761 0.7104522586 -0.5179123878 0.5256248116 -0.6744042039
-0.07642545551 -0.09391970932 0.7032374144 -0.395399332 0.5691016316 -0.7191752195
-0.08287075907 -0.09564568847 0.7060915232 -0.5016866326 0.5297756791 -0.6808213592
-0.0974285081 -0.1139409021 0.706920445 -0.684263289 0.4589199424 -0.5662981868
-0.08700823784 -0.1049309 0.7028990984 -0.570025146 0.510291338 -0.6427371502
-0.0858302936 -0.1089935154 0.6982621551 -0.5523920059 0.5151900053 -0.649844408
-0.09586316347 -0.1179688126 0.7017660141 -0.6560783386 0.4680194557 -0.5913884044
-0.09674862772 -0.107900098 0.7128773332 -0.6905630827 0.459554404 -0.5561081171
-0.09284006059 -0.100735791 0.7119554877 -0.6612225175 0.4729419053 -0.581887126
-0.09318186343 -0.1056485027 0.708353281 -0.6606094241 0.4753554761 -0.5809257627
-0.09119807929 -0.1088856533 0.7035665512 -0.6340953708 0.4847891927 -0.6004176736
-0.09058266133 -0.1134130582 0.698882997 -0.6154808402 0.4862505794 -0.6186910868
-0.08804675937 -0.1001876593 0.7072245479 -0.579562366 0.5043281913 -0.6326613426
