# .PCD v0.7 - Point Cloud Data file format
VERSION 0.7
FIELDS x y z normal_x normal_y normal_z
SIZE 4 4 4 4 4 4
TYPE F F F F F F
COUNT 1 1 1 1 1 1
WIDTH 512
HEIGHT 1
VIEWPOINT 0 0 0 1 0 0 0
POINTS 512
DATA ascii
-0.07206276059 -0.1409117579 0.5185657144 -0.7938353419 -0.4096466899 0.4486745
-0.07203257084 -0.1463818997 0.5160303116 -0.7752231359 -0.4138985276 0.4771842957
-0.06105719879 -0.1596987993 0.5251781344 -0.7008746862 -0.4940448403 0.5084536076
-0.06403455138 -0.1560198069 0.522541523 -0.7304231524 -0.4622310102 0.4960273504
-0.06966358423 -0.1515295208 0.5188226104 -0.7658980489 -0.4261483252 0.4799335599
0.03353024647 -0.07065685838 0.5155560374 0.36656937 -0.5024123192 0.6234936118
0.01164465118 -0.07244233042 0.5443139076 -0.5884149671 -0.1224206686 0.5523129702
0.01451929379 -0.07308463007 0.5365082026 -0.3501135111 -0.3595093787 0.6286025047
0.01312661916 -0.0707411617 0.5496269464 -0.72716254 0.1891917884 0.4364890754
0.01854986884 -0.07288642973 0.5306118131 -0.1574243307 -0.457375139 0.6516838074
0.01684420742 -0.07117388397 0.5413604975 -0.470205009 -0.03247232363 0.5047698021
0.02093353309 -0.07057639956 0.5371994376 -0.3257315457 -0.04714521393 0.4979251325
0.01927669719 -0.06615881622 0.5423080325 -0.2143020332 -0.1664850861 0.4607125819
0.02887876891 -0.06817612797 0.5257061124 0.1850247383 -0.3779284656 0.5498142242
0.03123286553 -0.07029927522 0.5207633972 0.2096676528 -0.3658209145 0.5799509287
0.0193419233 -0.0567952916 0.5472192168 0.2102264762 -0.536119163 0.4135726988
0.02871594205 -0.06363245845 0.5284036994 0.3811023831 -0.5514073968 0.5253428221
0.02084318176 -0.05967575312 0.5432493091 0.1572761387 -0.4684605002 0.4405637681
0.02404706553 -0.05579923093 0.5401473641 0.4951739013 -0.7176535726 0.4471289814
0.01508496609 -0.06561950594 0.5493726134 -0.4039804339 -0.06077787653 0.4235537648
0.02544229105 -0.06771493703 0.5315080285 0.0303791929 -0.2920154929 0.5192534924
0.02610491216 -0.05788145214 0.5357053876 0.5065379739 -0.6981858015 0.4746251702
0.02350754663 -0.06293237209 0.5371977687 0.1467675716 -0.4212388396 0.479018867
-0.06263259053 -0.09439970553 0.5004328489 0.370626241 -0.7195158005 0.5857645273
-0.06539094448 -0.1054438874 0.5137499571 -0.002060684608 -0.6096672416 0.5161414742
-0.06289238483 -0.1008000672 0.4996438026 0.1865921021 -0.6846365929 0.5731028914
-0.06852772832 -0.1227658689 0.5116875172 -0.4137239754 -0.5195170045 0.484695673
-0.0657383278 -0.112478368 0.5072508454 -0.149245277 -0.5921461582 0.5217531919
-0.06529067457 -0.1133955494 0.5132300854 -0.2501615286 -0.5638571382 0.4982865751
-0.06803768128 -0.1247571856 0.5208053589 -0.5793098807 -0.473192811 0.4476990104
-0.06637015194 -0.1188058108 0.5186704397 -0.4322871268 -0.5135225654 0.4675780237
-0.07053798437 -0.1301704198 0.5148603916 -0.6038018465 -0.4673213363 0.4580970407
-0.06450551003 -0.1077490002 0.5048140883 -0.02215894684 -0.627086699 0.5402233005
-0.06877744943 -0.1441908479 0.521730423 -0.7856913805 -0.4135953486 0.4592331052
-0.07015633583 -0.1332835853 0.5256975889 -0.8136826754 -0.4087166488 0.4130072892
0.01676116697 -0.04743977636 0.539002955 0.3804968596 -0.7233831882 0.4497871995
-0.001203718013 -0.05376299471 0.5346669555 -0.04509392381 -0.7004685998 0.5239338279
0.006697452627 -0.05121691525 0.53558743 0.1454827338 -0.682737112 0.5136523843
0.01065963972 -0.04912930727 0.5401380658 0.2585745752 -0.7548776269 0.4403291047
-0.007024847902 -0.05508627743 0.5383538008 -0.2744797468 -0.6494253278 0.5870360732
0.005700294394 -0.05031816661 0.5444762707 0.03072164394 -0.6242086887 0.5650503635
0.02868688479 -0.08515552431 0.5000703931 0.3119890988 -0.5503115654 0.7681536078
-0.001588756335 -0.0729553327 0.5351005793 -0.6346606016 -0.5603295565 0.5287216902
0.02992072888 -0.09033376724 0.5013366938 0.3181681335 -0.5608137846 0.7626994848
0.01637011953 -0.04917645082 0.5483608842 0.4957779646 -0.8034195304 0.25598225
0.02271545306 -0.04701253399 0.5419068336 0.5305030346 -0.7250808477 0.4295131564
0.001904024044 -0.07864647359 0.5351350307 -0.610850513 -0.5505148172 0.5478900671
0.02222309634 -0.07383039594 0.5245735049 -0.01930625923 -0.5258510709 0.6208140254
0.01455662679 -0.0793640092 0.526688993 -0.3127357066 -0.5952666998 0.524087429
0.0130863646 -0.07689458132 0.5317059755 -0.3534997702 -0.5273911953 0.5912519693
0.007062854711 -0.07771766186 0.5379716158 -0.5685629845 -0.500880897 0.6008229852
0.02224668115 -0.09215717763 0.5087674856 0.07585608214 -0.6081700325 0.6767443419
0.01950541511 -0.09623817354 0.5061696768 0.1008128151 -0.6476625204 0.684248805
0.01217895467 -0.09469287843 0.5137326121 -0.1565370709 -0.6721681356 0.6061629653
0.01013314351 -0.09895001352 0.5103825927 -0.1063853577 -0.7095261812 0.6213117242
0.01531150006 -0.08678924292 0.520475626 -0.2693745196 -0.6059507132 0.5720505118
0.01164299436 -0.1021004096 0.5055250525 0.02034589648 -0.7229072452 0.6597235203
0.01758238673 -0.09183933586 0.5128065348 -0.07065214962 -0.628105402 0.6322807074
0.02662283927 -0.09230451286 0.5051537156 0.2093877345 -0.5884842277 0.7172722816
0.01290696952 -0.09089311957 0.5175862908 -0.2338424623 -0.6440035701 0.5827644467
0.01053907163 -0.08423516899 0.5268062949 -0.4577005804 -0.6175124049 0.5086399317
0.03017391823 -0.08604945987 0.5067799687 0.2927587628 -0.5718249083 0.6974038482
0.02782761119 -0.07828568667 0.5143451095 0.184560284 -0.5796758533 0.6121923327
0.02293209732 -0.08555399626 0.5140471458 0.0163969174 -0.5886205435 0.6292250156
0.03417605907 -0.07437700033 0.5109508038 0.4161711633 -0.5663283467 0.6359046698
0.03143706545 -0.07932896912 0.5101772547 0.3242582083 -0.5710522532 0.6527850628
0.02461052686 -0.07644275576 0.5186855793 0.05780757964 -0.5876513124 0.5684320927
0.01912379265 -0.08112227917 0.5207273364 -0.1391716301 -0.5987747312 0.558742404
0.0331568867 -0.08420709521 0.5027041435 0.4201914072 -0.5900062919 0.6875344515
0.03395497799 -0.07780953497 0.5037543774 0.4654971659 -0.5843883157 0.6637816429
-0.01784958504 -0.08878137916 0.5006326437 -0.3001428545 -0.7147448063 0.5902716517
-0.03621014953 -0.08768299967 0.4942258596 0.06238897517 -0.7354698777 0.6646267176
-0.02898128703 -0.08763446659 0.4972133338 -0.08222425729 -0.7307265401 0.6328060031
-0.06537870318 -0.1298073679 0.5472267866 -0.7383303642 -0.5118514895 0.4251298904
-0.06749869883 -0.1306204498 0.5399995446 -0.7738192677 -0.4666491151 0.4145916998
-0.04140026495 -0.1704835147 0.5361627936 -0.2590945959 -0.6659609079 0.685166955
-0.06519236416 -0.1505933553 0.5238652825 -0.7527750134 -0.4452435076 0.481785655
-0.03916183114 -0.04827300459 0.5412492752 0.1268829256 -0.7864379287 0.5951544046
-0.03839901462 -0.05205944926 0.5364871621 0.124912411 -0.7644712329 0.6263463497
-0.03975218534 -0.09833559394 0.4858780801 0.05668648332 -0.6976723671 0.6711734533
0.03585301712 -0.06837565452 0.5099852681 0.5152552724 -0.5744059682 0.634555459
-0.0395909436 -0.054661192 0.531222403 0.1645999253 -0.7477278113 0.6349375248
-0.06289348006 -0.05652081966 0.5466945767 0.4348801076 -0.7250231504 0.5338483453
-0.05865377188 -0.1287678331 0.5628305078 -0.5141080022 -0.6845936775 0.5064650178
-0.06699577719 -0.09434902668 0.5116270781 0.4008459151 -0.6769807339 0.5581446886
-0.06696096063 -0.1094967425 0.5188302398 -0.1280362308 -0.5664686561 0.4924015999
-0.06872334331 -0.1169226393 0.5233359337 -0.3492978513 -0.5099310279 0.4611085653
-0.06826785207 -0.1236345321 0.5275865793 -0.6043370962 -0.4537200928 0.4283321798
-0.0713365823 -0.1298295707 0.5208520889 -0.6314995885 -0.4492142797 0.4399277866
-0.06972075254 -0.1149271056 0.5155525804 -0.1754585356 -0.5493847728 0.4950565398
-0.07057115436 -0.122030355 0.5168302059 -0.3760204911 -0.5055772066 0.4733209312
-0.06776448339 -0.09924586117 0.5139602423 0.2507689893 -0.6422205567 0.5385728478
-0.0720852837 -0.1350755394 0.5199179053 -0.75433743 -0.4227850735 0.4307061732
-0.06628309935 -0.1031215191 0.5074416995 0.1510281116 -0.6436342001 0.5473809242
-0.06831683218 -0.11721991 0.5106729269 -0.2422273606 -0.5540779233 0.5026153922
-0.06544532627 -0.09790768474 0.5060249567 0.2958191037 -0.6775590777 0.5645111799
-0.03210381046 -0.06752988696 0.5165722966 -0.04464089498 -0.7584790587 0.6431396008
-0.02050894126 -0.06334517896 0.5245739222 -0.3238310516 -0.7363238931 0.5827988386
-0.02472101338 -0.05841355398 0.5280657411 -0.1885493249 -0.753750205 0.6246312261
0.006138595287 -0.1079145223 0.4919500649 -0.1474779397 -0.6355007291 0.7414790392
0.01880517788 -0.09909082204 0.5013437271 0.1215098649 -0.6371616125 0.7445970774
0.01317744795 -0.1029867083 0.4988558292 0.02231268026 -0.6583941579 0.7278149724
0.02300481498 -0.09632546455 0.5004387498 0.1605760604 -0.5858917832 0.781727314
-0.01258326042 -0.07729521394 0.5129143596 -0.4459331334 -0.7093687654 0.5439925194
-0.00934203621 -0.07957374305 0.5170727968 -0.4856050014 -0.6968992949 0.5163627863
-0.002162988298 -0.08105097711 0.5282937288 -0.6096505523 -0.645806849 0.4573865235
0.0217619352 -0.08901552856 0.4982773066 0.1946302652 -0.5270155668 0.8267541528
0.03014463745 -0.07027066499 0.5044333935 0.4385719895 -0.5668988228 0.6963387728
0.02679440565 -0.07414402068 0.5020222068 0.3827486634 -0.567520678 0.7251176834
0.02634868771 -0.07934544235 0.4996537864 0.3478835225 -0.5646519661 0.7461621165
-0.0003769893956 -0.07676516473 0.5127242208 -0.3227627277 -0.6613013148 0.5586260557
0.02396693453 -0.06965705752 0.5068195462 0.3205279112 -0.5972201228 0.6629491448
0.01917673461 -0.07499249279 0.5049362183 0.1866769791 -0.595851779 0.6800833941
0.008523861878 -0.07786709815 0.5077025294 -0.09439065307 -0.6247312427 0.6321749687
0.01783945411 -0.07066397369 0.5089108944 0.1600530446 -0.6161270142 0.6292071342
-0.003385497956 -0.08211941272 0.5214868784 -0.5559360385 -0.679992795 0.4720022082
0.005379308015 -0.0629163906 0.523521781 -0.1633384526 -0.6159380078 0.5223512053
0.01076637302 -0.06236268207 0.5216317177 -0.02350177243 -0.6095978618 0.5357617736
0.02220159397 -0.05626471713 0.5227003694 0.322507441 -0.5673869252 0.5258878469
0.01135718543 -0.05785823986 0.5271386504 0.05884625018 -0.6116921306 0.5174276233
0.02109054662 -0.05357246101 0.5274106264 0.3502613306 -0.5885934234 0.5199561119
0.01686853357 -0.05825104564 0.5230906606 0.1697778851 -0.5821555257 0.5238605142
0.01592386328 -0.0519936569 0.5330095291 0.2694848478 -0.6233487725 0.5117782354
0.02761798166 -0.04705159739 0.5330277085 0.6156331301 -0.5943882465 0.5151833892
0.02603418566 -0.05116721615 0.5278892517 0.5026549101 -0.5781949759 0.5208351016
0.02171777748 -0.04850153625 0.5345737338 0.4610004723 -0.6150912046 0.5116143227
0.0332862623 -0.05191933736 0.5230202079 0.6498898864 -0.5457341671 0.5243059397
0.02194517478 -0.05189535394 0.5452182889 0.5140974522 -0.7466723323 0.4117658436
0.03601906076 -0.06353888661 0.5134213567 0.5602375269 -0.5731297135 0.5943608284
0.03430657461 -0.06561554223 0.5179819465 0.5385351777 -0.5953098536 0.5825648904
0.03195618838 -0.06236411631 0.5233141184 0.5397384763 -0.6210529208 0.5475099683
0.02918785624 -0.05679347739 0.5300067663 0.5569866896 -0.643101275 0.4993388653
0.03355131671 -0.05723204091 0.521433115 0.6056510806 -0.5687133074 0.542289257
0.02653712593 -0.05220856518 0.5362376571 0.5666909218 -0.6677721739 0.4561753869
0.007936022244 -0.07098667324 0.5135083199 -0.1017441377 -0.6419853568 0.5757380724
-0.004739012104 -0.0742482692 0.5170118213 -0.4379487932 -0.672907114 0.5230289102
-0.003937739413 -0.06991754472 0.5206426978 -0.4244752824 -0.6559215784 0.5299833417
0.0006980979233 -0.06715542823 0.5208269954 -0.304469943 -0.6388935447 0.5506396294
0.01430620812 -0.06879512221 0.5122634172 0.06618282944 -0.6244319677 0.6027135849
0.01911978237 -0.06096841395 0.5191868544 0.1992626488 -0.5954645276 0.5527388453
0.02307325788 -0.06303857267 0.5143372416 0.3025424182 -0.5942513943 0.5979651809
0.02904753573 -0.06190891564 0.5126494169 0.4647008479 -0.5822743177 0.6100305915
0.02695886604 -0.05938327312 0.5171085 0.412184149 -0.5795038342 0.5672106147
0.01457788795 -0.06415344775 0.5173883438 0.07265722752 -0.6101118326 0.5743123293
0.01909083128 -0.06578644365 0.5128196478 0.1915962994 -0.6069876552 0.616288662
0.02877886966 -0.06550013274 0.5080351233 0.4523468018 -0.5912473202 0.6562823653
0.007006647531 -0.07211627811 0.5487280488 -0.5665633082 -0.3499287069 0.7423363328
0.003145321272 -0.06945149601 0.5452026725 -0.5818257928 -0.3637582064 0.7245484591
0.003212845884 -0.06597971916 0.5491333008 -0.5713610053 -0.2768460512 0.7696288228
-0.03737162799 -0.1271600127 0.5817497969 -0.06426865608 -0.7993561029 0.5935156941
-0.05035068467 -0.1269495785 0.5757913589 -0.2693661749 -0.7783980966 0.5603964329
-0.04695961252 -0.1247221306 0.5801518559 -0.2002379149 -0.7786821723 0.5838618279
-0.06889151037 -0.1351576149 0.5317533016 -0.8198968768 -0.4052652121 0.4040162563
-0.05183512717 -0.09496489167 0.4895099103 0.2720440626 -0.7069431543 0.6524907351
-0.02339657396 -0.09022068232 0.4901314378 -0.2003257126 -0.7340521216 0.6479172111
-0.02174974605 -0.1004077569 0.4857428968 -0.2653167248 -0.6896224022 0.6653658152
-0.0209640339 -0.09590652585 0.4914277792 -0.2551149428 -0.6941611767 0.6398167014
-0.01064725872 -0.09174763411 0.5006148815 -0.4358757734 -0.6907225251 0.5743897557
-0.02743490413 -0.09486054629 0.4900192916 -0.1208058447 -0.7005105019 0.6628922224
-0.02433448657 -0.09128704667 0.4955485165 -0.1618188322 -0.7021428943 0.6318095326
-0.01762941293 -0.09289193153 0.4963872433 -0.3039735258 -0.6949659586 0.6104596853
-0.01823657192 -0.1671051085 0.5404924154 0.30869174 -0.6226548553 0.7160267234
-0.03024247289 -0.1716604978 0.5380035043 -0.01598292775 -0.6683493853 0.7265715599
-0.02294907905 -0.1719312519 0.5400404334 0.1207884997 -0.6478024125 0.7468996048
-0.0299333632 -0.1651463956 0.5369512439 0.007646606304 -0.6445714235 0.7141417861
-0.02307013236 -0.1643471867 0.5373905301 0.1788934171 -0.6177874804 0.7251392603
-0.0151344426 -0.1611615568 0.537327528 0.3832472861 -0.5643491149 0.7105794549
-0.01036750991 -0.1616309881 0.5337213278 0.498858124 -0.5373387933 0.6337983608
-0.00579005992 -0.1625056267 0.5304564834 0.6065996289 -0.5117957592 0.5637889504
-0.03546812013 -0.1697017252 0.5368523598 -0.1158684194 -0.6798081398 0.7144263387
1.52961718e-06 -0.06183132157 0.5282954574 -0.2606037855 -0.6445939541 0.5129659772
-0.004961832426 -0.06454161555 0.5270215273 -0.4140310884 -0.6530500054 0.5145446062
0.003920640796 -0.05574650317 0.5324478745 -0.02323967032 -0.6589347124 0.5197135806
-0.008842729032 -0.05756888166 0.5328762531 -0.2665932477 -0.7065716982 0.534945488
-0.01338573173 -0.06552442163 0.5276688933 -0.4726945758 -0.6960054636 0.536184907
-0.008244337514 -0.067518875 0.5321820974 -0.5465452671 -0.6400743723 0.527276516
-0.01211752743 -0.06309171766 0.5321615338 -0.4835398793 -0.6875396371 0.5327398777
-0.001358300098 -0.06413909793 0.543898046 -0.5782293677 -0.3396636844 0.7389997244
-0.009571232833 -0.06140555441 0.5375028253 -0.4865570366 -0.5644599795 0.6238903403
-0.003918549512 -0.06706804037 0.5381394625 -0.5799777508 -0.4998463094 0.6120408773
-0.009126567282 -0.07251287252 0.5264126062 -0.5288679004 -0.677054286 0.504332006
-0.003569640219 -0.07629228383 0.5304472446 -0.6026304364 -0.6277948618 0.4857128561
-0.02305910178 -0.0697805807 0.5161255598 -0.2634343207 -0.7358994484 0.6095841527
-0.01892559603 -0.06902508438 0.5192703009 -0.3543817103 -0.722245276 0.5778214335
-0.009786132723 -0.07364217192 0.5182765722 -0.5093561411 -0.6813573241 0.5228202939
-0.01270039007 -0.06998255849 0.5229373574 -0.4886066616 -0.6848745346 0.5340966582
-0.02467299812 -0.06572014093 0.5207229257 -0.2221110165 -0.7418824434 0.6211439967
-0.03523923829 -0.04485648498 0.5440503955 0.05436761305 -0.8246936202 0.5624601841
-0.03327357024 -0.04766274616 0.5394232273 0.04206818342 -0.7882000804 0.6126177311
-0.04531082138 -0.0485066995 0.5422003269 0.2500126362 -0.7508996725 0.6109678745
-0.05521720648 -0.05362937972 0.5441350937 0.3606941104 -0.7382248044 0.5621418953
-0.06360906363 -0.05559160188 0.553183198 0.3994735777 -0.7363791466 0.5409562588
-0.05125786737 -0.04756169766 0.5458090305 0.3283501267 -0.7552192211 0.5616318583
-0.05852783844 -0.05020748079 0.5470582247 0.4018228352 -0.7483423352 0.5277068019
-0.06394971162 -0.07865721732 0.520747602 0.5099753737 -0.6525427103 0.5598905087
-0.03976568952 -0.09049471468 0.4907460213 0.1437158287 -0.7137639523 0.6830140352
-0.03826151788 -0.08348038048 0.499162674 0.09909933805 -0.7575357556 0.6347376704
-0.04519154131 -0.07154612988 0.5133005977 0.2538748682 -0.7323356271 0.6302784085
-0.03727860376 -0.0694874078 0.5143072009 0.06662652642 -0.7510599494 0.6496648192
-0.05149216205 -0.0737368986 0.515016675 0.3586896956 -0.7012730837 0.6098506451
-0.06787542999 -0.05876126885 0.5510109067 0.4412392974 -0.7218112946 0.5331267715
-0.07066333294 -0.063624762 0.5492737293 0.4746911824 -0.7001506686 0.5298062563
-0.07026426494 -0.06933933496 0.5401837826 0.5331797004 -0.6582152843 0.5281472802
-0.07067877799 -0.06056528911 0.55625844 0.4430082738 -0.7224648595 0.5301972032
-0.06593568623 -0.06807921827 0.5351996422 0.5495304465 -0.650380373 0.5242243409
-0.06268522888 -0.06891158223 0.5304796696 0.5269262791 -0.6545761824 0.5408375859
-0.06729644537 -0.07760825008 0.5269272327 0.5394120216 -0.645878315 0.5399131775
-0.06874792278 -0.0731984973 0.53306216 0.5515787005 -0.6405486465 0.5339573622
-0.01528928988 -0.1036226824 0.4858822227 -0.2406658679 -0.7088694572 0.6611019969
-0.006399564445 -0.1025610194 0.4903160036 -0.2796230614 -0.7041533589 0.651715219
-0.02400939353 -0.07323873788 0.5115491152 -0.2146342695 -0.7483864427 0.6238287091
-0.02795051783 -0.07770760357 0.5070924759 -0.1277376115 -0.7567928433 0.6097657084
-0.01543129701 -0.08016995341 0.5095464587 -0.3541988432 -0.7387189269 0.5528249741
-0.02998638153 -0.07327359915 0.509614706 -0.09590963274 -0.7532486916 0.643299222
-0.006238106638 -0.07895554602 0.525682807 -0.5420715809 -0.662443161 0.4880312383
-0.01511598006 -0.07613866031 0.519082427 -0.3768731654 -0.7038997412 0.5557772517
-0.01856261492 -0.07451085746 0.5126479268 -0.3431836367 -0.722132206 0.5871619582
-0.02235892415 -0.07623643428 0.5074735284 -0.2551873028 -0.7462688088 0.609982729
-0.02006240562 -0.08387102932 0.502910316 -0.2550165057 -0.747761786 0.5844871402
-0.02454313822 -0.08443633467 0.4963978529 -0.1933779269 -0.7571423054 0.6221119761
-0.02477849089 -0.07935424894 0.5022652745 -0.2163270265 -0.7616369724 0.6103855371
-0.0331210345 -0.08304930478 0.4978051484 -0.02120211907 -0.7627916336 0.6388032436
-0.0680334568 -0.1298256218 0.5327019691 -0.8129557371 -0.4168501496 0.4029534459
-0.06252775341 -0.1345611662 0.5458701253 -0.7444535494 -0.5154537559 0.4193791151
-0.06305630505 -0.1294366717 0.5535678267 -0.7074024081 -0.552418828 0.4339086711
-0.06410559267 -0.1364560276 0.5407732129 -0.7718845606 -0.47544384 0.411364615
0.006180783734 -0.1026029736 0.4924862683 -0.09829808027 -0.6099338531 0.7585484385
0.009639283642 -0.09797357023 0.4943067431 -0.007809184957 -0.5800223947 0.7840041518
-0.003381378716 -0.1086402386 0.4885067344 -0.2170894295 -0.6606137156 0.7180362344
-0.008935072459 -0.105872944 0.4859316945 -0.2376236022 -0.6764110327 0.695450604
-0.008842613548 -0.09899748862 0.4931504726 -0.3288091123 -0.6976806521 0.6297192574
-0.006793939043 -0.08005297184 0.5095366836 -0.3305366039 -0.7055640221 0.5637990832
-0.008717378601 -0.08811188489 0.5058116913 -0.4580780864 -0.7014160752 0.5437941551
-0.001248525921 -0.08063273877 0.5060558915 -0.1833806634 -0.6825495958 0.6093169451
0.008685544133 -0.08097390831 0.5012275577 0.04216704518 -0.636015594 0.6796061993
-0.009050885215 -0.08240205795 0.5049372315 -0.2885590196 -0.7191333771 0.5832785368
0.01545631792 -0.08324982226 0.499561578 0.1575292498 -0.5851179957 0.7484330535
0.001353725092 -0.08347079158 0.5017725825 -0.0880741626 -0.659825325 0.662492156
0.02207514644 -0.08190042526 0.4988175631 0.2745141387 -0.5579812527 0.7743808627
-0.004210570827 -0.08502662927 0.5022318959 -0.1862641573 -0.6798866391 0.6455945373
0.007187229116 -0.08734042197 0.4988315105 0.02011503652 -0.6025680304 0.7445859909
0.002637791913 -0.07385528088 0.5399402976 -0.6150942445 -0.4801821411 0.6161534786
-0.01628723368 -0.1274865121 0.5773397088 0.1909882873 -0.7784792781 0.5931050777
-0.01019892469 -0.1291859299 0.5691429973 0.3585302234 -0.7314157486 0.5782954693
-0.02278142795 -0.1266006231 0.5805824399 0.08415105194 -0.7846069336 0.6102825403
-0.03178563714 -0.1266192943 0.5815761685 0.008100067265 -0.7989113927 0.5980827212
-0.03807402402 -0.1318369508 0.5781362653 -0.1191221103 -0.7781128287 0.614605248
-0.05855608359 -0.1398313195 0.5475938916 -0.7205584645 -0.5451652408 0.4223205447
-0.05541819334 -0.1450668722 0.5496701598 -0.6127507687 -0.6009530425 0.4953778982
-0.05955474824 -0.1358360201 0.5509803295 -0.6576185226 -0.5952649117 0.4470526278
-0.04529427364 -0.1539581716 0.5498421192 -0.3791787326 -0.6709281802 0.6323304772
-0.06853113323 -0.1391222328 0.5260375738 -0.7990006804 -0.413582474 0.43594715
-0.06521514058 -0.1454129666 0.5280712247 -0.7703924179 -0.4202168882 0.4790036678
-0.06121812388 -0.1495239288 0.5324898362 -0.756441772 -0.4398571253 0.4838350713
-0.06276907027 -0.1553558707 0.5287654996 -0.7448053956 -0.4499917626 0.4890075028
-0.05975655466 -0.1575480402 0.5333636403 -0.6848292947 -0.5190079808 0.4990463853
-0.05261678994 -0.1525517404 0.5479362607 -0.5402187705 -0.6260189414 0.5562129021
-0.05949676782 -0.1524749547 0.5367714167 -0.692933619 -0.500721097 0.4938886464
-0.05811357498 -0.1482672691 0.5415005684 -0.673771143 -0.5067611933 0.5001696348
-0.01229320746 -0.1668635309 0.5355595946 0.4453004599 -0.5734041333 0.6549232006
-0.01319861133 -0.1581984758 0.5415651202 0.4409725666 -0.5666971207 0.6917977929
-0.03207890689 -0.1412294507 0.5644687414 -0.01005049422 -0.7780709863 0.6186727285
-0.02348013036 -0.1455999315 0.5585809946 0.2132712305 -0.7467305064 0.6229233742
-0.03155765682 -0.08739466965 0.4917927384 -0.02948593535 -0.7436625361 0.6638985276
-0.0461120829 -0.09526175261 0.4861066937 0.1873344481 -0.6823682785 0.6965788603
-0.03405679762 -0.09690287709 0.4823170006 -0.01543400064 -0.6782874465 0.7124255896
-0.02696480602 -0.1017101556 0.4823588729 -0.1755702198 -0.6870092154 0.6901875138
-0.03583717346 -0.09258747846 0.4874094129 0.01257101912 -0.7235616446 0.6820591688
-0.02527698688 -0.09500446916 0.4836937189 -0.1732946187 -0.6977782249 0.6934927106
-0.04939550161 -0.1652130634 0.5318170786 -0.4858283401 -0.5883160233 0.5927996635
-0.04929387569 -0.1608437449 0.5356054902 -0.4892295599 -0.5813736916 0.6384941936
-0.05427116901 -0.1596223116 0.5323556066 -0.6039684415 -0.542976737 0.5662307143
-0.0589858219 -0.1621388942 0.5293166637 -0.6874309182 -0.5178653002 0.5077452064
-0.04661948979 -0.1673191339 0.5364636183 -0.4101375937 -0.6276455522 0.6417393684
-0.04768177867 -0.1628867835 0.5409064889 -0.4281751215 -0.638229847 0.6237954497
-0.05004423857 -0.1585495919 0.5432406068 -0.4940281212 -0.6247729659 0.5908985734
-0.05656825006 -0.1570141762 0.5384700894 -0.6205849051 -0.5685786605 0.5267837048
-0.008641883731 -0.05345847458 0.5495702624 -0.3843113482 -0.4280844033 0.746684432
-0.01786292158 -0.04958730191 0.5468146801 -0.2826575637 -0.6271651387 0.6250590086
-0.003739872016 -0.05691853911 0.5493878126 -0.5062343478 -0.2805912197 0.7773944139
-0.008419705555 -0.05837907642 0.5421666503 -0.5046959519 -0.4315440357 0.6716312766
-0.01382960379 -0.05651521683 0.5394502282 -0.4247846305 -0.5886360407 0.6038478017
-0.01214496791 -0.05445671827 0.545124352 -0.4331457615 -0.4723867476 0.6514785886
-0.003440258093 -0.04997040331 0.5497753024 -0.3479086757 -0.4153217375 0.7805382609
0.001335599227 -0.05302873254 0.5519707203 -0.4062861502 -0.2981817424 0.8611016273
-0.02774186246 -0.04589984566 0.5429131389 -0.1808461994 -0.8493515253 0.486934334
-0.01834697835 -0.0526991114 0.5386170149 -0.3177056313 -0.7320622206 0.5551800132
-0.0215944089 -0.0463315919 0.5444680452 -0.2162793279 -0.7473852038 0.555629015
-0.001461591222 -0.0516924113 0.5452709794 -0.3854930103 -0.4382239282 0.7569858432
-0.008839441463 -0.04826371744 0.5465680361 -0.3037583232 -0.5423272252 0.6919582486
-0.03194462135 -0.05278482288 0.5350415111 -0.01446667034 -0.7795313597 0.6020377874
-0.02730705589 -0.04977912828 0.5391197801 -0.1680762768 -0.8144276738 0.526375711
-0.01723552123 -0.0582258217 0.5326827168 -0.3849702179 -0.7376136184 0.5503087044
-0.02395664901 -0.05314763263 0.5351250172 -0.1811737567 -0.75217098 0.6028837562
-0.03526973724 -0.06222729757 0.5224821568 0.0527667813 -0.7776312828 0.6264148355
-0.0282815434 -0.06134675816 0.5246160626 -0.1151984558 -0.7595831156 0.6320685744
-0.03172341362 -0.05811532587 0.5281540155 -0.03122286312 -0.7647153735 0.6331623197
-0.0278860461 -0.05462092906 0.5313285589 -0.1354467422 -0.7776960731 0.6090024114
-0.06125465035 -0.06464713067 0.5337235332 0.5109015107 -0.6688729525 0.5375989676
-0.06500419974 -0.06112600118 0.5431831479 0.4655290246 -0.7067075372 0.5324057937
-0.05925365537 -0.05953887105 0.5408684611 0.4046810865 -0.714022398 0.5606407523
-0.04595104977 -0.05297762528 0.5375483632 0.2633909285 -0.7384833097 0.6197214127
-0.06261447072 -0.08256857097 0.5147054195 0.495586127 -0.6634051204 0.5596428514
-0.05623661354 -0.07690559328 0.514356792 0.4298218787 -0.6755952835 0.5980488658
-0.04783174768 -0.08069505543 0.5056459308 0.303668648 -0.7324797511 0.6038342118
-0.04705365375 -0.07565454394 0.5091122985 0.295704931 -0.7288045883 0.6138996482
-0.04586268216 -0.0865335241 0.494812876 0.2532797158 -0.7321634889 0.631675303
-0.04130244628 -0.07909952849 0.504571259 0.1632727981 -0.755348146 0.6212813854
-0.03565331548 -0.07567568123 0.506593585 0.01747295074 -0.762927413 0.64335531
-0.0409424454 -0.07417389005 0.5094258189 0.1497311294 -0.7458737493 0.6346817017
-0.04419691861 -0.08254031092 0.4992699027 0.2330518812 -0.7402948737 0.6291577816
-0.0421644561 -0.06720143557 0.5177553892 0.1816129088 -0.7475912571 0.6341642737
-0.04137843847 -0.06304707378 0.5220290422 0.1772849113 -0.7487065196 0.6326537132
-0.03773512319 -0.05799524486 0.5272838473 0.09973431379 -0.7605585456 0.6345094442
0.01513683982 -0.09714447707 0.4963594973 0.07725965232 -0.5629021525 0.8048841357
-0.005734830163 -0.1307120919 0.5618100166 0.4667846859 -0.6771211028 0.549002409
0.003487253096 -0.1219502538 0.5240026712 0.4134705663 -0.5320360661 0.5181957483
0.003742726985 -0.1140883043 0.5170919299 0.2365118712 -0.6037284732 0.5589492321
0.003704608418 -0.1049383208 0.5093207359 0.02575263008 -0.6842685342 0.6021146178
0.001378291752 -0.108224228 0.5140071511 0.06789170951 -0.6351311207 0.5568626523
-0.002018878004 -0.09789024293 0.5079475641 -0.2182267159 -0.6971185207 0.5629696846
0.003305056598 -0.1170185655 0.5257536769 0.2930606604 -0.562853992 0.4822984338
-0.001156256185 -0.1012726128 0.5121735334 -0.1297324449 -0.6707430482 0.5377382636
0.0009699500515 -0.1039773002 0.5179541707 -0.04113483801 -0.655189395 0.5007751584
0.001884082449 -0.09646760672 0.5191899538 -0.2070447654 -0.7133072615 0.4658363163
0.00421764655 -0.1290767789 0.5298048258 0.5874221325 -0.4747486711 0.4903667271
-0.001932164538 -0.09240517765 0.5089286566 -0.3474327326 -0.7353048921 0.533919692
0.002767679514 -0.1087917164 0.5232058764 0.09323068708 -0.6231515408 0.4750736058
2.438925549e-05 -0.09353821725 0.5140526891 -0.2977971733 -0.7311236262 0.4969281852
-0.00627455255 -0.09606456757 0.4987389147 -0.3801782429 -0.7128910422 0.5814230442
-0.002464885823 -0.1014803201 0.4946275651 -0.3091900349 -0.7240352035 0.6105891466
-0.002594477264 -0.09431406856 0.5030580163 -0.3401352763 -0.7359571457 0.577567935
0.005215590354 -0.101222679 0.5030732751 -0.06328237057 -0.7399768233 0.6429565549
0.002982966835 -0.1038196832 0.4975289702 -0.1662784666 -0.7483607531 0.6223261356
-0.0008504993748 -0.08569155633 0.5159614086 -0.457687676 -0.7544454932 0.4662832618
-0.005959978793 -0.08554517478 0.5108519793 -0.4868425727 -0.7080615163 0.5092304945
0.007192126475 -0.1166821048 0.5312076807 0.2440752536 -0.4999580383 0.4725279212
0.007266061846 -0.1090452597 0.5308044553 0.04169332981 -0.5293546319 0.4705668092
0.01059102081 -0.107641682 0.5088160038 0.112856999 -0.6861210465 0.6286315918
0.009006769396 -0.109380424 0.5233070254 0.07602975518 -0.5716788769 0.516274035
0.01031909324 -0.1116071269 0.5135391355 0.1869953573 -0.6335662603 0.5905990005
0.008713545278 -0.1025537103 0.5216305852 -0.08763619512 -0.6146554947 0.5320241451
0.01044110674 -0.1345214993 0.526475966 0.6955464482 -0.4355208576 0.481420815
0.009479136206 -0.1033737138 0.5156400204 -0.03341103718 -0.65505898 0.5778331757
0.008156894706 -0.09572312236 0.522184968 -0.2638543546 -0.6412324905 0.5305895209
0.009994468652 -0.1163267344 0.5191688538 0.2751873434 -0.5709551573 0.5452691317
0.007131763268 -0.09024717659 0.5275370479 -0.432521522 -0.6264243722 0.4916326702
0.01072133332 -0.1250449121 0.518322289 0.500878036 -0.538056016 0.5481703877
0.009209731594 -0.115575783 0.5253638029 0.221571058 -0.5287374854 0.497856617
0.007163788192 -0.09515072405 0.5302553177 -0.3234144151 -0.5844127536 0.4686554074
0.01031548809 -0.128700912 0.5239920616 0.5618886948 -0.4799238145 0.5029735565
0.007609661203 -0.107087262 0.5039389133 0.09589562565 -0.6800479293 0.6399282813
0.004157967865 -0.1160683706 0.5011899471 0.1165121123 -0.5521617532 0.5588313341
0.007157321088 -0.1195234284 0.507355988 0.3425880373 -0.4643020034 0.5552349091
0.006297394633 -0.1259649992 0.5052534938 0.380592823 -0.3521192074 0.5729590654
-0.01728171483 -0.09785986692 0.4844035506 -0.326682657 -0.6938243508 0.6403048635
-0.01097831503 -0.09767655283 0.4879624844 -0.3467860222 -0.676678896 0.6489433646
0.0120766703 -0.09215220064 0.4953879416 0.06652810425 -0.5685986876 0.7897707224
-0.001321739983 -0.1003283411 0.4888598323 -0.2217161804 -0.6367729306 0.7136107683
0.007114981767 -0.05071369186 0.5512399077 -0.4263780117 -0.2216494232 0.8623868823
0.01139862649 -0.0480286032 0.5492326021 0.0110917259 -0.4966359735 0.6508343816
0.01161642279 -0.06674892455 0.5537493825 -0.6059798002 -0.02873923816 0.6088249683
0.01565771177 -0.05999527872 0.5510851741 -0.1062527224 -0.3693361282 0.5244263411
0.00765731791 -0.05708915368 0.5522178411 -0.3979971409 -0.2098115832 0.7923036218
0.00618206989 -0.0632237792 0.5534757972 -0.585994184 -0.08776174486 0.6879255176
0.000960902893 -0.05850370601 0.5528984666 -0.49302724 -0.2095289081 0.7788276076
-0.01780257188 -0.1304604262 0.5727813244 0.2263842523 -0.7587918639 0.596942842
-0.03668064624 -0.1384169757 0.5674213767 -0.1128596887 -0.7741870284 0.6142632961
-0.02807492949 -0.1654091179 0.5433567166 0.0328412205 -0.652179122 0.7476145029
-0.03641825542 -0.1653230637 0.5409861207 -0.1293178201 -0.672709465 0.7272554636
-0.04181654751 -0.1588408798 0.5461824536 -0.2823093235 -0.6698679328 0.6776382923
-0.0427692011 -0.1649067104 0.5412743092 -0.3003430068 -0.6655570865 0.6789957881
-0.0543230176 -0.1510199457 0.5386713743 -0.6325721145 -0.4949212372 0.5630636215
-0.04626429453 -0.1516012847 0.5442841053 -0.4189449847 -0.590054214 0.6139184833
-0.03703768551 -0.144979015 0.5608360767 -0.1172484681 -0.7651457787 0.6183472276
-0.031907361 -0.1516431868 0.551733315 -0.01674658246 -0.7302541733 0.6704194546
-0.03112418577 -0.1461187154 0.557458818 0.003347215243 -0.7615728974 0.6329961419
-0.02644911036 -0.1427583992 0.5634161234 0.1278262436 -0.7824801803 0.6043453217
-0.04043377936 -0.1454199404 0.5533983111 -0.2466593534 -0.7064349651 0.5920416713
-0.0488515012 -0.1438118517 0.5475376844 -0.4577112198 -0.6137621403 0.5279644728
-0.05713512376 -0.1432953924 0.5424259305 -0.6524763703 -0.5395840406 0.4842001498
-0.05070476979 -0.1483050436 0.5424598455 -0.5303705931 -0.5442007184 0.5475970507
-0.06403220445 -0.1370639652 0.5349456072 -0.7880699039 -0.434656918 0.4317227006
-0.06479775906 -0.1410128623 0.5309468508 -0.7843014598 -0.4216172397 0.4527720511
-0.06016578153 -0.1446546614 0.5363745093 -0.7622493505 -0.4320389628 0.4801774919
-0.05243162066 -0.1395846903 0.5536086559 -0.5163683295 -0.6518589258 0.4919521511
-0.04749335721 -0.1424554139 0.5524029136 -0.4224308133 -0.6570594311 0.5257359743
-0.02060347982 -0.1637106687 0.5443612337 0.2220632434 -0.657679975 0.7110999227
-0.01888491958 -0.1518161893 0.5500001311 0.3335329592 -0.6690033078 0.6589033008
-0.0328207463 -0.1577606648 0.5470484495 -0.03721570969 -0.6641997695 0.7394658327
-0.0202543214 -0.1588167846 0.5417313576 0.2571054399 -0.5827896595 0.7513253093
-0.03784080222 -0.1587450653 0.5405102968 -0.1807183921 -0.5996361971 0.7148303986
-0.02900356054 -0.160161674 0.5420482159 0.02447186038 -0.6092253923 0.7607297301
-0.02608002722 -0.1570261717 0.5450350046 0.1302418113 -0.6075692177 0.7672120333
-0.00937317498 -0.1478379816 0.545712471 0.5337233543 -0.5661579967 0.6070311069
-0.0174010396 -0.1551062465 0.5451200604 0.3540804982 -0.5853761435 0.7192504406
-0.02635012753 -0.1526669115 0.5497554541 0.1426411122 -0.6852024198 0.7060175538
-0.03759355471 -0.1536967158 0.5484880209 -0.1820534021 -0.679944694 0.6807152033
-0.04379110411 -0.1584268361 0.5394748449 -0.3332613111 -0.5945544839 0.6878792644
-0.009301663376 -0.1529771835 0.5419006348 0.5248461962 -0.5671390891 0.6234858632
-0.01427103486 -0.1389821172 0.5634204745 0.3567736447 -0.7418050766 0.5673127174
-0.01488803979 -0.1346541643 0.5686730742 0.3135817647 -0.7564190626 0.5721106529
-0.00620800769 -0.1353913248 0.5581185818 0.4916511774 -0.6746104956 0.5437389612
-0.002077711513 -0.1325905621 0.5550304055 0.5585184097 -0.6311449409 0.5208537579
-0.02000565827 -0.1365869045 0.567014873 0.2224999517 -0.7605088353 0.5994999409
-0.02837211452 -0.1364596039 0.5680353642 0.05015589669 -0.7696741223 0.6097276211
-0.02067302167 -0.1411695629 0.5624956489 0.2333239019 -0.7629118562 0.5911223292
-0.03228589892 -0.1361907423 0.5713875294 -0.02115958557 -0.7832651734 0.6129410863
-0.01356553286 -0.1487936825 0.5495179296 0.4641131163 -0.6379440427 0.6087871194
-0.009015716612 -0.1416608691 0.5528919101 0.5173919797 -0.6539492607 0.5447052717
-0.01810455322 -0.1446758807 0.5546044707 0.3317368329 -0.7066854239 0.6000348926
-0.01095410436 -0.1400185674 0.5572046638 0.424801141 -0.7068539262 0.5600857735
-0.01595237665 -0.1428635567 0.5597313046 0.3674177527 -0.7278012037 0.5778189301
-0.05227907747 -0.05897048116 0.5298634768 0.3931702673 -0.7044035196 0.5903391242
-0.04929135367 -0.05602775887 0.5335972905 0.3328787386 -0.7277692556 0.596231699
-0.05471555889 -0.05762064457 0.5345701575 0.3997416794 -0.7220730782 0.5636187792
-0.05112662911 -0.05314135924 0.5384254456 0.339802593 -0.7363522649 0.5801158547
-0.05325493217 -0.07913493365 0.5080970526 0.4023300111 -0.7064507604 0.5821646452
-0.0612953715 -0.08990325034 0.5061807632 0.4134641588 -0.7084898949 0.5716073513
-0.06450965255 -0.08777842671 0.5115674734 0.4773851931 -0.6769422889 0.5582003593
-0.05992054567 -0.08348228037 0.509100318 0.4277915955 -0.7018483281 0.5684568882
-0.04552596435 -0.05969707295 0.5282620192 0.267734319 -0.7434034348 0.6121920943
-0.05445948616 -0.06582493335 0.5267049074 0.3898277879 -0.703692317 0.5894934535
-0.0617342107 -0.07303539664 0.5249810815 0.5117090344 -0.6501677632 0.560862124
-0.04876672477 -0.06791177392 0.5206878185 0.3031676412 -0.7238263488 0.6103720069
-0.05679792166 -0.0735951066 0.5193374753 0.437761724 -0.6782829762 0.5896731615
-0.04967233911 -0.06298715621 0.5241239667 0.3435231149 -0.7100965977 0.6094155908
0.0006675142213 -0.08930391818 0.5306094885 -0.4515431523 -0.6314899921 0.4642353952
0.0005607312778 -0.1220817566 0.5451024175 0.3624629378 -0.5960156322 0.4940567315
-0.0006402191939 -0.09381359816 0.5336794853 -0.3199104667 -0.6278642416 0.4665884972
-2.433568625e-05 -0.0987579897 0.5362995267 -0.2002533823 -0.6213383675 0.471676439
0.004828913603 -0.09484227002 0.5356843472 -0.3363559544 -0.6178694367 0.4732401073
-0.0003330053587 -0.11064706 0.5409522057 0.09351594746 -0.6092179418 0.4823573232
0.0005743724178 -0.1274411231 0.5477836132 0.497358799 -0.5899878144 0.4988813698
0.004784620367 -0.1229390651 0.531570375 0.4299702346 -0.4933291376 0.4716956317
0.002598363673 -0.0851258561 0.5258421302 -0.5708637238 -0.6472587585 0.4598946571
0.003345903475 -0.1024678275 0.5253139138 -0.07401685417 -0.6351286769 0.4575234652
0.002818132518 -0.09254910797 0.5243765712 -0.3433229625 -0.6650323868 0.455822289
0.002484011929 -0.1083272621 0.5351759791 0.01670166478 -0.5820780396 0.4776310623
0.002675761003 -0.1198593378 0.538425386 0.3173088729 -0.5497450829 0.4837413132
0.003016601782 -0.1343299896 0.5421767235 0.6955828667 -0.5062047839 0.490857929
0.003266143147 -0.1031959802 0.5309085846 -0.1078227758 -0.5707750916 0.4701468647
0.004400671925 -0.130880177 0.53651613 0.6209984422 -0.4731889665 0.4811114669
0.0007407645462 -0.1323257238 0.5491908193 0.6188067198 -0.5799104571 0.502496779
0.004031973425 -0.1147962436 0.5387246013 0.1857395768 -0.5589891672 0.4817373455
0.00446817698 -0.1254898757 0.5376115441 0.4748881459 -0.5020298362 0.4815805554
0.002405083738 -0.1167606413 0.5437571406 0.2214208692 -0.5972242355 0.490663439
0.006150647067 -0.08660920709 0.5316312909 -0.5430362821 -0.6158833504 0.4650046825
0.004609053023 -0.1038879529 0.5367245078 -0.09877459705 -0.5879348516 0.4765357971
0.01109307446 -0.1183580905 0.5119146705 0.3786182106 -0.5559020042 0.5666902661
0.02433672175 -0.1017251238 0.5042790771 0.3795136809 -0.5095805526 0.6643589139
0.02316630073 -0.1104155481 0.506885469 0.5606303811 -0.3568523228 0.5706826448
0.02815752849 -0.09718021005 0.5032719374 0.3773672283 -0.5219343901 0.7052357793
0.01565170288 -0.1128261536 0.5068109632 0.4034334421 -0.4657837152 0.5628794432
0.02115698159 -0.1159909517 0.5082273483 0.6343519092 -0.276127845 0.521933198
0.01501717046 -0.1200279966 0.5087434053 0.5546402931 -0.3193570971 0.4957384765
0.01514581125 -0.1264873892 0.5108122826 0.7187448144 -0.1858328432 0.4226929843
0.01531441137 -0.1075698808 0.5047677755 0.252379626 -0.5631807446 0.6372126937
0.006872650702 -0.1212765202 0.5002884865 0.2545225024 -0.3985954523 0.5534148216
0.0108542135 -0.1122478396 0.5051680207 0.2388914675 -0.5695487857 0.5884897709
0.01032941043 -0.1298704743 0.5081549883 0.6276082993 -0.1967114061 0.4128548205
0.006342982408 -0.1113345101 0.4971777499 -0.005593801383 -0.6133984327 0.6647136211
0.009946906939 -0.1355174482 0.5133747458 0.7825741768 -0.1261993498 0.4178912044
-0.001154445927 -0.0948734805 0.4920861721 -0.1968599707 -0.6327831149 0.7004578114
-0.01215520687 -0.09299793839 0.4924027026 -0.3621172607 -0.6793857217 0.6282796264
0.00402677292 -0.09074643999 0.4951206446 -0.06838922203 -0.6031910181 0.7322721481
-0.00669992296 -0.08840034157 0.4969761372 -0.2064755857 -0.6701689363 0.6591407657
-0.0002692633716 -0.0875524804 0.4980115592 -0.09044054151 -0.639688313 0.7005182505
-0.01312056743 -0.08778292686 0.4973370731 -0.3007361591 -0.7068834901 0.6162270308
-0.03145534173 -0.1325595379 0.5769428015 -0.01283827331 -0.7854434252 0.6138316393
-0.02639817074 -0.1337243319 0.5746599436 0.09471867979 -0.7836244702 0.6106675863
-0.0224036146 -0.1309175342 0.5767455697 0.1200501621 -0.7806610465 0.6131803989
-0.04283181205 -0.1295728385 0.5749034286 -0.1701546013 -0.7687510252 0.5885702968
-0.05437129363 -0.1288923472 0.5692974329 -0.3828510344 -0.7454235554 0.5402497649
-0.04806147888 -0.1321982443 0.5728280544 -0.3054619431 -0.7714445591 0.5576815009
-0.04006118327 -0.1413325816 0.563051641 -0.2334430069 -0.7561650276 0.5955223441
-0.0425902158 -0.1451265961 0.5590067506 -0.3051581383 -0.7292773128 0.6010202765
-0.04227894545 -0.1505172104 0.5537965298 -0.2966052592 -0.7001931667 0.6374568343
-0.04277767986 -0.1353014857 0.5718179941 -0.2348941416 -0.776435256 0.5759119391
-0.04252768308 -0.1382798254 0.5674804449 -0.2613575161 -0.7646865249 0.5777187347
-0.04861207306 -0.1503020227 0.5523106456 -0.4538635612 -0.6664043665 0.5836894512
0.0003026458435 -0.1402493268 0.5421558022 0.7124839425 -0.4769062698 0.511174202
0.003317104653 -0.1374601126 0.5379283428 0.740116179 -0.454824537 0.4903665185
-0.05161479861 -0.08509070426 0.5041992664 0.321252048 -0.7342820168 0.593221128
-0.04633824527 -0.09235623479 0.4918612242 0.2043476701 -0.7182023525 0.6574100256
-0.05234150961 -0.09236008674 0.494966507 0.2826730609 -0.7182738185 0.6271369457
-0.04934358969 -0.08831573278 0.4988025129 0.2786802948 -0.722097218 0.6210753918
-0.05674419552 -0.08654692769 0.502697587 0.379704237 -0.7158222795 0.584625423
-0.05833519623 -0.09457023442 0.4949344695 0.3216456473 -0.7251082063 0.6085405946
-0.05721325055 -0.09035100788 0.4981812239 0.3400375843 -0.7216455936 0.6017632484
0.008825194091 -0.135872677 0.5194169879 0.8038980365 -0.1983525604 0.4648495615
0.007086435799 -0.12062262 0.519423008 0.4343087077 -0.5636060834 0.5678867102
0.008883881383 -0.1236661449 0.5127458572 0.5261631608 -0.3868330121 0.5409198403
0.01089305058 -0.1484522223 0.5229952335 0.7615057826 -0.4468124509 0.4684555531
0.01239232067 -0.1405151337 0.517069757 0.8967642188 -0.140049845 0.3431884944
0.0112329796 -0.1389798969 0.5233973265 0.8126466274 -0.3288531601 0.4329559207
0.006407853216 -0.1536747217 0.5256866217 0.7441301346 -0.4582718313 0.4843600094
0.0007188947638 -0.1555636674 0.5269672871 0.7345100641 -0.4119741619 0.5105122328
-0.04939661175 -0.1377653331 0.5614873171 -0.4313970208 -0.7057445645 0.5410747528
-0.05150577053 -0.1347413957 0.5665783882 -0.4005796611 -0.7349197865 0.5401251316
-0.05832929164 -0.1348776966 0.557233274 -0.6021074653 -0.6389098167 0.4692085385
-0.05029037967 -0.14617607 0.555583775 -0.4869501889 -0.6732177138 0.5526286364
-0.04911953956 -0.1424609572 0.559341073 -0.4590655565 -0.6964014769 0.5467298627
-0.003962402698 -0.1504382491 0.5389692187 0.6400520205 -0.5140457153 0.5641382337
0.003163449233 -0.1434840858 0.5339539647 0.7742121816 -0.4135689735 0.4767043293
0.005805462599 -0.1417540461 0.527387023 0.8233064413 -0.2810437381 0.4614211917
0.006884933915 -0.1387093067 0.5319291949 0.7676064372 -0.4288338125 0.4762096703
-0.006888808217 -0.1559833288 0.5352417231 0.5778294802 -0.5001128912 0.6185572743
-0.001748966519 -0.1562684774 0.5317034721 0.6828467846 -0.4852923751 0.5404830575
0.0004204762809 -0.1501102895 0.5341563225 0.7290959954 -0.4603858888 0.504671216
0.005718841217 -0.1473214328 0.5301873684 0.7645025849 -0.4334473908 0.4764747024
0.00512239011 -0.1473309547 0.5243840814 0.8174040914 -0.2804421484 0.4617160857
