# .PCD v0.7 - Point Cloud Data file format
VERSION 0.7
FIELDS x y z normal_x normal_y normal_z
SIZE 4 4 4 4 4 4
TYPE F F F F F F
COUNT 1 1 1 1 1 1
WIDTH 512
HEIGHT 1
VIEWPOINT 0 0 0 1 0 0 0
POINTS 512
DATA ascii
-0.0228231959 -0.2125361562 0.7243904471 -0.4711033702 -0.4811444283 0.7316123247
-0.0291871354 -0.2123313844 0.7225604057 -0.5552859902 -0.4293916225 0.705989778
-0.01681772619 -0.2139593363 0.7261177301 -0.3934819698 -0.5442886353 0.7360035777
0.03363838792 -0.07701268047 0.6958283186 -0.37049824 -0.6418693662 0.6606995463
0.02736707218 -0.07638709247 0.6930015087 -0.2907586992 -0.6789616942 0.6705676317
0.03583406284 -0.082337372 0.6925759912 -0.4403710365 -0.5934157968 0.672174871
-0.03734444082 -0.208070457 0.7170173526 -0.6724008918 -0.3801929355 0.6287935972
-0.04343223199 -0.1451693028 0.6666604877 0.6611486673 -0.4371658266 0.5181904435
-0.04917237535 -0.1610797942 0.6818352342 0.02291833982 -0.3114229441 0.4415839016
-0.04960335046 -0.1684048176 0.6840751171 -0.264496088 -0.2617800534 0.4144439697
-0.04663518816 -0.1595288515 0.6761119366 0.09087296575 -0.3310551047 0.4563199878
-0.04774032906 -0.1515731066 0.6802105308 0.3447914422 -0.3611522019 0.4779222906
-0.04919347167 -0.143227011 0.6814896464 0.7100205421 -0.4129202068 0.515478611
-0.05081667751 -0.1761236191 0.6881077886 -0.5703848004 -0.2063903809 0.3829955757
-0.04536953196 -0.1548243016 0.6725661755 0.2780541778 -0.366540879 0.4773647785
-0.04505897686 -0.1492631733 0.6722617149 0.4703986645 -0.3963904381 0.4960439205
-0.05090964213 -0.1620969921 0.6882899404 -0.03612221405 -0.2959786057 0.4433430731
-0.05235944688 -0.1782665849 0.6935895085 -0.6718918085 -0.1926418543 0.3787802756
-0.0503615737 -0.1564380229 0.686942935 0.1810086817 -0.3359097838 0.4690807462
-0.05142788962 -0.1729134768 0.6974722743 -0.5210775733 -0.2686654925 0.435043782
-0.05114177242 -0.1716894358 0.7031401396 -0.5350655317 -0.3223145306 0.473383069
-0.05227481574 -0.1700069308 0.6901864409 -0.33566311 -0.2418363988 0.3994903862
-0.05233309045 -0.1813913137 0.6990498304 -0.8413708806 -0.2057047933 0.393111825
-0.05080346763 -0.1613441259 0.6979960203 -0.1066734269 -0.3765979707 0.4978840053
-0.05098335817 -0.1483151019 0.6853373051 0.499016881 -0.3994137645 0.489020586
0.005832290277 -0.2164832354 0.7260408998 0.001711153192 -0.6635139585 0.7219370008
-0.00221726601 -0.2165192068 0.727709353 -0.1301067024 -0.6540569663 0.7282676697
-0.01338018291 -0.2078355849 0.731438458 -0.3563031256 -0.5333481431 0.7655572891
-0.0158840958 -0.1375460774 0.6423339844 0.3582467437 -0.5506049991 0.7419123054
-0.02829188481 -0.1398006976 0.6500270367 0.5625418425 -0.5311858058 0.6302064657
-0.02205381356 -0.07900083065 0.6984925866 0.4823941588 -0.6274862885 0.5995481014
0.06168064103 -0.09619623423 0.7072813511 -0.1320616305 -0.5159736276 0.8307103515
0.06730921566 -0.1007963121 0.7039147615 0.1218399033 -0.5384141207 0.7921533585
0.05475968122 -0.08881416917 0.7048344016 -0.4371070266 -0.4964928925 0.7479281425
0.07316220552 -0.1041546166 0.7006502151 0.3607698977 -0.5651204586 0.7377086878
0.06835354865 -0.1094513983 0.7006424665 0.2154803276 -0.5529913902 0.7876831293
0.05918268114 -0.1128467247 0.6942311525 -0.3563417792 -0.4543070495 0.7660431862
0.05444591865 -0.1398527026 0.6541306973 -0.2850304246 -0.5273932219 0.7041727901
0.06846146286 -0.137048766 0.6636531353 0.1029875427 -0.5779412389 0.7824825644
0.06771180779 -0.1309738606 0.6624568701 0.1112789512 -0.5097659826 0.8372203112
-0.05016943812 -0.1889684349 0.7011983991 -0.8424348831 -0.2598390877 0.4463669658
-0.05129922926 -0.1814175695 0.7053674459 -0.8118299842 -0.303971827 0.4824282229
-0.03613932058 -0.1420618445 0.6573339105 0.6782673597 -0.4883711338 0.5486446619
0.003918834031 -0.203781873 0.7392446399 -0.05305862799 -0.6145328879 0.7857903242
-0.001224911772 -0.2112568617 0.7317028642 -0.1180904433 -0.6075646877 0.7623302937
-0.00738243293 -0.209757641 0.7318127751 -0.2435534745 -0.5769225359 0.7652047873
-0.004788848571 -0.2062750906 0.7362362742 -0.1873873025 -0.6077266335 0.7715854049
0.001317704679 -0.2075775266 0.7355307937 -0.0893650353 -0.6201851964 0.7742871046
0.004526062403 -0.2132201791 0.7319485545 -0.00134101219 -0.6449891329 0.7622733712
-0.03491874784 -0.09691695869 0.6944285631 0.6722502708 -0.5067822337 0.5390916467
-0.03702667728 -0.09428116679 0.7003301978 0.6695387363 -0.5099034309 0.5399839282
-0.01577048749 -0.07795163989 0.6935659647 0.3835054636 -0.6571273208 0.6476499438
-0.02199368179 -0.1395861506 0.6457213759 0.462664634 -0.5551434159 0.6803136468
-0.009631577879 -0.1351564974 0.6438683867 0.2727134228 -0.6092165709 0.732745111
0.08650955558 -0.1218535602 0.6671218872 0.4022507668 -0.5330820084 0.7432307005
0.08201611042 -0.1055517122 0.6925297976 0.4735456407 -0.5415356159 0.6940880418
0.08803806454 -0.1058526114 0.6813358665 0.5214329362 -0.5466468334 0.6535195112
0.08737409115 -0.1117935181 0.680364728 0.4871326685 -0.5522205234 0.6752245426
0.08884879202 -0.1166113243 0.6758721471 0.4758141935 -0.5583459139 0.678974092
0.08438260108 -0.116116561 0.6674510837 0.4204495251 -0.5372437835 0.7286634445
0.09096635878 -0.1207167432 0.6699851751 0.4781838655 -0.5615128875 0.6739486456
0.08092101663 -0.1046949401 0.6781924963 0.4529281259 -0.5692233443 0.6827379465
0.08521061391 -0.109413743 0.6726183295 0.4841434956 -0.5542802811 0.6735358238
0.08951099217 -0.1072563529 0.6744757295 0.5372210741 -0.5524324179 0.6368422508
0.07690072805 -0.1250606328 0.664010942 0.2347592115 -0.4899151027 0.837149024
0.06627783179 -0.09421017766 0.7038074732 0.0007107889396 -0.5285277367 0.7941709757
0.07081198692 -0.09720542282 0.7006133795 0.1747282743 -0.5260574222 0.7787125111
0.07440458238 -0.09828101844 0.6961148381 0.2959065735 -0.5311819911 0.7859195471
0.06403269619 -0.1416661441 0.6621230841 -0.03984266892 -0.6149070859 0.7278228402
0.05289307237 -0.1453571767 0.656945467 -0.4007590115 -0.5907399058 0.6655211449
0.05824167654 -0.1465661228 0.6625761986 -0.2844378948 -0.6447839141 0.6837075949
0.01453631185 -0.2164357007 0.7267454267 0.1574191898 -0.6669204831 0.7268614173
0.03337214887 -0.2113182545 0.7248055339 0.467443794 -0.5537381172 0.6822499037
0.05945594236 -0.1732681692 0.7227030396 0.8051366806 -0.3351683915 0.4884131253
-0.03929216042 -0.1392131746 0.6631072164 0.7058585286 -0.4618272483 0.5357551575
-0.03594585136 -0.1344556063 0.662229836 0.6951248646 -0.4719878435 0.5412287712
-0.04309116676 -0.104798533 0.7036614418 0.7168584466 -0.4714758396 0.5127607584
-0.04116297886 -0.09332293272 0.7071741819 0.6832497716 -0.5040940046 0.5275945067
-0.04732281342 -0.100776732 0.7073076963 0.719255805 -0.4698559344 0.5117145181
-0.04117275402 -0.09874994308 0.7016301155 0.7092770934 -0.476305902 0.5195869207
-0.03952195868 -0.1018989533 0.6957885623 0.7121393681 -0.4680530131 0.5231518149
-0.0452805832 -0.1849142313 0.7110694051 -0.7769256234 -0.3398573697 0.52997154
-0.04981099069 -0.1512687951 0.691201508 0.3324654996 -0.4075139463 0.5032872558
-0.04918082431 -0.1486579329 0.6985763311 0.1630703658 -0.3935011625 0.5051296353
-0.05026344955 -0.1285726279 0.6907840967 0.7307677269 -0.4147565961 0.5033113956
-0.04969855398 -0.1450365782 0.693662107 0.3671726882 -0.4043522477 0.5039321184
-0.05044511333 -0.139089942 0.6932464242 0.4641134441 -0.4057839513 0.5039941072
-0.05063849315 -0.1419166476 0.6882157326 0.567779541 -0.4154384136 0.5026836991
-0.05054782704 -0.1570614278 0.701305747 -0.1071857736 -0.3824850917 0.506147325
-0.05057173967 -0.1365558058 0.6870951056 0.6987609863 -0.4196743071 0.5023774505
-0.04786703363 -0.164593637 0.7035772204 -0.2613732815 -0.3752785027 0.5123242736
-0.04868761823 -0.1564988047 0.6952110529 0.1037388295 -0.3908967972 0.5149297118
-0.006059185136 -0.07492979616 0.6930107474 0.2307266146 -0.6870644093 0.6880322695
-0.00379822962 -0.07883425802 0.6878387928 0.20601888 -0.6509042978 0.7280160189
-0.01130865049 -0.07901892066 0.6906251907 0.3192949891 -0.6510670781 0.6811421514
0.03053752705 -0.140489623 0.6375344992 -0.4126889706 -0.6165568829 0.6654874682
0.03575008363 -0.141509518 0.6417885423 -0.4867646694 -0.5649284124 0.653136611
0.04964639619 -0.08434969932 0.7012891173 -0.45587942 -0.548340261 0.6782544851
0.05958539248 -0.0899919048 0.7018280625 -0.2019525915 -0.5408654213 0.7558082342
0.0671902895 -0.09331732243 0.6953513622 0.09616293013 -0.593547523 0.7289630771
0.07831708342 -0.09591493756 0.6872525215 0.4112730026 -0.6243745685 0.6580796242
0.0599578172 -0.08830367774 0.6956833005 -0.1406978071 -0.5786572099 0.6615439057
0.05291619897 -0.08737591654 0.6955214739 -0.3037525117 -0.5674514174 0.6569204926
0.06367585808 -0.09157271683 0.6908552647 0.01410278119 -0.5936656594 0.6536399126
0.01883133315 -0.1686677337 0.7635679841 0.153665036 -0.5603470802 0.8069855571
0.03045217507 -0.1685119867 0.761362195 0.3111101687 -0.5689986944 0.7596494555
0.05146134272 -0.09168256819 0.6994116306 -0.4579079449 -0.5150564313 0.7194932699
0.05039289221 -0.09625580162 0.6936922073 -0.5560260415 -0.4729503989 0.6826166511
0.00825660862 -0.2081038058 0.7347774506 0.01862889715 -0.6252570748 0.7729568481
0.01027510036 -0.2138972729 0.7291710973 0.07462862879 -0.6555000544 0.7447944283
0.0628477037 -0.1711136401 0.6916064024 0.463601619 -0.4357093275 0.5418902636
0.06193588302 -0.1663840413 0.6809737682 0.2118116468 -0.5105112195 0.5854620337
0.06230278313 -0.1617714912 0.6764451265 0.05889180303 -0.5577828288 0.610249877
0.0582559593 -0.1513684988 0.667173326 -0.2710582018 -0.6602561474 0.6633000374
0.06725703925 -0.179694742 0.6939324141 0.7295572758 -0.3627501428 0.5223210454
0.06784296781 -0.1662133783 0.6875101328 0.5586753488 -0.4455422759 0.5914241076
0.06583143026 -0.1821811497 0.70052737 0.8046673536 -0.33008039 0.488824904
0.0702495575 -0.1477268636 0.6721202731 0.2713080347 -0.5802438855 0.7114318609
0.06587996334 -0.1767158657 0.6986999512 0.741646111 -0.3611479104 0.5138621926
0.07090400159 -0.1436149776 0.668022871 0.1998320371 -0.6126949787 0.7404919267
0.06698807329 -0.1588706523 0.6772222519 0.277494669 -0.5326529145 0.6413584948
0.0678647384 -0.1729044616 0.6885865331 0.6169701219 -0.4126784801 0.5642441511
0.06466335058 -0.1494276822 0.6684516668 -0.05474669486 -0.6313304305 0.6877931952
0.06763847917 -0.1542008221 0.674051106 0.2209109962 -0.5628271699 0.6699801683
0.06860422343 -0.163317889 0.6816905737 0.4651625752 -0.4807860255 0.6211282611
0.06264860928 -0.1564303935 0.6725336909 -0.03209797293 -0.5968369842 0.6416057944
0.06048743054 -0.1600604653 0.6825610995 0.1301877797 -0.5385272503 0.5972318649
0.06023592874 -0.153821364 0.6804171801 -0.0001143844711 -0.5772602558 0.62303406
0.06016395241 -0.1457394212 0.6790995598 -0.1428783387 -0.6193624735 0.6529658437
0.06144869328 -0.1532450467 0.6873267889 0.1145864725 -0.5415330529 0.6084140539
0.06338152289 -0.1707719117 0.700401485 0.606374681 -0.3937275112 0.5190603137
0.06161463261 -0.1439004242 0.6872361898 -0.02493351698 -0.5822896957 0.6395944953
0.06197329983 -0.1619448364 0.6913163662 0.3141124249 -0.4819933474 0.5700429082
0.05903597176 -0.1509348005 0.6731939316 -0.1715098172 -0.6296390295 0.6498785615
0.06318823248 -0.1615548283 0.6974164248 0.4238831401 -0.4490423203 0.5573740602
0.0672840178 -0.142490983 0.675863564 0.1027296707 -0.6045459509 0.7043049335
0.06386205554 -0.1360460222 0.6791635752 -0.1235150769 -0.6393220425 0.7000073791
0.06361875683 -0.155427888 0.6924405098 0.2989816964 -0.4957401454 0.5946499109
0.0678717941 -0.1555929333 0.6831818223 0.4067490995 -0.5102709532 0.6415307522
0.06560515612 -0.1457366794 0.6816948056 0.1333780289 -0.5744369626 0.6682683229
0.0662477389 -0.1582008302 0.6884731054 0.4246400893 -0.4850600958 0.6094865799
0.06763014942 -0.1356099546 0.6737105846 -0.02912849374 -0.6387143731 0.7260966301
0.07334280014 -0.1377640367 0.6673864126 0.1765466332 -0.6165452003 0.7501971126
0.07693889737 -0.1333543509 0.6691430211 0.2143885046 -0.5909945965 0.7395428419
0.07984440029 -0.1305107176 0.6656516194 0.2991907001 -0.5352215767 0.7843168378
-0.03938423842 -0.1069322899 0.6891669631 0.7080584764 -0.4620052278 0.5336923003
-0.03519078344 -0.1019868031 0.6895506978 0.6756036878 -0.4896761477 0.5501379967
0.02786423825 -0.213686958 0.7257803082 0.3872745037 -0.5831173658 0.7036173344
-0.04094730318 -0.1935501397 0.7140908241 -0.7487171888 -0.3460496366 0.5646679401
-0.04587777704 -0.192828238 0.70901227 -0.7785892487 -0.3418155015 0.5261403322
-0.04994340613 -0.1792937815 0.7111622095 -0.7841488123 -0.3513359427 0.5115019679
-0.04272341356 -0.1991398782 0.7127885818 -0.755055666 -0.3484364152 0.5542959571
-0.04092474282 -0.2048184574 0.7122765779 -0.7073707581 -0.3713018596 0.5968635082
-0.01050957013 -0.2151427865 0.727812469 -0.28038311 -0.6162137389 0.7324652076
-0.02123068646 -0.2049694359 0.7293319106 -0.4813041389 -0.4714697599 0.7347548604
0.04454492405 -0.2109972537 0.7207577825 0.5987044573 -0.5003842115 0.6246686578
-0.04600673541 -0.1680943668 0.7180110216 -0.5824676156 -0.3883538246 0.5192140937
-0.04786574095 -0.1635586023 0.7093486786 -0.3951624036 -0.3697660565 0.5081980228
-0.04809119552 -0.1579092294 0.7071323395 -0.2230706811 -0.3788798153 0.5084185004
-0.0457220003 -0.1548511386 0.7161512971 -0.2028650194 -0.422273308 0.5251557231
-0.04470233619 -0.1628331542 0.7221586704 -0.4665446281 -0.4202203453 0.5295210481
-0.04817062616 -0.1493502706 0.7071377039 0.008075666614 -0.407312125 0.5151076317
-0.04726402089 -0.1611974537 0.7150069475 -0.3793209493 -0.401563555 0.5204422474
-0.04859850556 -0.1444589347 0.7037388086 0.1689197719 -0.4091812968 0.5126883984
-0.04909816384 -0.1335814595 0.6974447966 0.5190151334 -0.4175912142 0.509136796
-0.04878399149 -0.1386589259 0.7006092668 0.354234755 -0.4144274294 0.5111221671
-0.04370214045 -0.1680355519 0.7280526757 -0.6539916396 -0.4268465042 0.5358168483
-0.05020274222 -0.1722021103 0.711735785 -0.6756238937 -0.3606363833 0.5100985169
-0.04384819791 -0.1744364649 0.7246155143 -0.7543715239 -0.3764627278 0.5363658071
-0.0245992709 -0.1990845203 0.7304161787 -0.5462524891 -0.4454335272 0.7063446045
-0.02914924175 -0.1907720119 0.7305340767 -0.6157242656 -0.4297286868 0.6527010202
-0.02361449227 -0.1925905943 0.7344455719 -0.5417993665 -0.4676225781 0.6948990226
-0.01221209392 -0.1971630156 0.7398613095 -0.3502323329 -0.552585125 0.7514906526
-0.01338504814 -0.2017050236 0.7352098823 -0.370538801 -0.5299758315 0.7594857216
-0.02749476396 -0.09856302291 0.684310019 0.5512408018 -0.5388832688 0.6332124472
-0.03259239718 -0.1035288647 0.6845782399 0.6387390494 -0.499992311 0.58234483
-0.01142410003 -0.1289064735 0.6480687857 0.3100933731 -0.6084139347 0.7300605178
0.0476228334 -0.1384219825 0.6513080597 -0.4711089134 -0.4954705834 0.674683392
0.06013195962 -0.133179307 0.6575712562 -0.1026905254 -0.4916363358 0.7867638469
0.008045176044 -0.1343340725 0.6379744411 -0.02530681342 -0.668273747 0.7429384589
0.07964803278 -0.09987636656 0.6919367313 0.4505391717 -0.5757824779 0.6801607609
0.08394779265 -0.100944072 0.6838828921 0.486751467 -0.545365572 0.6810565591
0.05660800263 -0.1040721238 0.6965805888 -0.4202511907 -0.4577544332 0.7710376382
0.06361995637 -0.1062472314 0.7036719918 0.03831760958 -0.5330441594 0.8347181678
0.05904912576 -0.09037411213 0.7097868919 -0.2677831948 -0.5273427367 0.8059549332
0.05723009631 -0.09714371711 0.7022231817 -0.3527816534 -0.4888614416 0.79400599
0.04269206151 -0.08695936948 0.6941533089 -0.5105916858 -0.5506124496 0.6587890387
0.07187519222 -0.09400161356 0.6885816455 0.2376104295 -0.6112071276 0.6532178521
0.04083113 -0.07993456721 0.697039187 -0.4731343091 -0.5874508023 0.6563785076
0.05610981956 -0.1442141384 0.6685807705 -0.3665709496 -0.6197205782 0.6827320457
0.05939372256 -0.1397838891 0.6749951839 -0.3049935997 -0.6627951264 0.6824838519
0.05218140781 -0.1468400806 0.6628454924 -0.4474854171 -0.5578849316 0.6871743202
0.05027044937 -0.1409177035 0.6637458205 -0.5217859149 -0.5098311305 0.6794555187
0.05255261064 -0.1328449547 0.6693547964 -0.5174321532 -0.5363117456 0.6530382633
0.05850775167 -0.13341631 0.6782088876 -0.3475388587 -0.6254597902 0.6868758202
-0.04474880174 -0.1409482658 0.6727694869 0.7342570424 -0.4353375137 0.5208269358
-0.04283296689 -0.1359217167 0.6722311378 0.7340484858 -0.4357757568 0.5207256079
-0.03800428659 -0.1328927428 0.6678025126 0.7193487883 -0.4536070824 0.5257960558
-0.04096516967 -0.1727699041 0.7308723927 -0.7171304226 -0.4326024354 0.545779407
-0.03813783452 -0.1139654368 0.6835622787 0.7122475505 -0.4562442303 0.5332857966
-0.03233223408 -0.108113274 0.6808247566 0.6367681623 -0.4866663516 0.5962770581
0.01290210895 -0.1725738645 0.7628214955 0.09435170889 -0.5674279332 0.815444231
0.0207115151 -0.2141750753 0.725595057 0.2569049001 -0.6376148462 0.7153518796
0.01578325592 -0.2082219273 0.7335707545 0.1969674677 -0.6172550321 0.7593453526
0.02713264339 -0.2091800421 0.7286344767 0.378177613 -0.5752218366 0.7202746272
0.02209575474 -0.2108403593 0.7318354845 0.2874800265 -0.5895070434 0.7540515661
-0.04255636036 -0.1870565712 0.7186748385 -0.7589052916 -0.3576674461 0.5433018208
-0.04786214605 -0.1764861941 0.716620028 -0.7739988565 -0.3575240672 0.5219712257
-0.04474753886 -0.18110165 0.7151899934 -0.7764134407 -0.349270165 0.5239567757
-0.03350935504 -0.2068546414 0.7215041518 -0.6290829182 -0.3903042674 0.6677759886
-0.03140202537 -0.2007121742 0.7219124436 -0.627808094 -0.3941257298 0.6597844958
-0.0286154598 -0.2064357549 0.7252713442 -0.5701683164 -0.4172343016 0.7065914273
0.05798591673 -0.1883918643 0.7122310996 0.7875937819 -0.3615350127 0.4989461303
0.05885040388 -0.1939932257 0.7078080177 0.7854759097 -0.3589428961 0.5040911436
0.03961345926 -0.2075001448 0.722404182 0.5638314486 -0.4986140132 0.6485043168
0.04366167635 -0.2012431324 0.720312655 0.641382575 -0.4356457889 0.6146897674
0.04906323925 -0.2003579885 0.7197400331 0.6852244735 -0.411326021 0.5969057679
0.04884152487 -0.2079917639 0.7166199684 0.6652645469 -0.4393408895 0.5971511602
0.05226522684 -0.2031346411 0.7141967416 0.7209926248 -0.3735442162 0.5806391835
0.04177385941 -0.1683287174 0.749571085 0.5766615272 -0.4697291255 0.6514855623
0.03685408458 -0.1689835787 0.756465137 0.439951092 -0.5288281441 0.7081384063
0.06195700914 -0.187831983 0.7044910192 0.798466742 -0.3415401578 0.4953195453
0.06046682224 -0.182054773 0.7103120685 0.7917331457 -0.3555138707 0.4965876341
0.0637998879 -0.1786820441 0.7062245607 0.8088607788 -0.3347976506 0.4832582772
-0.01655266061 -0.1685290784 0.7610221505 -0.3344940841 -0.5730276704 0.74669379
-0.03222881258 -0.1682848334 0.7476741672 -0.5742638111 -0.5334637761 0.6208516955
-0.03381828591 -0.1697861701 0.7413110137 -0.6235873699 -0.5029633641 0.5910882354
-0.03923529387 -0.169779405 0.7362060547 -0.6742221713 -0.4650770128 0.56682235
-0.03170344979 -0.1939708143 0.7256476283 -0.6444118023 -0.3882323205 0.6484991312
-0.03811758012 -0.1884015948 0.7218415737 -0.7299762368 -0.3655552864 0.5740788579
-0.037187621 -0.1942634284 0.7222361565 -0.7054092884 -0.3650573492 0.606056869
-0.03880713508 -0.2011113018 0.7180233598 -0.7156327367 -0.3608438373 0.5970566273
0.0350449197 -0.2058722377 0.726485014 0.4986754358 -0.5276305676 0.6849738955
0.01591404155 -0.1970798671 0.7427847981 0.1865215302 -0.594256103 0.7804127932
-0.02776142582 -0.08259277046 0.6995100379 0.5704135299 -0.5897226334 0.5704488158
-0.02012849599 -0.08481710404 0.6931970716 0.4488469362 -0.5961404443 0.6359671354
-0.01419843081 -0.1182721853 0.6579989195 0.3270471096 -0.6229690909 0.7098193765
-0.01823296025 -0.1271546036 0.6532966495 0.4019824266 -0.5983697772 0.6863507628
-0.02423647791 -0.1332206279 0.6518189311 0.5143344998 -0.5439941883 0.6597121358
-0.01982861944 -0.1338256299 0.6476504207 0.4288155138 -0.5667163134 0.7025053501
-0.0290280208 -0.1322075725 0.6561564803 0.5926392078 -0.5234889984 0.6098421812
0.01942172088 -0.138093099 0.6361318827 -0.2288482636 -0.6521291733 0.7070579529
0.02844012529 -0.08218926936 0.6883227825 -0.3230808675 -0.6331033111 0.7019850016
0.03776643425 -0.08699978143 0.6900562644 -0.4563452899 -0.5650138855 0.6835578084
0.05918945 -0.09604155272 0.6859409213 -0.1119082198 -0.5710160732 0.6484997272
0.04755081609 -0.09297885746 0.6868664026 -0.3701992929 -0.5555852652 0.6551822424
0.07844053954 -0.1009769961 0.6825961471 0.4431756437 -0.5845526457 0.6683176756
0.0731747523 -0.09902698547 0.6840223074 0.2872643769 -0.5857622623 0.6608693004
0.06599450111 -0.09905380756 0.6837214828 0.09004402906 -0.5657150149 0.6590881944
0.05142179877 -0.0968637839 0.6849874854 -0.323073715 -0.5431594849 0.6484743357
0.04086525738 -0.09202153981 0.6878684163 -0.4988285601 -0.5392944813 0.6727187037
0.01347058266 -0.07550309598 0.6896644235 -0.08940798044 -0.6790215373 0.7254755497
0.005254290998 -0.07395781577 0.6911329627 0.07211571932 -0.6744042039 0.7332068682
0.05093049631 -0.1939879954 0.7212071419 0.7219279408 -0.3968248367 0.5618296862
0.007915033959 -0.1895382851 0.748890996 0.02389992028 -0.6006259322 0.7953198552
0.009071542881 -0.2007950991 0.740760088 0.06608021259 -0.6044513583 0.7868572474
0.007651463151 -0.1953503191 0.7447849512 0.02918213606 -0.5992762446 0.7961061001
0.01388564147 -0.2035494 0.7382159233 0.166990608 -0.6016967893 0.7782551646
0.0507386215 -0.1845666617 0.725553453 0.7446986437 -0.3961097896 0.5363533497
0.006638237741 -0.1136267185 0.658265233 0.01184464339 -0.6523678303 0.7551426888
0.04931953177 -0.1333252043 0.6641464829 -0.5664348006 -0.4835372865 0.6658568978
0.01657089218 -0.1320146173 0.6433075666 -0.1497429758 -0.6606137753 0.7330915332
0.02236207202 -0.1304814667 0.6442150474 -0.2473578304 -0.6582719684 0.7080575228
0.04322079569 -0.1418776065 0.6472178698 -0.5873724818 -0.4971020222 0.6382886171
0.04077658802 -0.13559784 0.6511620283 -0.5502583385 -0.5290138721 0.6443116069
-0.0403377451 -0.1305604577 0.6737837195 0.7344856858 -0.4369950891 0.5191256404
-0.04497601092 -0.1373482198 0.6776338816 0.7396245599 -0.4281765521 0.5190731883
-0.04365739971 -0.1251791865 0.6828420162 0.7479512691 -0.4229843915 0.5114606023
-0.04695986211 -0.134647578 0.682528913 0.7471253276 -0.4200855792 0.5150587559
-0.04403897375 -0.1309000552 0.6785172224 0.7426576018 -0.4250928462 0.5174168348
0.03060278296 -0.2044536173 0.731099844 0.4302216172 -0.5450655222 0.7168648839
0.0232611075 -0.2002060413 0.7395401001 0.3142280281 -0.5816651583 0.7488319874
0.02442649193 -0.2053573132 0.7342144251 0.3229903877 -0.5765354633 0.7489742041
-0.03299861401 -0.1822868884 0.7319347858 -0.6609278917 -0.445309788 0.5964179039
-0.03675487265 -0.1774685085 0.7320349813 -0.6933100224 -0.4455118775 0.5640954971
-0.02793411165 -0.1858992428 0.7349382043 -0.6047642231 -0.4720534086 0.6377567649
-0.03663031012 -0.184723869 0.7268869877 -0.7059214711 -0.4057598114 0.577930212
-0.04137488455 -0.1797913015 0.7262026668 -0.7338843346 -0.3957720101 0.5513265133
-0.03175123408 -0.178554371 0.7369886637 -0.6327017546 -0.485342294 0.5993614793
0.04999110103 -0.1957145184 0.7157543898 0.7443391085 -0.3652307093 0.5581973195
0.05576536804 -0.1905121803 0.7171279788 0.7730492353 -0.3802908361 0.5075050592
0.05340943858 -0.1867882311 0.7206692696 0.7666146755 -0.3796912432 0.5168569088
0.05716600269 -0.1957692504 0.7129402757 0.7719892859 -0.3777784705 0.5110762119
0.05739978701 -0.2010535747 0.7094125748 0.7639706731 -0.3674374819 0.5293756127
-0.01891517267 -0.1783058047 0.7483582497 -0.4540341198 -0.5750280023 0.6802344322
-0.02602538094 -0.1688770652 0.7510499358 -0.5222036839 -0.5513269901 0.6491895914
-0.02570845559 -0.1669015288 0.7575765848 -0.4622825682 -0.5621075034 0.6796488166
-0.007389330305 -0.08478619903 0.6845736504 0.2501510084 -0.6324604154 0.7301077247
-0.03071158007 -0.09614484757 0.6885515451 0.6236249208 -0.5289274454 0.5745298862
-0.01714945212 -0.0857758373 0.6874554753 0.3996428847 -0.6183311343 0.6748266816
-0.0243002139 -0.09335783869 0.6861147881 0.5119578838 -0.5667675734 0.6386699677
-0.0288307704 -0.09024019539 0.6923860312 0.5892350674 -0.5577406883 0.5833170414
-0.01910126396 -0.1218224093 0.6578307748 0.4254844785 -0.5886201262 0.6796671152
-0.02328935079 -0.1198142692 0.6623240113 0.5068885684 -0.565549314 0.6500969529
-0.02906266041 -0.1249115765 0.6637048125 0.6163481474 -0.5188884735 0.5918856859
-0.02554112673 -0.1260542572 0.6591195464 0.5571788549 -0.5397906899 0.6288528442
-0.0320206359 -0.129820019 0.6613104939 0.6421589851 -0.5059120655 0.5746133924
-0.03423615545 -0.1286071539 0.6664681435 0.6684382558 -0.4872654378 0.5592440963
-0.03249575943 -0.1232911497 0.6684365273 0.6427754164 -0.4988981783 0.5811774731
-0.0321836248 -0.1173472703 0.6738743782 0.6358710527 -0.4945916533 0.5922140479
-0.004157539457 -0.1309510618 0.6442527771 0.2029676288 -0.6167536378 0.7553457618
-0.004757484421 -0.1363791823 0.6385583878 0.1929477006 -0.575481236 0.7888804674
0.0004484448582 -0.13415806 0.6409634948 0.09855735302 -0.6318244934 0.7598293424
0.00495745521 -0.1308304667 0.6436847448 0.02584432624 -0.6673598289 0.7433547974
-0.003827706212 -0.1262558252 0.6485744119 0.2015517801 -0.6390703321 0.7395566106
0.002970074071 -0.1262308508 0.6477502584 0.07372560352 -0.6614579558 0.7428355217
-0.006951042917 -0.1189684719 0.6548807025 0.2114151567 -0.6405504346 0.7351775169
-0.01335272565 -0.1230140179 0.6541101336 0.3192833066 -0.6265907288 0.7089068294
-0.001394817838 -0.1168867499 0.655520618 0.1287145168 -0.6481657624 0.7472165823
0.0003095713328 -0.121621415 0.6516790986 0.11086151 -0.6527406573 0.7443954945
-0.007981130853 -0.1919595897 0.7441024184 -0.2799904943 -0.5794456601 0.7550574541
-0.02179085091 -0.1873232722 0.7387087345 -0.5141660571 -0.5089276433 0.6743869185
-0.01713344455 -0.1941090375 0.7372717261 -0.4237718284 -0.5251399279 0.7283984423
0.001868522726 -0.193721801 0.7455386519 -0.08490601927 -0.5956398249 0.7927432656
-0.002848068252 -0.1994986534 0.7420737147 -0.158271268 -0.5992200971 0.783192277
-0.007541824132 -0.2013461888 0.7378026843 -0.2452777475 -0.5877632499 0.7659637332
0.04135413095 -0.1774695665 0.7409873605 0.5904287696 -0.4896847308 0.6227632165
0.04469343275 -0.1698526591 0.7434933782 0.6500414014 -0.4427033961 0.6111836433
0.03943756595 -0.1838905215 0.7416837215 0.5795220137 -0.5116942525 0.6299039125
0.04604599252 -0.1772517711 0.7343486547 0.6740309596 -0.4488231242 0.5688095093
0.04136893898 -0.1933270693 0.7302848697 0.6145359278 -0.4728205204 0.623603642
0.03716234863 -0.1982265413 0.7295665145 0.5627596974 -0.4924733639 0.6620439887
0.0408998616 -0.2038909942 0.7266117334 0.5733444691 -0.5007079244 0.6443832517
0.04429490119 -0.1979477704 0.7268103361 0.6327111125 -0.4643432498 0.6184286475
0.05639577657 -0.1804332435 0.7222032547 0.7895069718 -0.3599932194 0.495444566
0.04454365 -0.1428842396 0.6559796929 -0.5157347322 -0.5259685516 0.6747879982
0.03649577871 -0.1379308552 0.6482903957 -0.5080671906 -0.5681965947 0.6468198299
0.0364331007 -0.1310449094 0.6545445919 -0.504502058 -0.5575541854 0.6587258577
0.0399925746 -0.1297974437 0.6605162621 -0.5153888464 -0.5384817123 0.6659400463
0.0446430333 -0.1375140101 0.6608715653 -0.5163126588 -0.5185477138 0.6807854176
0.02715648338 -0.1362249404 0.6426730156 -0.3689389825 -0.6347556114 0.6754572988
0.05458827689 -0.1323495805 0.6579657197 -0.2666254342 -0.4973018467 0.7373982072
0.04876719788 -0.1333360225 0.6563589573 -0.4327118993 -0.5008733869 0.6867482066
0.05066860095 -0.1273551583 0.6622415185 -0.3758971095 -0.5043420196 0.6987969875
0.05764063075 -0.1281301528 0.6620848179 -0.1678554714 -0.4988383353 0.7645153403
-0.02672325447 -0.1781208813 0.7452173233 -0.555279851 -0.5309465528 0.6391358376
-0.03042465821 -0.1738204807 0.7464827895 -0.5773404837 -0.5226356983 0.6261333227
-0.02577351592 -0.1821142435 0.7404451966 -0.5705202818 -0.5107280016 0.6422459483
-0.007918913849 -0.1750734001 0.7594139576 -0.238419041 -0.5865442753 0.7727248669
0.005356346723 -0.173774004 0.7611361146 -0.04475843161 -0.5810536146 0.8077073097
0.005121963099 -0.1676169336 0.7650457621 -0.0476542525 -0.5593267083 0.8192126155
-0.001394755091 -0.168000266 0.7651110888 -0.14282386 -0.5629592538 0.8124626875
-0.0001453113655 -0.1797915101 0.7558455467 -0.140943408 -0.5940254927 0.7779125571
-0.006729907822 -0.1790914983 0.7531846166 -0.2514145374 -0.5873283744 0.7422542572
-0.009924797341 -0.1831604689 0.750438571 -0.3119508028 -0.5903593302 0.7361941934
-0.001944342745 -0.1756368876 0.7607520819 -0.1570118368 -0.5975435972 0.7836253643
-0.005639798474 -0.1872289777 0.74957335 -0.2517180741 -0.6023645997 0.7564442754
0.0001532028691 -0.1870295554 0.7508051991 -0.1306174248 -0.6057724357 0.7750513554
0.04915736616 -0.1254296899 0.6691356301 -0.5925335884 -0.5334445238 0.6021593213
0.05403853953 -0.1260213405 0.6744269729 -0.5699939132 -0.572211802 0.5812553167
0.0578283295 -0.1271917224 0.680259347 -0.4504851997 -0.6432319283 0.5990846157
0.0639430806 -0.1296940297 0.6816871166 -0.2303585559 -0.663656354 0.6685155034
0.07775871456 -0.1242300943 0.6760159731 0.1219949946 -0.6260923743 0.6468021274
0.08052377403 -0.1279758364 0.6713666916 0.2561715543 -0.5845118761 0.709554255
0.07439078391 -0.1297820956 0.6743078232 0.09106777608 -0.6062033772 0.7095484138
0.06304069608 -0.1134255975 0.6992619634 -0.0231811963 -0.5300465822 0.8171486259
0.07153400034 -0.1108192876 0.6940960884 0.08765751868 -0.5243071318 0.7313227654
0.06508875638 -0.1155503541 0.6937124729 -0.1364237368 -0.5221879482 0.7650549412
0.06526561826 -0.1198687926 0.6886000037 -0.2113481909 -0.6551126242 0.6193569899
0.08183402568 -0.1154393107 0.6823125482 0.3357099593 -0.582064569 0.6665049791
0.08144666255 -0.1200543568 0.6774764657 0.2553468645 -0.6047856808 0.6490523815
0.07688723505 -0.1182316542 0.6826236248 0.1542777121 -0.6217843294 0.6366710663
0.08030217886 -0.1108565181 0.6884313226 0.3614993095 -0.5700649023 0.6759969592
0.07217974961 -0.1231647804 0.6804035902 -0.05262440816 -0.6697345376 0.6004551649
0.07056058198 -0.1165922135 0.6887821555 0.0006457061972 -0.6493403912 0.6164315343
0.08440909535 -0.1220051944 0.6732847095 0.3094803691 -0.597160399 0.6544612646
0.0654984042 -0.1237971261 0.6842941642 -0.2504378855 -0.7093791366 0.5709536672
0.04427076504 -0.1252026558 0.6640626788 -0.581548214 -0.5117121339 0.6321176887
0.05350410566 -0.1222892702 0.6654412746 -0.2404969037 -0.5244223475 0.7352642417
0.0639179498 -0.1253971606 0.6639998555 0.01793165691 -0.5051116943 0.8075779676
0.05968419835 -0.1204632893 0.6658707261 -0.106275335 -0.5246848464 0.7388210893
0.0693218559 -0.1218084693 0.6650726795 0.1249061525 -0.511703372 0.7893271446
-0.04448820278 -0.111775212 0.7003988028 0.7335860729 -0.4519646168 0.5071895719
-0.04651795328 -0.1230764315 0.6891158223 0.7497652173 -0.4161377847 0.5144287348
-0.04318361729 -0.1102893054 0.6941365004 0.7328055501 -0.4437664747 0.5150514841
-0.0445002988 -0.1155423597 0.6903923154 0.7403296232 -0.4276536107 0.5176835656
-0.049955789 -0.1213045865 0.694665432 0.7506442666 -0.4254725575 0.504778266
-0.04940427467 -0.1105954126 0.7022209167 0.7356384397 -0.4474298358 0.5074866414
-0.04924635962 -0.1058342531 0.7059613466 0.7282189131 -0.4588733315 0.5083394647
-0.04147735983 -0.1182259917 0.6849650741 0.7315916419 -0.4398083687 0.5202196836
-0.03991130367 -0.1254288256 0.6770140529 0.7299124002 -0.431299001 0.529896915
-0.03609040752 -0.1209101006 0.6759542823 0.6938409805 -0.4544426799 0.5564048886
0.04736030474 -0.09999792278 0.6877951026 -0.5913903713 -0.4888972044 0.6383737922
0.04181793705 -0.1010829359 0.681791544 -0.5378356576 -0.5325128436 0.6507132649
0.05737284943 -0.1019131094 0.6830125451 -0.2308830619 -0.5253165364 0.6337794065
0.02628418431 -0.09521326423 0.6771179438 -0.2840506136 -0.6007656455 0.743290484
0.03255627304 -0.09764581919 0.6787643433 -0.3857443333 -0.5785428286 0.7061578631
0.02647636086 -0.1006083488 0.6730198264 -0.2988932431 -0.5993238091 0.739638865
0.03772462159 -0.09735484421 0.6808305979 -0.4613156617 -0.5604675412 0.6856179237
0.03340455145 -0.08747676015 0.6860479116 -0.3885974288 -0.5802542567 0.7148738503
0.02655873075 -0.08719149232 0.683586657 -0.2853721082 -0.6154141426 0.7333037257
0.03568230942 -0.09183644503 0.6831336021 -0.4183214307 -0.5707245469 0.7059371471
0.01600337587 -0.1150789708 0.6571391821 -0.141836524 -0.6462727189 0.7475975752
0.02379827946 -0.110921368 0.6632479429 -0.2686948478 -0.6197634339 0.7354460955
0.01951549947 -0.09394341707 0.6761189699 -0.1841942072 -0.6102136374 0.7666538358
-0.01852949336 -0.09157385677 0.6835417747 0.4152172506 -0.5934348106 0.6874700785
-0.02112267539 -0.09675747901 0.6803398132 0.4587354362 -0.5746260881 0.677554369
0.0004690741189 -0.1120751724 0.6597036123 0.09794514626 -0.648444891 0.7520012856
-0.005458204076 -0.1139485464 0.6589879394 0.1903315932 -0.6433841586 0.7412439585
-0.02724294178 -0.1191948056 0.6686403155 0.5653070211 -0.5339483023 0.618850708
-0.01732756756 -0.1151548177 0.6631845236 0.3993018568 -0.5986723304 0.6872141957
0.006082800683 -0.1852256805 0.7534823418 -0.007001816295 -0.6071482897 0.7932558656
0.01503240783 -0.1868118793 0.7504909039 0.1447435766 -0.5978448987 0.7876149416
0.01250165887 -0.1804427505 0.7558483481 0.09078641981 -0.5943053365 0.794332087
0.006266862154 -0.1790082455 0.7578617334 -0.03040560707 -0.5975734591 0.799210906
0.02745508961 -0.1869514436 0.746684432 0.3487810194 -0.5819561481 0.73299402
0.03358399495 -0.1869830638 0.7434085011 0.463139683 -0.5649408102 0.6819777489
0.02980882302 -0.1926227659 0.7411749959 0.4009203315 -0.5784937739 0.706381917
0.03423923627 -0.1946808845 0.7350981832 0.497636646 -0.5360475779 0.6797997952
0.02439432964 -0.1956230998 0.7423544526 0.3160929084 -0.5899541974 0.7408132553
0.02856020257 -0.1980144829 0.7372341752 0.390042901 -0.5619887114 0.7282725573
0.05469827354 -0.1684959233 0.7293257713 0.7614318132 -0.3955679834 0.5114779472
0.05148240179 -0.1710153371 0.734618187 0.7250204682 -0.4198070168 0.5415211916
0.04793208465 -0.1743740588 0.7403342724 0.6853060722 -0.4465894401 0.574097991
0.03851921111 -0.1800403595 0.7466383576 0.5313796997 -0.531390667 0.6574040651
0.04199498147 -0.1748504788 0.747215867 0.5955838561 -0.4808996022 0.6392514706
0.02159821056 -0.1912589371 0.7460061908 0.2551587224 -0.594317317 0.759867847
0.0214440953 -0.1859650016 0.7504063249 0.2416599095 -0.5887702703 0.7691615224
0.02486947551 -0.1678233743 0.7605728507 0.263088733 -0.5688652396 0.7774125338
0.01901584864 -0.1739254892 0.7585740089 0.1888339818 -0.5864425302 0.7857848406
0.02462762222 -0.1764529049 0.7568818927 0.2802645862 -0.572010994 0.7705640793
0.01959158666 -0.1800079346 0.7543498874 0.2120787799 -0.5915036201 0.7731376886
0.02623714693 -0.1823534518 0.7507844567 0.3203384578 -0.5800407529 0.7479541302
0.04800171033 -0.1910186112 0.724652648 0.7139083743 -0.4064812362 0.5664736629
0.04157330096 -0.1874701679 0.7353713512 0.623156786 -0.4935892522 0.5975168347
0.04658028483 -0.1884450316 0.730997026 0.689058423 -0.4434828758 0.571120441
0.0214609541 -0.1229111478 0.6520067453 -0.231157735 -0.6511415839 0.7177624106
0.015054157 -0.1198648512 0.6522330046 -0.1218026429 -0.660928905 0.7402759194
0.02203091048 -0.117846489 0.6567208171 -0.2380031347 -0.6310493946 0.7355532646
0.01669318229 -0.1259628236 0.6463429332 -0.1513726264 -0.6614129543 0.7315722704
0.01434426848 -0.1340848953 0.6360330582 -0.1147183478 -0.64927876 0.7512055039
0.008772835135 -0.1273292452 0.6455982924 -0.02069733292 -0.6644420624 0.7432125807
0.01078910939 -0.1166514754 0.6552132368 -0.0542874597 -0.6548199654 0.7498375177
0.008065720089 -0.1208582595 0.6517055035 -0.01377316006 -0.6649653912 0.743360579
0.02819221467 -0.1215475202 0.6564093828 -0.3511721492 -0.6057952046 0.7051856518
0.02695435472 -0.1159622967 0.660066843 -0.324706465 -0.6138364077 0.7166438103
0.03261604905 -0.1197900474 0.6615101695 -0.4316614866 -0.577416122 0.6821632385
0.0344269909 -0.1256329268 0.6552934051 -0.4404542148 -0.5696233511 0.6931143999
0.03788327426 -0.1236669719 0.6594173312 -0.4824589789 -0.5556584597 0.6738753319
-0.01377774589 -0.1924807727 0.7430565953 -0.384219408 -0.5568041205 0.7360162735
-0.01763622463 -0.1880545765 0.7440785766 -0.4392096996 -0.5460731983 0.7089588642
-0.01549236011 -0.1832255423 0.7501392365 -0.3940501213 -0.5812548995 0.7101622224
-0.0246172417 -0.1763468534 0.7504279613 -0.4980274439 -0.5534892082 0.6633349657
-0.01279412489 -0.1883191764 0.7470982671 -0.3638592958 -0.575219214 0.7316456437
-0.02095130645 -0.1828347594 0.7441677451 -0.5032046437 -0.5482466817 0.6634896994
-0.008274672553 -0.168576926 0.7624937892 -0.2320598364 -0.5665597916 0.7864964604
-0.0141398618 -0.1763284355 0.7552873492 -0.3535087109 -0.5812888741 0.7320440412
-0.01922140643 -0.1700921953 0.7559911013 -0.3973713517 -0.5697749257 0.7157113552
0.0577192679 -0.1214948893 0.6847376823 -0.5172453523 -0.6201527715 0.5698779225
0.05946791917 -0.1176149547 0.6903700233 -0.4574913681 -0.4691621363 0.7492738962
0.05231705308 -0.1077577621 0.6869995594 -0.6338862181 -0.4310737848 0.6403668523
0.05614014342 -0.11407803 0.68819803 -0.5944417119 -0.4291914105 0.6698080301
0.03829183802 -0.1129447743 0.66933918 -0.4929327369 -0.552737534 0.6714915037
0.03654555231 -0.1173527017 0.6648367047 -0.4805852473 -0.5639686584 0.6701353192
0.01357538532 -0.0857449621 0.6811702251 -0.0770239532 -0.6361185908 0.7659640312
0.01914623752 -0.08962801844 0.6800801158 -0.2049253583 -0.61755687 0.7584052086
0.006071480457 -0.08538577706 0.6809609532 0.03881277889 -0.6330975294 0.771306932
0.002689690562 -0.07948896289 0.6866193414 0.09692323953 -0.6563663483 0.7438842058
0.008804750629 -0.0802718699 0.6854191422 0.003105510725 -0.655546844 0.7509444952
0.01427428704 -0.0811875239 0.6847065687 -0.09037978202 -0.6468861103 0.7560739517
0.0006647444679 -0.08442375809 0.6825684309 0.1268635988 -0.6331353188 0.7599759698
-0.002142641228 -0.08870179206 0.6792697906 0.1643384397 -0.6289131641 0.7590075731
0.01417094376 -0.09324207902 0.6758825779 -0.1063561663 -0.6149591208 0.775303781
0.005467183422 -0.09875322133 0.6714375615 0.03912470117 -0.6312010884 0.7694875002
0.004413583316 -0.1026383415 0.6666859388 0.04687373713 -0.6347230673 0.7703238726
-0.004807621706 -0.09659375995 0.6738576889 0.1910422593 -0.62135005 0.7596620321
0.0009101325995 -0.09452876449 0.6743116379 0.09751373529 -0.6205589771 0.7743666172
0.008922242559 -0.08936198056 0.6779937148 -0.01840716228 -0.632868588 0.7709367871
0.007299015764 -0.09378874302 0.6743197441 -0.0002041979169 -0.6206293702 0.7820266485
0.01431675348 -0.1083868071 0.6625713706 -0.09616232663 -0.6451135278 0.757062614
0.01618145034 -0.1043675467 0.6664767861 -0.1156627387 -0.6376321316 0.7599272132
0.0222585015 -0.1032920033 0.6690417528 -0.2276904583 -0.6128842831 0.7520509362
0.009305403568 -0.1058545634 0.6655090451 -0.02460541949 -0.6422700286 0.7633361816
0.01476711221 -0.09839615971 0.6710551977 -0.09064610302 -0.6228455901 0.7767769694
-0.001761666615 -0.1033217609 0.6679196358 0.1452889293 -0.6298738122 0.7584248781
0.003769765142 -0.1083662733 0.6633887887 0.05488602817 -0.6483588219 0.7569477558
-0.004119165707 -0.1085214913 0.6641283631 0.1758667231 -0.6383782029 0.7477250695
-0.02235656604 -0.1145903915 0.6663656235 0.4845941663 -0.5715190172 0.6601944566
-0.0178888049 -0.1079603583 0.669488728 0.398485899 -0.5817433596 0.7044720054
-0.02400224656 -0.1102686748 0.671312511 0.5008175969 -0.5485051274 0.669090569
-0.02255651727 -0.1053929627 0.6746789813 0.4730907679 -0.5439777374 0.6906721592
0.04433861002 -0.1825304478 0.7387679219 0.6560851932 -0.4719514251 0.5878514647
0.0524026677 -0.1794432402 0.729383409 0.7433803678 -0.4214660525 0.5185184479
0.03400053456 -0.1766705513 0.7525318265 0.44712919 -0.5541985631 0.7017686367
0.03179476783 -0.1813084781 0.7484869361 0.4237876534 -0.5614699721 0.7031925917
0.03708976135 -0.1721649468 0.749434948 0.5139247775 -0.4964404106 0.6744010448
0.03051319346 -0.1732690185 0.757984519 0.3386167586 -0.5708206892 0.7467951179
0.0281810239 -0.1318797022 0.6471532583 -0.3768300414 -0.6232841015 0.6766343713
0.03319988772 -0.1361877173 0.6422028542 -0.4485779405 -0.5998225808 0.6607761383
0.03012927808 -0.1261714399 0.6510455012 -0.4134632647 -0.6138282418 0.6709234118
0.04728054628 -0.105536744 0.6830272079 -0.6386549473 -0.4741466641 0.6055830717
0.04977329448 -0.1109595671 0.6813575029 -0.6582013965 -0.4767992496 0.5822408795
0.05278588459 -0.1189622059 0.6800581217 -0.567895174 -0.5829066038 0.566572547
0.04807091504 -0.1193154976 0.6724698544 -0.5852883458 -0.5469087958 0.5970020294
0.07459807396 -0.1070473343 0.6773631573 0.2881014645 -0.5574035048 0.6904194951
0.0627881512 -0.111552909 0.6745812893 -0.08459810168 -0.5309265256 0.6693863869
0.06994487345 -0.1151215881 0.6701961756 0.09330156446 -0.5208187103 0.7255041599
0.07571050525 -0.112337254 0.6721178293 0.2797055244 -0.53617239 0.731746614
0.06883464009 -0.1086953878 0.6765363812 0.1104106233 -0.5467689037 0.6763628721
0.05278165266 -0.112702556 0.6747955084 -0.3800745308 -0.5195695162 0.633195281
0.0627392903 -0.1159221306 0.6703767776 -0.1192603931 -0.5127539635 0.6992552876
0.04532882199 -0.1129608452 0.6753777266 -0.6049395204 -0.5040824413 0.615635097
0.04525851831 -0.1077482775 0.6777381301 -0.5005824566 -0.5094053745 0.6507657766
0.06225601211 -0.1045503169 0.6800593734 -0.01932495832 -0.5474147797 0.6590864658
0.05349893868 -0.1076524928 0.6780687571 -0.2906605601 -0.5273323655 0.6465878487
0.04295271635 -0.1181396097 0.667390883 -0.5109086037 -0.5459631681 0.6510595679
0.07443416119 -0.1180788428 0.6663793921 0.2201477289 -0.5174717903 0.7682155371
0.05471486226 -0.1166152358 0.6697838902 -0.2997919321 -0.5203666091 0.6754142046
0.0285954196 -0.1072730795 0.6671885848 -0.3516145349 -0.5926548839 0.7216505408
0.03307214007 -0.1114814579 0.6657854915 -0.4191721976 -0.5836393237 0.6952838302
0.03499628976 -0.1077182814 0.670498848 -0.4367937446 -0.5678008199 0.6965230107
0.03558990732 -0.1015304998 0.675996542 -0.4312010407 -0.5665408969 0.7007926702
