# .PCD v0.7 - Point Cloud Data file format
VERSION 0.7
FIELDS x y z normal_x normal_y normal_z
SIZE 4 4 4 4 4 4
TYPE F F F F F F
COUNT 1 1 1 1 1 1
WIDTH 512
HEIGHT 1
VIEWPOINT 0 0 0 1 0 0 0
POINTS 512
DATA ascii
0.09036393464 -0.1043944359 0.6668303609 0.7058586478 -0.4687571824 0.5246440172
0.08349196613 -0.1161815673 0.6724088192 0.3653335869 -0.4733103812 0.624063611
0.08163660765 -0.1127796993 0.6764514446 0.2845715582 -0.4566679895 0.6314095855
0.08684145659 -0.1119462475 0.6699362397 0.5134566426 -0.464805007 0.5765047669
0.08681574464 -0.1179728284 0.6671677232 0.5109776855 -0.4871384799 0.5966814756
-0.01075081341 -0.1757075787 0.7520849705 -0.3592422903 -0.5989344716 0.7078779936
-0.0342293568 -0.2105302811 0.7123070359 -0.7049328685 -0.3708454669 0.6040690541
-0.0311774388 -0.204884842 0.7178068161 -0.6792958379 -0.3886215687 0.6206717491
-0.0299356021 -0.1990537196 0.7218765616 -0.6692860126 -0.3918771148 0.6299481392
-0.04357189685 -0.1799158752 0.7089092135 -0.7992553115 -0.3124694526 0.5119848251
-0.04743405432 -0.1594097465 0.6889318824 0.3823094368 -0.2187058628 0.3805363774
-0.0461275056 -0.1695955843 0.6953642368 -0.1324287951 -0.2427303195 0.4337056875
-0.04654191434 -0.1732079536 0.6994911432 -0.4666670263 -0.1756081879 0.4119254649
-0.0471466966 -0.1642788053 0.6937090158 0.03760124743 -0.1934016496 0.390066117
-0.0470697619 -0.1863016784 0.6968742013 -0.8785787225 -0.137105763 0.3823899329
-0.0461294502 -0.1778675616 0.70326823 -0.7522422671 -0.1671724916 0.427549541
-0.03713464737 -0.2073402703 0.7088553309 -0.7243492603 -0.3593720496 0.5870485902
-0.04339710623 -0.1969616413 0.7022461891 -0.7634373903 -0.336150974 0.5506865382
0.03333332762 -0.1837454587 0.7474694848 0.3588497043 -0.5793027282 0.7292428017
0.03054730967 -0.1714525968 0.7597308159 0.2318267822 -0.5882666111 0.7731913328
-0.04104298353 -0.1787462831 0.7151685953 -0.7957032919 -0.326038152 0.5103146434
-0.04170854762 -0.1750830263 0.7189816236 -0.7910221815 -0.3165934682 0.5234226584
0.08272283524 -0.1211193055 0.6567435861 0.5554801226 -0.5135931373 0.6519014239
-0.04104769975 -0.1577955782 0.6718431711 0.4077350497 -0.3516790867 0.4963587224
-0.04693583399 -0.1735271066 0.6903412938 -0.2573592961 -0.1802483946 0.3816122711
-0.04608853534 -0.1790762246 0.6913440824 -0.5446684957 -0.1825269163 0.402310729
-0.04121924192 -0.1524960101 0.6690067649 0.6473764777 -0.37804088 0.5051105022
-0.04686449841 -0.1671115607 0.6871179938 0.05313146859 -0.2019134313 0.3814536035
-0.04366717488 -0.1601095051 0.6774733663 0.3276588917 -0.2976869941 0.4518419802
-0.04211534932 -0.1656338274 0.6790985465 0.05936259776 -0.3104381263 0.4796309769
-0.04254021868 -0.1716453433 0.6869682074 -0.2063227445 -0.3200538158 0.5012523532
-0.04351041839 -0.1530563384 0.6754693985 0.6945103407 -0.3183933794 0.4460443258
-0.04691582546 -0.1548940539 0.6833199859 0.6631963849 -0.2503723502 0.3846832812
-0.04359987378 -0.176646933 0.6957409978 -0.4114409983 -0.3217766583 0.5114557743
-0.04480144009 -0.160998702 0.6846212149 0.3425107896 -0.2941972017 0.4434097111
-0.0176541321 -0.1703044176 0.7552677393 -0.4191230237 -0.5804846287 0.6924774647
-0.01327327546 -0.1695428938 0.7611237168 -0.3476854265 -0.6017381549 0.7164689898
-0.009090641513 -0.1695602983 0.756461978 -0.3345606327 -0.6058782339 0.7206276655
-0.02055543661 -0.1755145043 0.7443819642 -0.5244429708 -0.5425986648 0.6539021134
-0.0228188578 -0.1718476415 0.7493880987 -0.4976376593 -0.5545658469 0.6660125852
-0.005703940056 -0.1684579402 0.7629851103 -0.2297240496 -0.6243400574 0.7423792481
-0.004896511324 -0.1773367524 0.7567209005 -0.2800098062 -0.6032589078 0.7455722094
0.06802000105 -0.1924257576 0.6936132908 0.8628576994 -0.3028165698 0.3858236074
-0.04158030823 -0.1912714094 0.7045126557 -0.7723920941 -0.3286199272 0.5434032083
-0.03068720363 -0.1995234936 0.715482235 -0.6837792397 -0.3690328896 0.6270949841
-0.03407771885 -0.1994222552 0.7106060386 -0.6969900727 -0.3709102273 0.6071813703
-0.03719135746 -0.1947665513 0.7110612988 -0.7670134902 -0.3320261538 0.5487971902
-0.04470814019 -0.1917929947 0.6991013288 -0.773347795 -0.3326482475 0.5396571159
0.0629215315 -0.1053820178 0.6698958278 0.04105007648 -0.5558300018 0.6484447718
0.07129038125 -0.104036063 0.66836375 0.2631171346 -0.5647733212 0.6326494217
0.05171562731 -0.1047849134 0.6733210683 -0.2890194356 -0.5460018516 0.6725267768
0.08027838171 -0.1019119397 0.6671068668 0.4923589826 -0.5749855042 0.6165147424
0.06497961283 -0.1197128296 0.6892841458 -0.4285170138 -0.4167900383 0.7956669331
-0.03568458557 -0.1352164596 0.6686451435 0.7463186979 -0.4402596653 0.4974468946
-0.03885814548 -0.1392915398 0.6705278158 0.7680583 -0.4156719148 0.4858454168
-0.02753512375 -0.1414304674 0.6512818933 0.6283328533 -0.4829152822 0.6076626778
-0.02269683965 -0.1400343031 0.6465463638 0.5805828571 -0.4899923801 0.6477349997
-0.03123277426 -0.1417312324 0.6555871964 0.6873483062 -0.4697521329 0.551902473
-0.0267388802 -0.1363427192 0.6549758315 0.6374919415 -0.5000474453 0.5840741992
-0.01852139644 -0.1368826926 0.6479780078 0.4836717844 -0.5629760027 0.6608224511
-0.02991396561 -0.09246870875 0.7010506392 0.6636559963 -0.5514221787 0.5001897812
-0.00322556356 -0.09852524102 0.6737886667 0.2855983675 -0.6252359748 0.7229979634
-0.04156624526 -0.1158847809 0.6982679367 0.7601674199 -0.4513667822 0.467261374
0.0003347630845 -0.179638356 0.7560318112 -0.201896131 -0.5947651863 0.7743620276
-0.007032315712 -0.1817726642 0.7513270974 -0.3570298553 -0.590554297 0.7203227282
-0.04534285888 -0.1849146634 0.7033869028 -0.8741312623 -0.1834682375 0.4378500283
-0.03866845369 -0.185136646 0.7149302959 -0.7855910063 -0.3215989769 0.528594017
-0.04045400396 -0.189196825 0.7114920616 -0.7779038548 -0.3260168135 0.5370188355
-0.0403551124 -0.200091809 0.710157752 -0.760588944 -0.3315929472 0.5579890013
0.03784375265 -0.1946701556 0.7357133627 0.4776057899 -0.5599288344 0.6710916162
0.0709169358 -0.10742414 0.6968080401 0.1858923584 -0.4162464738 0.8567955494
0.0732698217 -0.0997306481 0.6907643676 0.4912383258 -0.3787085414 0.7765809894
0.06609603763 -0.09492397308 0.6992169023 -0.009265865199 -0.3613341451 0.8455180526
0.07069082558 -0.09999389201 0.6957297921 0.284804076 -0.3794149756 0.8244804144
0.07620883733 -0.1055386364 0.6892015338 0.3941456079 -0.4236585796 0.7599953413
0.07337094098 -0.1116692647 0.6892207265 0.1263647974 -0.4380161762 0.7685507536
0.08463717252 -0.1054807231 0.6769039631 0.5826238394 -0.4386909604 0.6238386631
0.07059361786 -0.1172475368 0.6895238161 -0.1216083393 -0.4507279098 0.7794955969
0.07891260833 -0.1104549915 0.681928277 0.289614588 -0.444162488 0.686204195
0.08050828427 -0.1045440808 0.6835791469 0.5225558877 -0.428260386 0.6964278221
0.05051682517 -0.1759666651 0.7433457375 0.5767800808 -0.5138733983 0.6347945333
0.04494603723 -0.1762543619 0.7476301789 0.500287652 -0.529671669 0.6833872199
0.03487501666 -0.1763906479 0.7528834939 0.3553597331 -0.5657236576 0.7438856959
0.03925880417 -0.1800158918 0.7473931909 0.4444820285 -0.5542554259 0.6964235902
0.04656170681 -0.1904912442 0.7338260412 0.5980091095 -0.5369345546 0.5933680534
0.06200183183 -0.09215675294 0.6950919628 -0.02130061202 -0.3158346117 0.7920735478
0.06119875237 -0.09210766107 0.7015685439 -0.275480479 -0.438064605 0.8293861151
0.06937264651 -0.09506118298 0.6920619607 0.2481919527 -0.272654295 0.8050394058
0.06617172062 -0.09469734877 0.6863651276 0.3385520875 -0.1503208429 0.7883799076
0.07150410861 -0.09572746605 0.6839060187 0.426473856 -0.2719886601 0.7334571481
0.05426629633 -0.09105752409 0.684761703 -0.107957691 -0.5772984624 0.6686300039
0.06485120952 -0.0949884057 0.680900991 0.1071280316 -0.6294230223 0.6311780214
-0.0005317027098 -0.1838899851 0.751663208 -0.2243233621 -0.6033667326 0.7590892911
0.03129421175 -0.1817809641 0.7520079613 0.3181605041 -0.5757783055 0.7518213391
0.02885601483 -0.1778109968 0.7558181286 0.2519574165 -0.5866957307 0.7674883604
0.07784887403 -0.09719521552 0.6762751937 0.4323247969 -0.6482334733 0.5900683403
0.07037203759 -0.09744309634 0.6763679981 0.2437594682 -0.6261628866 0.61297822
0.07683175057 -0.09862393141 0.6704133153 0.3842909336 -0.5853921175 0.6220299006
0.06533250213 -0.1008384228 0.6716281772 0.07465729117 -0.5642780066 0.6477349401
0.05954045057 -0.09896314144 0.6737352014 -0.04567692429 -0.5664619803 0.6587261558
0.04789606482 -0.09972200543 0.6762782931 -0.3409100771 -0.5573832989 0.6807031631
0.05947037786 -0.105980657 0.6908886433 -0.4174621105 -0.4486310482 0.7866689563
0.0624691993 -0.1130026355 0.6891983151 -0.4216505587 -0.4025472701 0.8038856387
0.0575835593 -0.1088974923 0.6860473156 -0.4999243021 -0.4064827263 0.7603884935
0.06537601352 -0.110505715 0.6946333647 -0.2321175039 -0.4277829826 0.8502810597
0.06534390152 -0.1030987948 0.6993997097 -0.1253013015 -0.4128916264 0.8744491339
0.05895370618 -0.09890009463 0.6952075958 -0.3898092806 -0.4491320848 0.7980984449
0.08404697478 -0.1002695113 0.6762111187 0.6662259698 -0.4305629134 0.5949855447
0.08816553652 -0.1051322669 0.6717991233 0.669683516 -0.4442822337 0.5663892627
0.07834094018 -0.09885682911 0.6846629977 0.574124217 -0.4173692465 0.6842173338
0.04295701906 -0.1053971052 0.6739465594 -0.4648656845 -0.5465951562 0.6941340566
0.03471014276 -0.1063681096 0.6682727337 -0.3487822711 -0.5853045583 0.7313143015
0.05320819095 -0.1128441095 0.6780815721 -0.5826584697 -0.4433547854 0.6772423983
0.02794890106 -0.1915179044 0.7446275949 0.2776134908 -0.5993514657 0.7470816374
0.03295135871 -0.1897535175 0.7435567379 0.3654517233 -0.5908518434 0.7181239724
0.02802258916 -0.1867543906 0.7482782602 0.2770264149 -0.5913648605 0.7557607889
-0.03638679907 -0.1887028664 0.7192164063 -0.7524522543 -0.3607268929 0.5502845645
-0.03540553898 -0.1939688921 0.7178170681 -0.7193320394 -0.3528360128 0.595112741
-0.03794237971 -0.143325448 0.6655222178 0.7507533431 -0.4246822894 0.5054778457
-0.03885866329 -0.149173677 0.6650799513 0.7475863099 -0.410305202 0.5220867395
-0.03615569323 -0.1459694952 0.6607944965 0.7257044911 -0.4372649491 0.5301388502
-0.04134776816 -0.1472845376 0.6709375978 0.7640428543 -0.4078000784 0.4989604354
0.05260592327 -0.1158851981 0.6641141176 -0.2255981266 -0.5512750149 0.6810222268
0.07356002182 -0.1139468774 0.6609258652 0.3603289127 -0.5414141417 0.6743925214
0.06474919617 -0.125206247 0.6570326686 0.1608865559 -0.4489974082 0.8276201487
0.07073933631 -0.1227716208 0.6565611362 0.3218174279 -0.4652174711 0.7878488302
0.05832998082 -0.1182986125 0.6614384055 -0.05108020455 -0.5224581957 0.7145139575
0.06601918489 -0.1182942986 0.6595540047 0.1684540212 -0.5134881735 0.714530468
0.07816181332 -0.1101798564 0.6626929045 0.4906679988 -0.5582223535 0.6434133649
0.06595326215 -0.1135598868 0.663056612 0.1420507431 -0.5532357097 0.6703279614
0.04037705809 -0.1094586626 0.6691042781 -0.4263806343 -0.5634137392 0.7032921314
0.06228453666 -0.1106060743 0.6658556461 0.04836771265 -0.5625110269 0.6460901499
0.05711213127 -0.1093086675 0.6683055162 -0.1073426306 -0.55611974 0.6578282118
0.06985384971 -0.1094074398 0.6649054289 0.2661022246 -0.5662301183 0.6307963729
0.04961541295 -0.1105399653 0.6692091227 -0.3228445053 -0.5525166392 0.6729484797
0.07584935427 -0.1209212467 0.6561899781 0.4642465413 -0.4970205426 0.7226731777
0.07524725795 -0.1269602776 0.6549063921 0.4706002772 -0.5064201951 0.7187843323
0.06631653011 -0.1654723436 0.6717787385 0.300861448 -0.4979624152 0.5236964226
0.06718742847 -0.1721391827 0.6764176488 0.4814192355 -0.4104431272 0.461658448
-0.02439210936 -0.09216556698 0.6922860742 0.6151736975 -0.5811805725 0.5270104408
-0.02291538566 -0.08725495636 0.6952494383 0.5910929441 -0.6183596253 0.5163614154
-0.04116008431 -0.1027930379 0.708665967 0.7286021709 -0.4853926897 0.4825612307
-0.04169566557 -0.09914117306 0.7131599784 0.7217073441 -0.495010078 0.4838118255
-0.03413389251 -0.09542445093 0.705499649 0.6987197399 -0.5173001289 0.4940978289
-0.03693322837 -0.09513481706 0.7111049891 0.7029429078 -0.5173605084 0.4879649878
-0.006519398652 -0.1286332309 0.6483303308 0.289578408 -0.6275070906 0.7194519043
-0.01247576531 -0.1344753951 0.6461299062 0.3888210356 -0.5946308374 0.699843049
-0.005087226164 -0.1326101273 0.6441110969 0.272048533 -0.6059828997 0.7468060255
-0.01166993566 -0.1395239532 0.640974462 0.3399738073 -0.5629725456 0.7464287877
-0.04180273786 -0.1093237773 0.7041570544 0.7494413853 -0.4615624845 0.4745868444
-0.01722733863 -0.09605720639 0.6831015944 0.4818823636 -0.5829987526 0.6526786685
-0.01645164005 -0.1183855012 0.6628720164 0.4800796211 -0.5997414589 0.6382300258
-0.01188655291 -0.1138490513 0.6631368995 0.3994768858 -0.6159632802 0.6782814264
-0.01138774864 -0.1101053134 0.6670232415 0.3916522563 -0.6166151762 0.6809360385
-0.009390202351 -0.1026546955 0.6725542545 0.3705768585 -0.61330688 0.6954306364
-0.01471840404 -0.1081030592 0.6713716984 0.454852283 -0.5955055356 0.6580073237
-0.02724552713 -0.1222737283 0.670671463 0.6465505958 -0.5172056556 0.5581508875
-0.01783370413 -0.11324431 0.6683151722 0.4993624389 -0.588357091 0.6349166632
0.01306952164 -0.1758831292 0.7594466209 -0.03019493259 -0.6057214141 0.7934933901
0.007462501526 -0.1796440631 0.7566725612 -0.06329779327 -0.6080607176 0.7885916233
0.01787370816 -0.1793485284 0.7553609014 0.04684828222 -0.6007702351 0.7897992134
0.02391418442 -0.1812295169 0.7528312802 0.1931993216 -0.5904490352 0.7766251564
0.01631182618 -0.1845750213 0.7529623508 0.07551879436 -0.6013210416 0.7927855253
0.008882842958 -0.1839042902 0.7522701025 -0.07681164891 -0.6033416986 0.7920924425
-0.0001217004901 -0.1686436832 0.7627789378 -0.1803717017 -0.6248708963 0.7531323433
0.01023573894 -0.1696026027 0.7644152045 -0.06007094309 -0.6208820343 0.7802590132
0.006744314916 -0.1720801592 0.7595564127 -0.134231776 -0.6060580015 0.7710649371
0.0003204763343 -0.1726189256 0.7572193742 -0.2058112323 -0.6063275337 0.7533773184
-0.0170572307 -0.1778304279 0.7498232722 -0.4560995698 -0.567661345 0.682113409
0.05904663354 -0.192627117 0.7143105865 0.806134522 -0.3772496879 0.447609216
-0.03361207619 -0.1845704466 0.7228310704 -0.7398629189 -0.3873713315 0.5442103148
-0.02440148965 -0.1993318498 0.7228358984 -0.6222694516 -0.4129913151 0.6602685452
-0.02958244458 -0.1925614774 0.7228448391 -0.6940916181 -0.4010350108 0.5944206715
-0.01288042963 -0.2054609358 0.7282307148 -0.4457300007 -0.4931817949 0.7377210855
-0.0004127894354 -0.1922452748 0.7462409139 -0.2212891132 -0.6025744677 0.7628942132
-0.000908969494 -0.1980246603 0.7426816821 -0.2313841432 -0.6020517349 0.7622826099
0.02608891949 -0.1967473924 0.7410567403 0.2687367499 -0.6089270115 0.7441672683
0.01808558591 -0.2118552923 0.7356057167 0.1385681778 -0.6218208671 0.768337965
0.01580880396 -0.2216918916 0.7308014631 0.09294445068 -0.6240346432 0.7751399279
0.05374155194 -0.1931334436 0.7191839814 0.7305032015 -0.4162701368 0.5316227078
0.05043632537 -0.1940622777 0.7247960567 0.6721215844 -0.4637731016 0.5766400695
0.0574923791 -0.1867913306 0.7199576497 0.7761374116 -0.3917542398 0.4857450128
0.04150420427 -0.1895666122 0.7375045419 0.5229189992 -0.5673601627 0.6328434348
0.04171054438 -0.1982681155 0.7317994237 0.5366577506 -0.5455560088 0.6416285038
0.04493474215 -0.1841011345 0.7403045893 0.5505002737 -0.542401433 0.6332449317
0.05513741821 -0.1806310564 0.7305223942 0.6848468184 -0.4766405225 0.5458108783
0.05473506823 -0.1854979098 0.7259748578 0.7018146515 -0.4548190832 0.5441676378
0.05087062344 -0.1868947297 0.7321781516 0.644231379 -0.5132079124 0.565204978
0.05329497159 -0.1782983094 0.7367276549 0.6276053786 -0.5110061765 0.5860410929
0.05296369642 -0.09742637724 0.6785758734 -0.191357702 -0.5907342434 0.6605157852
0.05880634487 -0.09644319117 0.679854095 -0.05308274925 -0.6049515009 0.6513974071
0.04901392385 -0.1059518456 0.6781690121 -0.5479073524 -0.5089334249 0.6619458795
0.03763731569 -0.1032242402 0.6727383733 -0.3932595849 -0.5724992156 0.7176008224
0.003544065636 -0.1882665008 0.7486410141 -0.1368293911 -0.6034033895 0.7833452821
-0.01138151158 -0.1836237162 0.7477391362 -0.4259321988 -0.572671771 0.695643723
0.01592971757 -0.1895145923 0.7491122484 0.08269678801 -0.6071822047 0.7890019417
0.02264809236 -0.1884912699 0.7491489053 0.1940339059 -0.6021494865 0.772103548
0.009555418976 -0.188733533 0.749873817 -0.04077799991 -0.5983231068 0.7945151925
0.06056457385 -0.09157647192 0.68985641 0.1606482714 -0.1670136005 0.7969371676
0.05013316497 -0.08899777383 0.6890851855 -0.1821452826 -0.4267725348 0.7314687371
0.04177546501 -0.08410525322 0.6909861565 -0.418382287 -0.5972767472 0.6840154529
0.05301479995 -0.09256839007 0.6936832666 -0.4068206847 -0.558021009 0.721601963
0.04709623381 -0.0856801495 0.6933478117 -0.4143638313 -0.5872759223 0.6942124367
0.05309087783 -0.08704652637 0.697131753 -0.3874913454 -0.584295392 0.709575057
0.08594213426 -0.09957696497 0.6708257794 0.6328504682 -0.5096823573 0.5780182481
0.08363500983 -0.1061462089 0.6647635102 0.6001467705 -0.5411522985 0.5865981579
0.08551932871 -0.1167177483 0.6596993804 0.5611152649 -0.5173956752 0.6412520409
0.08360937238 -0.1113886759 0.6614755988 0.5574727654 -0.5265061259 0.6366458535
0.08906456083 -0.109533608 0.6638248563 0.6655635834 -0.4940976501 0.5513085723
0.009128575213 -0.1930537522 0.745965898 -0.04223998263 -0.6109965444 0.7854827046
0.01661399566 -0.1943347454 0.7455724478 0.099858284 -0.6143586636 0.780128181
0.02139876783 -0.1997542977 0.741559267 0.202875644 -0.6188917756 0.7582287788
0.01729117706 -0.2025808841 0.7373968363 0.1422334611 -0.5878836513 0.7911891937
0.01850799285 -0.1695043445 0.7634295821 0.0399601534 -0.6065377593 0.7913931608
0.01873488352 -0.1743735075 0.7598035932 0.05459911376 -0.5996518731 0.7931528687
0.02421907522 -0.175610885 0.7572222948 0.1835160404 -0.581238389 0.7882365584
0.02406497113 -0.1716037393 0.7616647482 0.1583711505 -0.5949444771 0.7877149582
0.05055719614 -0.1216211021 0.6612747312 -0.2538621128 -0.5193271041 0.7455413938
0.05320381373 -0.1256485581 0.6578537822 -0.1530874074 -0.5085908175 0.7746891975
0.04137342796 -0.1238841638 0.6579833627 -0.4138279259 -0.5869524479 0.6947037578
0.03579676151 -0.124101676 0.6541903615 -0.3850165009 -0.606479466 0.6954070926
0.03474487737 -0.1186679155 0.6582801938 -0.3632361591 -0.6085686088 0.7039105296
0.04369120672 -0.1147997156 0.6680426598 -0.4899390638 -0.5402757525 0.6809263825
0.04059844092 -0.1206815764 0.6623678207 -0.4584188759 -0.5712134242 0.6797652841
0.03825340793 -0.1150082126 0.6638712287 -0.4092979431 -0.5736273527 0.7057332397
0.07065074891 -0.1323985159 0.6556747556 0.3070024848 -0.4977405071 0.7922955751
0.0612812154 -0.1185503528 0.6837479472 -0.5186058283 -0.489580512 0.681845367
0.06789214164 -0.1380050033 0.6537422538 0.1529755443 -0.5162200928 0.724799633
0.06392198056 -0.1428197026 0.6544603705 -0.04743738845 -0.5387535095 0.720557332
0.05780249089 -0.1439884007 0.6508051157 -0.2617428303 -0.485935837 0.7214998007
0.05253808945 -0.147834599 0.6498875618 -0.4900690913 -0.4813353419 0.7198634148
0.05753868446 -0.150442183 0.6556671858 -0.3700847924 -0.5757088065 0.7160243392
0.03775193915 -0.1380279809 0.6439881325 -0.4402529597 -0.6161046624 0.6512562037
0.03948974237 -0.133193776 0.6487252116 -0.4541944861 -0.5832260251 0.6723338366
0.08477308601 -0.1259063482 0.6603149176 0.5522401333 -0.5187501907 0.6206832528
0.07918050885 -0.1282281429 0.6651970148 0.3642088771 -0.5720357299 0.6448404193
0.07652693987 -0.1265853047 0.6722179055 0.2158627659 -0.6219894886 0.6366541982
0.07905007899 -0.1210981682 0.6759761572 0.1703576595 -0.4830304086 0.6840603948
0.0718883425 -0.122151643 0.6845999956 -0.1311169565 -0.4822636247 0.7514436841
0.06930590421 -0.1294345409 0.67857939 -0.03426504508 -0.6736326814 0.6775425076
0.07389399409 -0.1248764619 0.6781907082 0.04323701933 -0.5663169026 0.6896142364
0.0664755106 -0.1270887852 0.6856409311 -0.2356613874 -0.5966466069 0.7434652448
0.03453187272 -0.1285358518 0.6502808332 -0.3922591209 -0.6033172011 0.6861661077
0.02924310789 -0.1255888045 0.6503756642 -0.2939009964 -0.6282123923 0.7106252313
-0.01158022601 -0.0964936763 0.6799173355 0.4093747139 -0.6005472541 0.6792810559
-0.006671430543 -0.0949979201 0.6781033278 0.3439373672 -0.6179359555 0.7035553455
-0.0383021459 -0.109419927 0.6995846033 0.7426092029 -0.4685843289 0.4783034325
-0.03379156068 -0.09832891822 0.6993165612 0.7129617333 -0.4992358088 0.4918845594
-0.0391856581 -0.1043126658 0.7028111219 0.7364356518 -0.4746783972 0.4815317094
0.001814707299 -0.1376725882 0.6370577812 0.1360471845 -0.6090381742 0.7716518044
0.008916056715 -0.1389635652 0.6376217008 0.03032080457 -0.6401071548 0.745272994
-0.003921657335 -0.1378907859 0.6377515197 0.2094215006 -0.5742236972 0.7882053256
0.01489763707 -0.1397475153 0.6371538043 -0.05716359243 -0.6684899926 0.7284745574
-0.03260859102 -0.1287059337 0.6698853374 0.7079724669 -0.4773823023 0.5190826058
-0.03378297016 -0.1732008606 0.7344061136 -0.6876448393 -0.4214387834 0.5829686522
-0.03647058085 -0.1739430279 0.7291041017 -0.7250859141 -0.3857257962 0.5608779788
-0.03744192049 -0.1803563088 0.7198475003 -0.7746608257 -0.3531621695 0.5212345719
-0.04290886596 -0.1292121857 0.6860685945 0.7804070711 -0.423350662 0.4600615799
-0.04326571152 -0.1329674274 0.6815871 0.7826533914 -0.419942528 0.4594116807
-0.04250398278 -0.1409157515 0.6777806878 0.7789494991 -0.4118014574 0.4728382826
-0.04538779333 -0.1445252001 0.6806836128 0.7809675932 -0.4131531715 0.4683724344
-0.03395469114 -0.1153342947 0.6839587688 0.7195893526 -0.4748784602 0.5064826608
-0.03887377679 -0.1169920191 0.6925765872 0.7531753182 -0.451580584 0.4777303636
-0.03797081113 -0.1205520704 0.6851245165 0.7483083606 -0.4518471062 0.4834044278
-0.04233918712 -0.1227248684 0.6914305687 0.77531147 -0.4308509231 0.4616438746
-0.03593115136 -0.1271256357 0.6777111292 0.7381622195 -0.4569128752 0.4939343333
-0.03941386566 -0.1270187646 0.681671679 0.766564846 -0.4366078079 0.4705891311
-0.04132655263 -0.1353122592 0.676422596 0.7696903944 -0.426815331 0.4730049074
-0.03684572503 -0.1327181458 0.6736372709 0.7592044473 -0.4324451089 0.4847830236
-0.006329767872 -0.1236372516 0.6515576243 0.2891654372 -0.6384598017 0.7128080726
-0.0161044132 -0.1305872798 0.6512551904 0.4338662028 -0.5974410176 0.6735992432
-0.01167265791 -0.1268397719 0.6519806385 0.3796132803 -0.6126947999 0.6874223948
-0.0143214101 -0.1218530461 0.6587048769 0.4437191486 -0.6064681411 0.649435401
-0.007087032311 -0.1193430126 0.6555746198 0.3037597835 -0.6371142864 0.7052659988
-0.005563385319 -0.1116460711 0.6626620293 0.2730102837 -0.6456485391 0.712924242
0.001060897368 -0.1115927249 0.6615246534 0.1870695353 -0.6514213681 0.7316048145
-0.001299851225 -0.1156276315 0.6570872664 0.2024741322 -0.6529061794 0.7267538905
-0.001054048073 -0.1073742062 0.6648162603 0.2194127142 -0.6462937593 0.7286083698
-0.03150962293 -0.1203533411 0.6758912206 0.6880711317 -0.4960274994 0.5294334292
-0.02695587277 -0.1723248512 0.7442079782 -0.5810644627 -0.5030272007 0.6343675256
-0.02552056126 -0.1766175181 0.7396195531 -0.6042824388 -0.4765148759 0.6368758082
0.03848425299 -0.2156599015 0.719766438 0.4599421322 -0.5727573633 0.6587989926
0.04498799145 -0.213082388 0.7180129886 0.5575906634 -0.5356808901 0.6298388243
0.03180050477 -0.2174813598 0.7224679589 0.3797528744 -0.5962461829 0.6956298351
0.01754103787 -0.2123117447 0.7296127677 0.1604322642 -0.596554637 0.7808956504
0.02286701277 -0.2125521004 0.7278558612 0.2502451837 -0.5943815708 0.7560718656
0.01843450032 -0.2067788988 0.7333555222 0.174170211 -0.5776805878 0.7900293469
0.02707316168 -0.2089516073 0.7291824222 0.322371155 -0.5766425729 0.744289577
0.0247395765 -0.2053675503 0.7344984412 0.273253113 -0.5741462111 0.771602273
0.02011593059 -0.2176843882 0.729580164 0.1854548156 -0.6048425436 0.7655035257
0.02752494439 -0.2169413567 0.7259504795 0.3227714002 -0.57665205 0.7286146283
0.03149117902 -0.2117631137 0.7259802818 0.4012701809 -0.5651557446 0.7179790139
-0.001948382705 -0.2090496868 0.7303799987 -0.225730747 -0.5550605655 0.7788497806
-0.02878180705 -0.212394923 0.7145189643 -0.6333774924 -0.4085107148 0.6468607187
-0.01893491857 -0.2136457562 0.7219028473 -0.4878410995 -0.4851269424 0.724963963
-0.01394201815 -0.2118121237 0.7259055376 -0.4501015544 -0.5007932782 0.73891747
-0.008502127603 -0.2083345652 0.7304559946 -0.3718867302 -0.5201198459 0.7640486956
-0.007119119633 -0.2143167108 0.7284168005 -0.3302610517 -0.5417081714 0.771568954
-0.006392986514 -0.2206370533 0.7248161435 -0.292149961 -0.5649946928 0.7673469782
-0.01412816532 -0.2180881202 0.7214874625 -0.421279341 -0.5108739734 0.7384471297
-0.02505463175 -0.211437583 0.7192746997 -0.5876694918 -0.4197083712 0.6898549795
-0.02450478636 -0.2055663317 0.7189480662 -0.5993515849 -0.4249252677 0.6756628752
-0.01805748418 -0.2067376673 0.7238952518 -0.5299495459 -0.462287575 0.7099526525
-0.01014541369 -0.202086255 0.7325233817 -0.3926133215 -0.5204163194 0.7463488579
-0.006063143723 -0.2010434568 0.7376670837 -0.3271456957 -0.563608408 0.7519481778
-0.002332248492 -0.2043328732 0.7348671556 -0.2532947958 -0.5504375696 0.7906671762
0.003081656061 -0.2025027126 0.7374114394 -0.1600285321 -0.5656074286 0.8036913872
-0.005875085481 -0.1958511174 0.7401086092 -0.3275507689 -0.5767726302 0.7471251488
0.006490890868 -0.2092676759 0.7327578664 -0.06820962578 -0.5790435672 0.80906564
0.0130137261 -0.2096426934 0.7323184609 0.07668254524 -0.5887888074 0.8006735444
0.03310788795 -0.2058129162 0.7296916842 0.4135473967 -0.5777224898 0.7026702762
0.03893612698 -0.2082915306 0.7269724607 0.4803083837 -0.5736541152 0.6613363624
0.04159341753 -0.2030208409 0.7285256386 0.5251779556 -0.5474051833 0.6510952115
0.043540705 -0.2026338726 0.7219050527 0.5788666606 -0.5032020211 0.6266736388
0.0347597748 -0.2007879913 0.7331333756 0.4326765537 -0.5759015679 0.6935219765
0.04544926807 -0.1970980763 0.7270214558 0.6214075685 -0.4792969823 0.6106484532
-0.0186169222 -0.1864266396 0.7386024594 -0.5435293317 -0.5221113563 0.655454576
-0.01339379977 -0.1853272021 0.7429439425 -0.4561465979 -0.549693346 0.692882359
0.05551151559 -0.1008905619 0.6897080541 -0.4570819438 -0.4824675024 0.7454624772
0.05185949057 -0.1028174534 0.6842342019 -0.5052627921 -0.4856146872 0.7104041576
0.05119834095 -0.09681684524 0.68753016 -0.4848747551 -0.5200795531 0.7026724219
0.02890439704 -0.1190101579 0.6555889845 -0.2764182687 -0.6285583973 0.723790288
0.01217386127 -0.1045159698 0.6650223732 0.03014232218 -0.6437058449 0.7611677051
0.005506523419 -0.1069892794 0.6645565033 0.127833724 -0.6471989751 0.7505037785
0.005570835434 -0.101885587 0.668941021 0.1257407069 -0.6379116774 0.7584217191
0.008895161562 -0.10996411 0.6618643999 0.07080435008 -0.6535612345 0.7489408255
-0.0005702940398 -0.1025026888 0.6690086126 0.2175971717 -0.6367589235 0.737254262
0.00247026328 -0.09540179372 0.6742786765 0.1879349202 -0.6237217784 0.7548441291
0.01383110695 -0.1001258865 0.6677615047 0.02521791309 -0.6409983635 0.7627208829
0.03938699514 -0.1289134622 0.6534839869 -0.4564602673 -0.5824892521 0.6721771359
0.04583494738 -0.1246583015 0.6622078419 -0.4520294964 -0.6081500649 0.6514772773
0.06073215976 -0.1289269179 0.6551445127 0.05350487679 -0.452611804 0.8377022743
0.05530815199 -0.1355121434 0.6644013524 -0.4426701963 -0.5997762084 0.6360773444
0.05938379467 -0.1432290375 0.6636039615 -0.282910943 -0.6644265056 0.6487625837
0.06076885387 -0.1382815391 0.6679679751 -0.4021777213 -0.6428906322 0.6044240594
0.05292534828 -0.1323104054 0.6526344419 -0.2349220961 -0.4895417094 0.7624974251
0.06087557599 -0.1380994916 0.6535643339 -0.1327673048 -0.5048354268 0.8017503619
0.06363409013 -0.1341090947 0.6742215753 -0.377212882 -0.6584842801 0.602037549
0.07478625327 -0.1393526345 0.6577771306 0.3038596511 -0.5928179026 0.6692638397
0.06773988158 -0.1465188414 0.6600382924 0.07906251401 -0.6728394032 0.6783512235
0.07853535563 -0.1342182159 0.6560195088 0.4608390927 -0.535962522 0.678037703
0.07529097795 -0.1327678859 0.6639621854 0.2789464295 -0.5892156363 0.6772987247
0.06668467075 -0.1412969828 0.6658321619 -0.03384917974 -0.6743690968 0.7106629014
0.07079386711 -0.1321713924 0.6719329953 0.0827883333 -0.6512348652 0.6815366149
0.07088523358 -0.1376170665 0.6642510891 0.1219461039 -0.6311326623 0.6956397295
0.06648929417 -0.1434991956 0.6731341481 0.02227487974 -0.6051689982 0.6496322751
0.06657679379 -0.1488437355 0.6693059802 0.07916108519 -0.5617709756 0.6387201548
0.07129559666 -0.1618013382 0.6836618781 0.5638515949 -0.1996307224 0.4008207917
0.06851587445 -0.1462667435 0.6815434694 0.2041849643 -0.4697440565 0.5510240197
0.06792964041 -0.1539710164 0.6722887158 0.2313721329 -0.4477976263 0.5687175393
0.07327160984 -0.1728046238 0.6851996779 0.8191540241 -0.007901503704 0.2940966785
0.06931857765 -0.1587455124 0.6757437587 0.3830501139 -0.3343017995 0.4974707067
0.06559165567 -0.1541528106 0.6656966209 0.07309981436 -0.5877553821 0.6235006452
0.07090085 -0.167789638 0.6786847115 0.5961677432 -0.1817006022 0.3938835859
0.06393942237 -0.1923259199 0.7054595947 0.8534798622 -0.3338758349 0.3998629153
0.06211319193 -0.1843935698 0.7097852826 0.8355093598 -0.341121912 0.4277656376
0.03193844855 -0.1392752826 0.6413639784 -0.3388900161 -0.6403744817 0.6698555946
0.01700749807 -0.1229749322 0.6492558122 -0.08550621569 -0.6548008323 0.7490839958
0.0223542396 -0.1224771068 0.6507900357 -0.1736498326 -0.6482022405 0.7380160689
-0.01033631992 -0.08789999783 0.6862753034 0.4093597829 -0.6168293953 0.6646777391
-0.004603500478 -0.08469180018 0.6868437529 0.3108001649 -0.6610607505 0.6777322888
-0.01345913019 -0.09143106639 0.6840724945 0.4504611194 -0.6005464196 0.6602897048
-0.004836624023 -0.08929526806 0.6817592978 0.3078922927 -0.6344455481 0.7080286741
0.03524633497 -0.09724342078 0.6755110621 -0.3510105014 -0.5834110975 0.7313081622
0.03170904517 -0.1011541933 0.6718685627 -0.2923811078 -0.5992010236 0.7418506145
0.04491077363 -0.09447603673 0.6835385561 -0.4164145887 -0.5553795099 0.7196704149
0.04704318568 -0.0992994681 0.6821843386 -0.4836474359 -0.5337249637 0.6910450459
0.04192902893 -0.09739346802 0.6786150932 -0.4493779838 -0.5614717007 0.6942886114
0.0379034169 -0.09292168915 0.6807920933 -0.3861164153 -0.5802251697 0.7147121429
0.03173038736 -0.09017576277 0.680647254 -0.2886062562 -0.6127117276 0.7322250009
0.0407765694 -0.08807364851 0.6865387559 -0.3907986879 -0.6023432612 0.6943840384
-0.02743149363 -0.100530453 0.6883567572 0.6626852751 -0.5111186504 0.5430629849
-0.03498969972 -0.1044721454 0.6965222359 0.7289306521 -0.4829224944 0.4850213826
-0.02836574055 -0.09593445808 0.693842411 0.6761656404 -0.5334473252 0.5070799589
-0.02042831667 -0.1225649267 0.6622397304 0.5344004631 -0.5832339525 0.6107715368
-0.02539413981 -0.1163567603 0.6717567444 0.6113692522 -0.5357385278 0.5818980932
-0.03162733838 -0.1851582825 0.7290631533 -0.6969400644 -0.4138095677 0.5841459036
-0.0346496366 -0.1798861027 0.7267340422 -0.7332869768 -0.3965850174 0.5503099561
-0.03201770782 -0.1789340973 0.7323827744 -0.6885203719 -0.4395425618 0.5760051012
-0.0272521209 -0.1845854521 0.7329195738 -0.6466238499 -0.4646803737 0.602324605
-0.02641626634 -0.191157043 0.7298361063 -0.6342667937 -0.4395548105 0.6329923868
-0.02280605771 -0.1817733049 0.7396201491 -0.5904206038 -0.4945523441 0.6346756816
-0.02148129232 -0.1178493947 0.6660615802 0.5383730531 -0.5809096098 0.6096017361
-0.01648094505 -0.125907436 0.6549523473 0.4615221024 -0.5941605568 0.6564036012
-0.02095300704 -0.1329750866 0.6517105699 0.5369676948 -0.5389513373 0.6437977552
-0.02190339565 -0.1045959294 0.679969728 0.5557078123 -0.5479594469 0.6191401482
-0.02708214708 -0.1077175885 0.6818199754 0.6626067758 -0.4983528852 0.5584923029
-0.02109332196 -0.1093340442 0.6748281717 0.547323823 -0.554615438 0.6215754151
-0.02623759396 -0.112897113 0.6761360168 0.6379252672 -0.5166587234 0.5687351823
-0.01580880769 -0.1015898734 0.6765660048 0.4560680687 -0.5886032581 0.6650082469
-0.02298807539 -0.09835016727 0.6852086782 0.5769212842 -0.5536840558 0.599776566
0.06373608857 -0.1867610663 0.7034403086 0.8517925143 -0.3307273984 0.405221343
0.06317701936 -0.2006006837 0.7046294808 0.8451219201 -0.35046646 0.4036059678
0.002077261917 -0.2203518152 0.7259055376 -0.1448893994 -0.6045680046 0.7799007893
0.004617436323 -0.2143373191 0.7292656302 -0.09802681953 -0.5978229046 0.7940638065
-0.00111432781 -0.2154096216 0.7273956537 -0.226435557 -0.5714143515 0.7799323797
0.0114566721 -0.2152112126 0.7337827682 0.01462130621 -0.6175318956 0.7810633183
0.01099924371 -0.2038702965 0.7368184924 0.01728261262 -0.5753228664 0.8089196682
0.00723188743 -0.1986633539 0.7415037751 -0.07173333317 -0.5938629508 0.7953172326
-0.00590131525 -0.1901126802 0.7443976998 -0.3408432603 -0.5741520524 0.7432858348
-0.02048983611 -0.1960479319 0.7312280536 -0.5556517839 -0.4675947428 0.6844698191
-0.01704181358 -0.2010605186 0.7291435003 -0.5229733586 -0.4703902304 0.7083130479
-0.02261675522 -0.1885885298 0.7331808209 -0.5926584601 -0.489433974 0.6372774243
-0.01777769439 -0.1916608512 0.7359120846 -0.5320332646 -0.5108504295 0.6739631891
-0.01240346488 -0.1923964024 0.7400689125 -0.4563495517 -0.5414824486 0.7058376074
-0.01158714388 -0.1975816935 0.7365347743 -0.43481794 -0.5265855193 0.7284264565
0.01410402637 -0.1171819121 0.6538903117 -0.02495617047 -0.656265974 0.752625227
0.009951283224 -0.1209976301 0.6508689523 0.03882315755 -0.6557805538 0.7471659184
0.009351766668 -0.1148058623 0.6563514471 0.05220489204 -0.6595892906 0.7464492321
0.01479687169 -0.1128910407 0.6583804488 -0.02774099261 -0.6566028595 0.753265202
0.03029835597 -0.1143840998 0.6614595056 -0.3002167046 -0.6068574786 0.7298218608
0.02280099504 -0.1160922423 0.6565244794 -0.1756642908 -0.6361761689 0.7485214472
0.00866807159 -0.09692830592 0.672100842 0.08059379458 -0.6284358501 0.7698861361
0.0247546155 -0.09781469405 0.6720082164 -0.1667786688 -0.6188316345 0.7652031183
0.01754436456 -0.09750699997 0.6717781425 -0.05979943275 -0.6240454912 0.7703945041
0.02041259594 -0.1019937098 0.6693921685 -0.1054954678 -0.625463903 0.7578036189
0.05033500493 -0.1287184358 0.6638506055 -0.5152576566 -0.5682448149 0.6372749209
0.05139734969 -0.1246258989 0.667483151 -0.5187300444 -0.6005624533 0.601164639
0.0581362769 -0.1309793741 0.6699057817 -0.5573317409 -0.588290453 0.5813246369
0.04742747173 -0.1192291304 0.6685416102 -0.5216380954 -0.5610287786 0.6364489198
0.06207928061 -0.1289182156 0.6761199832 -0.4380319715 -0.638823688 0.5878864527
0.05215675756 -0.1178470775 0.6728836298 -0.571837306 -0.5468184948 0.605832994
0.0620954372 -0.1240401939 0.6795516014 -0.5039579868 -0.6346318722 0.582095921
0.05745595321 -0.1198468134 0.6771353483 -0.6009864807 -0.5191061497 0.5957719088
0.05001208186 -0.1359678656 0.6496434212 -0.3074276149 -0.5038236976 0.7308484912
0.03822403774 -0.1413983405 0.6384276748 -0.4046961069 -0.6351335645 0.6450698972
0.0434066318 -0.1395145953 0.6478250623 -0.5315255523 -0.5209998488 0.6642882824
0.04370642453 -0.1344094425 0.6527274251 -0.5010396838 -0.5484414101 0.6666130424
0.0465772301 -0.1330535859 0.6568920016 -0.505551219 -0.5468845367 0.6659078002
0.06167104468 -0.1518401057 0.6602472663 -0.2026971728 -0.6804366112 0.6891915798
0.05569140241 -0.1446278691 0.6589491367 -0.3893484175 -0.5930779576 0.6946272254
0.05095990747 -0.1347186863 0.6606522799 -0.4712138176 -0.5622082949 0.6709947586
0.06749463826 -0.1585743129 0.687568903 0.4801001251 -0.3820032477 0.4768872559
0.0660399273 -0.1629764885 0.6779929996 0.3848579824 -0.4511391222 0.5077396035
0.06795051694 -0.1668642461 0.6898277402 0.6665508151 -0.2786498964 0.412484169
0.06609968841 -0.1353542954 0.6804921627 -0.05566254631 -0.6801242828 0.6618061066
0.06653832644 -0.1410690993 0.6828391552 0.08710898459 -0.5997853279 0.6126404405
0.06548843533 -0.1489012092 0.6755709052 0.09376225621 -0.6103563309 0.6085571051
0.06645402312 -0.1567565352 0.6811000109 0.3315275908 -0.4734191298 0.5270724893
0.06481989473 -0.1603087187 0.66907686 0.1641529202 -0.5932445526 0.5805401802
0.06728765368 -0.1718611866 0.6841669679 0.6421766877 -0.3085227013 0.4181082249
0.06840115041 -0.1825555712 0.684250176 0.7729609013 -0.2733084261 0.3639530241
0.06819486618 -0.1764638424 0.6892780662 0.812402308 -0.2099018097 0.3596354425
0.0675354898 -0.1768281609 0.6810118556 0.631221056 -0.3446896672 0.4150844812
0.06483001262 -0.1797942817 0.7064349055 0.8588277102 -0.3142879605 0.4035491943
0.06351208687 -0.1785366982 0.7141736746 0.8670418262 -0.2983909845 0.3988212943
0.06148993969 -0.1801593751 0.7194365859 0.8152486682 -0.3549139798 0.4488628805
0.02686754242 -0.1416048855 0.6322686076 -0.2315827757 -0.6916395426 0.6834559441
0.03404802829 -0.1331031471 0.6450169086 -0.3637402952 -0.6547583938 0.6617411375
0.02917594276 -0.1299657226 0.6452618837 -0.291584909 -0.6548596025 0.6938933134
0.03470117599 -0.1411627531 0.6346184015 -0.3413661718 -0.6887924075 0.6394017935
0.02153633162 -0.1404499263 0.6311454177 -0.1220871136 -0.6912192106 0.6995797753
0.01207335666 -0.125264585 0.6475994587 -0.002222072333 -0.6530516744 0.7530242205
0.005225968082 -0.1249278262 0.6478844285 0.1194795966 -0.6445211172 0.7547261715
0.000688695698 -0.1327520311 0.642439127 0.1785116941 -0.6199185252 0.758690536
-0.03072100133 -0.1099398434 0.6860131621 0.6907477379 -0.4847101867 0.5330272913
-0.03233775869 -0.1016813442 0.6929891109 0.7150418758 -0.491097331 0.4971758723
-0.03654335439 -0.1115311161 0.6934556365 0.7420207262 -0.4654211104 0.4823057652
-0.0331373848 -0.1074992269 0.6911943555 0.7155334949 -0.4794996977 0.5045822263
-0.02101533674 -0.1279008687 0.6579844356 0.5414252877 -0.5622692704 0.6137185097
-0.02635772713 -0.1281640977 0.6619517803 0.6264076829 -0.5283244848 0.5669487715
-0.02943089977 -0.1339493692 0.6595422029 0.6772297025 -0.4905657768 0.5477012992
0.04815980047 -0.2040900737 0.7179408073 0.6399149299 -0.4892077744 0.5902224779
0.04052801058 -0.2101689726 0.7209908366 0.5329693556 -0.5317307711 0.6503928304
0.05002245679 -0.2106384039 0.7149463296 0.6247997284 -0.5269462466 0.5711414814
0.05719098076 -0.1975237727 0.7130941153 0.7821084857 -0.3935281336 0.4818095267
0.06482154131 -0.1967614293 0.6985071301 0.8387243152 -0.35461694 0.4118903577
0.01342653017 -0.2173183262 0.727370441 0.06243965402 -0.6151158214 0.7808429003
0.01814216748 -0.2211291492 0.7237449884 0.140598461 -0.634323895 0.7437071204
0.01916950196 -0.1110449359 0.6612663269 -0.109381035 -0.6432586312 0.7514272332
0.01962294616 -0.105301857 0.6648622155 -0.1040636972 -0.6304572225 0.7641142607
0.03009836376 -0.1074070707 0.6655288339 -0.2802249193 -0.6016082168 0.7449071407
0.02691712417 -0.1036130711 0.6680613756 -0.2184760273 -0.616381824 0.7557487488
0.024567388 -0.1089604497 0.6625050306 -0.2012849748 -0.6222653985 0.7563275695
0.0475047119 -0.1444961131 0.6474411488 -0.5504466295 -0.4836583138 0.6791951656
0.04922164604 -0.1401695162 0.6530329585 -0.508228302 -0.5014950037 0.6941906214
0.06847366691 -0.15273197 0.6859537959 0.3559753895 -0.4497414827 0.519895494
0.07066075504 -0.1716724336 0.690867424 0.7845010757 -0.2115752995 0.3719540834
0.07236604393 -0.1665516198 0.6863476634 0.6985644698 -0.1086970493 0.3432562947
0.06909646094 -0.1859300137 0.6902755499 0.9126969576 -0.2189010084 0.3334006965
0.07288648933 -0.1812101007 0.6903820038 0.9488425255 -0.03551896289 0.2883557081
0.06830682606 -0.1796367615 0.6951980591 0.9041085839 -0.2131318152 0.3532879055
0.06703004986 -0.186668843 0.6956704855 0.8549963832 -0.3313676417 0.3985195756
0.0662381798 -0.1824547946 0.6995786428 0.8586556911 -0.3209275901 0.3991094232
0.02602894045 -0.1403968334 0.6381793022 -0.2408762723 -0.6631764174 0.6922106147
0.01263698749 -0.1341059357 0.6404250264 -0.01204833295 -0.6708527207 0.7354348898
0.02231754921 -0.1327113509 0.6419759393 -0.1653204411 -0.6920804381 0.698266685
0.01718662679 -0.1312025338 0.6425688267 -0.07866464555 -0.6844290495 0.7224405408
0.02348241024 -0.1278441846 0.6461297274 -0.1846685112 -0.6662569642 0.72003299
0.01807402261 -0.1354407221 0.6376979947 -0.08254860342 -0.6933510303 0.7124035954
0.009717953391 -0.1299926192 0.6436027288 0.0302795358 -0.6503964067 0.7546397448
0.05230834708 -0.1980408281 0.7163892388 0.720487237 -0.4221058786 0.5449671745
0.05784225836 -0.2022019178 0.7089326978 0.7985181808 -0.3896571696 0.453875035
0.04924254492 -0.1990956068 0.7219894528 0.675519228 -0.4553776383 0.5786960125
0.0535322763 -0.2033881545 0.714158237 0.7148373723 -0.4403068423 0.5427239537
0.01889845729 -0.09294613451 0.6747846603 -0.07212457061 -0.6286837459 0.7716134787
0.008299236186 -0.09071438015 0.6774892211 0.1001686603 -0.6473528743 0.7499744296
0.01336761098 -0.0936222747 0.6738896966 0.009040028788 -0.6299981475 0.7745199203
0.03588169068 -0.08341332525 0.6876376867 -0.3883526623 -0.6029185653 0.6963348389
0.02617186494 -0.08314431459 0.6847191453 -0.1970144063 -0.6424654722 0.7370839119
0.0316073671 -0.07937608659 0.6885129213 -0.2849916518 -0.6470620036 0.700425148
0.001297686948 -0.0880042538 0.6807763577 0.2018311918 -0.6490097642 0.7309984565
0.004129718058 -0.08305217326 0.6836876273 0.1537639499 -0.6816822886 0.7144366503
-0.006387264002 -0.08118148148 0.6906483173 0.3443983197 -0.6740335226 0.6505237222
-0.0003446913324 -0.0808846727 0.6878114343 0.2325890362 -0.6856417656 0.6816452742
0.01401672605 -0.08716345578 0.6795307398 0.01693965867 -0.6659855843 0.7440537214
0.009966609068 -0.08289264143 0.6832157373 0.0704234615 -0.6842455268 0.7219790816
0.007021560799 -0.07896090299 0.687009275 0.116979219 -0.710573256 0.6921603084
0.01422920637 -0.07848099619 0.6865307093 0.01419737283 -0.7119590044 0.7006178498
0.01914046705 -0.08355695009 0.6830455661 -0.07573626935 -0.663775146 0.7380028367
0.02041503415 -0.07836456597 0.6868739128 -0.07851709425 -0.7043318152 0.7018404007
0.02223655581 -0.08796239644 0.6796850562 -0.1231368557 -0.6388664842 0.7568461895
