# .PCD v0.7 - Point Cloud Data file format
VERSION 0.7
FIELDS x y z normal_x normal_y normal_z
SIZE 4 4 4 4 4 4
TYPE F F F F F F
COUNT 1 1 1 1 1 1
WIDTH 512
HEIGHT 1
VIEWPOINT 0 0 0 1 0 0 0
POINTS 512
DATA ascii
-0.1093975753 -0.1138005033 0.5389206409 -0.8556378484 -0.3450715542 0.3833001852
-0.1098513827 -0.1190190613 0.5377395749 -0.8456371427 -0.3558752239 0.396687597
-0.1107667312 -0.107305333 0.5390276313 -0.8699032664 -0.3296086192 0.3644474149
-0.08705613762 -0.06115195528 0.4995231628 0.5278638601 -0.5775356293 0.6221098304
-0.02854053117 -0.02551722527 0.5232306123 -0.3853475451 -0.6465702653 0.6555044055
-0.1044521779 -0.1237089336 0.5472892523 -0.8230400085 -0.3698276877 0.429631114
-0.1021008417 -0.1287371516 0.5495791435 -0.7896391749 -0.3952209353 0.4670177698
-0.1075752303 -0.1235448346 0.5403493643 -0.8345830441 -0.3651698828 0.4113951623
-0.1024290696 -0.1326922327 0.545930922 -0.7713819742 -0.4108318388 0.4844128191
-0.1016899571 -0.09250793606 0.5792879462 -0.7432740927 -0.4587956071 0.4858844578
-0.07874212414 -0.06160152704 0.4908690453 0.451220274 -0.5727044344 0.684299171
-0.08193775266 -0.05816837028 0.4965955913 0.4964892864 -0.5918341875 0.6346870065
-0.06905790418 -0.06050328165 0.4879244268 0.2832506299 -0.6314802766 0.7203435302
-0.08913110942 -0.1414229572 0.555239439 -0.617231071 -0.4636187255 0.6268134117
-0.09235002846 -0.1379337907 0.5526836514 -0.6700673103 -0.4397674203 0.581780076
-0.09822703898 -0.1357569993 0.549022615 -0.7252706885 -0.4273384809 0.5296771526
-0.09154158086 -0.09419105947 0.5952472687 -0.6216976643 -0.5321494341 0.5733523965
-0.08707502484 -0.08830581605 0.6059831381 -0.5146453977 -0.5652056932 0.6366738677
-0.001401843503 -0.02052760869 0.5499483347 -0.4344850779 -0.5518860221 0.6857813001
0.005179431755 -0.02660063654 0.548400104 -0.2946918607 -0.4796516895 0.8165591359
-0.07204939425 -0.05703485012 0.4912790358 0.3449142575 -0.6243979931 0.6981807351
-0.0576733835 -0.06001890451 0.4848102033 0.09130173922 -0.6383305192 0.7577802539
-0.05989326164 -0.05657251924 0.4886608422 0.1338000149 -0.6460957527 0.7419561744
-0.03441968188 -0.02339669503 0.5224298239 -0.2940737009 -0.6718574166 0.679754734
-0.03249029815 -0.0276635848 0.5185911059 -0.32741189 -0.6593647003 0.673679471
-0.1013755947 -0.1029182523 0.5713805556 -0.798088789 -0.4261692464 0.4253154695
-0.102265887 -0.09637931734 0.5748416781 -0.7883443832 -0.4279103875 0.4417490661
-0.09909836203 -0.09930752963 0.5779893994 -0.7305403948 -0.4784127176 0.4872604907
-0.02794765122 -0.03282266483 0.5174435973 -0.4089699984 -0.6283422709 0.6534922123
-0.01011713874 -0.06449049711 0.5002932549 -0.4897482097 -0.5542795062 0.6514419913
0.003959893249 -0.06181849539 0.5084828734 -0.3418395519 -0.6013237238 0.6656053066
-0.0020643319 -0.06374470145 0.5036326647 -0.3722800016 -0.5706731081 0.6884284616
-0.09921383113 -0.09054686129 0.5848634243 -0.70599401 -0.4836972654 0.514515698
-0.09451390058 -0.08933079988 0.592754662 -0.6587017179 -0.5149345398 0.5479692221
-0.09755603969 -0.09563070536 0.5833392143 -0.7085984945 -0.480276823 0.5166200399
-0.09346009046 -0.1017495394 0.584349215 -0.6795900464 -0.5029890537 0.533480227
-0.0935947299 -0.09763195366 0.5882490277 -0.6677420735 -0.5093633533 0.5414959788
-0.09468298405 -0.06794324517 0.5034757257 0.5490633845 -0.5578953028 0.6218012571
-0.08915647864 -0.06611935794 0.4978209138 0.5116726756 -0.57153368 0.6402589679
-0.08543089777 -0.06385301799 0.494713217 0.4900607467 -0.5794862509 0.6508682966
-0.09447740018 -0.06061888486 0.5073368549 0.5764900446 -0.5548853874 0.5992267132
-0.1052017882 -0.1141997278 0.5430817604 -0.8491463661 -0.3521541059 0.3922030032
-0.1080119833 -0.09942939132 0.5560729504 -0.860639751 -0.3477712572 0.3710192144
-0.007756149396 -0.02039552294 0.5468215346 -0.5773802996 -0.5307229757 0.6199892759
-0.002573442413 -0.0228627529 0.543708086 -0.4828257263 -0.5485631824 0.664178133
-0.01043664664 -0.02198605798 0.5418515801 -0.5523035526 -0.5555408001 0.6184534431
-0.09472505748 -0.02397353575 0.545320034 0.577360034 -0.5833941102 0.5712146163
-0.09097056836 -0.02233418077 0.541177392 0.5682107806 -0.5927712917 0.5706449151
-0.08991151303 -0.02627900243 0.5349732041 0.5912263989 -0.5708935261 0.5691139698
-0.08736664057 -0.01659685187 0.5424088836 0.530934751 -0.6243534684 0.5719988346
-0.09250862896 -0.017796956 0.5469791889 0.5626962781 -0.5960655212 0.5725092888
-0.0190498624 -0.02830349281 0.5280117989 -0.5351891518 -0.5822731256 0.6114863157
-0.02591321804 -0.02259395458 0.5281246305 -0.4218286276 -0.6365038753 0.6414556503
-0.09833566099 -0.02776595391 0.5477262735 0.6016442776 -0.5683608055 0.5609964728
-0.1012349725 -0.03555580601 0.5414249301 0.6186491847 -0.5509541631 0.559564054
-0.1018380746 -0.02640837431 0.5510888696 0.5971745849 -0.5706063509 0.5636353493
-0.03001195751 -0.09865257889 0.6063907743 0.2731511891 -0.6520811915 0.7060139179
-0.03243354335 -0.1033156812 0.603158772 0.2768963277 -0.6556825042 0.7013723254
-0.07100787014 -0.05328321829 0.4945267737 0.3303255737 -0.6347828507 0.6954225898
0.0126857413 -0.06348969042 0.5209355354 -0.26558882 -0.6345773935 0.6697851419
0.01864160784 -0.06081975996 0.5206924677 -0.1721070856 -0.637883544 0.6897059083
0.02051335759 -0.07015762478 0.514289856 -0.06552814692 -0.6026883125 0.7928751111
0.0251920782 -0.06562820077 0.5153198242 -0.01244409662 -0.6122865081 0.7882446051
-0.09545874596 -0.1065338105 0.5769613385 -0.7045388222 -0.4908379316 0.5065121055
-0.09217301011 -0.1093068421 0.5803394318 -0.6638308764 -0.5168605447 0.5390760899
-0.03724629432 -0.03091829829 0.5140314698 -0.2528276145 -0.6694814563 0.6939445734
-0.04048366472 -0.02721119858 0.5164920092 -0.1920201629 -0.6833195686 0.7000434399
-0.03190105408 -0.03286362439 0.5137774944 -0.3472345471 -0.6489493847 0.6751198173
-0.02967334352 -0.03774408251 0.509062767 -0.3986977935 -0.6335943937 0.6629759073
-0.02353073284 -0.03159350157 0.5212904215 -0.4804880023 -0.6090436578 0.6294069886
-0.02280640788 -0.03577440605 0.5174751878 -0.4807397723 -0.6054096818 0.6318741441
-0.05325642228 -0.02906581573 0.513502121 0.04104822502 -0.6900977492 0.719745934
-0.04722557217 -0.02979194373 0.5127363205 -0.06374102831 -0.6893749237 0.7189742327
-0.06140509993 -0.03106086887 0.5132651329 0.1770735085 -0.6796133518 0.7060126662
0.004254462663 -0.07733871788 0.5132166743 -0.2568470538 -0.7194203734 0.6382427812
0.009963274002 -0.07205384225 0.5125109553 -0.1770611107 -0.6785086989 0.6968919635
0.01510743983 -0.06816511601 0.5108572841 -0.1195633486 -0.6195741892 0.7652938962
0.009344570339 -0.06771338731 0.5085479021 -0.2043869197 -0.6536176205 0.7056900263
-0.06463980675 -0.09751436859 0.6103169918 -0.2413973063 -0.6546723247 0.7126398087
-0.05793412775 -0.09702217579 0.6131634712 -0.1402510256 -0.6689035296 0.7285885215
-0.02162121609 -0.09919259697 0.6003343463 0.3827943504 -0.6341503859 0.6706573367
-0.01658221707 -0.1002525315 0.5955832005 0.4411534369 -0.6243457198 0.6411747336
-0.01247629523 -0.1023207605 0.59041816 0.5019583702 -0.6018972993 0.6161634326
-0.01031090505 -0.04236855358 0.523227632 -0.6825011373 -0.5244266987 0.5088772774
-0.01294745132 -0.03811381385 0.524484992 -0.6399651766 -0.5357942581 0.5477156043
-0.01088531688 -0.03611347824 0.5297583938 -0.63377738 -0.5126031637 0.5762324333
-0.006154169329 -0.03652423248 0.5353223085 -0.675794363 -0.4724819362 0.5654445887
-0.002918269485 -0.03483650833 0.5419638753 -0.5244903564 -0.5033031106 0.6824234128
0.01708834432 -0.03138881922 0.5351034403 -0.05353830382 -0.6593145132 0.6894232631
0.003580739954 -0.03741011769 0.5303671956 -0.3967224061 -0.5741328001 0.5958093405
-0.002147630323 -0.03928974643 0.5286245346 -0.5429303646 -0.5390251279 0.5582771301
-0.006924164481 -0.0312772058 0.5385992527 -0.6118127704 -0.497405678 0.6091862917
-0.004381598905 -0.02936270833 0.5440887213 -0.5409001112 -0.4983550906 0.6752952933
-0.05825750902 -0.01076109149 0.530969739 0.100465253 -0.7261310816 0.6754132509
-0.06373244524 -0.008221873082 0.5345784426 0.2101715952 -0.7280611396 0.6486254334
-0.06597700715 -0.01384962443 0.5303753018 0.2584953606 -0.6840230823 0.6804156899
-0.07148610801 -0.01530204806 0.5312516093 0.3442649841 -0.6652560234 0.6592036486
-0.06303180754 -0.09348028153 0.6151123643 -0.2101784497 -0.6511498094 0.727968514
-0.05636103079 -0.09354998171 0.6168577075 -0.1238828897 -0.6685128808 0.7321172953
-0.05774750188 -0.0885239467 0.6198352575 -0.1575359404 -0.6576473713 0.7329471111
-0.05227733031 -0.08852624893 0.6193484664 -0.08626648784 -0.6726500988 0.727119267
-0.06626245379 -0.05022438988 0.4954243302 0.2535680532 -0.6563212872 0.7080482244
0.03199108317 -0.05467670411 0.5213171244 0.1777592599 -0.6283561587 0.7350202799
0.03019101173 -0.06051880866 0.5172221661 0.0504427366 -0.6264027953 0.7748371959
0.02618696168 -0.05832149461 0.5201455355 -0.005912655499 -0.6338467002 0.7239937782
0.01510083489 -0.05744666234 0.5241140723 -0.2397228479 -0.6504149437 0.6310215592
0.004780641757 -0.04031132534 0.5495558381 -0.2836259902 -0.5178857446 0.784709394
0.0001357094006 -0.04104901478 0.5432815552 -0.4634689987 -0.508910358 0.710955739
0.006770615466 -0.03631980345 0.5533874631 -0.1868361682 -0.4951578081 0.8453149199
0.002082730411 -0.02894837037 0.5526423454 -0.2692434788 -0.441141367 0.8514683247
0.000891429605 -0.03494431078 0.5472517014 -0.3852900267 -0.5120976567 0.7485033274
-0.100130938 -0.1264691055 0.5540266037 -0.790132761 -0.3934756517 0.4660170078
-0.07099629939 -0.1454093605 0.564019382 -0.3004470766 -0.5622277856 0.7643477917
-0.08106335253 -0.147983253 0.5611132979 -0.4710333645 -0.5255307555 0.7041245699
-0.09736943245 -0.03484730422 0.5365962386 0.6180301905 -0.5486361384 0.5627482533
-0.0819440484 -0.03724022955 0.5169533491 0.5001721978 -0.5918411016 0.6319876909
-0.08522122353 -0.03544323146 0.5218624473 0.534022212 -0.5700666308 0.6238777041
-0.08035296202 -0.03100023232 0.5216778517 0.4853134453 -0.599799335 0.6359887719
-0.03753817827 -0.0535973832 0.4929942191 -0.2304637879 -0.6464167833 0.7233310342
-0.09197617322 -0.05469595641 0.5117217898 0.5865881443 -0.5557445884 0.5887634158
0.01019919198 -0.06025852263 0.509747684 -0.232565254 -0.6016043425 0.7157684565
0.01969707385 -0.06393493712 0.5114978552 -0.0790084675 -0.6035909057 0.7931361198
-0.001235874486 -0.06681282073 0.5149731636 -0.4335627854 -0.6686438918 0.5933088064
0.0286585521 -0.04351583868 0.5332388878 0.2186326683 -0.6434523463 0.7280196548
0.02605647594 -0.03809932247 0.5340397954 0.1609797776 -0.6650891304 0.7224515676
0.02375771478 -0.03674129769 0.5398480892 0.1392773986 -0.6476367116 0.7450877428
0.03172565624 -0.0463078171 0.5269479156 0.2559477985 -0.6562811136 0.7056975365
0.02755928785 -0.05512436107 0.5156995058 0.0852830112 -0.5967543721 0.7871078253
0.02163338289 -0.05463774875 0.524410665 -0.05330529809 -0.6429992914 0.6552309394
-0.00357047515 -0.04677661136 0.5329602361 -0.6043409705 -0.5133866668 0.5966534615
-0.002754925517 -0.05076574162 0.5292035937 -0.6661004424 -0.5141023397 0.5274629593
-0.007373538334 -0.04481587559 0.5274168253 -0.6458807588 -0.5220790505 0.5470954776
-0.04336416349 -0.0365675576 0.507314682 -0.1462330669 -0.6762473583 0.7188622952
-0.03821670637 -0.03549189493 0.5090329051 -0.2286435366 -0.6689417958 0.7019802332
-0.03172332421 -0.05261158198 0.4967468083 -0.3496291935 -0.6287969351 0.6907241344
-0.09331912547 -0.04437591508 0.522613287 0.5903254151 -0.5538471937 0.5870855451
-0.09165547043 -0.03891389817 0.5247753263 0.5987631083 -0.5533475876 0.5788634419
-0.09722255915 -0.04350120947 0.5281804204 0.6111908555 -0.5453521013 0.5729320645
-0.09839195013 -0.04066866636 0.5341055989 0.6255452633 -0.5424434543 0.560705483
-0.09492027014 -0.03802737966 0.5294998884 0.6151764393 -0.5462201834 0.568320632
-0.09173896909 -0.08923344314 0.5991936922 -0.6074864268 -0.5337571502 0.5866378546
-0.07661379129 -0.1149484888 0.5884014368 -0.4104913175 -0.6331909895 0.6554099321
-0.09003833681 -0.1026543677 0.5901432037 -0.6374936104 -0.5305364728 0.55691576
-0.08440492302 -0.1111022308 0.5853918791 -0.559168458 -0.5737650394 0.5933270454
-0.08547367901 -0.1077451855 0.5894166827 -0.5522239208 -0.5701365471 0.5981798768
-0.09030935168 -0.1076367944 0.5849712491 -0.6384379268 -0.5309152603 0.5552913547
-0.08088117093 -0.1107408628 0.5907382965 -0.4679223299 -0.6092398763 0.6394324303
-0.05753792822 -0.1116343439 0.5987016559 -0.1170440838 -0.684473753 0.7150244713
-0.06413526833 -0.1094555184 0.598359108 -0.2281671017 -0.6670345664 0.705027163
-0.07078600675 -0.1107620001 0.5946343541 -0.3349645436 -0.6490213871 0.6801968813
-0.03852877393 -0.1042811275 0.6045968533 0.2013453543 -0.6745620966 0.7070672512
-0.03627827391 -0.09903545678 0.608505249 0.2199859023 -0.6602655649 0.7173882127
-0.03991083056 -0.1083773077 0.6008440256 0.1819090843 -0.6742759943 0.7105272412
-0.02894562483 -0.1095965058 0.59544909 0.3427552283 -0.650711298 0.674919188
-0.03212583065 -0.1072788388 0.5988850594 0.291331917 -0.6593741775 0.6925534606
-0.02594455332 -0.1047289819 0.597517252 0.3693605661 -0.6417455673 0.6690662503
-0.04653704166 -0.08915860206 0.6188461185 -0.006301218178 -0.6902424097 0.7231451273
-0.04487943649 -0.09442605823 0.6163890958 0.04362934828 -0.6882428527 0.7193799615
-0.0409565568 -0.1013087034 0.6090302467 0.1735738665 -0.6766854525 0.7131770253
-0.03884063289 -0.09532531351 0.6123205423 0.1687981337 -0.6639438272 0.7259449959
0.02160101943 -0.02851848304 0.5369361639 0.03755041584 -0.6896646023 0.7218239307
0.01184335817 -0.03323087096 0.5496296883 -0.2087950706 -0.5055476427 0.8342585564
0.01611912623 -0.03382688016 0.5461684465 -0.2188375294 -0.5377182364 0.8140001297
0.003400460584 -0.02568205073 0.5412234664 -0.3904169202 -0.5606412888 0.7084904909
0.01427042484 -0.02851934917 0.541149199 -0.2717697024 -0.5551038384 0.7849673629
0.004858714063 -0.03304312378 0.5334811807 -0.4019467831 -0.5927194953 0.6283008456
-0.05410848185 -0.01323176827 0.5286281109 0.03054323606 -0.7197971344 0.6911388636
-0.04671208188 -0.01504851226 0.5272533298 -0.07462280244 -0.7092854977 0.6990434527
-0.04328741878 -0.008267784491 0.5344951749 -0.1316644549 -0.7256635427 0.6705231667
-0.03658588603 -0.009861445054 0.5350925922 -0.2338982522 -0.7107842565 0.6604850292
-0.05243514478 -0.006737265736 0.5348424911 0.009774408303 -0.7329164147 0.6775188446
-0.04876188934 -0.01118624862 0.5314638019 -0.0420377627 -0.7326924205 0.6739974618
-0.02227566764 -0.02068042383 0.5320512652 -0.4777555168 -0.6257837415 0.61618644
-0.0270377323 -0.01783570834 0.5323441625 -0.4064749777 -0.6498091221 0.6346932054
-0.01981962286 -0.0175734181 0.5373034477 -0.5199676156 -0.6220415235 0.5846962929
-0.02394127846 -0.01250281557 0.5385711789 -0.4692389965 -0.6482477188 0.5973757505
-0.03246754408 -0.01288537681 0.5336001515 -0.3349359632 -0.6758599281 0.6537212729
-0.02908607759 -0.009940646589 0.5375721455 -0.372194916 -0.6935501695 0.6157205701
-0.03247799724 -0.01830940694 0.528205812 -0.317658484 -0.6741564274 0.6646413803
-0.01646997407 -0.1100217178 0.5841162205 0.5226031542 -0.5899341106 0.6029219627
-0.01001539733 -0.1064194143 0.5843275785 0.5554958582 -0.5837631226 0.5918774009
-0.009910007007 -0.1114151925 0.5787202716 0.5790537 -0.574673295 0.5777286291
-0.06647456437 -0.1149493828 0.5932617188 -0.2813912034 -0.663592875 0.6905853748
-0.05793243647 -0.1192296296 0.5928965807 -0.1514785886 -0.6859974861 0.7077884674
-0.06154628471 -0.1154710129 0.5951912999 -0.2187467963 -0.6769691706 0.7024693489
-0.09434974194 -0.1269155741 0.5566490889 -0.7085543275 -0.4512551725 0.5290814638
-0.08834183216 -0.1309497058 0.5618964434 -0.6156271696 -0.4935989678 0.6047219038
-0.08924028277 -0.1361284256 0.5596120954 -0.6300151944 -0.4787466824 0.6090770364
-0.0840953812 -0.1429503113 0.5620368719 -0.5327851772 -0.5197705626 0.6653401256
-0.07237622887 -0.0295473095 0.5183030367 0.3675328493 -0.6397810578 0.6722556353
-0.05849575251 -0.05014374107 0.4936907291 0.1230660528 -0.6645908356 0.7330412865
-0.06342514604 -0.05347556621 0.4914569259 0.1987515092 -0.6467709541 0.7320892811
-0.04493096471 -0.06091381609 0.4860885441 -0.09275706112 -0.6268779039 0.7694908977
-0.05143114179 -0.05998823419 0.4849698544 -0.005982040428 -0.6377106905 0.7669302225
-0.04886955768 -0.05675040931 0.4889208376 -0.02973575518 -0.6398243308 0.7603875399
-0.05387759209 -0.053363204 0.4905652106 0.04686815664 -0.6539497972 0.7520824671
-0.04298958555 -0.05708455667 0.4891794622 -0.1295415163 -0.639110446 0.7568067312
-0.07729273289 -0.03356298059 0.5171698928 0.44913885 -0.6135051847 0.6484575272
-0.08896200359 -0.05647848919 0.5070284605 0.5581113696 -0.5655919313 0.6069189906
-0.09118413925 -0.06254346669 0.5035114288 0.5493603349 -0.564981699 0.6154773235
-0.07457133383 -0.05109839141 0.4991140664 0.3933964968 -0.6324430704 0.6632004976
-0.07762561738 -0.0548476465 0.4967271388 0.4426227808 -0.6127705574 0.6526824236
-0.03106551245 -0.04495361447 0.504069984 -0.3617932796 -0.6379079223 0.6751304865
-0.02668431215 -0.0429783538 0.5069524646 -0.4372777939 -0.6190779805 0.6514104009
-0.05013391003 -0.02173525095 0.5210362673 -0.02479670569 -0.6907773018 0.7145444751
-0.04879517108 -0.02548950538 0.5169822574 -0.05376974866 -0.6908206344 0.7160059214
-0.04539834335 -0.0195362214 0.523239255 -0.1094422862 -0.6942320466 0.7100619078
-0.05504214764 -0.0182954222 0.5239346027 0.05860043317 -0.7002538443 0.7110025287
-0.04346894473 -0.02341247909 0.5197654366 -0.1500618309 -0.6867416501 0.7094402909
-0.07750380784 -0.01985186711 0.5310846567 0.4186543226 -0.6468547583 0.6360669136
-0.0811367631 -0.02426200733 0.5285711884 0.476511091 -0.6147042513 0.627107501
-0.0821711719 -0.01786398701 0.5356222391 0.508654654 -0.6315611005 0.584784627
-0.08386550844 -0.02280465327 0.5330508947 0.5211609602 -0.6075442433 0.5953370929
-0.003063349519 -0.07201753557 0.5044763088 -0.4616854191 -0.6728178263 0.5765005946
-0.0009857021505 -0.07081118971 0.5112812519 -0.4109640419 -0.6777752638 0.5954375863
0.003057696624 -0.06886678934 0.5058725476 -0.3324214816 -0.6461062431 0.6548469067
-0.0187092144 -0.05398019031 0.5035043955 -0.5272908807 -0.578871727 0.6177917719
-0.01906120405 -0.05793172121 0.4994245172 -0.5290678144 -0.5577591658 0.6372895837
-0.02653368376 -0.05597637966 0.4967847466 -0.4411062002 -0.5951472521 0.6700326204
-0.02248302847 -0.04830559716 0.5053461194 -0.4771480262 -0.6027282476 0.6382678151
-0.02237585559 -0.04408268258 0.5104776025 -0.4874239564 -0.6005327106 0.633277297
0.00921858009 -0.04875700921 0.5209487081 -0.3366449475 -0.554201901 0.6532923579
0.02096497081 -0.03630091622 0.5315063 0.019974133 -0.6581958532 0.7229074836
0.001197828678 -0.04380258545 0.5258379579 -0.5005882978 -0.5483166575 0.5683491826
0.01917948574 -0.04352473468 0.5251102448 -0.06574331224 -0.6165972352 0.7271404862
0.0223590564 -0.0398870185 0.5282071233 0.03236074746 -0.6460340619 0.7452448606
0.01528218668 -0.04885417968 0.520531714 -0.1911388636 -0.5763033032 0.7073689699
0.007970596664 -0.04153391346 0.5275089741 -0.3240121603 -0.5845050216 0.6221433282
0.0142557295 -0.03595663607 0.5321804285 -0.1396254152 -0.6348867416 0.662414968
0.01307978667 -0.04482143 0.5242762566 -0.2203585953 -0.5876172781 0.6766175628
0.01936547831 -0.05252249166 0.5170125365 -0.1144516096 -0.573754251 0.753798008
0.02335909009 -0.05694342032 0.5127278566 -0.01726827584 -0.5837736726 0.8096826077
0.003523960477 -0.0492009744 0.5208394527 -0.4707568288 -0.5343369842 0.6057110429
0.02638337575 -0.04570300505 0.5238047838 0.1029392406 -0.6360649467 0.752915144
0.02576059848 -0.05002329126 0.5194592476 0.05859218165 -0.6113269925 0.7803989649
0.02816842124 -0.04152465612 0.5284646153 0.1783217788 -0.6659864187 0.7147541642
0.002093784045 -0.0473545827 0.5401653647 -0.4732760787 -0.5428411961 0.6665383577
0.003932347521 -0.04462502524 0.5444585681 -0.3993217647 -0.5176512003 0.7283226848
0.002071543131 -0.05324060842 0.5327201486 -0.5275821686 -0.6357611418 0.542129457
0.01116577536 -0.04064603895 0.5528104901 -0.17005153 -0.5255114436 0.8285782337
0.006673597265 -0.05069839209 0.5362898111 -0.3872449398 -0.6181713343 0.6150426269
0.01163622551 -0.04462980106 0.5455808043 -0.201583609 -0.5623599887 0.7576898932
0.0181161426 -0.04929730669 0.5348084569 -0.09646836668 -0.5994412899 0.7133697271
0.0226771608 -0.04736440256 0.5367180705 0.03442386165 -0.5799731612 0.7777321339
0.01238631178 -0.04915154725 0.5370915532 -0.2328337431 -0.6014207602 0.6796496511
0.02640410699 -0.04941128194 0.5316822529 0.1018348411 -0.5957322717 0.7639181018
0.01489232853 -0.05344361439 0.5284016728 -0.219302386 -0.6374791861 0.6169670224
0.00848019775 -0.05358693004 0.5303992629 -0.3752476275 -0.6423702836 0.5736200809
0.02801571228 -0.0528780967 0.524808526 0.1028311923 -0.6250917315 0.7106676102
0.02112488449 -0.04312806204 0.5419995189 0.0420531258 -0.5818511248 0.7903260589
0.02057826146 -0.03794889525 0.5462110043 0.08319936693 -0.6060063839 0.7814727426
0.01589349471 -0.04201312736 0.5480205417 -0.07087807357 -0.547586441 0.8174189329
-0.004296915606 -0.1094494835 0.570051074 0.6372409463 -0.5397313833 0.5495615005
-0.006604065653 -0.1068012193 0.576125145 0.605365634 -0.5587355494 0.5666610003
0.0001435174345 -0.05682784319 0.5266780853 -0.5634564757 -0.6293079853 0.5206497312
0.004984881729 -0.06140636653 0.5245768428 -0.4053002596 -0.6681166887 0.5848176479
0.004369313363 -0.07005220652 0.5207687616 -0.3352677822 -0.6951787472 0.6089065671
0.0005037015071 -0.06366489083 0.5218560696 -0.4357016981 -0.6749313474 0.58771348
0.01461338531 -0.06847847998 0.5170022249 -0.1648307741 -0.6325258613 0.7276062965
-0.03298014402 -0.0576351583 0.4921666682 -0.3009128273 -0.6168223619 0.7154825926
-0.03283449635 -0.06186271459 0.4876015484 -0.2969409227 -0.5994334221 0.7349063158
-0.02727392316 -0.06201000512 0.4900202453 -0.3959940076 -0.5757218003 0.7077868581
-0.09067112207 -0.03402421623 0.5279312134 0.58891958 -0.5597565174 0.5810675621
-0.09727048874 -0.0317835249 0.5433109999 0.613455236 -0.558300674 0.5584602952
-0.09144051373 -0.03258188441 0.5330550075 0.6095582843 -0.5537248254 0.5671780109
-0.09326329082 -0.02870492637 0.5402753949 0.5971831679 -0.5685948133 0.5650215149
-0.07042451948 -0.1052845418 0.6003731489 -0.3255058825 -0.6478019953 0.6865271926
-0.05215190351 -0.1055350974 0.6057929993 -0.02530926093 -0.6884048581 0.7198778391
-0.059073627 -0.1078088805 0.6033408642 -0.172608763 -0.6793474555 0.7107564807
-0.04569408298 -0.1069255024 0.6037527919 0.09273734689 -0.694639802 0.7114143372
-0.04978000745 -0.1102793589 0.6008468866 0.01778692752 -0.6888715029 0.719250083
-0.04726560414 -0.09709881991 0.6122119427 0.03950181231 -0.6821881533 0.7267891169
-0.05149140581 -0.1010717526 0.6106217504 -0.02108809724 -0.6878602505 0.7218993306
-0.04731043801 -0.1023647785 0.6076107025 0.05308837444 -0.689365983 0.7183957696
-0.06455296278 -0.1028111428 0.6051896811 -0.2480728179 -0.6641920805 0.7031239271
-0.05830394477 -0.1028800234 0.6069797873 -0.1266927272 -0.6743322015 0.7254268527
-0.06694427878 -0.08720946312 0.6176323295 -0.3026918173 -0.6151621938 0.7274845243
-0.07062793523 -0.09266867489 0.6122318506 -0.3331689239 -0.619384408 0.7067035437
-0.07381679118 -0.08776887506 0.6144197583 -0.3373256922 -0.6093826294 0.7172102928
-0.09425161034 -0.1301099211 0.5509728193 -0.7138259411 -0.4137102067 0.5256058574
-0.0833979696 -0.1374272555 0.5597035289 -0.5232762098 -0.4963541031 0.6647340655
-0.07732342929 -0.1438956708 0.5622175932 -0.4154371917 -0.5221005082 0.7388946414
-0.01605470479 -0.06208765134 0.4986292422 -0.5533962846 -0.5394009352 0.6343464851
-0.01194758248 -0.06006861106 0.5031818748 -0.5745953321 -0.566496253 0.5867780447
-0.006430949084 -0.06821808964 0.5040333867 -0.5153264403 -0.6254552007 0.5797892213
0.0007307603955 -0.1299337596 0.5460484028 0.6150730848 -0.5449874997 0.5698014498
-0.06820203364 -0.1501163691 0.565086782 -0.2148469985 -0.5997904539 0.7683681846
-0.03216216341 -0.1490300745 0.5633969307 0.2951142788 -0.6560528874 0.6820930839
-0.103229858 -0.1201859489 0.5435143709 -0.8318977356 -0.3652061224 0.4166532457
0.008712950163 -0.02695997432 0.5384553671 -0.2661927342 -0.6445672512 0.6839946508
-0.004363689572 -0.02527120709 0.5374957323 -0.4378744066 -0.6010074019 0.634072721
0.0004104239051 -0.02971240133 0.5344227552 -0.4278386235 -0.5897938013 0.6265351176
-0.004328577779 -0.03070626967 0.5330166221 -0.5222838521 -0.5565787554 0.5958575606
-0.01205085777 -0.02657816187 0.5340665579 -0.5489042997 -0.5719577074 0.5929982066
-0.05345277488 -0.04562065005 0.4976412952 0.01984248497 -0.6788086295 0.7308732867
-0.04666208476 -0.0430172421 0.5003321767 -0.09448173642 -0.6823572516 0.7212426662
-0.05303467438 -0.04140327871 0.5011816621 0.01887818612 -0.6917387843 0.7192516923
-0.04808919877 -0.04673461244 0.4964257181 -0.06945596635 -0.6745518446 0.7311726809
-0.04580023885 -0.05149934441 0.49214378 -0.1025744677 -0.6633034945 0.7392576337
-0.05174292624 -0.04975344986 0.4936485887 -0.001870346721 -0.66757828 0.7396314144
-0.06657958776 -0.03332390636 0.5126148462 0.2675544322 -0.6673407555 0.6925973296
-0.06888888776 -0.0384722203 0.5089700222 0.3149886131 -0.6507175565 0.6771245599
-0.049831938 -0.03630838171 0.5064303875 -0.03152662888 -0.6865490079 0.7216248512
-0.05346225575 -0.03338594362 0.5093929172 0.0513731651 -0.6899775863 0.7190907001
-0.01471106242 -0.1069405824 0.5889523029 0.5148431659 -0.6006368995 0.6112633348
-0.01882809214 -0.1060277075 0.5931575894 0.4784503579 -0.6076524258 0.6323927641
-0.01932189986 -0.1103607044 0.5907153487 0.4762631953 -0.6216166019 0.6213248968
-0.0749553442 -0.1183675006 0.5843128562 -0.4198395908 -0.6321749687 0.6432048082
-0.08111931384 -0.1186461151 0.5813857913 -0.495519191 -0.613674283 0.6121595502
-0.07208838314 -0.1302576363 0.5750300884 -0.3471815288 -0.6010224819 0.7168971896
-0.06427997351 -0.02552123927 0.5190005302 0.2179061174 -0.6723972559 0.7066123486
-0.05702271312 -0.02383039519 0.5190371871 0.1018524095 -0.6895341277 0.7146956921
-0.06362672895 -0.02145230584 0.5227556825 0.2096426785 -0.6774278879 0.7028819323
-0.05987228826 -0.01708582602 0.526137948 0.1343027651 -0.6963157654 0.6988303661
-0.005681319162 -0.05547972769 0.5198120475 -0.6171762943 -0.5613714457 0.5334937572
-0.01256496925 -0.05213306099 0.5128942132 -0.6412628889 -0.5346275568 0.5494476557
-0.003052397631 -0.06066475809 0.519189477 -0.4915760159 -0.6336595416 0.5851038098
-0.008922499605 -0.05612618849 0.5140858889 -0.5792229176 -0.5790169239 0.5634694099
-0.004801084753 -0.06137168035 0.5136666298 -0.5194135904 -0.6311897635 0.5704463124
-0.01660396345 -0.05135992914 0.5076376796 -0.5394173265 -0.5788496137 0.6100110412
-0.009053189307 -0.06002586707 0.5092352629 -0.574236691 -0.5812180042 0.5712876916
-0.0137979798 -0.05627859011 0.5069612861 -0.5988439918 -0.5474367738 0.5833918452
-0.06265830994 -0.04242001101 0.5022208691 0.1899757087 -0.6803744435 0.7020846009
-0.06181268394 -0.04697819427 0.4972656071 0.1788476855 -0.6739994884 0.7129713297
-0.06462683529 -0.03870052472 0.5060441494 0.2267796099 -0.6747726798 0.7020323277
-0.08426188678 -0.0302314721 0.5271102786 0.5450381041 -0.5775626898 0.6012330055
-0.07749256492 -0.02607294358 0.5242552757 0.436611563 -0.6180212498 0.6518782377
-0.06960368156 -0.02315053344 0.5232567191 0.3100165427 -0.6536574364 0.6844277978
-0.07190883905 -0.01993609406 0.5269265771 0.340490669 -0.6554412246 0.6725131869
-0.07523218542 -0.09918752313 0.6042342186 -0.3958598673 -0.6227794886 0.6734170318
-0.07611721754 -0.1062753648 0.5962603092 -0.4062178135 -0.6268425584 0.6647109389
-0.08230355382 -0.1046840176 0.5946772099 -0.4891525209 -0.6029933095 0.6296135187
-0.08307420462 -0.09927970171 0.5993134975 -0.5025404096 -0.5958650112 0.6242954135
-0.08763042092 -0.09391478449 0.6003962159 -0.5582181811 -0.5612523556 0.6088326573
-0.07729776204 -0.1025637016 0.5999287367 -0.4205750227 -0.6234823465 0.6570110321
-0.08117704839 -0.08843718469 0.6113183498 -0.408167243 -0.6034114361 0.6842485666
-0.08319658041 -0.09284988046 0.6044120193 -0.4993245602 -0.5877426267 0.634006381
-0.07908289135 -0.09321408719 0.6080069542 -0.4148066342 -0.607731998 0.6763799191
-0.08735842258 -0.09810321778 0.595559001 -0.5840641856 -0.5590748787 0.5868910551
-0.04189246893 -0.1171369925 0.5930054188 0.1632543206 -0.6759422421 0.7128390074
-0.04620128497 -0.1210488304 0.5903697014 0.09835397452 -0.6870322824 0.7187649012
-0.03547184542 -0.1162275448 0.5918214917 0.266780436 -0.6610190272 0.6981057525
-0.04207326472 -0.1130447835 0.5970599651 0.1552155167 -0.6763634086 0.714802444
-0.03661023453 -0.1111493707 0.596924901 0.23589921 -0.6684939265 0.7010294199
-0.04850911722 -0.1159141958 0.5951623917 0.04085301608 -0.6882333755 0.7201041579
-0.01529555861 -0.1142346039 0.5788107514 0.5462563038 -0.5838336349 0.5909827948
-0.02486441657 -0.1186666861 0.584540844 0.4146345258 -0.634151876 0.6521862149
-0.0561234206 -0.1219988987 0.5879176855 -0.1024952456 -0.6852160692 0.7012804151
-0.05947138369 -0.1256302595 0.5846300125 -0.164241612 -0.6960218549 0.6940854788
-0.05816258863 -0.1315201819 0.5786508322 -0.1371794492 -0.6858890653 0.7097518444
-0.05548655614 -0.1298775971 0.5829809308 -0.08990482986 -0.7019884586 0.7041451335
-0.02436761744 -0.1233250648 0.579018414 0.4199645519 -0.6343154311 0.6462940574
-0.005684233271 -0.1142928526 0.5675694942 0.6338881254 -0.5405483842 0.5527626276
-0.07081636041 -0.1396548748 0.566291213 -0.3017588556 -0.5755941868 0.7547776103
-0.1059717983 -0.1127940565 0.5505048633 -0.8570104241 -0.3346222341 0.3913921714
-0.1034829393 -0.1161102727 0.5544253588 -0.8515786529 -0.3369358182 0.4014689624
-0.03889677301 -0.04895365611 0.4962436259 -0.219432801 -0.6597989202 0.7166323662
-0.03755963221 -0.05658673495 0.488401413 -0.2297807485 -0.6449310184 0.727656424
-0.03426345438 -0.04837149009 0.4987039864 -0.2929363549 -0.6509038806 0.6947949529
-0.02832706645 -0.04914605245 0.500703156 -0.3837465048 -0.6337372661 0.6655140519
-0.04100589827 -0.044001095 0.5007208586 -0.1897462308 -0.6729602814 0.7129067779
-0.0388581641 -0.03930298239 0.5053614974 -0.2263340652 -0.6699212193 0.7041822076
-0.07980450988 -0.04012587294 0.5125004053 0.4789176881 -0.6046074629 0.6345627308
-0.01953896694 -0.1155304238 0.5852896571 0.4997363389 -0.6132832766 0.6109080315
-0.02566902898 -0.113260217 0.590927124 0.3885881901 -0.6412137747 0.6613231301
-0.06856844574 -0.1183093265 0.5872064829 -0.3409503996 -0.6517854333 0.6755807996
-0.06341034919 -0.121002242 0.5890402794 -0.2421251088 -0.6722776294 0.6954516768
-0.07099287957 -0.1229691431 0.5835748911 -0.3532264829 -0.6524546146 0.6654004455
-0.07751733065 -0.1227103993 0.5800312757 -0.4452238381 -0.6306549907 0.6324530244
-0.08069881797 -0.1338651776 0.5655852556 -0.4837884903 -0.5365995169 0.6810443997
-0.0855948329 -0.1287415177 0.5665995479 -0.573984623 -0.5386401415 0.6105847955
-0.07732631266 -0.1312154979 0.5711457133 -0.4248013198 -0.5637046695 0.7056100368
-0.07938937843 -0.141366452 0.5660976768 -0.427951932 -0.5576924682 0.7047928572
-0.07460816205 -0.1364776045 0.5703158975 -0.3582672775 -0.5774968266 0.731462121
-0.09284947067 -0.112839371 0.5748330355 -0.6716766357 -0.5099061131 0.5323527455
-0.01664130948 -0.04667572305 0.5125570893 -0.5506132245 -0.5737287998 0.6057548523
-0.0186531283 -0.04065319896 0.5156602859 -0.5367351174 -0.5876443386 0.6052493453
-0.0005034425412 -0.05094284937 0.5178749561 -0.5131266713 -0.5434890985 0.5882855058
0.005594087765 -0.05296205729 0.5164595246 -0.3796403706 -0.5592020154 0.6507301927
-0.00521295052 -0.0489000231 0.5197345614 -0.6235581636 -0.5289793611 0.5369409919
-0.01021539606 -0.04918510094 0.5164840221 -0.6414378881 -0.5459591746 0.5346148014
-0.01347977389 -0.04406873137 0.5184962749 -0.6214727759 -0.5501733422 0.5527475476
0.003951749299 -0.05739144608 0.5110003352 -0.3876764178 -0.5892099142 0.6385673881
-0.001657742774 -0.05588042364 0.5120230913 -0.5114974976 -0.5777526498 0.57973665
0.01544274855 -0.05799815431 0.5115602612 -0.1417865455 -0.594263494 0.7603328824
-0.1045375988 -0.07617153227 0.540274322 -0.2407017797 -0.4120633602 0.4416117668
-0.1068633497 -0.09244341403 0.5448678136 -0.683924377 -0.3482190073 0.3800303638
-0.1019110605 -0.05682751536 0.5351637006 0.2812838256 -0.4871231019 0.5135763288
-0.1027174145 -0.07325832546 0.5316426754 -0.08418468386 -0.4345842004 0.4696434736
-0.1007301733 -0.06646209955 0.5292365551 0.1237079278 -0.4661445618 0.5023490191
-0.1052863598 -0.08802016079 0.5407147408 -0.5265658498 -0.3716124296 0.4057925642
-0.09782142937 -0.05538662151 0.5245897174 0.4607689083 -0.5165240765 0.5542912483
-0.1064443588 -0.0830263719 0.5349501967 -0.3988617659 -0.3853726089 0.4172355235
-0.1052716747 -0.07815022767 0.5337014794 -0.257658273 -0.4065809548 0.4385935962
-0.104225032 -0.06613993645 0.5346535444 0.02871507779 -0.4480381906 0.4752959013
-0.1006196365 -0.05439265072 0.529938817 0.3949137032 -0.503698945 0.533487916
-0.09914315492 -0.04891306162 0.5281885862 0.5588831902 -0.5284606814 0.5588592291
-0.09988055378 -0.06140750274 0.5264295936 0.2726858258 -0.4873892963 0.5237120986
-0.110014841 -0.09761127084 0.5408456922 -0.8362638354 -0.3203421533 0.3507240713
-0.1061513871 -0.08207377791 0.5420747399 -0.4172284603 -0.3853371143 0.4142214656
-0.1023061499 -0.0509394072 0.535771668 0.4032068849 -0.5032503605 0.525628686
-0.1034592837 -0.06202397496 0.5385013819 0.1121783629 -0.4619532824 0.486842066
-0.1049556285 -0.06978781521 0.5388639569 -0.09506350756 -0.4308496714 0.456877321
-0.1091930121 -0.09109573066 0.539565146 -0.6644853354 -0.3450722694 0.3741080761
-0.1014698371 -0.04529190063 0.5349407196 0.5527121425 -0.525077939 0.5464009643
-0.09599197656 -0.05286441371 0.5186653733 0.607634902 -0.5444439054 0.5781577826
-0.09672397375 -0.05747060105 0.5146712065 0.6002848744 -0.5485354066 0.5818798542
-0.09787482768 -0.06175955757 0.5113017559 0.5956320167 -0.5480316877 0.5871345401
-0.1004408225 -0.06857208163 0.5077642798 0.5856003761 -0.5522212386 0.5933817625
-0.08269074559 -0.04693447426 0.5104411244 0.5303806067 -0.5841559768 0.6124001145
-0.07111064345 -0.0427929014 0.5050078034 0.3500258625 -0.6524133086 0.668554306
-0.07564803958 -0.0423190929 0.5091486573 0.4477057755 -0.6182072759 0.6388002038
-0.08643632382 -0.05150478333 0.5091824532 0.5547200441 -0.5711953044 0.6030642986
-0.08324721456 -0.052967906 0.504211843 0.5178157091 -0.5908760428 0.6155175567
-0.07410826534 -0.04682980478 0.5026994348 0.3910351992 -0.6436043978 0.6572592854
-0.07931970805 -0.04762003571 0.5050082803 0.4752703309 -0.6132481098 0.6284691691
-0.07470681518 -0.03605122864 0.5128449798 0.4109969139 -0.6301605701 0.658718586
-0.03999622539 -0.1216160879 0.5881667137 0.1916725636 -0.6781229973 0.7042021155
-0.03493933752 -0.1222404093 0.5860838294 0.2672763467 -0.6703449488 0.6919304132
-0.04851432145 -0.128868863 0.5830120444 0.04311481491 -0.7009601593 0.7042729259
-0.05154568329 -0.1233801916 0.5900654197 -0.02168951556 -0.6974029541 0.7123175263
-0.02870378457 -0.1430267245 0.5655738115 0.3592837155 -0.6309657693 0.6810376644
-0.03018549643 -0.1346863657 0.572270155 0.3360242844 -0.6341912746 0.6923561096
-0.03351017833 -0.1427702606 0.5687850118 0.2741749585 -0.6527031064 0.7021263838
4.380161408e-05 -0.1159440875 0.5483334064 0.5231635571 -0.5604632497 0.566486299
0.00115368946 -0.1074624732 0.5528506041 0.5084785819 -0.5593835711 0.5550613999
0.0005930170882 -0.1116834953 0.5439425707 0.4267762601 -0.5815514326 0.5779106021
0.001405473799 -0.1053803563 0.5374037623 0.2836063802 -0.6128888726 0.5949226022
0.0005385920522 -0.1122421697 0.5586035848 0.62766397 -0.5330397487 0.5401135087
0.00252286531 -0.09678279608 0.535842061 0.1866514087 -0.6317381263 0.5991665125
0.001702418551 -0.1031870022 0.5465194583 0.3860277534 -0.586797297 0.5714864135
0.001760360319 -0.1167923883 0.5391471982 0.4168685675 -0.5867484212 0.5883760452
0.003385593882 -0.09132640809 0.528415978 0.03990535438 -0.6644077301 0.6182884574
0.0007584502455 -0.1214169264 0.551969707 0.6271365285 -0.5381878614 0.5556117296
0.0007188525633 -0.1171033829 0.5549966097 0.6264662743 -0.5359902382 0.5485011339
0.002806346398 -0.1018823236 0.5314114094 0.1772136092 -0.6368208528 0.6095411777
0.004370236304 -0.0824264437 0.5182554126 -0.1754371226 -0.7118616104 0.6448550224
0.002171033993 -0.09988448024 0.5423055291 0.3006975353 -0.6057232618 0.5823883414
0.002074858639 -0.1118756756 0.5370643139 0.343944937 -0.6017768979 0.5941788554
0.001229066867 -0.1217898056 0.5445201993 0.5334529281 -0.5611553192 0.5742937326
0.003598054405 -0.0907279551 0.5221402645 -0.04857065529 -0.6855795383 0.6343404055
0.003240950173 -0.09713688493 0.5261511803 0.06405509263 -0.6617199183 0.6233876348
-0.002402648795 -0.1140289083 0.5637121797 0.6485930681 -0.5320023298 0.5439380407
-0.01550081931 -0.1201030761 0.5756750107 0.5437637568 -0.5924928188 0.5908777118
-0.0218915455 -0.1267616451 0.5746760964 0.457739979 -0.6194876432 0.6354869008
-0.002086120658 -0.1273474246 0.5517757535 0.6278804541 -0.5376746655 0.5625059009
-0.01606180333 -0.1248431951 0.5721518397 0.5557485223 -0.5751049519 0.5991342068
-0.01662527397 -0.1419925988 0.5572892427 0.5251433849 -0.6077919006 0.5950605273
-0.04283530638 -0.1424920708 0.5675877333 0.1514303386 -0.6724597216 0.72273314
-0.07025638968 -0.1382527798 0.5728967786 -0.2982417941 -0.6254524589 0.7189142108
-0.06757637113 -0.1296055764 0.5793151259 -0.3085765541 -0.6595340371 0.6845797896
-0.06241683289 -0.1285249144 0.5804722905 -0.2121986598 -0.676430881 0.7002272606
-0.07420619577 -0.150819093 0.564580977 -0.2867557704 -0.5898457766 0.7547805309
-0.06650797278 -0.1412184536 0.5702297688 -0.2223367393 -0.6100007892 0.758660078
-0.06299357861 -0.1355309486 0.575304687 -0.2057229429 -0.6429855227 0.7352489829
-0.09061918408 -0.04785598069 0.5172494054 0.5834054351 -0.5588437319 0.588183105
-0.08689545095 -0.04541264847 0.5146055818 0.5385273099 -0.5816150904 0.6081038713
-0.08780201524 -0.04171841219 0.5193385482 0.5649783611 -0.5690038204 0.59662503
-0.08685152978 -0.114572823 0.5799561739 -0.5831364989 -0.5653663874 0.5779619217
-0.09118866175 -0.1182288527 0.5717335939 -0.6399000287 -0.5307061672 0.551938951
-0.08537864685 -0.1218199134 0.5742558241 -0.5604584813 -0.5864713788 0.5820332766
-0.08977349848 -0.1227499098 0.5687813163 -0.6192842722 -0.5388171077 0.5707612634
-0.09186835587 -0.1264349222 0.5630037785 -0.6601676941 -0.4958326221 0.5633668303
-0.103779912 -0.1081634313 0.5624257922 -0.8471058607 -0.3732661605 0.3769566119
-0.1110942215 -0.1038107276 0.5435416102 -0.8691875339 -0.3306003213 0.3675605059
-0.1089635193 -0.1027489901 0.550544858 -0.8637294173 -0.3395937085 0.3718436658
-0.1081441119 -0.108311981 0.5475159883 -0.8638657928 -0.3310637772 0.3792127967
-0.1025883108 -0.1174975485 0.5492022038 -0.8308202624 -0.3686729074 0.4155156612
-0.1051318049 -0.09889394045 0.5668690801 -0.8383558989 -0.3794229031 0.3895431459
-0.1048129946 -0.1040460244 0.5592814684 -0.8490700722 -0.3580405712 0.3857255578
-0.1002253741 -0.1103059649 0.5666164756 -0.7900571227 -0.4340445697 0.4293336868
-0.04077499732 -0.1362114549 0.5729857683 0.1703222692 -0.6737555265 0.716293335
-0.03801725432 -0.1318527162 0.5770130754 0.1939563751 -0.6763710976 0.7062926888
-0.04662062228 -0.1378302425 0.571713984 0.07744465768 -0.6756688356 0.7215526104
-0.05199940875 -0.1378884017 0.5729566216 -0.01942752674 -0.6740617156 0.7340099216
-0.04945911467 -0.1337313801 0.5784798265 0.02138030715 -0.6933884621 0.7152106166
-0.04278757796 -0.150009498 0.5659964681 0.1332086772 -0.6870746017 0.7133004069
-0.006809716579 -0.1203215942 0.5651990771 0.643781364 -0.5242506862 0.5570489168
-0.01084559504 -0.1155761853 0.5753161907 0.5884043574 -0.5732182264 0.5697144866
-0.01166310068 -0.1215314716 0.5704289675 0.5993996859 -0.5548193455 0.5738933086
-0.003340502968 -0.1198855862 0.5597805977 0.6498798728 -0.5251798034 0.5490772128
-0.005946132354 -0.1278997958 0.5559535623 0.6247835755 -0.5375841856 0.5657391548
-0.008029145189 -0.1259876192 0.5618879795 0.6361637712 -0.5261015892 0.5632692575
-0.01027402561 -0.1320952326 0.558788836 0.5989869237 -0.5564312339 0.5739352107
-0.00539382454 -0.1340980232 0.5510937572 0.5940192938 -0.5594469309 0.5768297315
-0.01061687805 -0.1362575591 0.5549775958 0.5755388141 -0.5758579969 0.5798463225
-0.01782901026 -0.1298066974 0.5685185194 0.5232159495 -0.5808787942 0.619037807
-0.01508233044 -0.1314606369 0.5624574423 0.5626326203 -0.5576497316 0.6010355353
-0.02094835229 -0.1346502155 0.5649582148 0.4775167704 -0.5955882072 0.6387233734
-0.02601267956 -0.1351483315 0.5685541034 0.4037047923 -0.6218310595 0.6681667566
-0.03773674369 -0.1389875114 0.5681993365 0.2341925055 -0.6593005657 0.7086019516
-0.03162909299 -0.1378101856 0.5673857927 0.3227850795 -0.6398106813 0.6864762902
-0.02242979035 -0.1401836425 0.5632409453 0.4628455639 -0.6146051288 0.636289537
-0.01719536632 -0.1364432722 0.5609642863 0.5139621496 -0.5946622491 0.613070488
-0.05298409984 -0.1430166513 0.5683108568 -0.01995802857 -0.6432721019 0.7578269839
-0.05762292817 -0.136913389 0.5732247829 -0.1144051403 -0.6611143947 0.7357466817
-0.0610748902 -0.1403642446 0.5709710717 -0.1423480511 -0.6257062554 0.7655628324
-0.06313800812 -0.1460415274 0.567471683 -0.1602071822 -0.6122766733 0.7737984657
-0.05908346176 -0.1504957974 0.5652860403 -0.09003847837 -0.6283755302 0.7694833875
-0.05487696081 -0.1480534673 0.566912353 -0.03429080546 -0.6470621228 0.7612192035
-0.04840894416 -0.1482840925 0.5659305453 0.06353924423 -0.6677606702 0.737472415
-0.09835296124 -0.1161251739 0.5645672083 -0.7664592862 -0.4507131279 0.4531155825
-0.09524253756 -0.122743547 0.5620424151 -0.7059132457 -0.4823286831 0.5168072581
-0.09980209917 -0.1222655475 0.557589829 -0.7916621566 -0.3994494379 0.4580346644
-0.1000858843 -0.1152830347 0.5594264269 -0.7998847961 -0.4032121599 0.4372243583
-0.1046885177 -0.1071462557 0.5547238588 -0.8532196283 -0.3470717669 0.3849287927
-0.03704462945 -0.1478253156 0.5673344731 0.2133225948 -0.6729886532 0.7074601054
-0.04316010699 -0.1337078214 0.5778208375 0.1349850148 -0.6869332194 0.7117480636
-0.03072326817 -0.1302071959 0.5761017203 0.3131730556 -0.6532574296 0.6851483583
-0.03855961189 -0.1265048534 0.5834994912 0.2193997353 -0.6842325926 0.6939768195
-0.03393301368 -0.1277048141 0.5798401237 0.2539474666 -0.6747683883 0.692863822
-0.04348579049 -0.1300214976 0.5814537406 0.134092167 -0.694996655 0.7049891949
