# .PCD v0.7 - Point Cloud Data file format
VERSION 0.7
FIELDS x y z normal_x normal_y normal_z
SIZE 4 4 4 4 4 4
TYPE F F F F F F
COUNT 1 1 1 1 1 1
WIDTH 512
HEIGHT 1
VIEWPOINT 0 0 0 1 0 0 0
POINTS 512
DATA ascii
-0.03105652332 -0.07139980048 0.6800000072 -0.05681104958 -0.5921621323 0.8020674586
0.02136887237 -0.06575499475 0.5682973862 0.01532762591 -0.6847336292 0.7193471193
-0.03965414688 -0.1333065182 0.6285405159 -0.09599526227 -0.6371279359 0.7606579065
0.02412320115 -0.04701047391 0.5672197938 0.1103657708 -0.5245413184 0.6645915508
0.02706177346 -0.0517780073 0.5633024573 0.3115613461 -0.4971546531 0.7233681679
0.02063732408 -0.05460068583 0.5720366836 -0.0934798941 -0.6353435516 0.6515832543
0.02716254815 -0.04344355315 0.5630590916 0.2961204052 -0.4459715188 0.6889972687
0.02378868684 -0.06019621342 0.5678418279 0.1235539839 -0.6088280678 0.7166832089
0.01771586388 -0.041220963 0.5758203268 -0.3162178695 -0.6114872098 0.5561543107
0.01909602061 -0.04863898084 0.5740469694 -0.2081076205 -0.6292443871 0.6059347391
0.02140062116 -0.04234233871 0.5708459616 -0.07670142502 -0.5484308004 0.6090602279
-0.04872655496 -0.0537612848 0.5389146209 0.2242871672 -0.6311346292 0.7411960363
-0.05069482327 -0.1307468116 0.6278463602 -0.265247792 -0.6171184778 0.7378075719
0.02610185742 -0.0159384124 0.5900115371 0.5652282834 0.02036196738 0.5981143713
0.02304164879 -0.02548636869 0.5951485038 -0.3656966686 -0.241854012 0.6195983291
0.02879293077 -0.02128898911 0.586388886 0.1617357582 -0.218290627 0.5582024455
0.03298692405 -0.01902117766 0.5800527334 0.4758512974 -0.2281773239 0.5122182965
0.02258611098 -0.01900357567 0.5953987837 0.1984198838 -0.01108599082 0.6348820925
0.01938718371 -0.1103718951 0.6085703373 0.6549071074 -0.4921711385 0.5733423233
-0.01532182097 -0.08417536318 0.6682516932 0.2054896057 -0.6311830282 0.7474486828
0.01356255263 -0.0509843491 0.5712537766 -0.3935298026 -0.5600949526 0.6602706909
0.01615221612 -0.05670227855 0.5708417892 -0.2630753517 -0.5930613875 0.6896336675
0.01729387231 -0.06415173411 0.5652548671 -0.1524893641 -0.4401803017 0.8618329763
-0.07846395671 -0.09772522002 0.6282362342 -0.7617590427 -0.3994392753 0.5076881051
-0.05567581579 -0.05282893404 0.5437498093 0.3383559287 -0.6083220243 0.7123050094
-0.06071047112 -0.05111307278 0.5485527515 0.4196620584 -0.5793219209 0.6981907487
-0.09496482462 -0.07224347442 0.5803065896 -0.200949505 -0.08922133595 0.3619070947
-0.06139722094 -0.1306127757 0.6249588132 -0.4349256158 -0.556617856 0.7052633762
-0.05584805459 -0.1278229356 0.6276152134 -0.3749542236 -0.5722455382 0.7286326289
-0.0623061955 -0.1254523098 0.6275967956 -0.4660518765 -0.538836956 0.7016537786
-0.04894093424 -0.1248036996 0.6318229437 -0.2365340739 -0.6016337276 0.7580257654
-0.01648793742 -0.1311632395 0.628727138 0.267446965 -0.6222892404 0.7311474085
0.01319081429 -0.1121558473 0.6144697666 0.649107635 -0.5004556179 0.5727059245
0.01518432703 -0.1208133176 0.6112636924 0.6300641894 -0.5063881278 0.5886762738
0.01793122478 -0.1155034304 0.6148056388 0.6386329532 -0.5064912438 0.5788481236
0.02237785608 -0.1100567579 0.6153078675 0.6509376168 -0.5013766289 0.5696027875
0.01769402996 -0.09170745313 0.6324746013 0.6202421188 -0.5423185229 0.5659199357
0.01897118241 -0.09626025707 0.624221921 0.6466087103 -0.5189121962 0.5580465794
0.02506317198 -0.1026033089 0.6192473173 0.6632682681 -0.5011073351 0.5557882786
0.02004657127 -0.1018508896 0.6156554222 0.6630296707 -0.4997475147 0.5572752357
0.01806213893 -0.1061334312 0.6120245457 0.6601532698 -0.4957678616 0.5642352104
-0.06469849497 -0.1097133681 0.6345256567 -0.5430344939 -0.520757854 0.6529926062
0.008434425108 -0.01279352326 0.5945476294 -0.5379254222 -0.4339890182 0.7188741565
0.005776638165 -0.007659940049 0.5959324837 -0.4692296088 -0.5030237436 0.723377645
0.01253552735 -0.01698420942 0.5981491804 -0.5623692274 -0.4164299965 0.7105161548
0.00997617282 -0.007695126347 0.6008331776 -0.4561242759 -0.4406772554 0.7654536366
0.01552071609 -0.01280744281 0.6046547294 -0.5008279681 -0.3790610135 0.7674026489
0.02027626708 -0.01408418361 0.5994589925 0.08738131076 -0.08265686035 0.6821032763
0.02048617043 -0.02208256349 0.6039448977 -0.6388086081 -0.310010612 0.6611628532
0.01428642683 -0.006165860686 0.6043111086 -0.2993521392 -0.3159351945 0.7971859574
0.00678317342 -0.09219537675 0.6437286139 0.5760008097 -0.554774642 0.6002913713
-0.04961596802 -0.00138170307 0.5881482363 0.2956944108 -0.6592392325 0.6832709312
-0.05425335467 -0.005128860939 0.5861191154 0.364816457 -0.6425839067 0.6736881733
-0.0450110361 0.002784724813 0.5896478295 0.226446256 -0.6940892339 0.6807715297
-0.05198867992 0.005074895918 0.5943188071 0.3135368526 -0.6805884838 0.6598960161
-0.05510979146 -0.001218481106 0.5906980634 0.3769474626 -0.640966475 0.6639140844
-0.04051568732 -0.08225888014 0.6699637771 -0.1602386385 -0.6019567847 0.777338922
-0.05492530763 -0.08461905271 0.6641091108 -0.4002638757 -0.5698610544 0.7170341015
-0.05657957122 -0.07840958238 0.6669241786 -0.3804543316 -0.5462452173 0.7444499731
-0.04684840143 -0.07726079226 0.6707057357 -0.2666429281 -0.5735291243 0.7720837593
0.01186888665 -0.002932738513 0.5884927511 0.256991148 0.109364152 0.5977361798
-0.001792189432 0.002533524297 0.5945041776 -0.1468151361 -0.4911319315 0.6674381495
0.007617237978 -0.0007227761671 0.5934935212 -0.03634680063 -0.1861941516 0.6553215981
0.002891626675 0.0004865498049 0.597887218 -0.3338654637 -0.4745396674 0.7168640494
0.01223494485 -0.00367308897 0.5963830352 -0.06613516062 0.008523474447 0.6887536645
0.010023362 -0.002865721704 0.6028864384 -0.4088758528 -0.3953259885 0.7747060657
0.02889490314 -0.04395158961 0.5571286082 0.4663190246 -0.269010812 0.8129503727
0.02263741009 -0.052956108 0.5592508912 0.1723862439 -0.1520608515 0.9511954784
0.01208793093 -0.08747570962 0.641050756 0.5936132073 -0.552936554 0.5846382976
0.01468856819 -0.0363987498 0.5835745335 -0.6256488562 -0.478444159 0.589846015
0.01899016276 -0.03326722607 0.5913329124 -0.6803067327 -0.3504934013 0.6204422712
-0.08228365332 -0.08291065693 0.6383013129 -0.7488056421 -0.4162182212 0.512168169
-0.08345396072 -0.08714528382 0.6258786917 -0.8104450107 -0.3764780164 0.4451017082
-0.08180481941 -0.0911532715 0.6310331225 -0.7809577584 -0.4026410878 0.4753917158
-0.07623127848 -0.105621554 0.6271760464 -0.7167761922 -0.4189253151 0.5558845997
-0.07669458538 -0.09464269131 0.6332499981 -0.723900795 -0.4358258247 0.5319213271
0.02051658928 -0.1078612879 0.6199025512 0.6515735984 -0.5049788356 0.5656208992
0.01429968327 -0.109867014 0.620303452 0.6480101943 -0.5029145479 0.5717773438
-0.08776114881 -0.05049131066 0.582324326 0.6922844648 -0.4777156711 0.5408383012
-0.08317623287 -0.04496891052 0.5783423781 0.6853789091 -0.4824399054 0.5454080701
-0.08357934654 -0.08316070586 0.6310950518 -0.8111699224 -0.3668356538 0.454859376
-0.08710599691 -0.08051644266 0.6280625463 -0.819224298 -0.3538763225 0.4499946237
-0.08061593026 -0.03639880568 0.5853326917 0.6778861284 -0.4824708998 0.5546571612
-0.07957923412 -0.04118915275 0.5809597969 0.6760160327 -0.4848675728 0.5548247695
-0.08280603588 -0.03362203017 0.5905231833 0.6773609519 -0.4821328521 0.5556274056
-0.0792163685 -0.0356281586 0.5799790621 0.6838313937 -0.48265028 0.5471515059
-0.08432981372 -0.04145411402 0.5843869448 0.6846153736 -0.4809050262 0.5477033257
-0.0824707225 -0.1163333431 0.6101786494 -0.7956508398 -0.382745862 0.4595888853
-0.06655430794 -0.1257859617 0.6224462986 -0.5378811955 -0.504478395 0.6665101051
-0.07023799419 -0.1295819879 0.6207610369 -0.560664773 -0.4875622392 0.6659272909
-0.07394929975 -0.1201131642 0.6177403927 -0.6936461926 -0.4330222607 0.5588002205
-0.07961492985 -0.1215759888 0.6139405966 -0.7522515655 -0.4181717634 0.5066212416
-0.09488274157 -0.09658765048 0.5917167068 -0.9109756947 -0.2249136567 0.2929986417
-0.04667708278 -0.04890692979 0.5447635651 0.1825126112 -0.6234448552 0.7490468025
-0.06365914643 -0.04653709754 0.5543951988 0.5116099715 -0.5585680604 0.6511470675
-0.03284498677 -0.1318369657 0.6293632984 0.01589016058 -0.6430689692 0.7612501979
-0.02680758573 -0.1329691857 0.6278647184 0.1264500022 -0.6474305987 0.74678725
-0.04390973598 -0.1287480742 0.6300649047 -0.1514156014 -0.6325056553 0.7544214129
-0.03985427693 -0.1279975176 0.6336632371 -0.09630758315 -0.6340923309 0.765694499
-0.01671916433 -0.126231119 0.6303914785 0.2735162675 -0.6288073659 0.72140342
-0.06985130161 -0.1025895774 0.6368979812 -0.616283834 -0.4924586713 0.6095212102
-0.04929559305 -0.08637736738 0.6657615304 -0.2977656424 -0.5864968896 0.7498856187
-0.07066474855 -0.1116882265 0.6287711859 -0.6251211762 -0.4680759609 0.6232894659
-0.06927482784 -0.1169428453 0.6260192394 -0.589330554 -0.4694549739 0.6547595859
-0.07043565065 -0.121596165 0.6228020191 -0.5914910436 -0.4893645942 0.6402578354
-0.06545332819 -0.1158803776 0.6305459142 -0.5276446342 -0.5028752089 0.6832993031
0.01417971775 -0.09724627435 0.6283753514 0.6332117915 -0.5310326815 0.5625426769
0.01057466306 -0.09302611649 0.6394881606 0.6044715643 -0.5476250648 0.5784843564
0.006385376677 -0.09745968878 0.6392402053 0.5900709033 -0.5497336388 0.5904414058
0.006644429173 -0.1020061895 0.6345812082 0.6137387753 -0.5437983274 0.5717878342
0.01207945403 -0.0983518213 0.6346402764 0.6189678907 -0.5452331305 0.5647447705
-0.03631203994 -0.08680064231 0.6678581238 -0.06432621181 -0.623947382 0.7765437961
-0.05189754441 -0.07463262975 0.6733161211 -0.3276788592 -0.5329043269 0.7790172696
-0.04761653021 -0.07096729428 0.6767785549 -0.2575154305 -0.5480569601 0.7912819386
-0.03648064658 -0.07206425816 0.6787070632 -0.1048620865 -0.5802049041 0.8066948652
-0.04181440175 -0.07502227277 0.675819695 -0.2000831068 -0.5632176399 0.7974818349
-0.05291510373 -0.0815320462 0.6685801148 -0.3607034683 -0.5478291512 0.7527800202
-0.02659419738 -0.08877696842 0.6652808785 0.0827755332 -0.6554580927 0.7481166124
-0.03270506114 -0.08972874284 0.6652189493 -0.001959093846 -0.6387732029 0.7666438818
0.01892636716 -0.00769457547 0.5974984169 0.3159597814 -0.02964343503 0.7095640302
0.02013299055 -0.005838055629 0.5912261605 0.3985301852 0.2810120285 0.6236060858
-0.01790267788 -0.006302912254 0.5823333859 -0.2444345057 -0.6398949623 0.7236454487
-0.0331204012 -0.01105653774 0.5751334429 0.01117325108 -0.6638431549 0.7446466088
0.02217068709 -0.04518542811 0.5561700463 0.2958639562 -0.1581097692 0.9387481809
-0.04297470301 -0.08747892082 0.6657770872 -0.1770353019 -0.6131913066 0.7658413649
-0.03872830421 -0.09158556908 0.6633778214 -0.103224732 -0.6424136162 0.7546618581
-0.07055359334 -0.08752027154 0.6482815742 -0.6391444206 -0.4957926273 0.5867031217
-0.07573883235 -0.08502554893 0.6452519894 -0.6906225085 -0.4552000761 0.5619447827
-0.07449037582 -0.081478782 0.6489667892 -0.677734375 -0.4596372545 0.5731726885
-0.07322511077 -0.09106504917 0.6433478594 -0.6687761545 -0.4675194919 0.5776237845
-0.09363920242 -0.07603699714 0.5907523036 -0.4019131064 -0.1788173914 0.3586460352
-0.09422147274 -0.0812753737 0.5950514078 -0.6439673901 -0.1545957774 0.3272479475
-0.09552340955 -0.08200768381 0.5898088813 -0.6546410918 -0.06264486909 0.3069696128
-0.09859902412 -0.08604740351 0.5805491209 -0.791457653 0.1466253996 0.2485630512
-0.09355437756 -0.08640342206 0.6051827669 -0.9044027328 -0.2206515074 0.3126158416
-0.09314458817 -0.07016789913 0.5851802826 -0.1277206391 -0.1945082247 0.3917708695
-0.09235217422 -0.07620393485 0.5971400142 -0.4344058931 -0.2727821767 0.3746416867
-0.09352759272 -0.09185251594 0.6002998352 -0.9081816673 -0.2735758424 0.3085609376
-0.09768106043 -0.09075921774 0.5904505849 -0.9343054295 0.00604863558 0.2814881802
-0.1002267078 -0.09162821621 0.5805433989 -0.9482788444 0.1887359768 0.2439941615
-0.0820722729 -0.05444153398 0.5771459937 0.5672177076 -0.4698167145 0.53872329
-0.08619233221 -0.06544959545 0.5874248743 0.06897532195 -0.3974484503 0.4644331336
-0.08822472394 -0.06843800843 0.592910111 -0.1024055332 -0.3734071255 0.4360105097
-0.08482313156 -0.05684275925 0.5831384063 0.4202871323 -0.4479352534 0.5117318034
-0.09552063793 -0.08767716587 0.585696578 -0.8829490542 0.1046310812 0.247809425
-0.0868960619 -0.06318105757 0.5801852345 0.2298783064 -0.3483792543 0.472500056
-0.08916649222 -0.06927857548 0.5802000165 -0.04168136418 -0.2149424106 0.4129256308
-0.09326147288 -0.08492060751 0.5992230773 -0.8144607544 -0.1618643403 0.3110898733
-0.09174336493 -0.07692866027 0.5832008123 -0.3943471611 -0.0929627791 0.3461921215
-0.08915939182 -0.08547721058 0.6234357357 -0.8346782923 -0.3550375402 0.4206599295
-0.08866079897 -0.09214314818 0.6170825362 -0.8426979184 -0.3430270851 0.4139339924
-0.0845984295 -0.08974847198 0.6212384701 -0.8211242557 -0.3669574857 0.4326329231
-0.08319137245 -0.0983857587 0.6202028394 -0.8162032962 -0.3475934863 0.4584206045
-0.08170761168 -0.09501774609 0.6242693663 -0.8021908998 -0.3701066673 0.4649913311
-0.09346590936 -0.1020572484 0.5952290893 -0.9046245813 -0.2642864883 0.3092055917
-0.09602484107 -0.09506130964 0.5857440233 -0.9504562616 0.0290582031 0.2708963454
-0.07467228174 -0.10023579 0.634630084 -0.6830272079 -0.4552668333 0.5685040951
-0.08091216534 -0.1105929837 0.6206365228 -0.7754226923 -0.3927141428 0.493216306
-0.07987946272 -0.08947911859 0.6378971338 -0.7333769798 -0.4307836592 0.5247771144
-0.08151181042 -0.1008234844 0.6247189045 -0.7971538901 -0.3592901826 0.4837217629
-0.07282857597 -0.1056339741 0.6316452026 -0.6526167989 -0.4661060274 0.5964711905
-0.06997170299 -0.03652983531 0.5712718964 0.6025107503 -0.530117929 0.5952083468
-0.07634142786 -0.04095700011 0.5711436272 0.6608099341 -0.4955753088 0.5626503825
0.0007623920101 -0.1284320354 0.6217830777 0.5220798254 -0.5544945002 0.6474606395
0.01592238434 -0.101582624 0.6207984686 0.652549684 -0.5093399286 0.56093961
0.01621295884 -0.05789837614 0.5598245859 -0.1337165684 -0.2913042307 0.883970201
-0.05589096621 -0.02756569348 0.5671864152 0.3808933794 -0.6189159751 0.6811514497
-0.06505259126 -0.02825314552 0.572768867 0.5185257792 -0.5700656176 0.6332725883
-0.05751366913 -0.02297380567 0.5715479851 0.4165933132 -0.6163687706 0.6673795581
-0.04769100621 -0.02442480251 0.5661298633 0.2637703121 -0.6425613165 0.7170110345
-0.04758887738 -0.0204530172 0.5694141984 0.2743244171 -0.6468604207 0.7098067403
-0.0835608393 -0.02117643692 0.6004396677 0.6384465694 -0.5104125738 0.575248301
-0.07995869964 -0.01606503688 0.6007826328 0.6103160977 -0.5370470881 0.5818641782
-0.06742081791 -0.004102131817 0.5968131423 0.5311334133 -0.5757787228 0.6214113235
-0.0720281899 -0.005759192165 0.5997974277 0.5496302843 -0.5705718398 0.6100592017
-0.0870975405 -0.1019530669 0.6068407893 -0.8713854551 -0.3171500862 0.3695658743
-0.04114933684 -0.04724803194 0.5443575382 0.08211731166 -0.6200140715 0.776829958
-0.0352640748 -0.04655662924 0.5445423722 0.0058936188 -0.612858057 0.7900557518
-0.03905520961 -0.0429941155 0.5482984781 0.07403320819 -0.6330875158 0.7646328807
-0.04345802218 -0.03940756246 0.5519000292 0.1517826021 -0.6505163312 0.7405859828
-0.03832247108 -0.03787988797 0.5524749756 0.06943870336 -0.6327958703 0.7647771835
-0.07179760188 -0.04252507165 0.5657179952 0.6329389811 -0.5067949891 0.5849199891
-0.05461871997 -0.04325864837 0.5519205928 0.3404783607 -0.6289434433 0.6970515847
-0.04862515628 -0.04362900555 0.5499394536 0.238684997 -0.6458876729 0.7208375335
-0.05238438398 -0.04780751839 0.5480357409 0.3042719662 -0.6337025762 0.7074272037
-0.06785403192 -0.04305007309 0.561142385 0.5899906754 -0.5277197957 0.6104038954
-0.05332138762 -0.01659450307 0.5751902461 0.3597059846 -0.6368167996 0.6812411547
-0.04768042639 -0.01537386887 0.5741554499 0.2659093142 -0.6532667279 0.7052391171
-0.007338705938 0.003152138321 0.5947629809 -0.2743034661 -0.6664922237 0.6928952336
-0.01307015866 0.003350956598 0.5921849012 -0.2731853426 -0.6700316668 0.6897004247
-0.03336999938 0.007433551829 0.5914803743 0.02651956305 -0.7178165317 0.6931833625
-0.02453294396 0.007622352336 0.5915773511 -0.109299764 -0.7126988769 0.6925142407
-0.01906178147 0.003058412811 0.5895413756 -0.2343019992 -0.6711990237 0.700314641
0.006988907233 -0.03525634483 0.5748710632 -0.5311609507 -0.6352692842 0.5545033813
0.01081229001 -0.03573456034 0.5796450377 -0.5995914936 -0.5663848519 0.5555446744
0.03524981067 -0.01121407188 0.5702711344 0.7753867507 -0.3721764982 0.4990451932
0.02767683379 -0.00596483238 0.5749084949 0.7121873498 -0.3993108273 0.5765873194
0.03131809458 -0.006999087986 0.5693341494 0.7065939307 -0.4349864125 0.5530523658
0.03793419152 -0.0157172177 0.5715801716 0.8230501413 -0.2746980488 0.4561876059
0.02764745802 -0.01103532407 0.584562242 0.7679306865 -0.009384213947 0.5774304867
0.02393833734 -0.008794816211 0.5881379843 0.742220819 0.03992127627 0.6204563975
0.03098815493 -0.01171978191 0.5786733627 0.7769988775 -0.1657165885 0.5370100141
0.02350515127 -0.01303857937 0.5936346054 0.750852704 0.1722904593 0.633069098
0.02526656725 -0.006925866939 0.5815329552 0.7108669877 -0.1095694527 0.5888929963
-0.02242205106 -0.1269536018 0.6317287087 0.1673276126 -0.6490354538 0.7402883768
0.006506303791 -0.1183818355 0.6193207502 0.6164474487 -0.5126145482 0.5941923857
-0.00698453933 -0.1216955334 0.6290495396 0.452961266 -0.5673030615 0.6862305403
-0.01139594242 -0.1319009066 0.6254503131 0.3623878658 -0.6010751128 0.7083950639
-0.004090677015 -0.1305634826 0.6236166358 0.4654585421 -0.5729410052 0.6736341119
-0.001781241735 -0.1229148507 0.6258683801 0.5179935694 -0.5504412055 0.6542033553
-0.06797665358 -0.09731348604 0.6413239241 -0.6011960506 -0.509082973 0.6027332544
-0.0718370378 -0.09515308589 0.6370728612 -0.6648153663 -0.4717034101 0.5572012663
-0.06759873778 -0.09281091392 0.6470508575 -0.5949115753 -0.5213752985 0.6107456088
-0.05973632634 -0.1154201031 0.6345261335 -0.4344817102 -0.5454110503 0.7128947377
-0.05898116156 -0.1215163171 0.631005466 -0.4255174696 -0.5469246507 0.7180736065
-0.05947573483 -0.1086114794 0.6405210495 -0.4492314458 -0.5593999028 0.6875672936
-0.03354140371 -0.1256099939 0.6337000728 0.00452304678 -0.6402143836 0.7660236359
-0.02368467115 -0.1226912513 0.6353895068 0.1811449975 -0.6392664909 0.7444175482
-0.02841489017 -0.1279648095 0.6332179904 0.08177489042 -0.639329195 0.7616862655
-0.01374631096 -0.0774737075 0.6719338298 0.1772444248 -0.6197729111 0.7622927427
-0.005113873631 -0.08046287298 0.6662965417 0.3373399675 -0.617808342 0.7100767493
-0.009929242544 -0.08417733759 0.665620625 0.2800062895 -0.6319338679 0.7211667895
-0.0236575231 -0.09288704395 0.6604622006 0.1330067068 -0.6455558538 0.747438252
-0.01921443641 -0.07734591514 0.6734988689 0.104704611 -0.6131754518 0.7803466916
-0.02251125127 -0.08398269862 0.6686492562 0.1151084006 -0.6406757832 0.7583072782
-0.03443900496 -0.08252009749 0.6715396047 -0.0657171756 -0.6139113903 0.7848029733
-0.03684321791 -0.0773114711 0.6731180549 -0.1175248697 -0.5925124288 0.7852141261
-0.02545733564 -0.07672930509 0.6753347516 0.02103023417 -0.5978548527 0.8000443578
-0.04278612137 -0.06869228929 0.6771371961 -0.2350984961 -0.5619226098 0.791642487
-0.02805263735 -0.08146227896 0.6719327569 0.02102612332 -0.6132000685 0.787294507
-0.03234207258 -0.07649451494 0.6762250066 -0.0517167449 -0.5900048018 0.804354012
-0.06090929732 -0.08260452002 0.6612261534 -0.4701879621 -0.5382694006 0.6934151053
-0.002995686838 -0.09034380317 0.6546988487 0.4503156543 -0.6104689837 0.6503225565
0.002878156258 -0.08564718068 0.6536294818 0.5103882551 -0.585788846 0.6293940544
0.001607885119 -0.1052218974 0.6380892396 0.5724672675 -0.5589704514 0.5993475914
0.00243610749 -0.1089960411 0.6337183714 0.5798789859 -0.5420595407 0.6078634858
0.001301106648 -0.1000211239 0.6418340206 0.5480097532 -0.5667316318 0.6143153906
-0.002678104443 -0.1016393676 0.6453079581 0.4962662756 -0.5850732923 0.6391497254
-0.003563624341 -0.1056920364 0.6413551569 0.4987284541 -0.5899333954 0.6335164905
0.0017482494 -0.09211334586 0.6497561932 0.522941649 -0.5832064152 0.621247828
0.0005937970709 -0.09630402178 0.6465787292 0.5266335011 -0.5692052245 0.6300862432
-0.02706168033 -0.003210889641 0.5825227499 -0.1022247151 -0.6691030264 0.7316181064
-0.03277533129 -0.0005082619027 0.5848454237 0.02409931086 -0.6807894707 0.7263899446
-0.02538134716 0.002847580239 0.5874781609 -0.1447620988 -0.6757952571 0.7212560773
-0.02450259589 -0.007522304077 0.5788756609 -0.1357758939 -0.6544802189 0.7420011163
-0.01674764976 -0.0009713266627 0.5867343545 -0.2799053192 -0.6449499726 0.7110264897
0.004887255374 -0.02972560935 0.5773876905 -0.5769866109 -0.5392827392 0.6099883318
0.0286944136 -0.01191219967 0.5659596324 0.6264674664 -0.5216040015 0.5770021081
-0.02894802578 -0.01419344638 0.5724101663 -0.07273218781 -0.6580830812 0.7427467108
-0.03693227097 -0.01551066339 0.5710273981 0.08063239604 -0.6630228162 0.7418541312
-0.02228860557 -0.02233476005 0.5674826503 -0.196442619 -0.6271876693 0.7393429279
-0.02848775685 -0.02135730721 0.566668272 -0.08484224975 -0.6451856494 0.7479539514
0.015546632 -0.02252179198 0.5977582335 -0.6248511672 -0.3667457998 0.6873093247
0.01882263273 -0.02939371951 0.5956227183 -0.6739086509 -0.3045205474 0.6692860126
0.009591368958 -0.01858077757 0.5915934443 -0.559867382 -0.3943300247 0.7189749479
0.008434318937 -0.02312443405 0.5863137245 -0.6144592166 -0.4021472931 0.6734306812
0.01167483721 -0.02742094174 0.587477386 -0.6457614303 -0.4146092534 0.6354510188
0.009665613994 -0.0305632744 0.5820795298 -0.6362380385 -0.4774746895 0.602809906
0.01400091592 -0.0248900298 0.5928521156 -0.6563731432 -0.3565807939 0.6632771492
-0.07886242867 -0.07803376019 0.6446845531 -0.7158805132 -0.4293288887 0.5493932962
-0.08402762562 -0.0783912316 0.6349294782 -0.7925853729 -0.3718429208 0.4819917679
-0.0912809968 -0.09061675519 0.6117326021 -0.865552187 -0.3162890077 0.3848547339
-0.08958468586 -0.08138203621 0.609071672 -0.61817348 -0.3496127725 0.4133409262
-0.08962842077 -0.07394445688 0.6018553376 -0.299479723 -0.3751302361 0.4394494891
-0.08948468417 -0.07351185381 0.6101096869 -0.3724412918 -0.3897588253 0.4523110986
-0.08892634511 -0.06654123962 0.599537313 -0.008851055987 -0.4177106619 0.4803089499
-0.08897946775 -0.06082079187 0.5957052112 0.216335088 -0.4392241538 0.5020151734
-0.08908858895 -0.08607678115 0.6158799529 -0.8270648718 -0.343283385 0.4053277373
-0.08925140649 -0.07004760206 0.6052742004 -0.1980715245 -0.4035271108 0.4661156833
-0.09170416743 -0.07955888659 0.603497982 -0.5886972547 -0.3113250136 0.3739022017
-0.08868470788 -0.05524417758 0.587451458 0.4986923337 -0.4592074454 0.5220181346
-0.09010703862 -0.07617728412 0.6166360378 -0.5551142097 -0.3757307231 0.4383182526
-0.08957370371 -0.06073394045 0.589735806 0.2583239079 -0.4196361005 0.4820200503
-0.09099873155 -0.08187061548 0.619320035 -0.8065071106 -0.3357289433 0.3978954852
-0.08848003298 -0.07027848065 0.5734801292 -0.01343512256 -0.1832696646 0.4234204888
-0.08491457254 -0.06226671487 0.5704059005 0.3792223036 -0.3597522974 0.5132248402
-0.09481405467 -0.08264635503 0.5763236284 -0.5985352993 0.07684753835 0.2944815159
-0.086997509 -0.05788075551 0.5752879977 0.5047861338 -0.4071907401 0.5245128274
-0.09231292456 -0.06430724263 0.580514431 0.144170478 -0.239803344 0.4323328733
-0.09527284652 -0.07753783464 0.5764499307 -0.3859048188 -0.01453347504 0.3352919817
-0.0903711468 -0.05760297179 0.5817533731 0.4245272279 -0.3605592847 0.4866392612
0.004300051369 -0.1163767651 0.6237952113 0.6137244105 -0.4995435178 0.6093702316
0.002865338931 -0.1218416467 0.6221554875 0.6016266346 -0.5063109398 0.6175284386
-0.002452192362 -0.1144257188 0.6317188144 0.5402403474 -0.54810673 0.6357340217
0.002507472876 -0.1136326566 0.6285633445 0.5914642811 -0.5176026821 0.616356492
0.01055311598 -0.1207893118 0.615683496 0.6256389618 -0.5034124255 0.5957248211
0.009023617022 -0.1134552956 0.6210495234 0.6385936141 -0.497385025 0.586879611
-0.02945803292 -0.03717996553 0.5530936122 -0.08987536281 -0.6261204481 0.7695230246
0.009632487781 -0.05031181872 0.5661782622 -0.4872854948 -0.5810403228 0.6345955729
0.01233099215 -0.04627413303 0.5736728907 -0.4761205018 -0.6296566725 0.5691531897
0.01120838244 -0.06083881482 0.5607600808 -0.3745883405 -0.440291822 0.7941263318
0.01352447458 -0.05872884393 0.5648064613 -0.321513474 -0.4381050169 0.8003432155
-0.07529898733 -0.1113861278 0.6228773594 -0.7052157521 -0.4191468358 0.566998899
-0.08168675005 -0.1111563444 0.6123070717 -0.8156439662 -0.3609178364 0.4449884892
-0.07837096602 -0.1136705875 0.6162258387 -0.7847331166 -0.3794110715 0.4882513285
-0.0823919028 -0.106318824 0.6154406071 -0.8258059621 -0.341812849 0.4455334544
0.02713664807 -0.03858537599 0.5551258326 0.5054980516 -0.3945987225 0.7482810616
0.03207108751 -0.03602953255 0.5559210181 0.5625496507 -0.4223358929 0.7093333602
-0.07430167496 -0.0332435742 0.5774008036 0.6492272615 -0.5025523901 0.5703139901
-0.04360704497 -0.01155435573 0.5761746764 0.1951221228 -0.6608363986 0.7244052291
-0.0404474549 -0.008060849272 0.5790845156 0.1385617703 -0.6662139297 0.7286231518
-0.04436683282 -0.00565865729 0.5819834471 0.2172472924 -0.6681556702 0.7100359797
-0.03746302426 -0.003900163341 0.5823026299 0.09602375329 -0.676730454 0.7254496217
-0.09058318287 -0.09683331847 0.6020647287 -0.8994753361 -0.2952923775 0.3204353452
-0.08715710044 -0.09547068924 0.6122699976 -0.8514683247 -0.3348563612 0.4030029178
-0.09083484113 -0.09705348313 0.6077039838 -0.8827142715 -0.3013838232 0.3599661589
-0.08970963955 -0.1064730734 0.6035835743 -0.8824715018 -0.3172103167 0.3439502716
-0.08776097 -0.1003274098 0.6143651605 -0.8380878568 -0.3335716426 0.4296247065
-0.08699799329 -0.1105433106 0.6071948409 -0.8454332352 -0.3443695307 0.406680733
-0.03020001389 -0.03207277134 0.5570037961 -0.07929266244 -0.6346532106 0.7639485002
-0.02230736427 -0.03099739552 0.5595324636 -0.2251213938 -0.6245853305 0.7442901134
-0.04710783809 -0.02957924642 0.5615409613 0.2538814545 -0.637475729 0.7259191275
-0.03617213294 -0.03257554397 0.5565840602 0.03827923909 -0.6403764486 0.7630457878
-0.04150253534 -0.030222442 0.5584005117 0.1530537307 -0.6401879787 0.7522775531
-0.04607723281 -0.03318565339 0.557731688 0.2276428193 -0.6363039613 0.7345152497
-0.06295239925 -0.03398573026 0.5661905408 0.4905821085 -0.5802046061 0.6440847516
-0.05930646136 -0.03569744155 0.5612747669 0.4400089383 -0.6007475257 0.666180253
-0.04868881032 -0.03918949142 0.5532615781 0.2470836639 -0.6431897283 0.7204759121
-0.05172042549 -0.03496507183 0.5579280853 0.3168779016 -0.6288338304 0.7090255618
0.03345051035 -0.01992289908 0.5616679192 0.7115864754 -0.4155088365 0.56343472
0.03676266596 -0.02792930417 0.5617800355 0.7080847621 -0.3985254169 0.5508740544
0.03046512604 -0.03929282725 0.5625474453 0.4074926376 -0.3422408998 0.7121254802
0.03308093548 -0.02761520632 0.5736093521 0.3150974512 -0.3476697206 0.5361283422
0.02992282622 -0.0349739641 0.5699585676 0.2311310172 -0.3365584612 0.6519666314
0.02447852679 -0.03311453015 0.5846081972 -0.3355655968 -0.3075692356 0.6430889964
0.02727007493 -0.03366180509 0.5776814222 -0.05677542463 -0.3221587837 0.6418170929
0.03358906507 -0.0326350145 0.5652641058 0.5085743666 -0.3536520004 0.6064500809
0.03694748506 -0.02566450275 0.56791538 0.6226693988 -0.3660461009 0.495524615
0.03020974621 -0.0273442436 0.5803133845 0.03682215512 -0.3328613341 0.5416226387
0.01981082186 -0.03540564328 0.5863649845 -0.5333802104 -0.4158485532 0.604896307
0.02267469279 -0.03728456423 0.5781334043 -0.2351210713 -0.4123750925 0.6352660656
0.02499300241 -0.04051646963 0.5670440793 0.1220070794 -0.4598857462 0.6518742442
0.03916417062 -0.02073173225 0.5652282834 0.7949453592 -0.3801322877 0.4665412903
0.02576851659 -0.0274044387 0.5901899934 -0.3524678349 -0.3338906169 0.5862008333
0.03609712422 -0.02296144888 0.5734645724 0.4798909426 -0.3633012176 0.4744452238
-0.01207230054 -0.09858488292 0.6532964706 0.3228538632 -0.6362585425 0.6969430447
-0.006503889803 -0.09547974169 0.6528260112 0.4119334519 -0.6213451624 0.6641088128
-0.007493239362 -0.0901132673 0.6584203243 0.3613522649 -0.6302141547 0.6835769415
-0.0055189454 -0.08516021818 0.6615287662 0.3642859459 -0.6263983846 0.6867113113
-0.01332822349 -0.0880298838 0.6618307233 0.2706376016 -0.6322489977 0.7130796313
-0.01953973249 -0.08934334666 0.664313972 0.1834103167 -0.6486023068 0.7363487482
-0.01595964469 -0.09465373307 0.6591089368 0.2497510612 -0.6461811066 0.7208373547
-0.02141617052 -0.09710555524 0.6565654874 0.1748428941 -0.6463608146 0.7389730811
-0.01743459329 -0.1012194753 0.652960062 0.2409942895 -0.6414955854 0.725345552
-0.05596948788 -0.06924027205 0.6740211248 -0.3578999639 -0.524466157 0.7701902986
-0.06585377455 -0.08490889519 0.6559631824 -0.5544908047 -0.5234271288 0.6469044089
-0.06869447976 -0.07835575193 0.6580489278 -0.5552694798 -0.5185671449 0.6496704221
-0.07248976827 -0.07680000365 0.6547310352 -0.6370081902 -0.4841396213 0.5985561013
-0.01115562394 -0.1246991903 0.6308555007 0.3782984018 -0.5995615721 0.7027267814
-0.007167860866 -0.1268627942 0.6271376014 0.4345389605 -0.5806413889 0.6882305741
-0.01953240484 -0.1189244911 0.6368098855 0.2864483297 -0.6205279231 0.7244424224
-0.01495904569 -0.1212284192 0.6333986521 0.3380518854 -0.6048887372 0.7164497972
-0.01540407445 -0.1154017746 0.6406103969 0.3133926094 -0.6203234196 0.7185643315
0.005910061765 -0.021237446 0.5698276162 -0.1069675758 -0.5438397527 0.6598326564
-0.001820415957 -0.02485568076 0.5694134831 -0.3200885952 -0.5624356866 0.6787905097
0.01702757366 -0.01858858205 0.5654926896 0.27962327 -0.5202438831 0.6274957061
0.02362102829 -0.0165625494 0.5642723441 0.4810760915 -0.4964266121 0.6131378412
0.01206760947 -0.0210623052 0.5654280186 0.1334505379 -0.5226566792 0.6434611082
-0.03279536963 -0.02360056899 0.5640070438 -0.008727769367 -0.650257051 0.7552393675
-0.02955051512 -0.0276133325 0.5604000092 -0.08125528693 -0.6429633498 0.7586386204
-0.02484789863 -0.0250437241 0.563557148 -0.1701676399 -0.6344980597 0.7535752654
-0.03774898499 -0.02120676264 0.5659965873 0.08869052678 -0.656193912 0.7453255653
-0.04217942432 -0.0248230733 0.5630551577 0.1692576408 -0.6484392285 0.7416207194
-0.03628129512 -0.02693407796 0.5609439015 0.0551305227 -0.6496491432 0.7563977242
-0.001789440401 -0.02397900447 0.5757648349 -0.4906618297 -0.5492441058 0.6742312908
0.0009763811831 -0.0184627492 0.5827133656 -0.4675766528 -0.5018984675 0.7236570716
-0.01601424441 -0.02451467142 0.567130208 -0.3115566075 -0.6102891564 0.7255019546
-0.005644747056 -0.006756542251 0.5863859057 -0.3365877867 -0.5945349932 0.7230240703
0.01562653668 -0.008735430427 0.5748117566 0.2431332022 -0.5773165822 0.6129987836
0.003359141294 -0.01191640552 0.5791783929 -0.1631782949 -0.5725917816 0.6735319495
0.02505524457 -0.009084613994 0.5699633956 0.5088928938 -0.5714744925 0.5645856261
0.009647720493 -0.00801048521 0.5781551003 0.08299833536 -0.5827283263 0.6440380812
-0.00636398932 -0.001727127121 0.591198802 -0.317530781 -0.6277441978 0.7102934122
-0.01261095051 -0.004473755602 0.585993588 -0.3021284938 -0.6312183142 0.7140366435
0.0064101303 -0.006038071588 0.5858349204 0.07232563198 -0.08571521193 0.641877234
0.01119243167 -0.00608882634 0.5829749703 0.2178131044 -0.227810353 0.631688714
0.01856984012 -0.00571055105 0.5832890272 0.4694469571 0.1847450435 0.5751640797
-0.0006029724027 -0.004510679748 0.5888749957 -0.1955594718 -0.4311544597 0.6900838614
-0.08071599901 -0.0456283614 0.5725130439 0.6708267927 -0.4874765873 0.5582008958
-0.08177451789 -0.05584650114 0.567055881 0.652320683 -0.4868260622 0.5807059407
0.005783015862 -0.1093646139 0.6286491752 0.6011456847 -0.5318616033 0.5956888199
0.01266202983 -0.1057951674 0.6231795549 0.6491754055 -0.5091166496 0.5649886727
0.0199927967 -0.1031141281 0.6249773502 0.6494684219 -0.5143296123 0.5593847036
0.01110328175 -0.1032812446 0.6313076615 0.6319565773 -0.533567071 0.5614544153
0.01763232425 -0.05082754046 0.557258904 0.06927576661 -0.1838065535 0.9328827858
0.01233974565 -0.05529439449 0.5570651293 -0.208359018 -0.3207494915 0.8409279585
0.007466925308 -0.05814173073 0.5568585396 -0.4237290323 -0.4462202489 0.7645762563
-0.03359116241 -0.1162902862 0.6418447495 0.0001436504681 -0.6254028678 0.7681580782
-0.0397006236 -0.1225252375 0.635281384 -0.1083882302 -0.6201909781 0.7659041286
-0.02974837087 -0.1204327717 0.6366830468 0.09236161411 -0.6237923503 0.7480019331
-0.04541220143 -0.1178092286 0.6392115951 -0.2291097641 -0.60579741 0.7613385916
-0.03563886508 -0.1211452261 0.6397500038 -0.05924421549 -0.6315174103 0.7701288462
-0.04025165364 -0.1166194156 0.6423230171 -0.1513233781 -0.6185230613 0.7637907863
-0.05530782044 -0.1122291684 0.637874186 -0.3980306983 -0.574023962 0.7054904699
-0.05390803888 -0.1217301339 0.6326918006 -0.3328693211 -0.5725913644 0.7484058738
-0.05103952438 -0.1176433712 0.6372643709 -0.2984778881 -0.5911637545 0.7479014397
0.002350901254 -0.03696143255 0.5590563416 -0.1596789062 -0.5616309643 0.7052261233
-0.00630877912 -0.0369252786 0.5609501004 -0.4288792014 -0.5861554146 0.6820762753
0.02549458668 -0.03195483238 0.5545942187 0.516158402 -0.4691957235 0.713506341
0.02008657902 -0.03723233566 0.5540616512 0.4174168706 -0.5059850216 0.7528554201
-0.01850056276 -0.05135061219 0.5441902876 -0.2441091239 -0.566346705 0.7849699855
-0.0811413452 -0.02658988722 0.5927246213 0.6570422053 -0.4909076393 0.5716907382
-0.07486604154 -0.02476314828 0.5871998072 0.6304925084 -0.5180873871 0.577909112
-0.07697840035 -0.02964229137 0.5851126909 0.6606938839 -0.4955976903 0.5626708865
-0.07841533422 -0.02187178843 0.5934117436 0.6305300593 -0.5157157779 0.5798099041
-0.07342644036 -0.01438321173 0.5939740539 0.5964978337 -0.542231977 0.5912894607
-0.06878490746 -0.0124735944 0.5907704234 0.5680459142 -0.5470693707 0.6145864725
-0.07122029364 -0.009472231381 0.5954408646 0.559843719 -0.5618757606 0.6087261438
0.02952027321 -0.02572176605 0.5560728908 0.5870656967 -0.4322975278 0.6814712882
0.0327360481 -0.03010493331 0.5565248728 0.6070170999 -0.4451915324 0.6546097994
-0.02806120925 -0.1166148707 0.6425285935 0.07856789231 -0.6342130303 0.7654857635
-0.05844541639 -0.08704385161 0.6600940228 -0.4682981074 -0.5587443113 0.6836537719
-0.05305321142 -0.08915870637 0.6606335044 -0.3706821203 -0.5834898353 0.7086734176
-0.02175753564 -0.1035376489 0.6517666578 0.1752991974 -0.6403384209 0.7437704802
-0.01341150887 -0.1048794836 0.649012804 0.3266740441 -0.6236299872 0.7076454759
-0.007827058434 -0.1039196327 0.6471598148 0.4216783643 -0.607442677 0.6710306406
-0.06239549443 -0.07655914128 0.6655296683 -0.4793444276 -0.5229514241 0.7028200626
-0.05802791566 -0.0737799108 0.6703823805 -0.3970678151 -0.5218071342 0.7537999153
-0.06786228716 -0.07158309966 0.6632968783 -0.5179989934 -0.4954776764 0.6954875588
-0.06200240925 -0.07071730494 0.6692556143 -0.4435973465 -0.5069802403 0.7389305234
-0.002833267674 -0.1088585407 0.6366325617 0.5295606256 -0.5814929605 0.6171033978
-0.008235930465 -0.110772267 0.6401686072 0.4294959903 -0.6100747585 0.6650583744
-0.01055304054 -0.1162251756 0.6365630627 0.4056426585 -0.600300014 0.6865445375
-0.02222460322 -0.1148815006 0.6421034336 0.1909566969 -0.6307742596 0.7436606884
-0.02389627509 -0.1098027676 0.6469517946 0.1562552601 -0.6372252703 0.7522621751
-0.01653930731 -0.1102412045 0.6438227296 0.2848843932 -0.6267294288 0.711025238
-0.004409909714 -0.01463180315 0.581485033 -0.4184836447 -0.567974329 0.7069354653
-0.007473597769 -0.01990970038 0.5749751925 -0.4136438966 -0.5835052729 0.6978604794
-0.0008066143491 -0.01539922506 0.5769701004 -0.2645504177 -0.5785890818 0.6761522889
0.01019031648 -0.01229710784 0.5747529864 0.0541096814 -0.5734491348 0.6326489449
0.0008066683658 -0.02026584931 0.5728064179 -0.2500126362 -0.5587575436 0.6740672588
0.01258902065 -0.01610319875 0.5699205995 0.146114558 -0.5339841843 0.6410976648
0.004217626061 -0.01555430982 0.5738989115 -0.09946493804 -0.5713522434 0.6539494395
0.01897184364 -0.0116576869 0.570399344 0.3347266316 -0.5672788024 0.5916776061
-0.0145118665 -0.01071012858 0.5795834064 -0.3081256151 -0.6194271445 0.7214947343
-0.01976819895 -0.009593804367 0.5777176619 -0.2435678542 -0.6355201602 0.7307927012
-0.02107360959 -0.01386576612 0.5733718872 -0.2066169828 -0.6423142552 0.733563602
-0.0243501123 -0.01667603664 0.5696795583 -0.1401368678 -0.6546506286 0.7408977151
-0.01676500216 -0.01924529299 0.5712615848 -0.2783021629 -0.6213800907 0.7255064249
-0.007028450724 -0.02685363404 0.5695461035 -0.4371897876 -0.574452579 0.6878300309
-0.01074052975 -0.022956701 0.5710049272 -0.3792028129 -0.5911512375 0.7102445364
-0.007964779623 -0.03154041991 0.5655667782 -0.4187784493 -0.5819672346 0.688367784
-0.01254530437 -0.03096184507 0.5631167293 -0.3495843112 -0.6037071943 0.7149496078
0.01541530993 -0.025956586 0.5600900054 0.2045196295 -0.476600945 0.7037172318
0.009046822786 -0.02585275657 0.562744081 0.0284639746 -0.5039017797 0.6898861527
0.02695227787 -0.0203759931 0.5589854121 0.595239222 -0.4188447893 0.6401972175
0.0220514182 -0.02489201538 0.5580773354 0.4025668204 -0.4464657307 0.7001221776
0.0008990830393 -0.03111538105 0.5718250871 -0.5338755846 -0.5589516759 0.6319782138
0.002307755407 -0.03599316627 0.5691328049 -0.4919514656 -0.6359398961 0.5921838284
-0.001599236508 -0.03025972843 0.5646852851 -0.3235322535 -0.560994029 0.6812741756
0.004863058217 -0.03121489659 0.5616761446 -0.1558137834 -0.537021935 0.6795728803
0.01075866539 -0.0312170051 0.559473753 0.03324181214 -0.5136355758 0.6926964521
0.01688723639 -0.03201762959 0.5569752455 0.2560353577 -0.4936431646 0.7185630202
-0.00151261955 -0.01151547395 0.5859575868 -0.3956296444 -0.5642155409 0.7244102955
-0.008787282743 -0.01047234144 0.5830656886 -0.3425917625 -0.5987852216 0.7231455445
0.004274666775 -0.01530347206 0.5874667764 -0.4457779229 -0.4500098825 0.7712305188
0.002985429019 -0.009910611436 0.5909138918 -0.4392497838 -0.5151951909 0.7296336889
-0.07334497571 -0.05201284587 0.5591543913 0.6188294888 -0.4997167587 0.6058692932
-0.07667572051 -0.05340419337 0.5637956858 0.6391811371 -0.4917405248 0.5908001661
-0.07828127593 -0.05114192888 0.5729250312 0.6627794504 -0.4928429127 0.5629967451
-0.07104682922 -0.0487344116 0.5637208223 0.5940015316 -0.523622632 0.6048043966
-0.07441084832 -0.04966072366 0.5683866739 0.6256510615 -0.5100191236 0.5848296285
-0.06749764085 -0.05137740448 0.5540939569 0.5659772158 -0.5221577883 0.6375003457
0.0004710459034 -0.04237229005 0.5616129041 -0.4223560393 -0.6137310266 0.6647667885
0.007481038105 -0.04208340496 0.5696765184 -0.3684380949 -0.693649292 0.6183828712
0.006536826026 -0.04547605664 0.5647519231 -0.3822658956 -0.6456467509 0.6556587815
0.009586541913 -0.04013542831 0.5748308301 -0.5078347325 -0.6807845831 0.5247327685
-0.018665649 -0.0411089547 0.5523082018 -0.2589287162 -0.6046792865 0.748908639
-0.01548475586 -0.03756218776 0.5563949347 -0.3064840436 -0.6092060804 0.7311819792
-0.02231262624 -0.03678484634 0.5545558333 -0.2040352523 -0.6211208105 0.7536295652
0.00355845294 -0.04809282348 0.5593633056 -0.3531246483 -0.6123527884 0.7035174966
0.007501820102 -0.05228601769 0.5604858398 -0.4357689917 -0.5456321239 0.7110348344
-0.0158038605 -0.04551596567 0.5494416356 -0.2998527586 -0.5892742276 0.7494311333
-0.02674419805 -0.04172454774 0.5497291684 -0.1426950693 -0.6149843335 0.7726520896
-0.03330416605 -0.04150598124 0.5494376421 -0.02949623764 -0.6247256398 0.7780603766
-0.02578768507 -0.04615809396 0.5453528762 -0.1499197334 -0.5965211391 0.7868676782
-0.03509759158 -0.05161542818 0.5407313108 -0.02969596535 -0.5970960855 0.7995055914
-0.02806735598 -0.05133312568 0.5419957638 -0.1145700514 -0.5857002139 0.7964301109
-0.04387533665 -0.1122259572 0.6448028684 -0.2130798399 -0.6201379895 0.7515478134
-0.03694717959 -0.1129860282 0.6451048851 -0.08295370638 -0.6301279664 0.7679553628
-0.04907775298 -0.109074384 0.6446639299 -0.297214359 -0.613620162 0.7230086327
-0.03447971493 -0.1084934622 0.648769021 -0.05027337745 -0.6465145946 0.7597312927
-0.02742439136 -0.1062143072 0.6502094865 0.08295169473 -0.6422845721 0.757232368
-0.05055046082 -0.09769117087 0.654427588 -0.3095885813 -0.6268225312 0.7110583782
-0.04837048799 -0.09471780062 0.6587811708 -0.2808446288 -0.6279345155 0.7224968076
-0.05507984012 -0.09412888438 0.6561720967 -0.3875400126 -0.6043097377 0.6951040626
-0.06260442734 -0.1035218239 0.6426009536 -0.5201690793 -0.5462446213 0.6545094848
-0.05153984949 -0.1047336534 0.6481543183 -0.3264865875 -0.6198995709 0.7109413147
-0.05458856374 -0.1081117913 0.6420759559 -0.3872617185 -0.5909153223 0.6972799897
-0.05344598368 -0.1003883108 0.6510090828 -0.3596487045 -0.6159512997 0.700637877
-0.05908263475 -0.09917678684 0.6491917372 -0.4648302794 -0.5783823729 0.6698867679
-0.003181057516 -0.04493179172 0.5510857701 -0.1480765194 -0.5529836416 0.754945755
-0.008610573597 -0.04814702272 0.5496633649 -0.3111567199 -0.5574940443 0.7574325204
0.01080838963 -0.04143784568 0.5525195003 0.1792220473 -0.5236471295 0.7613942623
-0.01035772078 -0.04152721912 0.5553718805 -0.3694422543 -0.5870381594 0.7190904021
-0.004772182554 -0.03998486325 0.5558443069 -0.2333781868 -0.573476553 0.7227659225
0.002058683429 -0.04044827446 0.5534485579 0.01443157904 -0.5533646941 0.7464004159
-0.01260605454 -0.0506398268 0.5474416018 -0.3297018111 -0.5563446283 0.7621929646
-0.04418546706 -0.1028130576 0.6516850591 -0.1984951645 -0.6542379856 0.729208231
-0.03871025145 -0.1058269963 0.6506371498 -0.1128427535 -0.6401942372 0.7540377378
-0.0334359929 -0.1020141095 0.6543746591 -0.01734762639 -0.6425682306 0.763898313
-0.02747583203 -0.1009243652 0.6545696855 0.08193808794 -0.6447998881 0.7566125393
-0.04465570673 -0.09896859527 0.6552730799 -0.2081434429 -0.6485213041 0.7314735651
-0.03877002001 -0.1007811204 0.6549800038 -0.1078299284 -0.6429498196 0.7530595064
-0.03372203559 -0.09521520883 0.6605471373 -0.02035247721 -0.6536579132 0.7544020414
-0.02715408616 -0.09645722806 0.6580035686 0.08501905948 -0.6486217976 0.7529041171
-0.001036477741 -0.04875893891 0.5555699468 -0.3877722621 -0.5467626452 0.7377080321
0.009039983153 -0.04884270579 0.5546259284 -0.03620315716 -0.3162123859 0.8909111619
0.004020626191 -0.05441065505 0.5547428727 -0.3940372765 -0.4318856001 0.7904445529
0.001769881346 -0.04812860861 0.5499898791 -0.1091588214 -0.5156142712 0.770331502
-0.004217970185 -0.05234607309 0.5489515662 -0.3050222695 -0.5142021775 0.7813732028
0.00632647844 -0.04513372853 0.5510792136 0.03106280789 -0.5166196823 0.7662952542
