# .PCD v0.7 - Point Cloud Data file format
VERSION 0.7
FIELDS x y z normal_x normal_y normal_z
SIZE 4 4 4 4 4 4
TYPE F F F F F F
COUNT 1 1 1 1 1 1
WIDTH 512
HEIGHT 1
VIEWPOINT 0 0 0 1 0 0 0
POINTS 512
DATA ascii
-0.08827398717 -0.1141948104 0.5714883208 -0.02089704014 -0.2447664142 0.4132114351
-0.0923236236 -0.1188055724 0.5723506808 -0.226004675 -0.09899672866 0.3514529467
-0.09735900164 -0.1254265457 0.5737197995 -0.5262447596 0.1165355369 0.2505533993
-0.08375390619 -0.1068870574 0.5709844828 0.3279264271 -0.4698916376 0.5293996334
-0.09379849583 -0.114429906 0.5779737234 0.1826255769 -0.2352226377 0.4124529958
-0.08995422721 -0.1083686724 0.5769779086 0.4244291782 -0.4001301825 0.5167358518
-0.02418833598 -0.05072647706 0.6192336082 -0.3752802312 -0.7477430105 0.5421299338
-0.110129416 -0.1488992125 0.5923537016 -0.9693686366 -0.05407705531 0.1593915671
-0.1028261036 -0.1366807967 0.5804518461 -0.9294967651 0.3313907981 0.1162979677
-0.1097594053 -0.142740652 0.5860010982 -0.9545325637 0.05075220019 0.1432608366
-0.06281369179 -0.07897140086 0.5834243894 0.2757046521 -0.7195246816 0.6352189779
-0.09755028039 -0.1191865578 0.5777643323 -0.0907798484 -0.08003085107 0.3498211503
-0.09230595827 -0.1050503924 0.5814745426 0.645108819 -0.5025029182 0.5474790931
-0.110298045 -0.1412074268 0.5985303521 -0.934104085 0.06472964585 0.2293113321
-0.108181186 -0.1457599401 0.6050793529 -0.9371861219 -0.2335407138 0.2261809111
-0.1064513251 -0.1447627395 0.6114032865 -0.919238925 -0.2678512037 0.2617829442
0.0327912271 -0.07479285449 0.6116051674 0.3528271616 -0.7511489391 0.5569602251
0.03538753465 -0.07924234867 0.6044872999 0.4041502178 -0.7360348105 0.5419052839
0.03758392483 -0.08701644838 0.6017310023 0.4156199396 -0.7144047618 0.5608483553
0.03448733315 -0.08213173598 0.6104015112 0.3827811778 -0.7239140272 0.5715031028
0.03209431842 -0.08209682256 0.6174634695 0.3938292265 -0.6806946397 0.6149635315
0.01218330394 -0.1620680988 0.6036713123 0.9239928126 -0.2625781596 0.261300832
-0.07552110404 -0.1910531372 0.6297374368 -0.4552227557 -0.5560155511 0.6929649711
-0.05091736466 -0.1839437187 0.642170012 -0.07713564485 -0.7033730149 0.7019486427
-0.1016845256 -0.1531368345 0.6061445475 -0.9406671524 -0.2187081575 0.2371569276
-0.1036142334 -0.1547267288 0.6125656962 -0.9124951959 -0.285169363 0.2922782004
-0.03402701393 -0.04998258501 0.6147545576 -0.1686968803 -0.7954425812 0.5789784193
-0.02164037153 -0.09790504724 0.5673103929 -0.4278229177 -0.6414250135 0.6350502372
-0.07186239958 -0.08774554729 0.5782274008 0.4134463668 -0.6795962453 0.6045557261
-0.07045388222 -0.08364613354 0.5832484365 0.4024129808 -0.6798378229 0.5975208282
-0.07287105918 -0.09944469482 0.5661118031 0.431710124 -0.6723985672 0.5956539512
-0.06386486441 -0.08542529494 0.5756687522 0.28436023 -0.7190130949 0.6328754425
-0.05854245648 -0.08147386461 0.5792890191 0.2037996799 -0.7440055013 0.6354041696
0.02592703141 -0.1007850692 0.5862995386 0.2913677692 -0.660354495 0.6907501221
-0.08817906678 -0.129458338 0.6723113656 -0.641415 -0.5915185213 0.480016619
-0.08413338661 -0.1301466972 0.6812650561 -0.5603502989 -0.6309033036 0.5285286903
-0.06055208296 -0.1351843923 0.6934920549 -0.2331991792 -0.7139572501 0.6580170989
-0.05459872261 -0.1407343447 0.6899471283 -0.1625144482 -0.7283994555 0.6645016074
-0.06293340027 -0.09767018259 0.5629771948 0.2992561162 -0.7540485859 0.5833649635
-0.05406606942 -0.09065753222 0.5661547184 0.193948552 -0.7891381979 0.5822110176
-0.08997071534 -0.09943081439 0.5852179527 0.6092424393 -0.6024416089 0.5148258209
-0.09971409291 -0.1450141519 0.6269681454 -0.8463947177 -0.3812074363 0.3688498139
-0.1005508602 -0.1484976709 0.6206093431 -0.8778045774 -0.333314687 0.3372760713
-0.09812347591 -0.1124435216 0.6004082561 0.2341070175 -0.4753137231 0.4602372944
-0.1028104722 -0.1435184926 0.6165124774 -0.8030222654 -0.3178706467 0.3242498338
-0.1017391831 -0.1388752162 0.6119349599 -0.6072272062 -0.3399532139 0.3472771347
-0.09685768932 -0.1087994799 0.5943281054 0.4345456362 -0.4909909368 0.4814118445
-0.100950405 -0.1336889863 0.6061754227 -0.4297879934 -0.344296813 0.3491584957
-0.09918888658 -0.1231109723 0.6011584401 -0.0601897873 -0.4076209664 0.4065419137
-0.1003912538 -0.1296241879 0.600251317 -0.2951184809 -0.3352517784 0.3381276429
-0.103610009 -0.1475890726 0.6010633111 -0.9370042682 -0.1633217782 0.1768598408
-0.1024673954 -0.1416536123 0.6034815311 -0.7199850082 -0.2425648868 0.2523805499
-0.1014105529 -0.1389187276 0.5889700055 -0.8389489055 0.06741799414 0.1434784979
-0.09952179343 -0.1286505312 0.585542202 -0.5036954284 0.02362453938 0.2091460824
-0.1018246785 -0.1376562864 0.5965037942 -0.6140124202 -0.1964077204 0.230160743
-0.0979398489 -0.1158678457 0.5907440782 0.1323348284 -0.3385155797 0.384462148
-0.1026190296 -0.1439399123 0.5941523314 -0.9219197035 -0.02506894805 0.1460117251
-0.1003528163 -0.1296190917 0.5939010978 -0.349745214 -0.2332957089 0.2823543251
-0.09936576337 -0.1322987974 0.5765801668 -0.8579053283 0.3698997796 0.08522280306
-0.09576521814 -0.1046290025 0.588318646 0.5463421345 -0.4475197196 0.4786398709
-0.1080991104 -0.1388445348 0.605371356 -0.9027434587 -0.02598747425 0.2552669942
-0.1051935181 -0.1242780685 0.588308692 -0.289114058 -0.05551153794 0.3185860515
-0.1007838249 -0.1169458479 0.5960385203 0.03454797342 -0.3186261058 0.4069847465
-0.1018170193 -0.1276174039 0.6146044731 -0.4095083773 -0.3892745078 0.3816078305
-0.1025647074 -0.1266873628 0.6083478928 -0.3750109375 -0.3125506639 0.3677516878
-0.1035406366 -0.1230164841 0.5945897102 -0.2289393395 -0.1761025786 0.3509458899
-0.1103731245 -0.1382479221 0.591422081 -0.889614284 0.1743817031 0.2119618803
-0.1071871147 -0.130034402 0.5903705359 -0.5358469486 0.02736649849 0.2773494124
-0.1069821715 -0.1330392361 0.5983438492 -0.6583941579 -0.03429549187 0.2797146142
-0.1037685424 -0.1339666098 0.6182485819 -0.6804128289 -0.3187007606 0.3408692479
-0.09933974594 -0.1173490807 0.6049522161 0.02520859614 -0.4462273121 0.4344722927
-0.1055281609 -0.1346630454 0.6100904346 -0.7178806663 -0.1807682216 0.3067566752
-0.09369143844 -0.09928007424 0.5902090073 0.6556732059 -0.5577888489 0.5074709058
-0.09838283807 -0.1105860397 0.5870613456 0.264867723 -0.2968698144 0.4162294269
-0.1072929427 -0.1338258088 0.5830183625 -0.7777386904 0.2369861156 0.1941351742
-0.101707451 -0.1188646704 0.5859581828 -0.1007936671 -0.1135368496 0.3402496576
-0.1027203426 -0.1270709783 0.5797557831 -0.5503081083 0.1718822271 0.2173982114
0.03549861535 -0.08255676925 0.5984758139 0.4189695418 -0.708386302 0.5674648285
0.006926102098 -0.0784638077 0.6281490922 -0.4228646457 -0.565713346 0.7059877515
-0.08536276966 -0.06295487285 0.6224051118 0.5417949557 -0.6557069421 0.5245934129
-0.07937524468 -0.05464165285 0.6242553592 0.4760142863 -0.7066464424 0.5220547915
0.01874956489 -0.1038389727 0.5857577324 0.05899037048 -0.4838297963 0.8425233364
-0.08942905068 -0.158744961 0.6370350718 -0.7450463772 -0.4737622142 0.4690223038
-0.08958322555 -0.1668637246 0.6281715631 -0.7470115423 -0.4293118715 0.503126502
-0.06909528375 -0.1870592088 0.6320499778 -0.3862966895 -0.5984954238 0.6941275001
-0.04255476594 -0.1936842948 0.6318011284 0.04762047529 -0.7240526676 0.6759241819
-0.0491473414 -0.1945052743 0.6289141774 -0.0544693023 -0.7102840543 0.6622340679
-0.06184601411 -0.1943045855 0.629380703 -0.2310777754 -0.6883113384 0.6715840697
-0.03472400457 -0.1945646703 0.6293260455 0.1494536996 -0.7355439663 0.6581139565
-0.03964598849 -0.1769858152 0.6484768987 0.08913711458 -0.7291801572 0.6756373048
-0.05588056147 -0.1934932619 0.6315044761 -0.140784964 -0.700320363 0.6804761887
-0.04854637757 -0.1888935417 0.6351653934 -0.0335466899 -0.7007680535 0.705047965
-0.07113357633 -0.183494702 0.6364717484 -0.424197197 -0.5907076001 0.6810861826
-0.07184343785 -0.1774747819 0.640568614 -0.4561500847 -0.5954226851 0.6557636261
-0.06379280984 -0.1845639795 0.6383915544 -0.3026890159 -0.6361628175 0.7081010938
-0.05687149987 -0.1849363148 0.6402279735 -0.1818722934 -0.6804420352 0.7054456472
-0.05526194721 -0.1903439313 0.6366029978 -0.1329384893 -0.6968114376 0.7034246325
-0.06179939583 -0.1897638589 0.6345918775 -0.2362679392 -0.6570424438 0.7123776674
0.007663867902 -0.1615724266 0.6183100343 0.8311046958 -0.4412800074 0.3368093073
-0.004496641923 -0.1823874116 0.6224831939 0.6814053059 -0.5571210384 0.4711773992
0.0009275278426 -0.1794696301 0.6211650968 0.7514616847 -0.5202352405 0.4011220634
-0.047850959 -0.09114406258 0.5639036894 0.01422548108 -0.7997239232 0.5934258699
-0.02794700302 -0.09933274239 0.5630677342 -0.3576953411 -0.6747429371 0.6267805696
-0.03344141692 -0.09223917872 0.5674718022 -0.2861176729 -0.7270909548 0.621314764
-0.0239774622 -0.09319704771 0.5718396306 -0.3954535127 -0.6607849002 0.6375619173
0.01062357519 -0.1371325254 0.61312747 0.4713615179 -0.5481613278 0.4524579346
0.01071051881 -0.1303905249 0.6137109399 0.4511134326 -0.558144033 0.5073490739
0.01068491396 -0.1331946403 0.6081880927 0.3226489723 -0.604667604 0.4816299975
0.01090376731 -0.118596226 0.5941491723 -0.1179001331 -0.7731446624 0.592113018
-0.07649575174 -0.0860260427 0.5839316845 0.4991872907 -0.6467844248 0.5756556392
-0.07126860321 -0.09231542796 0.5721299648 0.4156452417 -0.6704150438 0.6110335588
-0.06589924544 -0.09156727046 0.570176661 0.3422530293 -0.7058512568 0.6173411608
-0.0601657331 -0.09325378388 0.5658222437 0.2649942935 -0.7632306814 0.5858092904
-0.05703761801 -0.08485539258 0.5736824274 0.187407136 -0.7450145483 0.6365281343
0.009955614805 -0.07176752388 0.6316434741 -0.3602946699 -0.6138206124 0.6790278554
0.01433257665 -0.0763668865 0.6298342943 -0.2457333207 -0.5967571735 0.7367820144
0.03109429032 -0.09702080488 0.5881438255 0.3894245028 -0.6133294702 0.6862539053
-0.01831406541 -0.09563244134 0.5730125904 -0.4694881141 -0.6272501349 0.6193199754
-0.07382588834 -0.1323048323 0.6910104156 -0.4440656006 -0.6784192324 0.5848476291
-0.07123441994 -0.1398100555 0.6820321083 -0.4745106995 -0.6649602056 0.5729877353
-0.07940879464 -0.1310904771 0.6856199503 -0.5161883831 -0.652359128 0.5549568534
-0.06671121716 -0.1337909549 0.6929283738 -0.3111768663 -0.7085253596 0.6291837096
-0.02969868854 -0.1371861696 0.6916246414 0.1844445169 -0.737198174 0.6485356688
-0.08098073304 -0.09699602425 0.5746322274 0.518451333 -0.6307302117 0.576076448
-0.07843486965 -0.1005921811 0.5696995854 0.5044913292 -0.6234953403 0.5955340862
-0.08434546739 -0.09135804325 0.5853699446 0.592186451 -0.6097947359 0.5262268782
-0.07830885798 -0.09241022915 0.5778104067 0.5151964426 -0.6325871348 0.5770956874
-0.08402572572 -0.09653610736 0.5807096362 0.5606221557 -0.6191583872 0.547614336
-0.08762225509 -0.1019904241 0.5792419314 0.5944761634 -0.5764242411 0.5573762059
-0.03175177798 -0.08020447195 0.5824816823 -0.2476445138 -0.7192957997 0.642778635
0.02362967283 -0.07225360721 0.6192297935 0.1361224353 -0.7134304643 0.6579893827
0.01340046152 -0.06881600618 0.6252580285 -0.2253947109 -0.730461061 0.5861535072
0.02997684106 -0.07662592083 0.6200696826 0.3163558245 -0.7257546186 0.6075324416
0.02215013281 -0.07574889809 0.6089215279 0.04495501146 -0.7367156148 0.5425812602
0.01277596597 -0.07442741096 0.613086164 -0.2124871761 -0.7334045768 0.5505462289
0.008604783565 -0.07614608109 0.607205987 -0.2711533904 -0.6609250307 0.5324023366
0.01895950735 -0.07400915027 0.6146636605 -0.07392237335 -0.7752973437 0.5574207902
-0.1021171957 -0.1373024881 0.6342913508 -0.8285441995 -0.4152641296 0.3755819798
-0.07843522727 -0.1361310482 0.679089725 -0.5518157482 -0.641201973 0.5306434631
-0.0893964842 -0.06172601134 0.6283400059 0.5359520316 -0.6626688242 0.522420764
-0.009339894168 -0.1847344488 0.6243693233 0.6002591848 -0.5828234553 0.5354745388
-0.02537410334 -0.1906782985 0.6286821365 0.310153991 -0.6776800752 0.6420653462
-0.01956774853 -0.1856761277 0.6310424209 0.434863627 -0.6221103072 0.6458619833
0.001188783324 -0.1628473401 0.6294291615 0.7762428522 -0.4715584219 0.40479213
-0.002916011261 -0.1656033546 0.634804666 0.7128196359 -0.5127973557 0.4756408036
0.006436442491 -0.1589090377 0.6262590885 0.8153786063 -0.4407320917 0.3694595993
0.003527592402 -0.1746591032 0.619160533 0.7913125753 -0.4941310883 0.357000947
0.004819024354 -0.08505601436 0.6131291986 -0.6702234149 -0.464020431 0.5758733749
0.022880245 -0.09696208686 0.6044180393 0.07407605648 -0.7828636765 0.5363990068
0.02008902095 -0.09419620037 0.6118290424 0.05930246785 -0.770750463 0.5588579178
0.02597807907 -0.08858407289 0.6147219539 0.2318102419 -0.7176198363 0.5922167301
0.03007950075 -0.09342953563 0.6025676131 0.2438726276 -0.7407891154 0.5537050962
0.02759772539 -0.09144877642 0.6083825827 0.2248292863 -0.7333078384 0.5702992082
0.03949861601 -0.08991722763 0.5953753591 0.4410908818 -0.7034890652 0.5571672916
0.03252083063 -0.08972807229 0.592408061 0.3802757859 -0.7226579785 0.5756819248
0.03363242745 -0.1004298478 0.5928201675 0.3704845011 -0.6162270904 0.6545761228
0.0334973596 -0.09580996633 0.5966508985 0.3177399039 -0.7015767694 0.5775840282
0.00904853642 -0.09133596718 0.6169883609 -0.3813111484 -0.6509764791 0.6259858012
0.009008588269 -0.08773122728 0.6226386428 -0.372281611 -0.6117944121 0.6819846034
0.01931375824 -0.1029139087 0.6021350026 0.2576415837 -0.6441990137 0.7059759498
0.02132920176 -0.1055974588 0.5968962908 0.2777138054 -0.6784268022 0.6637441516
0.02737861499 -0.1021940783 0.5962100029 0.3471560776 -0.6163214445 0.6912398934
0.03117990494 -0.1045056656 0.5886618495 0.3738743663 -0.6293735504 0.6732887626
0.01966894791 -0.1103288829 0.5922432542 0.2470737398 -0.7468694448 0.6071997881
0.01347583998 -0.1067428291 0.6025000811 0.1651539654 -0.7024840713 0.6783419847
0.01702166721 -0.1160151139 0.5894547105 0.06821177155 -0.779463768 0.5747823119
0.02451453917 -0.1073213592 0.5868768096 0.2744826972 -0.7004597783 0.6525943279
-0.04927848279 -0.1712634712 0.6539832354 -0.06902637333 -0.7377160192 0.667616725
-0.04232967272 -0.1725244373 0.6528570056 0.04116001353 -0.7360113263 0.6723216772
-0.1088301688 -0.1536976844 0.5977844596 -0.9621667266 -0.1957863271 0.1792905927
-0.1030344069 -0.1658090204 0.6098226905 -0.9088578224 -0.2840297222 0.3013429046
-0.1053164378 -0.1613890827 0.6056550741 -0.9287097454 -0.2541568875 0.2546949983
-0.1043479294 -0.1447798014 0.588124454 -0.9479700327 0.07418528944 0.1143823788
-0.09879526496 -0.1593018323 0.6233759522 -0.8534388542 -0.338732481 0.3944039643
-0.09661206603 -0.1639828086 0.6163280606 -0.8613928556 -0.3251651227 0.3754943013
-0.09448584169 -0.1676254869 0.6234548688 -0.800234139 -0.3605249822 0.47658059
-0.09940496087 -0.1735641807 0.6142852902 -0.8536784649 -0.3257008195 0.3961396515
-0.09949582815 -0.1590366215 0.611789465 -0.9045119286 -0.2849519849 0.3141451478
-0.09043836594 -0.1728137285 0.6265605688 -0.7118726969 -0.4416484535 0.5389644504
-0.08721124381 -0.1703938693 0.6323049068 -0.6695490479 -0.4882348478 0.55384624
-0.08569862694 -0.1825906932 0.6288570166 -0.6070913672 -0.495031625 0.6115888953
-0.01366382185 -0.1829291284 0.6291202307 0.5411880016 -0.5869113803 0.5944491625
-0.007186954841 -0.1789721698 0.6292027235 0.6298452616 -0.5664143562 0.5112296343
-0.01428993512 -0.1790558994 0.6345797777 0.522983253 -0.6071577668 0.5961031914
-0.02973690443 -0.1431262493 0.6858075261 0.1973100752 -0.7304027677 0.6498869658
-0.02494430728 -0.1393302679 0.6872040629 0.2303868383 -0.7320502996 0.6409534812
-0.02017665654 -0.1391398609 0.6830589175 0.2947696149 -0.722361207 0.6238665581
-0.03971648961 -0.09043113887 0.5649373531 -0.1834406704 -0.7749109268 0.597859323
-0.04426847026 -0.09684178978 0.5530365109 -0.09776792675 -0.7842433453 0.6059165001
-0.04158844054 -0.09366006404 0.55862993 -0.1517703682 -0.7778923512 0.6015424728
-0.04949726537 -0.09575542808 0.5565387011 0.03761400282 -0.8012171984 0.5930067897
-0.03494874388 -0.05452784523 0.6091784239 -0.168905884 -0.7690646052 0.6157901883
-0.04008891433 -0.05713253096 0.6051490307 -0.1144850552 -0.7660159469 0.6278284192
-0.04469913244 -0.053198535 0.6096654534 -0.03638381138 -0.7974792123 0.6016526222
-0.04077317566 -0.06193915009 0.5994330645 -0.0943883881 -0.7532461882 0.6448529363
-0.03457455337 -0.06043567508 0.6024423838 -0.2002512515 -0.7457581162 0.6345758438
-0.05169281363 -0.05225464329 0.6114029288 0.06067282706 -0.7971342802 0.5965511203
-0.06671759486 -0.0647919029 0.6012689471 0.3525184691 -0.7168745995 0.5981414318
-0.01766482182 -0.06618838012 0.6033399105 -0.4469275177 -0.6786484122 0.5814726353
-0.01656769961 -0.06298717856 0.6099910736 -0.4706326127 -0.6708413959 0.5700039268
-0.02672160789 -0.05549910665 0.6114916205 -0.3363838792 -0.7344660163 0.5868368745
0.009505259804 -0.1507030427 0.6030826569 0.6202343702 -0.2343301624 0.350772351
0.01002816483 -0.1399980932 0.6022683978 0.181014508 -0.2882327139 0.5365789533
0.01211997308 -0.1409875154 0.5944658518 0.2757283151 -0.1498728395 0.4726536274
0.01014134753 -0.1468963325 0.5979934335 0.4748938382 -0.1765120775 0.3913904428
0.01411135681 -0.1532244831 0.5970258117 0.8451794982 -0.1006559953 0.2591691911
0.01129554585 -0.1492507607 0.6109423041 0.6732674837 -0.4596981704 0.3674930334
0.01101387385 -0.1343663633 0.6001939774 0.202758953 -0.6482541561 0.4758463502
0.01259158831 -0.1544144452 0.6083743572 0.8688174486 -0.2938395441 0.2928779125
0.01135565154 -0.1547043025 0.6151068807 0.844496429 -0.3942248523 0.3291246593
0.009815078229 -0.1231758744 0.5906500816 -0.4471255243 -0.3565280139 0.7237603664
0.01190190669 -0.1322282702 0.5925649405 0.1113257483 -0.5038724542 0.4873842299
0.01042757463 -0.14339903 0.6086153984 0.3588548601 -0.3393370807 0.4915996492
0.01040456165 -0.1512176543 0.6233749986 0.8075137734 -0.3967772126 0.3520406187
0.006313777994 -0.1516650766 0.6332372427 0.7887947559 -0.4640809298 0.4004764259
0.004917936865 -0.09763796628 0.5818573236 -0.2350562364 -0.6128302813 0.6146785021
0.01490636449 -0.09676973522 0.585226357 -0.004581128247 -0.6331170201 0.6348282695
-0.008557301015 -0.09337442368 0.5831031203 -0.5747154951 -0.5989640951 0.5571306348
-0.06333504617 -0.1729923487 0.646856606 -0.321275562 -0.6698325276 0.6501617432
-0.07027022541 -0.1726567894 0.6452497244 -0.4357874691 -0.6351898909 0.6324968934
-0.07503974438 -0.1709657609 0.6408952475 -0.5163701177 -0.5998969078 0.6031147838
-0.08097928762 -0.1394038051 0.6732051373 -0.5932127237 -0.6211851239 0.5101022124
-0.09191513062 -0.1341271549 0.6667128801 -0.6984393597 -0.5542775393 0.45250386
-0.0840966627 -0.1343373805 0.6764844656 -0.5854206085 -0.6187740564 0.5176820755
-0.03001382574 -0.08872625977 0.5719562173 -0.3151643872 -0.7129144669 0.6227414608
-0.02455547266 -0.08208630979 0.5830815434 -0.3498314917 -0.6941251159 0.6290503144
-0.02728710696 -0.08595158905 0.5767256618 -0.3309955597 -0.691277504 0.6411072016
-0.01262042858 -0.08768227696 0.5848042965 -0.5459182262 -0.614380002 0.5671566725
-0.01088011544 -0.08540332317 0.5909035206 -0.5725755095 -0.6103618741 0.5351044536
-0.01769563369 -0.082527861 0.5873919129 -0.4548863769 -0.660676837 0.5903576612
-0.05157047883 -0.08322229981 0.5753875971 0.08568777889 -0.744846344 0.6529486179
-0.04972386733 -0.08672143519 0.570505619 0.08540355414 -0.7694548368 0.6211298704
-0.03085982241 -0.07544859499 0.5873785019 -0.261808455 -0.7166178226 0.6426922679
-0.001627010526 -0.09256568551 0.5968793631 -0.6862645745 -0.5535830259 0.4616254866
0.002858801279 -0.0955728516 0.6038076878 -0.5915283561 -0.6126624942 0.5043069124
-0.002618319821 -0.08607069403 0.6015257835 -0.7137961388 -0.5303100348 0.4539720118
0.007768235635 -0.1105013937 0.6024900675 -0.4457953572 -0.5564455986 0.5904413462
0.009074718691 -0.1245792061 0.6002161503 -0.2744120657 -0.3499346077 0.6503801346
0.008807005361 -0.1249575391 0.6073926687 -0.07202722877 -0.4579358399 0.544914484
0.01006802637 -0.1438649595 0.6161376238 0.4805749059 -0.365691334 0.4508580863
0.008489822038 -0.1178596839 0.6003764868 -0.381493926 -0.433991909 0.6354561448
0.008684129454 -0.1292881668 0.623041153 0.4761893749 -0.5641794205 0.5363009572
0.008031571284 -0.1367527694 0.6274305582 0.5738821626 -0.5322467089 0.4845636189
0.009658431634 -0.1094779819 0.6107857227 0.09197225422 -0.6495296359 0.6398943663
0.007143128663 -0.1163189784 0.6131566763 -0.1390284002 -0.6212992072 0.5055094361
0.008759757504 -0.1356104016 0.6199933887 0.3968133628 -0.505852282 0.4182488024
0.009954262525 -0.1234844178 0.6178352833 0.4381668866 -0.5782197118 0.5766774416
0.009194605984 -0.1474535912 0.6275717616 0.7737467289 -0.4516326189 0.3936806321
0.01014216617 -0.141738981 0.6226139069 0.7013311386 -0.4674380422 0.4257229269
-0.0855865851 -0.1596582383 0.6420624256 -0.6799060106 -0.5323194265 0.4935812652
-0.08807271719 -0.1645557582 0.6349005699 -0.7031140327 -0.4845050275 0.5140191913
-0.08277305216 -0.164908126 0.642675817 -0.6012288332 -0.5972166061 0.5292569995
-0.08198706061 -0.1872652173 0.6310120225 -0.5409083962 -0.530975461 0.6505035758
-0.07729567587 -0.1780413687 0.6384356022 -0.5209429264 -0.5685667396 0.6342077255
-0.08312716335 -0.1687133014 0.6372158527 -0.6037840843 -0.5403625369 0.5802119374
-0.05332489312 -0.1787073314 0.6469103694 -0.1474291831 -0.704675734 0.6887526512
-0.04488544166 -0.1798950434 0.6460419297 0.0205027312 -0.7202922106 0.6932861805
-0.05522305891 -0.1733188927 0.6507993937 -0.1657921374 -0.7264512181 0.6654242277
-0.04711001366 -0.1755489111 0.6492618322 -0.02441924252 -0.7253297567 0.6840623021
-0.05993621424 -0.1780178994 0.6431168318 -0.2770728171 -0.641885519 0.6892966032
-0.06579571217 -0.1792770177 0.6388198137 -0.3848992288 -0.5914151073 0.6922438741
0.003490490839 -0.07264619321 0.625652492 -0.4986620247 -0.5912151337 0.6246829629
-0.0004466708924 -0.06604361534 0.6246855259 -0.5733952522 -0.6068587899 0.5490469337
0.008150454611 -0.06966263056 0.6186103821 -0.3236777782 -0.72200948 0.5486484766
-0.00019469166 -0.06106645986 0.6306478977 -0.5458188057 -0.6366673708 0.5425256491
0.004610709846 -0.0641522631 0.6328416467 -0.4705746472 -0.6659030318 0.5711639524
-0.09417868406 -0.133547172 0.660705924 -0.7283351421 -0.5227637291 0.4348042011
-0.01035240944 -0.07509357482 0.6027622819 -0.5737303495 -0.6166388988 0.5346495509
-0.003939688206 -0.08493518829 0.5951895118 -0.5384402871 -0.6004988551 0.5210670829
0.01420504041 -0.08672697097 0.5933856368 -0.05102849752 -0.6767696738 0.5562987328
-0.005721008871 -0.0787480697 0.5989445448 -0.5177321434 -0.6134940982 0.5273456573
0.002500213915 -0.07732085139 0.6033242941 -0.3802545369 -0.6225662231 0.525396347
0.0209057238 -0.07774095982 0.6024096608 0.07140599936 -0.6927872896 0.529358387
0.01233867276 -0.07901588082 0.5997430086 -0.1017755494 -0.6723704338 0.5323290229
0.02980485372 -0.07955171168 0.6007270813 0.2940374911 -0.7265906334 0.5389496684
0.02889378555 -0.08422344923 0.5961868763 0.300437659 -0.7287950516 0.5600706935
0.001203346299 -0.08106297255 0.5968340039 -0.3403739035 -0.640361011 0.5390188098
0.02146053687 -0.08471253514 0.5950831175 0.1361147612 -0.7064879537 0.560528636
0.007414876483 -0.08343949914 0.5950961113 -0.1870300472 -0.6619842649 0.5513579249
0.001571194269 -0.06980961561 0.6148530841 -0.4195545912 -0.6804984212 0.5452834964
-0.007558978163 -0.06814923882 0.6129187346 -0.5871651173 -0.6089059711 0.5318161249
-0.006171767134 -0.07287564874 0.6082289219 -0.5673921704 -0.6112759709 0.5346039534
0.004728668835 -0.0741488114 0.611979425 -0.3864216208 -0.6888023615 0.5452411175
-0.01136350445 -0.06954604387 0.606144309 -0.5427822471 -0.6305112243 0.5519547462
-0.1040092558 -0.1386884153 0.6271680593 -0.8716901541 -0.3570809066 0.3344978094
-0.09435462207 -0.1570893526 0.6332619786 -0.8079615235 -0.4206230044 0.4114404023
-0.101009272 -0.1481026858 0.6322069764 -0.8290709257 -0.4086691737 0.381572485
-0.09561624378 -0.1608846337 0.6282297969 -0.8086765409 -0.3845595717 0.4420982897
-0.1006483808 -0.1529835612 0.6256522536 -0.8634482622 -0.3457177579 0.3633084595
-0.09001731128 -0.08868162334 0.5988565683 0.6263839006 -0.5917637944 0.5069735646
-0.09378036112 -0.09431129694 0.5980430245 0.6409429908 -0.5826518536 0.4996706247
-0.09034700692 -0.09392373264 0.5915315151 0.6312894821 -0.5869624615 0.5065124035
-0.08608469367 -0.08772587776 0.5924526453 0.6121254563 -0.5984658599 0.5164658427
-0.05888088793 -0.05343706533 0.6115718484 0.1957359314 -0.7774847746 0.5905042291
-0.06109995395 -0.04915023968 0.6172845364 0.2304175943 -0.787529707 0.5702271461
-0.06543013453 -0.05478680879 0.6132615209 0.3441607058 -0.7545861006 0.5572753549
-0.0712710917 -0.05599317327 0.6152555346 0.4270237386 -0.7331285477 0.5267037749
-0.0747987479 -0.06431953609 0.6081217527 0.4812918007 -0.6855576634 0.5456306338
-0.06355300546 -0.05893869698 0.6067573428 0.3088219464 -0.7409229875 0.5961015821
-0.07566142827 -0.06012247875 0.6142574549 0.4832963943 -0.7008660436 0.5234495401
-0.08333256096 -0.06619238108 0.6159023046 0.563076973 -0.6420823932 0.519708395
-0.08054132015 -0.05977726355 0.6196309328 0.5125263333 -0.6786879897 0.5254076719
-0.09072740376 -0.07121076435 0.6171132922 0.5850417018 -0.625777483 0.5156183839
-0.09295575321 -0.06732866913 0.6259829402 0.5637827516 -0.6421909332 0.518904984
0.0008231949178 -0.1691643894 0.6289615631 0.7543520331 -0.4972990453 0.4264118075
0.002802472329 -0.08977912366 0.6063914299 -0.674341619 -0.5084972382 0.5227407217
0.006875070743 -0.09249859303 0.6097792983 -0.6760365963 -0.4783585966 0.5593402386
0.006819111295 -0.101632975 0.605445981 -0.5255519748 -0.6466343999 0.5436028242
0.02107679658 -0.07799607515 0.6254256368 0.02950179763 -0.6375686526 0.7361591458
0.01989325695 -0.0895260796 0.6189777255 0.09373208135 -0.7264834642 0.6294771433
0.02660175599 -0.08389557153 0.6214784384 0.2949533463 -0.6802259088 0.6353660822
0.01384186372 -0.09190975875 0.6204544902 -0.1666473597 -0.6822180152 0.6820497513
0.01638439111 -0.08644925058 0.6259126067 -0.1059074998 -0.6069601774 0.7610686421
0.01280666422 -0.09645660222 0.6150607467 -0.1627486199 -0.7637040615 0.5974035263
0.01509899087 -0.08235858381 0.6299573183 -0.1930139363 -0.5722097754 0.7815756798
-0.05297674984 -0.1360719949 0.6940410137 -0.1428970397 -0.7135464549 0.6814553738
-0.04714979976 -0.1364652812 0.6941699386 -0.03605856746 -0.7313963771 0.6770278811
-0.04331025481 -0.1414134204 0.6886224151 0.03219085187 -0.7453258634 0.6647096872
-0.03579894453 -0.1368431151 0.6938446164 0.1091011837 -0.7360269427 0.6678653359
-0.03626303747 -0.1438528895 0.6851757765 0.1322512925 -0.7414993048 0.6561595798
-0.08420295268 -0.1755467206 0.6285639405 -0.6481382251 -0.4504076838 0.6077513695
-0.0776276961 -0.1825428009 0.6294465661 -0.5450389981 -0.5000897646 0.6636517048
-0.07884666324 -0.1772338301 0.6319770217 -0.5720480084 -0.5046537519 0.6379371285
-0.06917694956 -0.1937123686 0.6286146641 -0.3429382443 -0.6469504237 0.6763339639
-0.09322814643 -0.1785108745 0.6196646094 -0.7446773052 -0.3872992694 0.5428450108
-0.08320832253 -0.1872350276 0.6246950626 -0.5723903179 -0.4897227287 0.6364060044
-0.09342292696 -0.1723405421 0.6185615659 -0.7908963561 -0.3582810163 0.4723917544
-0.08832880855 -0.1824702024 0.6216945052 -0.6704943776 -0.4254875481 0.595867455
-0.03194896132 -0.1894033998 0.6344299912 0.1935898364 -0.6995814443 0.6838734746
-0.01368407439 -0.1741413176 0.6390037537 0.5296612382 -0.6064844728 0.5906178951
-0.008203575388 -0.1729363203 0.6336265802 0.6087499261 -0.5681375265 0.5529135466
-0.03240206838 -0.1698522866 0.6545119882 0.1891265363 -0.7345070839 0.6472406387
-0.02496500313 -0.1666047871 0.6562495232 0.3107945323 -0.7237815261 0.6158516407
-0.03075544164 -0.1664183885 0.6589717269 0.2177666724 -0.7329166532 0.6409595609
-0.04093914479 -0.1828456074 0.6413738132 0.07635185868 -0.7115286589 0.6950418353
-0.04209413379 -0.1878799051 0.635738492 0.05604918674 -0.7117372751 0.6973209977
-0.0348398909 -0.1844583303 0.6394466758 0.1622475386 -0.7056805491 0.6887841821
-0.0293048732 -0.1832166016 0.6397814751 0.242586121 -0.6865240335 0.6821736097
0.003549802117 -0.1666478962 0.6198624969 0.8076735735 -0.4664516151 0.3562615514
-0.001676057349 -0.1727507263 0.6233725548 0.7446471453 -0.5046150684 0.4296950698
0.008576376364 -0.1594014615 0.6087054014 0.9107045531 -0.284203887 0.2571420074
0.008344195783 -0.1656536162 0.6113424897 0.8592827916 -0.3960996568 0.3109674454
-0.05593677983 -0.0979988724 0.561660409 0.1552945822 -0.7668622732 0.5942359567
-0.05136144534 -0.09994059056 0.5508880615 0.05842803046 -0.792237699 0.5958547592
-0.0561440438 -0.1004912779 0.5551227331 0.149046883 -0.773373425 0.5925715566
-0.03655553237 -0.09694856405 0.5637375116 -0.202053532 -0.7303828001 0.6198436618
-0.03788221255 -0.1005189121 0.5567573905 -0.1946978122 -0.7324790359 0.6187999845
-0.0564744845 -0.05737784505 0.6059165001 0.1628245413 -0.7663602233 0.6172481775
-0.06110464409 -0.06189302728 0.6018864512 0.259732157 -0.7376775146 0.6180146933
-0.05252707005 -0.0594592914 0.6022102833 0.1068040133 -0.7580263615 0.6353909373
-0.04678979144 -0.05802143738 0.6034349203 -0.001684493502 -0.7686969638 0.6348357797
-0.02831046097 -0.07181277126 0.5930969119 -0.2990625203 -0.7083099484 0.6355136037
-0.02846294828 -0.05998308957 0.6053298712 -0.2994537354 -0.7257828712 0.6180482507
-0.0254835207 -0.06490601599 0.6020540595 -0.3524657786 -0.6973797083 0.6236246824
-0.02057196386 -0.0752697289 0.5937843323 -0.4137814641 -0.6788577437 0.6011436582
-0.02383224666 -0.07785843313 0.58849895 -0.3692023158 -0.687980473 0.6199854016
-0.01469679363 -0.07578694075 0.5968059897 -0.5112831593 -0.6468521953 0.5643496513
-0.02295641787 -0.06955305487 0.5972592831 -0.381141454 -0.6876890063 0.6143258214
-0.01141444501 -0.1015270576 0.5728378296 -0.5467884541 -0.5818362832 0.601827383
-0.01539563853 -0.1025253236 0.5684580207 -0.5195422173 -0.5751340389 0.6314599514
0.01759110391 -0.1113087386 0.5851791501 0.06785654277 -0.6962655783 0.592651546
0.00611323351 -0.1141670421 0.5817206502 -0.4244484007 -0.6065552235 0.5811319351
0.01152984146 -0.11696475 0.5866943002 -0.2124575377 -0.7280853987 0.5541827083
0.00436488213 -0.1011119261 0.5993506312 -0.5923187733 -0.6218059063 0.4960723519
0.002525820863 -0.09981824458 0.5936531425 -0.6867712736 -0.5700469613 0.4474012852
0.006027441006 -0.1168157682 0.5882641673 -0.6040158272 -0.3098620772 0.7062047124
0.004035894759 -0.1087188423 0.5892860293 -0.650468111 -0.44872877 0.5688420534
0.005968422163 -0.1062693968 0.5961176157 -0.609058857 -0.5411268473 0.5359763503
0.007380732801 -0.113071911 0.5939046741 -0.5916669369 -0.4094918966 0.6421810389
0.02626023628 -0.09203157574 0.5894622207 0.2728756666 -0.7017117739 0.610247314
0.02129609883 -0.09563609958 0.5867928863 0.1608521342 -0.6563974619 0.6420452595
0.008070042357 -0.09391631931 0.5863817334 -0.2221079469 -0.6455124021 0.5695897341
-0.004466309678 -0.09791448712 0.5832387805 -0.6190978289 -0.5759557486 0.5302693248
-0.001656677807 -0.09682612121 0.5904055238 -0.7028070092 -0.5414149761 0.4603491127
0.02104958333 -0.08924786747 0.590269506 0.1382228881 -0.7051705122 0.5742621422
0.01405842695 -0.09137499332 0.5884004235 -0.05826417357 -0.6766013503 0.566700995
0.0006338275271 -0.09268204123 0.5859572887 -0.3989101946 -0.6258973479 0.5527850986
-0.003372938838 -0.08812579513 0.5884541869 -0.4596949518 -0.6136634946 0.543911159
0.00326513825 -0.08753667027 0.5917803645 -0.3360657692 -0.6305201054 0.5403120518
-0.05571586266 -0.1681798548 0.6567320824 -0.1969935596 -0.7216595411 0.6631499529
-0.019738812 -0.09028724581 0.5768644214 -0.4478604198 -0.6508125663 0.6120639443
-0.01832125895 -0.08664995432 0.5816674232 -0.4571576416 -0.6530697346 0.6012103558
-0.03908459097 -0.06810183078 0.5928114057 -0.1048727259 -0.7470679283 0.653519392
-0.09697539359 -0.1434773058 0.6373338699 -0.8137894273 -0.4257631898 0.3938952982
-0.09430230409 -0.1510919333 0.6360754371 -0.7952041626 -0.4399239123 0.4122005403
-0.09482640028 -0.1462177634 0.6435806155 -0.7990585566 -0.44355461 0.4054906666
-0.09131254256 -0.153646946 0.6406412125 -0.7694393992 -0.4601537883 0.4382681549
0.0165121872 -0.07141883671 0.6195536852 -0.1526345909 -0.7969525456 0.5637673736
-0.006932901219 -0.05706847087 0.6251202226 -0.5383425951 -0.6705294251 0.5099628568
-0.0122551769 -0.05449415371 0.6232113242 -0.509308219 -0.688377738 0.5161025524
-0.005486480426 -0.06390708685 0.6201750636 -0.5930256844 -0.6144493818 0.5189948678
-0.01485847402 -0.05898434296 0.6162825227 -0.5255263448 -0.658154726 0.5374859571
-0.0001696297695 -0.07062083483 0.6204512715 -0.5895235538 -0.5825427771 0.5568941236
0.001902450109 -0.07676565647 0.6174096465 -0.6110485196 -0.5401397943 0.5734557509
0.00567797618 -0.08189250529 0.6215347648 -0.4793995023 -0.5415051579 0.6758983731
0.0003343375574 -0.08191954345 0.6096243262 -0.6865721941 -0.5074905157 0.5152195692
-0.002587896306 -0.07502738386 0.6125139594 -0.6460136771 -0.5513906479 0.5261994004
-0.003570499131 -0.08026925474 0.6058601737 -0.6901560426 -0.5382948518 0.4795542061
-0.09621644765 -0.1398492604 0.6459994316 -0.8037295938 -0.4417797327 0.3981504142
-0.09264089167 -0.1427742243 0.6502783298 -0.7734421492 -0.4812809825 0.4115035236
-0.09389675409 -0.1359995455 0.6534125805 -0.7710081935 -0.4840741456 0.4125722945
-0.09971753508 -0.134231925 0.6469044685 -0.80268085 -0.443887651 0.3922162354
-0.09937927872 -0.137363553 0.6398074627 -0.8226969838 -0.4218296111 0.3808631599
-0.09274438024 -0.08196207136 0.6100053787 0.6202460527 -0.5986911654 0.5061907172
-0.07997015864 -0.07011006773 0.6056902409 0.5380411744 -0.6543108821 0.5306466222
-0.08931834251 -0.07504788041 0.6116592884 0.5997812152 -0.614164114 0.5122657418
-0.01406992041 -0.1450353712 0.6730906367 0.4469303787 -0.6809386015 0.5785952806
-0.00907165464 -0.1457877159 0.6660432816 0.5449753404 -0.6329384446 0.5429785252
-0.01702893525 -0.1427824497 0.6781455874 0.3796305358 -0.6975852251 0.6027030349
-0.03053328022 -0.1735178232 0.6482552886 0.2437778264 -0.7110594511 0.6418825388
-0.02376890928 -0.1795978546 0.6392632127 0.3787983656 -0.6546922326 0.6441703439
-0.03467230499 -0.1795003265 0.6441699266 0.1793512255 -0.7113878131 0.6787733436
-0.02564906143 -0.1857687086 0.6342262626 0.3432277441 -0.6517720819 0.6722480059
-0.01901492849 -0.1754032373 0.6419826746 0.4395109415 -0.6353266239 0.6320946217
-0.02566633746 -0.1774493605 0.6445550919 0.3074777424 -0.6717322469 0.6730369925
-0.06045484543 -0.06650391966 0.5960940719 0.2361618429 -0.7339158654 0.6293591857
-0.05007257313 -0.06573627144 0.5944752693 0.05137514323 -0.7531176209 0.6517249346
-0.05405180529 -0.06985706091 0.5912619233 0.1243470088 -0.7470562458 0.6483270526
-0.06182879582 -0.1698836237 0.6529266834 -0.3004413843 -0.7101641297 0.6352904439
-0.06803802401 -0.1681682318 0.6505869031 -0.3979143798 -0.6858088374 0.6079465747
-0.03619530797 -0.08269770443 0.5774914622 -0.1866329908 -0.73158288 0.6547822952
-0.04253716767 -0.08377292752 0.5746377707 -0.07878794521 -0.7343803048 0.6698545218
-0.03662542254 -0.0868602097 0.5708545446 -0.2227319628 -0.7485092282 0.6217437387
-0.08877394348 -0.1440708786 0.656355679 -0.7207717896 -0.5255157351 0.4507755339
-0.08991707861 -0.1400821954 0.6610337496 -0.7079432607 -0.5394092202 0.4555292726
-0.07936669141 -0.145716235 0.6669152379 -0.6033076644 -0.6002542377 0.5222549438
-0.08346380293 -0.1450407207 0.6618882418 -0.64415133 -0.5750858188 0.503054142
-0.08185020834 -0.1507562548 0.6597759724 -0.6315738559 -0.5813848972 0.5119518638
-0.0698602125 -0.1632944196 0.654683888 -0.4453947544 -0.6673273444 0.580927372
-0.07585611194 -0.1652189344 0.6481510997 -0.5514185429 -0.6338200569 0.5406809449
-0.0799498558 -0.1577720791 0.6548492908 -0.5923209786 -0.6026019454 0.5316983461
-0.0760981515 -0.1562725455 0.6604195237 -0.533072114 -0.6305741668 0.5548292994
-0.08051684499 -0.1604254842 0.6480262876 -0.6164305806 -0.5882916451 0.5162035823
-0.004694664385 -0.1506687999 0.6551823616 0.628367722 -0.5989503264 0.4962842762
5.670049359e-05 -0.1485551298 0.6496393681 0.6850422025 -0.5624355078 0.4626664221
-0.06879772246 -0.1579526663 0.6597729921 -0.4425604939 -0.6619797349 0.5619635582
-0.08979208022 -0.08336805552 0.6040093303 0.6273512244 -0.5928806663 0.5047746897
-0.09399795532 -0.08959589154 0.6052334905 0.638713479 -0.5856612921 0.4989170432
-5.8169162e-06 -0.1578049362 0.6386994123 0.740962863 -0.5195097327 0.4255283773
0.003449220676 -0.1523938924 0.6383387446 0.7609140873 -0.4937192202 0.419591099
-0.0004724717874 -0.1547894925 0.6435430646 0.7164229751 -0.5375174284 0.4434206784
0.003676230321 -0.156856522 0.6315498352 0.7997472286 -0.4560557306 0.3806611598
-0.001789236208 -0.1098777726 0.5762887597 -0.5983101726 -0.4545548856 0.6578878164
0.01263353229 -0.1022362038 0.58193326 -0.1592694968 -0.5820898414 0.639931798
0.002787329722 -0.1022966355 0.5795212984 -0.392185241 -0.5669510961 0.6131333709
-0.006032113452 -0.1033741236 0.576644361 -0.6249150634 -0.5163916349 0.5819566846
0.007857307792 -0.1073227823 0.5814644694 -0.3447399437 -0.4563618898 0.7526115775
-0.03874255344 -0.07848978043 0.5820411444 -0.1413130313 -0.745006144 0.6496329308
-0.0455933474 -0.08034915477 0.5805165768 -0.02164760605 -0.7431175709 0.6457715631
-0.05166203901 -0.0784913376 0.5801814795 0.09110634774 -0.750870645 0.6533027887
-0.04801108688 -0.07452847809 0.5837450624 0.0148747135 -0.7514799833 0.6578262448
-0.05422738567 -0.07385706902 0.5864631534 0.128020525 -0.7500950098 0.6463645101
-0.04086217657 -0.07382022589 0.5865549445 -0.09120061249 -0.7520576119 0.649915576
-0.04619933292 -0.06985226274 0.5888311863 -0.02174024284 -0.7529643178 0.6566590071
-0.07641015947 -0.1516496688 0.6649162173 -0.5421892405 -0.626965344 0.5507862568
-0.06579703838 -0.1437574029 0.6821259856 -0.3488422632 -0.70319134 0.616389811
-0.0717259571 -0.1438122243 0.6769654751 -0.4863961041 -0.6644940972 0.5621851087
-0.0867979303 -0.1376530528 0.6655536294 -0.6592370272 -0.5889239311 0.4662504196
-0.08587221056 -0.1549063623 0.6488265991 -0.6739780903 -0.54731071 0.4942291677
-0.08492137492 -0.1506820023 0.6533182859 -0.6920377016 -0.5394815207 0.4732973576
-0.02115160227 -0.1618923098 0.6584800482 0.3809249401 -0.7038271427 0.5875373483
-0.01518342178 -0.1661439687 0.6491931081 0.5126724839 -0.64844203 0.562140286
-0.02092711814 -0.1701012403 0.6494034529 0.4021680057 -0.6743284464 0.6094056964
-0.01604643092 -0.1564315856 0.6611942649 0.4763391316 -0.6747462749 0.5579999685
-0.01898966357 -0.1514570117 0.670894742 0.3751294613 -0.7058928609 0.5995405316
-0.02324971184 -0.1557674855 0.6685397625 0.3276911676 -0.7172114253 0.6137376428
-0.02729059197 -0.1610786617 0.6638427973 0.2711873949 -0.7328202724 0.6209741235
-0.0289035365 -0.1574114114 0.6687772274 0.2338185459 -0.7344256639 0.6336716413
-0.06280023605 -0.1644412577 0.6580993533 -0.2980163991 -0.7194858789 0.6222022772
-0.05596942455 -0.1618121415 0.6632739305 -0.1864185035 -0.7434794903 0.6400446296
-0.05082152411 -0.1654435843 0.6610271931 -0.09398847073 -0.7426350713 0.6597096324
-0.03796820715 -0.1653675735 0.6614857912 0.09661850333 -0.7483105659 0.6523835063
-0.04374102876 -0.1676588207 0.659008801 0.01011806075 -0.7456933856 0.6636525393
-0.03553828597 -0.1602637172 0.6664184332 0.1337014288 -0.7535784245 0.6421119571
-0.08406742662 -0.08206230402 0.5973834395 0.5810443759 -0.6182897687 0.5258404016
-0.08026435971 -0.0840254724 0.589762032 0.5537378192 -0.6312081814 0.541285038
-0.05696311966 -0.1447261423 0.6835237741 -0.2113668174 -0.730355978 0.640322268
-0.06112249941 -0.1463799924 0.67917943 -0.2940428853 -0.7136141658 0.6157262325
-0.06235776842 -0.1401930153 0.6867309809 -0.2905210257 -0.7168689966 0.6280936003
-0.03326221183 -0.1517733037 0.6761335135 0.172590211 -0.7382470965 0.6500158906
-0.04390449822 -0.1577132642 0.6683511138 0.006312545855 -0.7574293017 0.6497731209
-0.02381294779 -0.146778509 0.6780385971 0.2827458084 -0.7326233983 0.6153739691
-0.03161943704 -0.1460030824 0.6806688309 0.1895369887 -0.7348728776 0.6452517509
-0.04421101138 -0.146171689 0.682939589 0.02315272205 -0.7535324693 0.6543132663
-0.005781107116 -0.1560751945 0.6503773332 0.6401850581 -0.5932126641 0.4843189418
-0.009884227067 -0.1617734432 0.6481509209 0.5803326964 -0.6223589778 0.5183803439
-0.06786281615 -0.1483173519 0.6742392778 -0.400236994 -0.6918036342 0.5954447985
-0.05653557181 -0.1573196948 0.6699008346 -0.1749947071 -0.7415085435 0.644387722
-0.05598049238 -0.1506483108 0.6770277023 -0.1855192482 -0.7427877188 0.6413615942
-0.0620476827 -0.1524546593 0.6730728149 -0.2853810191 -0.7236961126 0.6243960261
-0.07661726326 -0.07819204777 0.5935043097 0.5005738735 -0.6619933248 0.5570143461
-0.08361126482 -0.07675141841 0.601888597 0.5887980461 -0.6189292073 0.5197008252
-0.07773459703 -0.07435715199 0.5991654396 0.5123698115 -0.6575696468 0.5488072634
-0.07452978194 -0.06911499798 0.6007968783 0.475951463 -0.6784250736 0.558953464
-0.06906908751 -0.07646372169 0.5897340178 0.3869556487 -0.6893002987 0.6067200303
-0.07268666476 -0.07311817259 0.5959213972 0.4435168207 -0.6840660572 0.5745003819
-0.06577862799 -0.06930422038 0.5947649479 0.3368621767 -0.7147032022 0.6116016507
-0.009644960985 -0.153123036 0.6591535211 0.5668236613 -0.6361874342 0.5228006244
-0.01361814979 -0.158758536 0.6558850408 0.5293996334 -0.6556143761 0.5379989743
-0.00431095995 -0.1594837159 0.6450933814 0.6736699343 -0.5696957111 0.4697064459
-0.007635496091 -0.1650365293 0.6432154179 0.6304761767 -0.590081811 0.5028045774
-0.07076675445 -0.1562734991 0.6655012369 -0.4391516149 -0.6745664477 0.5918372273
-0.07044586539 -0.1517977417 0.6701892018 -0.4354299307 -0.6760554314 0.5918016434
-0.06287962943 -0.1565561295 0.6683274508 -0.2843979299 -0.7176899314 0.6299641132
-0.06294372678 -0.1608890593 0.6642333865 -0.2890499532 -0.7224730849 0.6255103946
-0.04475992173 -0.1632421762 0.6644983292 -0.006859053392 -0.7592154145 0.6507477164
-0.05108032376 -0.1600127816 0.6675190926 -0.09969107807 -0.7511665225 0.6492702961
-0.03520085663 -0.1566205025 0.6708962321 0.1454646736 -0.7512120605 0.6430501342
-0.04792069271 -0.1533175558 0.6740900874 -0.05380364507 -0.7604390979 0.6460089684
-0.0371118933 -0.1491001248 0.6793751121 0.1176292747 -0.742203474 0.6571046114
-0.04650163278 -0.1498910636 0.6789130569 -0.03048070706 -0.7627082467 0.6453410983
-0.04028976336 -0.1542794108 0.6745690107 0.06231088936 -0.7578703761 0.6440540552
