# .PCD v0.7 - Point Cloud Data file format
VERSION 0.7
FIELDS x y z normal_x normal_y normal_z
SIZE 4 4 4 4 4 4
TYPE F F F F F F
COUNT 1 1 1 1 1 1
WIDTH 512
HEIGHT 1
VIEWPOINT 0 0 0 1 0 0 0
POINTS 512
DATA ascii
-0.1016291529 -0.1516219676 0.4976393878 0.5757211447 -0.5467786789 0.5838138461
-0.1028060988 -0.1566881388 0.4947361648 0.6431928277 -0.4777056277 0.5783336759
-0.1126858741 -0.1915081739 0.4992622137 -0.8884278536 0.2693572342 0.3674463928
-0.05478446558 -0.1030536145 0.5295504928 -0.01064086519 -0.5802742839 0.6938855648
-0.06101885438 -0.1072683781 0.5288280845 -0.1089656129 -0.7109513283 0.6246824265
-0.04382974654 -0.09708184749 0.5280199647 0.1435854733 -0.3753020465 0.8024335504
-0.03142076731 -0.08879960328 0.5300108194 0.3745414317 -0.1737697124 0.9065883756
-0.03420704603 -0.09075769782 0.5354762673 0.3491565883 -0.1447199285 0.9235039353
-0.04144579917 -0.1072665229 0.5167127848 0.1735664904 -0.5734938383 0.5751889944
-0.03640716895 -0.1018321663 0.5179927945 0.3299101293 -0.5105725527 0.584502995
-0.04768228531 -0.1105214506 0.5188583732 -0.007598467171 -0.6445149779 0.5565742254
-0.05613625795 -0.1255787909 0.5103288293 -0.2910422087 -0.7618214488 0.5530717969
-0.03196136653 -0.09812647849 0.5179518461 0.4639844894 -0.4572065771 0.5949447751
-0.05560080707 -0.1180933565 0.5178873539 -0.2498573959 -0.7414860725 0.5399595499
-0.04905895889 -0.1162272096 0.5139732361 -0.06532844901 -0.6700463891 0.5626462102
-0.0514420867 -0.1213101223 0.5106680393 -0.1482115537 -0.7047708631 0.5633702278
-0.05590219796 -0.12200775 0.513954103 -0.2719759047 -0.7523416281 0.5467297435
-0.08008241653 -0.1889882386 0.5714669824 -0.1812932193 -0.7891352177 0.5772780776
-0.1063518524 -0.1706920117 0.4912823737 0.8903039694 -0.3208260238 0.26792261
-0.1036542952 -0.1654984653 0.4907160401 0.8183027506 -0.3421241343 0.4457406104
-0.1006345078 -0.1695974022 0.4853214622 0.8251632452 -0.3151812851 0.461170882
-0.05734646693 -0.1087966859 0.5260494351 -0.1236077696 -0.6681954861 0.6320094466
-0.05850769579 -0.1162193194 0.5213457346 -0.2719570398 -0.7458300591 0.5614727736
-0.06305903196 -0.1110841408 0.5270879269 -0.1879612654 -0.7714283466 0.5816982985
-0.03770429641 -0.0945250839 0.5270040035 0.222216472 -0.2610768378 0.8605310321
-0.05197532475 -0.106251061 0.5253519416 -0.05542335287 -0.5679174066 0.6827364564
-0.05488663912 -0.1122197583 0.5224884748 -0.1815966666 -0.6596342325 0.6154639721
-0.04443803802 -0.1014955491 0.52520895 0.06326376647 -0.4175636768 0.764177978
-0.05003068969 -0.1025610566 0.5270549059 0.02308422141 -0.5090712905 0.7250986695
-0.02374099754 -0.1054218933 0.5071876645 0.5606657267 -0.297501713 0.7288262844
-0.02424861304 -0.1183210313 0.4966283143 0.4169022143 -0.1919114888 0.8498324752
-0.02320527099 -0.1265760958 0.4903951585 0.3565091491 -0.2075755149 0.895888865
-0.03165664151 -0.1123587117 0.505710423 0.3358970582 -0.3721504807 0.71206671
-0.03596844152 -0.1151486412 0.5059915781 0.224771589 -0.4429086149 0.684047997
-0.04401187599 -0.115612939 0.510373354 0.06619110703 -0.6064128876 0.58984375
-0.04103696346 -0.112088345 0.5114811063 0.1593030244 -0.5682269335 0.5950224996
-0.02683600225 -0.110166043 0.5046421885 0.4506143034 -0.2868834734 0.7515887618
-0.05429068953 -0.1287975609 0.5057266355 -0.265871346 -0.7316607833 0.5808554888
-0.0357642211 -0.1204410195 0.5015640259 0.174282968 -0.4034996033 0.7333663702
-0.05066341907 -0.1257089525 0.5060936213 -0.1647657305 -0.6770656109 0.5978649855
-0.03690845147 -0.1260358244 0.4976883233 0.09490071982 -0.3900085688 0.7688788176
-0.03102616407 -0.1188193634 0.5000799894 0.2815522552 -0.316147387 0.7769309282
-0.0262610279 -0.09528055787 0.5164150596 0.6145985126 -0.3739212751 0.6269228458
-0.03172426671 -0.1086411998 0.5087755919 0.3728116751 -0.3982620239 0.6783508062
-0.02857281454 -0.1049696654 0.5098984838 0.4708096385 -0.357396394 0.6843874454
-0.02690290846 -0.1150324419 0.500721693 0.3993192315 -0.2559214234 0.7938246131
-0.03750177473 -0.1071010605 0.5134476423 0.278161943 -0.528159678 0.5941087008
-0.04380890355 -0.1256274134 0.5021039248 -0.03285392001 -0.5356411934 0.6809238195
-0.04090225324 -0.120943293 0.5041956902 0.07086995244 -0.5065766573 0.6750097871
-0.0274960883 -0.1240296587 0.4937511981 0.2955051064 -0.2084009051 0.866173923
-0.03248184919 -0.1023570746 0.5143375993 0.4229117334 -0.4557242095 0.6134948134
-0.0454605706 -0.1194783896 0.508085072 -0.001239405246 -0.6107230783 0.6063349843
-0.03231574968 -0.1261048615 0.4949144721 0.1820138246 -0.2944284976 0.8256245255
-0.02440640703 -0.1322868615 0.4884973764 0.2382652909 -0.1559522599 0.9548130035
-0.01989122666 -0.132415086 0.4904925227 0.3458550274 -0.2951137722 0.8829381466
-0.07754167169 -0.1022227705 0.5426649451 0.1021199822 -0.8306482434 0.5429773927
-0.08352350444 -0.1030339822 0.5427942276 0.1835557371 -0.817438364 0.5419377089
-0.08438165486 -0.1073082387 0.538471818 0.1718846262 -0.8038438559 0.557108283
-0.09113584459 -0.1092331782 0.5384272337 0.2690593004 -0.7881681323 0.5533688664
-0.1042015925 -0.1219440922 0.5349481702 0.4103419483 -0.7036854029 0.5798301697
-0.1018309072 -0.114443019 0.539010644 0.3645891547 -0.7301843762 0.5758671165
-0.03007725999 -0.2072039694 0.5222769976 0.6295942068 -0.5447642803 0.55382514
-0.03390170261 -0.2093886137 0.525431633 0.6578511596 -0.4939886034 0.54480654
-0.02764569782 -0.2019862235 0.5197267532 0.7863258123 -0.2956809103 0.4951975346
-0.03676241636 -0.2124153674 0.5280210376 0.6181129813 -0.5500763059 0.5615388155
-0.02482630871 -0.1477509588 0.493219763 0.02447200008 -0.0870891735 0.9149457812
-0.02656457573 -0.1404747814 0.4904994369 0.196814388 -0.1829032898 0.9499204755
-0.02715097927 -0.1585985869 0.4962657988 -0.1285796613 -0.02709121071 0.89803195
-0.02228712849 -0.1426057816 0.4938649535 0.291998297 -0.318115443 0.8452224731
-0.02823374048 -0.1542028785 0.4936653376 -0.1670616716 0.0323539786 0.9532119632
-0.04724961892 -0.1895940304 0.5580611229 0.4253291786 -0.6636062264 0.5675035715
-0.0504825525 -0.189204365 0.5624238253 0.337044239 -0.7230724096 0.5729525685
-0.03901207075 -0.1902872026 0.547290504 0.6464659572 -0.5116883516 0.5542195439
-0.04184401035 -0.1913726479 0.5512226224 0.5644771457 -0.5749918222 0.5609324574
-0.04915634543 -0.2076687515 0.5422822237 0.4168149829 -0.6693019867 0.6066092849
-0.0515444316 -0.2118467093 0.5406720042 0.3545552194 -0.6961039901 0.6196752787
-0.1059279814 -0.1786923409 0.4897404611 -0.06866047531 0.0562681146 0.3944397271
-0.104561761 -0.1735949367 0.4870883226 0.8272250295 -0.2192638069 0.4778986573
-0.0964622274 -0.1531730443 0.4915182889 0.493371129 -0.5808237195 0.6471027732
-0.06270792335 -0.1191560626 0.5195192099 -0.1912341416 -0.8111549616 0.5490802526
-0.05558297411 -0.1206910536 0.5290263891 -0.3644006252 -0.7298479676 0.5684691668
-0.03959791362 -0.1205135062 0.5426547527 -0.2562467158 -0.5406002402 0.7939797044
-0.04342680424 -0.1177215278 0.5413034558 -0.2991119921 -0.5347145796 0.7778347135
-0.05062646419 -0.1194103509 0.5358694792 -0.3857716918 -0.6482614875 0.6418099999
-0.05233123899 -0.1104940325 0.5411284566 -0.2880707085 -0.5055719018 0.7910318971
-0.04707857221 -0.114042528 0.5410651565 -0.3131819367 -0.5103182197 0.7872274518
-0.05121611804 -0.1152486131 0.5383165479 -0.3436442316 -0.5794002414 0.7124924064
-0.04533876479 -0.1066047177 0.5212634802 0.01951246709 -0.5316445827 0.6682090759
-0.04105436057 -0.1032386944 0.520881474 0.1596717238 -0.5010244846 0.6724998951
-0.03797175363 -0.09919377416 0.5227921009 0.2112698555 -0.3843894601 0.7541656494
-0.02994938754 -0.09090853482 0.5247461796 0.413561523 -0.2115014941 0.8581789136
-0.02626742236 -0.09082291275 0.5208025575 0.6090144515 -0.3289999962 0.7084051967
-0.03454707935 -0.1007663012 0.5397126079 0.3713649213 -0.1624623984 0.90753299
-0.03269388154 -0.09917268157 0.5356579423 0.4460525811 -0.2054140121 0.84426862
-0.03028428182 -0.1002493575 0.5314121842 0.4313963652 -0.3142461479 0.7632291317
-0.03445949778 -0.1073938161 0.5397815108 0.2276695818 -0.2954232097 0.8658334017
-0.03670047596 -0.1106102243 0.5443060398 0.1387412995 -0.2715971172 0.9211679697
-0.0280495882 -0.09514597058 0.526999712 0.5826922655 -0.2959213555 0.7088574767
-0.03553176671 -0.1162636504 0.5415672064 -0.05139756948 -0.4553338587 0.8290533423
-0.03220054507 -0.1072684824 0.5350593328 0.2165454477 -0.3919612169 0.785369575
-0.0483667776 -0.09612355381 0.5428650975 0.07406599075 -0.2481950074 0.9226639867
-0.04251771048 -0.09548971057 0.5419573784 0.2232847512 -0.08762497455 0.9530264139
-0.09792776406 -0.1070732623 0.5451673865 0.2945088446 -0.767352581 0.569542706
-0.09294524044 -0.1073878855 0.542591989 0.270711869 -0.7817877531 0.5599570274
-0.08879387379 -0.1053734347 0.5423919559 0.2378973663 -0.801346302 0.5472933054
-0.1019494236 -0.1095394939 0.5455005169 0.3154921234 -0.7592146993 0.5686122775
-0.07331802696 -0.1899708956 0.570273757 -0.04531322792 -0.8002699614 0.5971559286
-0.06917513162 -0.1984973252 0.5626897216 0.03206362203 -0.7959660292 0.6021011472
-0.1102185845 -0.1940769404 0.5095503926 -0.9517554641 0.05002395064 0.2747417688
-0.1103797406 -0.1967926621 0.5045158267 -0.9305701256 0.0649368614 0.3006910086
-0.108988069 -0.2004990578 0.5074252486 -0.9279549718 -0.1432209611 0.2731921077
-0.1109026521 -0.1862720698 0.49637115 -0.6413143277 0.2054449767 0.3182841837
-0.1097495332 -0.1822423041 0.4932786524 -0.1587974578 0.07231990248 0.268964529
-0.07426007837 -0.1949642599 0.5668560863 -0.05186355114 -0.7974988818 0.6006743908
-0.06720855832 -0.1943080872 0.5676258206 0.02696526051 -0.8040069342 0.5917119384
-0.09301170707 -0.1424074769 0.4979866743 0.417717129 -0.6665045619 0.6159462333
-0.09515963495 -0.1467794925 0.4959495366 0.4458358586 -0.6409855485 0.6233847141
-0.1003234535 -0.1468435377 0.4999316931 0.4935612082 -0.620439887 0.6093664765
-0.09480445832 -0.1134603992 0.5355549455 0.3573817611 -0.7362704277 0.5728444457
-0.09863812476 -0.1164380759 0.536228478 0.3662597239 -0.7302244306 0.5742310882
-0.04283661395 -0.2127417773 0.5339212418 0.5382192135 -0.6011528373 0.5815413594
-0.04588317499 -0.2112716138 0.5378059149 0.4820642769 -0.6395783424 0.5950389504
-0.04673019052 -0.2170718163 0.5343434811 0.4523201287 -0.6541006565 0.6028815508
-0.05091156438 -0.2198832035 0.5329033136 0.3539960086 -0.6859140992 0.6236745119
-0.05289182439 -0.1943368763 0.563005805 0.3074292839 -0.753392756 0.5809633732
-0.03310452029 -0.1922254115 0.5329711437 0.7557036877 -0.3907293975 0.5095103383
-0.0364597477 -0.1909870803 0.5414639115 0.7154541016 -0.44513309 0.5294699669
-0.04834975675 -0.1502490938 0.4878493547 -0.1534106284 -0.462492317 0.8209810257
-0.05148600414 -0.1470085382 0.4902251661 -0.1185469255 -0.6107414365 0.7296272516
-0.04438172653 -0.1522819251 0.4891189039 -0.1716183871 -0.3541997075 0.879350543
-0.06101221591 -0.1343812048 0.502417326 -0.08079243451 -0.7887585759 0.6021822691
-0.05401829258 -0.1383128911 0.4998143315 -0.1298032254 -0.8155013323 0.5547602177
-0.06218091771 -0.136934638 0.4985128343 -0.04878029227 -0.7716029286 0.6338142157
-0.04631406441 -0.1396084726 0.4908038974 0.002608920448 -0.5306836963 0.7638418078
-0.05151158571 -0.1461426318 0.4846812785 -0.09608968347 -0.6289789081 0.7474578619
-0.04642795771 -0.1424877346 0.4870545566 -0.01442909148 -0.5100737214 0.7971227169
-0.05248609185 -0.1411521435 0.4917459786 -0.08080293238 -0.6991220713 0.6679655313
-0.03853780776 -0.1382350028 0.4888619483 0.104594335 -0.3137107491 0.891663909
-0.04977000132 -0.1360447854 0.4967562854 -0.05679307133 -0.6409257054 0.6721522212
-0.04191982746 -0.1366897672 0.4925116599 0.0696567595 -0.4246329665 0.810726583
-0.04833463579 -0.1318245083 0.5002971888 -0.1322690248 -0.5679787993 0.6987705827
-0.0362630412 -0.1320145279 0.4932008982 0.09490720183 -0.3062501848 0.8559087515
-0.03153212741 -0.1310977936 0.4909144938 0.1797364056 -0.2237575948 0.8975749612
-0.04262284189 -0.1297357678 0.4982275367 -0.04149569571 -0.4769631624 0.7375944853
-0.04554828629 -0.1493219435 0.4834327102 -0.07628067583 -0.3689338565 0.8807057142
-0.05005975813 -0.1505488157 0.4814272225 -0.08681969345 -0.493463546 0.815105319
-0.04217547551 -0.1448328942 0.4849295616 0.01552617736 -0.3291030824 0.8952708244
-0.02763970569 -0.1360659301 0.4888198674 0.1390656084 -0.1509414315 0.9735907912
-0.04571257159 -0.1361296028 0.5105621219 -0.3132310212 -0.8408586383 0.4313853979
-0.05566932261 -0.1354457438 0.5035691261 -0.1430313438 -0.815597415 0.5443384647
-0.05079302192 -0.1358495802 0.5067849755 -0.2241704911 -0.8287727237 0.4894567132
-0.05897507071 -0.1328855753 0.5067327023 -0.1418257356 -0.7910388112 0.5687795877
-0.06472241133 -0.1297163963 0.5062514544 -0.07250274718 -0.7778486013 0.6216788888
-0.05456041172 -0.1524187177 0.4796250761 -0.1391160339 -0.6180424094 0.7689092755
-0.04557494819 -0.1543635875 0.4835056663 -0.1982609481 -0.2962211967 0.9295498729
-0.02952353097 -0.1493945569 0.4910873771 -0.1481660604 -0.002362047788 0.9763277173
-0.03349807113 -0.1585743278 0.4915468693 -0.2217549235 0.04593524709 0.9651958346
-0.03692014143 -0.1551687419 0.4935073555 -0.1934819072 -0.1887957901 0.9616528153
-0.03987367824 -0.1569527835 0.4881936908 -0.1970346868 -0.2304354757 0.9513664842
-0.03581909463 -0.1492539644 0.4872062206 -0.1180860177 -0.1044118479 0.9806692004
-0.09942628443 -0.1637988836 0.4853535295 0.6830714941 -0.3954675496 0.5917325616
-0.03233255818 -0.1650557518 0.5023582578 0.05859120935 -0.134099707 0.8429823518
-0.03162519634 -0.1617807746 0.495228976 -0.1805872768 -0.1636188775 0.9621308446
-0.03352602944 -0.1605952382 0.5000132918 -0.04272456467 -0.1466040015 0.8934535384
-0.02869754471 -0.1776838005 0.5129194856 0.4000166953 0.02477694303 0.6345949173
-0.02851671912 -0.1706407666 0.5054430366 0.1033060625 0.03809164837 0.763784945
-0.02840435877 -0.1626255959 0.4992772639 0.0258916039 -0.1503210664 0.8371605277
-0.02863297239 -0.102730602 0.5198194385 0.3569757342 -0.4723064005 0.5780094862
-0.02348274551 -0.1234629601 0.5014181733 0.3665531278 -0.4669043124 0.6645091772
-0.02635149471 -0.1231546402 0.5059975386 0.2357988358 -0.5093615055 0.6321099997
-0.02572619729 -0.1007504538 0.5163359046 0.5150444508 -0.4212403595 0.6076190472
-0.02176636085 -0.1126068607 0.5042481422 0.5679792166 -0.4027534127 0.6683912277
-0.02614622563 -0.1163396463 0.5091190934 0.3214454949 -0.4823278785 0.6248281002
-0.02817521617 -0.1204883531 0.5101549625 0.1802401096 -0.5276826024 0.6080445647
-0.0204274226 -0.1178910285 0.4995175898 0.5716492534 -0.4009778202 0.6907306314
-0.03226448223 -0.1235393509 0.5149217248 -0.0450922735 -0.600453794 0.5667622089
-0.02319953963 -0.1190489605 0.50320822 0.4290542006 -0.4471144676 0.6614670157
-0.03363716975 -0.1159862354 0.5208489299 -0.02502301522 -0.5947782993 0.5408608317
-0.02837799676 -0.1287541687 0.506297648 0.07852100581 -0.5597704053 0.6173913479
-0.03006015718 -0.108039856 0.5193417668 0.2309717238 -0.5126006007 0.5695614219
-0.02483592182 -0.1115765199 0.5095013976 0.4358879626 -0.4457243085 0.6327406168
-0.02227929048 -0.128338322 0.4971027672 0.368447125 -0.4657501876 0.6847648621
-0.02675103769 -0.108976461 0.5137663484 0.3753150702 -0.4656649232 0.6077498198
-0.03037413768 -0.1161353886 0.5157418847 0.1259509921 -0.5457784534 0.5774299502
-0.03774224222 -0.127766028 0.5212364793 -0.3484944701 -0.6984244585 0.5116587877
-0.03335126489 -0.1282588989 0.5142166615 -0.1485926062 -0.6335119605 0.5612791181
-0.02319016121 -0.1023343951 0.5116260648 0.6160010695 -0.388309747 0.638101995
-0.02965420485 -0.1252118945 0.510052681 0.0583486408 -0.5667073727 0.5981968045
-0.0198083017 -0.1233064681 0.4944728613 0.5305121541 -0.3809504509 0.7463209629
-0.0323953703 -0.1673894376 0.5069534779 0.2421717346 -0.1381551772 0.7561348081
-0.02669948712 -0.1519974619 0.4979085326 0.3765540421 -0.4841568768 0.7841746211
-0.05097321421 -0.1263617873 0.5221003294 -0.376218766 -0.7741984129 0.4972241819
-0.05855661258 -0.1231140271 0.5205765963 -0.2755694985 -0.7925258875 0.535184741
-0.0532235615 -0.128466785 0.5173618197 -0.2867560089 -0.7721113563 0.5390995145
-0.04705553874 -0.1334616095 0.5143769979 -0.3325920105 -0.8187161684 0.4508318603
-0.04301020503 -0.1333219111 0.5192726254 -0.4143688977 -0.7869170904 0.4522362351
-0.0476837121 -0.1308498085 0.5189106464 -0.3596763909 -0.7749887109 0.4970425963
-0.06014776975 -0.1288249791 0.5102094412 -0.1542544812 -0.7948570848 0.568870306
-0.053781569 -0.1311555505 0.5118623972 -0.2383824438 -0.8128595948 0.5051166415
-0.07347467542 -0.1230150834 0.5151351094 0.04181441292 -0.7787700295 0.6088897586
-0.06912177801 -0.1214994639 0.5178351998 -0.07492816448 -0.7892478108 0.584431231
-0.06456646323 -0.1235129908 0.5144559741 -0.1420739442 -0.789172411 0.5922058225
-0.07471179217 -0.1255788058 0.5105894208 0.09203830361 -0.7738237977 0.6232168674
-0.06656020135 -0.1261146367 0.5099679232 -0.06855560094 -0.7813250422 0.6144928336
-0.07076748461 -0.1283717006 0.5074661374 0.03105914779 -0.7736754417 0.6255281568
-0.07243027538 -0.1312225908 0.5037907958 0.07461303473 -0.7694286108 0.6289142966
-0.03710859641 -0.09599465877 0.5411708951 0.3323395252 -0.1254749447 0.9347102046
-0.03097927384 -0.09460699558 0.532081604 0.3994674683 -0.2022944242 0.889978528
-0.04558000714 -0.1009249911 0.5440064669 0.09044062346 -0.09338209778 0.9747875333
-0.0501774922 -0.1026350856 0.5450304151 -0.04358922318 -0.2076097876 0.958743751
-0.05539053306 -0.1025537848 0.5449610353 -0.1792828441 -0.3931811452 0.8948568702
-0.04106281325 -0.10779915 0.5451506972 0.08934627473 -0.1673854589 0.9649602771
-0.04302799702 -0.113452889 0.5437014103 -0.2079491466 -0.4288514853 0.8661696911
-0.04757030308 -0.1090356112 0.5448231697 -0.140743047 -0.3917231262 0.9016109109
-0.03916269541 -0.1015271544 0.5444194078 0.298872143 -0.0852952376 0.9478483796
-0.05963499099 -0.1037849188 0.5429275036 -0.1453436017 -0.5882294178 0.7649946213
-0.06310037524 -0.1001648977 0.5447003841 -0.09863302112 -0.5490808487 0.788666904
-0.06806053221 -0.101176627 0.5434971452 -0.02986138314 -0.6938829422 0.6711136103
-0.03940770403 -0.09221231937 0.5336242914 0.2505462766 -0.2363744378 0.8779952526
-0.06111294404 -0.1048805565 0.5337132812 -0.07572002709 -0.694912076 0.650526464
-0.05344605073 -0.09807510674 0.5380336046 0.07010811567 -0.5227065682 0.7550404668
-0.06344205141 -0.1033837721 0.5390557647 -0.07325340807 -0.7315705419 0.6557319164
-0.05191181228 -0.1003317237 0.5321418643 0.05181052908 -0.5041399598 0.7384366989
-0.05830825493 -0.1000195667 0.5397216082 0.00874326285 -0.6214997768 0.7133479118
-0.04854080454 -0.09645534307 0.5356922746 0.1275299788 -0.4245404601 0.7935570478
-0.04408394173 -0.09549114853 0.5326173902 0.173043713 -0.337576896 0.8232907653
-0.05463531241 -0.09739177674 0.5436600447 -0.06598082185 -0.3718586564 0.8955616951
-0.04313370958 -0.09272644669 0.5377696753 0.1703170389 -0.2504298389 0.9029902816
-0.05503847823 -0.1070996746 0.5422406197 -0.2389975041 -0.4889011681 0.8185549974
-0.0594140999 -0.1089190915 0.5388875008 -0.2073609233 -0.6330655217 0.7081457376
-0.05624654144 -0.1130756289 0.5374800563 -0.2919786274 -0.6343957782 0.6796713471
-0.06804486364 -0.1060048714 0.5359891057 -0.07410445064 -0.7835737467 0.6104481816
-0.07240480185 -0.1050172523 0.5386330485 -0.002549514873 -0.8130720854 0.5761132836
-0.05848106369 -0.1171494499 0.5342938304 -0.2930650711 -0.7152569294 0.5956527591
-0.06603291631 -0.1104562208 0.5355604291 -0.1234828532 -0.7621286511 0.6076546311
-0.07233668119 -0.1147250161 0.5330696106 -0.009211082011 -0.7453806996 0.5819503665
-0.06242904067 -0.1143020988 0.5347213745 -0.2062146962 -0.7360658646 0.5995648503
-0.07371910661 -0.1093186811 0.5297763348 -0.01477737632 -0.8042715192 0.5923973918
-0.06824913621 -0.1097651497 0.5291458368 -0.1189872399 -0.7988616228 0.5842701197
-0.06547973305 -0.1155206561 0.5243507624 -0.1624646485 -0.8039463162 0.5718899369
-0.0717740804 -0.1131747738 0.5258052349 -0.0426565893 -0.7999988198 0.5910997391
-0.07733305544 -0.1192576885 0.5185921788 0.09744615108 -0.778357327 0.6194221377
-0.0763027519 -0.1142636538 0.5287051797 0.09729719162 -0.7729102373 0.5925933123
-0.0624098517 -0.1197204441 0.524143219 -0.2225957364 -0.7734564543 0.5703052878
-0.06106058881 -0.1183800623 0.5301712751 -0.2305608988 -0.7312729955 0.594368875
-0.07376425713 -0.2074999064 0.5470744967 -0.09865421802 -0.7894340158 0.6002619863
-0.06943792105 -0.2055146545 0.5496282578 0.01450974587 -0.7844625711 0.608058393
-0.06834642589 -0.2036155462 0.5543749928 0.05931419134 -0.8071674109 0.5747591853
-0.1054015458 -0.2072717696 0.5130450726 -0.8669134974 -0.4097913206 0.2565049827
-0.0664479658 -0.210265398 0.5459887385 0.07551757246 -0.7857289314 0.6062873006
-0.08889543265 -0.1387010515 0.4990924299 0.3562910557 -0.6963649988 0.6200072169
-0.08534054458 -0.1351883858 0.5027561188 0.2897620201 -0.7062781453 0.6450994611
-0.0591597259 -0.1889658123 0.5694362521 0.1670138389 -0.7845749259 0.5900455713
-0.06415776908 -0.190092355 0.5711728334 0.04125310853 -0.8038330674 0.5920944214
-0.05802417174 -0.1935978234 0.5659335256 0.2047636062 -0.7785129547 0.5856409669
-0.04494659975 -0.1963564754 0.5503054857 0.5391030908 -0.6209369302 0.5594376922
-0.05329327658 -0.2002642304 0.5541478992 0.3476853967 -0.7419030666 0.570271492
-0.05245198682 -0.2036864758 0.5487244725 0.3554635048 -0.7077578902 0.6059331298
-0.04388266802 -0.2001935691 0.544344902 0.5795797706 -0.5785223246 0.5664573908
-0.04700901359 -0.2035751939 0.5448007584 0.4726296663 -0.6489829421 0.593100965
-0.04885052145 -0.2002473027 0.5515748262 0.4267922044 -0.6828234792 0.5919190049
-0.04925680533 -0.1971121281 0.5569400191 0.3788101375 -0.7127910256 0.5866103768
-0.03067133948 -0.2011468261 0.5263074636 0.6703782678 -0.5117256045 0.5356193185
-0.03586129472 -0.2070159316 0.5294488668 0.6380848885 -0.5356516242 0.5525891185
-0.04096400738 -0.2152610123 0.5290401578 0.5991358161 -0.5269095302 0.6011778712
-0.03700715303 -0.1958463043 0.5389206409 0.6961153746 -0.4866322875 0.5274576545
-0.036913082 -0.1996761709 0.5356327891 0.6815179586 -0.4975078702 0.5360127687
-0.04064367712 -0.196148321 0.5437876582 0.663489759 -0.5167318583 0.5398931503
-0.04009602591 -0.2065904886 0.5360404253 0.6244462132 -0.5460168123 0.5579020977
-0.03613345325 -0.2028393596 0.5319257975 0.6706272364 -0.5056459904 0.5423759818
-0.03426915407 -0.1980360746 0.5305184126 0.7334316969 -0.4138966203 0.5194650888
-0.0307890363 -0.1909299642 0.5281986594 0.8099452853 -0.3101055622 0.4886281192
-0.04202310741 -0.1504178643 0.4956185222 -0.1554083973 -0.4014527798 0.8299272656
-0.05137703568 -0.1417319179 0.4970870316 -0.1312673241 -0.7695130706 0.5899574757
-0.04647535831 -0.1454081237 0.4971385002 -0.1515630782 -0.6001445651 0.6929649115
-0.04590417817 -0.1387242079 0.505941987 -0.2545849085 -0.7777187824 0.5052890778
-0.04234924912 -0.1455278844 0.5004714727 -0.2036822438 -0.5389359593 0.6988898516
-0.04157360271 -0.1400758326 0.5097917318 -0.2612752914 -0.7267779112 0.5127475858
-0.03806735575 -0.1472114176 0.5036889911 -0.1882580072 -0.4876691997 0.7126967311
-0.03519520536 -0.1533675045 0.4982950091 -0.1479975134 -0.2675307393 0.8928031325
-0.05670606345 -0.1456653774 0.4892799258 -0.084877491 -0.7328188419 0.665012598
-0.05823748559 -0.1487393379 0.4793614149 -0.0238876678 -0.7311113477 0.6813364625
-0.07166578621 -0.15053913 0.4819815755 0.1100889295 -0.6652386785 0.7207423449
-0.0616225861 -0.1497269869 0.4827117026 -0.06224615872 -0.6618688703 0.7273426056
-0.06638075411 -0.1516399235 0.4796282649 0.03369662911 -0.6738660932 0.7242046595
-0.09521950036 -0.1657786071 0.4836900234 0.685801506 -0.3900502622 0.5368489623
-0.09153626859 -0.157387048 0.48485291 0.4692597687 -0.5315706134 0.6714757681
-0.08623663336 -0.1578243673 0.4817422032 0.4340444803 -0.5319336653 0.6464364529
-0.09034952521 -0.1621050239 0.4828683138 0.5627413392 -0.4587564766 0.5815312266
-0.07978779823 -0.1523403674 0.4810091257 0.2572373748 -0.6335121989 0.715555191
-0.05100345239 -0.1228440776 0.5284551978 -0.4289738238 -0.7305009961 0.5263531804
-0.04559792951 -0.1288207024 0.5231269598 -0.4438274503 -0.7612802982 0.4725805819
-0.04709203914 -0.123080492 0.5341918468 -0.4191732109 -0.664329946 0.6152760983
-0.0427522622 -0.1266550422 0.5316907763 -0.4282951951 -0.6706311107 0.5961754918
-0.04266046733 -0.1296227127 0.5265591741 -0.4378040731 -0.720754981 0.5274753571
-0.03650071472 -0.1212247908 0.5384498835 -0.2352878749 -0.5523574948 0.7350664139
-0.03175368533 -0.1094695479 0.5304622054 0.1212930456 -0.4815117121 0.679335475
-0.02979857661 -0.1046176925 0.5287258625 0.2784336507 -0.4450263977 0.6804810166
-0.03410140425 -0.1152752787 0.5356139541 -0.04711032659 -0.5108990669 0.7255341411
-0.02826084569 -0.1008201167 0.5245835781 0.3836546838 -0.429389894 0.6383089423
-0.02627334185 -0.09589222819 0.5221634507 0.5390646458 -0.3953810334 0.6293118
-0.03395223618 -0.1147666872 0.5275919437 -0.05105717853 -0.5535553098 0.60939008
-0.0367494747 -0.121705018 0.5309503675 -0.2705623806 -0.6015377045 0.6212341189
-0.03607110307 -0.1196624935 0.5236312747 -0.1837997735 -0.6380857229 0.5304531455
-0.03033738397 -0.1058336645 0.5238543153 0.2295022458 -0.4870853424 0.6022258997
-0.0325897783 -0.1112679616 0.5238005519 0.06696897745 -0.5461525917 0.5744886398
-0.03335925564 -0.1511942148 0.5026489496 0.2309875637 -0.5874221325 0.6943894029
-0.02866637707 -0.138121292 0.5024060607 0.07685598731 -0.5467793345 0.6661273837
-0.03226172924 -0.1459220946 0.5045824051 0.1018933132 -0.5985364318 0.6497817636
-0.03596700355 -0.1414283365 0.5111488104 -0.1814818829 -0.7094159126 0.5144034028
-0.02326036617 -0.137469098 0.4953123927 0.3124727607 -0.4181007743 0.7954687476
-0.02614444867 -0.1407344192 0.4980904162 0.2587411702 -0.4733563066 0.7540572286
-0.02932348289 -0.1482226402 0.4998110235 0.2954513729 -0.5164083242 0.7451909781
-0.03099833243 -0.1350339353 0.5066280961 -0.1078824922 -0.6177523732 0.578474462
-0.03276731819 -0.1404562742 0.5071524382 -0.05648357421 -0.6359449029 0.5854146481
-0.02506765909 -0.1335161179 0.4991227388 0.1308085322 -0.4802688956 0.7127805352
-0.03597474843 -0.1526841372 0.5191605091 -0.02495967224 -0.5699396729 0.4058209956
-0.03048953414 -0.1697960347 0.5124449134 0.5853514671 -0.3088113964 0.5855979323
-0.0310827978 -0.178021729 0.5233450532 0.6291851997 -0.189730227 0.4146904051
-0.03307119757 -0.1673340648 0.5212515593 0.3590601683 -0.3499568701 0.4169303477
-0.03433755413 -0.1601439714 0.5195311904 0.1828453988 -0.4576066136 0.4241202772
-0.02944913507 -0.1857724637 0.5240248442 0.8398885131 -0.07315096259 0.4283355474
-0.03574888781 -0.1467716545 0.5122029781 -0.07196164131 -0.6559333205 0.5126881003
-0.03122339584 -0.1745358109 0.5204404593 0.5803230405 -0.2409769148 0.4558874965
-0.03172196448 -0.1629457772 0.5109192133 0.4154623747 -0.4114248753 0.590382576
-0.03328789398 -0.1568916589 0.513825953 0.151552245 -0.524317503 0.5125992298
-0.03215063363 -0.1648900956 0.5164469481 0.343632549 -0.4004027843 0.492719382
-0.03312605619 -0.1518597156 0.5093269348 0.06348304451 -0.6101952791 0.574963212
-0.02935537137 -0.1623131186 0.5053311586 0.3998507559 -0.4688724875 0.678801775
-0.0290594995 -0.1807534248 0.5189305544 0.755800128 -0.1621866077 0.5007786751
-0.03158599138 -0.1578875482 0.5090833306 0.2337530851 -0.5229765773 0.5987958908
-0.0308091715 -0.1553972811 0.5045933723 0.2161945105 -0.5717673302 0.6692540646
-0.03865737841 -0.1381504536 0.5164716244 -0.3995483518 -0.7902420759 0.4054686725
-0.03468191624 -0.1515185237 0.5141120553 -0.001017036731 -0.6018714905 0.4901489317
-0.03748987615 -0.14372015 0.5170766115 -0.2517640591 -0.7073453665 0.4129692316
-0.1025819704 -0.127897501 0.5264456272 0.4339407384 -0.69423455 0.5741474628
-0.103354305 -0.1246958524 0.5308081508 0.4234493673 -0.697055161 0.5785508156
-0.1008778885 -0.128330797 0.5188891888 0.4297237992 -0.7006548643 0.5695107579
-0.08177200705 -0.1365852356 0.4992974401 0.2280238569 -0.7360007763 0.6344280839
-0.08039356023 -0.1324269176 0.5035638809 0.2007046044 -0.7472244501 0.630751729
-0.07640042901 -0.1293155104 0.5058174729 0.134912625 -0.7657133937 0.6270993948
-0.08056236058 -0.114715457 0.5254727602 0.1334235221 -0.7851557732 0.5964755416
-0.07190434635 -0.1189803705 0.5221200585 -0.04402075335 -0.7918854952 0.5693517327
-0.08156114072 -0.1182020009 0.5219773054 0.166807726 -0.7754911184 0.6002711058
-0.08140707016 -0.1918652207 0.5645655394 -0.1984815449 -0.7807942033 0.5695136189
-0.07469988614 -0.1962276101 0.5606298447 -0.08863860369 -0.8011918068 0.5892030001
-0.08267866075 -0.1944273412 0.5600139499 -0.2360516638 -0.7781620026 0.5613020658
-0.06141905114 -0.1993716657 0.5591480732 0.1757960618 -0.7786948085 0.5861378908
-0.06292260438 -0.2010317296 0.5540383458 0.1653933376 -0.7740329504 0.5761504173
-0.06426627189 -0.2061375976 0.5490829945 0.1380977184 -0.7718240023 0.6101529598
-0.05984886363 -0.2042378336 0.5508130789 0.2381930351 -0.7627606988 0.5899463296
-0.07247503102 -0.2002699226 0.5550607443 -0.05444672331 -0.7989727855 0.5898865461
-0.0691158846 -0.1975323707 0.5579090118 -0.001450041076 -0.7971460223 0.5857836604
-0.05455294997 -0.1899976134 0.5649941564 0.2437657416 -0.7741596699 0.5782171488
-0.06169815361 -0.1951106936 0.5605512261 0.1366060823 -0.7872363329 0.5837885737
-0.06192713976 -0.1913093925 0.5651781559 0.1058835536 -0.7894847989 0.5843697786
-0.05494222417 -0.1958410889 0.557743609 0.2928518057 -0.7450573444 0.5775370598
-0.05837554485 -0.2007480711 0.5544857979 0.264197439 -0.762868166 0.5765515566
-0.07381163538 -0.2009637356 0.5595404506 -0.08959299326 -0.8011433482 0.5887275934
-0.07773539424 -0.1971667409 0.5640717745 -0.1487743258 -0.7938277721 0.5795632005
-0.09041059762 -0.1913020313 0.5629649758 -0.3822816014 -0.7542586923 0.5334036946
-0.08582633734 -0.1894042492 0.569137156 -0.3046340048 -0.7773667574 0.548173666
-0.07281558961 -0.2195955515 0.5328169465 -0.1233521253 -0.7745446563 0.5636641979
-0.1044448838 -0.198481366 0.5212070942 -0.8484170437 -0.3760786057 0.2929506898
-0.1047412083 -0.2042674422 0.5173987746 -0.861097157 -0.4174444973 0.279823035
-0.1053842753 -0.197679162 0.5166703463 -0.8996297717 -0.1897595078 0.2919434011
-0.1018029973 -0.2033991814 0.5223529935 -0.788398385 -0.5195726156 0.3025749028
-0.1073306724 -0.2013076991 0.5127432942 -0.9109575152 -0.2208443433 0.2708612978
-0.1066399813 -0.1790745407 0.5025469065 -0.1198307574 -0.1487421542 0.3801770806
-0.1051578149 -0.1667914987 0.4961936772 0.5298169255 -0.3019758761 0.4563753605
-0.1074667871 -0.1896943003 0.5079541206 -0.6569263935 -0.0313302353 0.3184558153
-0.1073978022 -0.1810188442 0.4968811572 0.379660368 -0.2106694579 0.1960318834
-0.1070317253 -0.1757654846 0.4940801263 0.655542016 -0.2693817317 0.2228518128
-0.1046644747 -0.1619851142 0.4935782254 0.792917788 -0.3612933755 0.4817979336
-0.1056234688 -0.1715584099 0.4972624481 0.4118067026 -0.2671839595 0.3937984407
-0.1092027277 -0.1857316345 0.5046341419 -0.4098183215 -0.03317915648 0.2810736597
-0.1082567349 -0.1920278668 0.5028703809 -0.923556447 0.1756012738 0.3199715912
-0.07628647983 -0.1436359584 0.4888448119 0.1726381481 -0.710740447 0.6719968319
-0.07301168889 -0.1453511864 0.4853460491 0.09488303959 -0.7290232182 0.6768234372
-0.08503682911 -0.1411378086 0.4967061579 0.268840462 -0.7220178246 0.634031415
-0.07931259274 -0.1401317716 0.496034801 0.1796114147 -0.7436400056 0.6348444223
-0.07344266772 -0.1404162347 0.4940262437 0.0854774043 -0.7648906708 0.6364858747
-0.0760518834 -0.1342773587 0.5009498 0.1393532306 -0.7596563101 0.6320658922
-0.06689177454 -0.1353865564 0.4998324215 -0.01573818363 -0.7687938213 0.6374275088
-0.07069168985 -0.137673974 0.4970716834 0.04305296764 -0.7675148249 0.6367686391
-0.08045392483 -0.2029854506 0.5484465957 -0.258374095 -0.759301424 0.5520001054
-0.07607393712 -0.2030534297 0.5509554744 -0.1486881673 -0.7878940105 0.5812351108
-0.05562804267 -0.2081830502 0.5434126258 0.3072850704 -0.7019889951 0.6288025975
-0.06142145395 -0.2090274692 0.5445666909 0.2008310705 -0.7388088703 0.6259160042
-0.04038867354 -0.2094817609 0.5307185054 0.5586773157 -0.5908847451 0.573920846
-0.04634149 -0.2053042501 0.538628459 0.5249124765 -0.590010643 0.5991621614
-0.04123859853 -0.2009720802 0.5372548699 0.6044250727 -0.5437667966 0.5648037195
-0.05171136558 -0.2146601677 0.535402596 0.3796157241 -0.6896307468 0.6081618667
-0.02918800712 -0.1957192272 0.523884058 0.8354519606 -0.2275506854 0.4520920813
-0.02826457098 -0.1675427258 0.5007406473 -0.1298806816 0.09374301881 0.8515856266
-0.02813953348 -0.1909250617 0.5228517652 0.8638730645 -0.1208220869 0.4328084886
-0.02792851999 -0.1877165586 0.5175893903 0.6604316235 -0.0837181136 0.5247247219
-0.02713298798 -0.1937000751 0.5157907605 0.6902604103 -0.1129867211 0.5328486562
-0.02913002484 -0.1825474054 0.5137027502 0.5355592966 -0.1432473361 0.603895545
-0.02894930914 -0.1812428981 0.5072435141 0.3437814415 -0.1468768269 0.7087243199
-0.03000350669 -0.17390351 0.502523005 0.1462259293 -0.163270399 0.8073781133
-0.02765386924 -0.1894327253 0.5125414729 0.5577670336 -0.1168804243 0.5979324579
-0.02857798338 -0.1745708883 0.5091465116 0.2257596701 0.05894729495 0.7041425705
-0.03437558189 -0.1448025107 0.487221539 -0.07740554214 -0.1500218958 0.9746116996
-0.03295456991 -0.1395178586 0.4884029031 0.07015863806 -0.1521719247 0.9734922051
-0.04124893248 -0.1513920575 0.4848822057 -0.166802898 -0.2285201252 0.9531005621
-0.08228783309 -0.1492581367 0.48472628 0.325854212 -0.6320950985 0.7007419467
-0.03868799284 -0.1265983135 0.5353017449 -0.4259865284 -0.6182017326 0.6579800248
-0.03885651007 -0.1333926618 0.5217482448 -0.4516757429 -0.7694786787 0.4504216909
-0.03521098569 -0.1355697811 0.5125399232 -0.2847262621 -0.7132729292 0.4862650335
-0.03098510951 -0.1324845105 0.5102533102 -0.1274661571 -0.5966525674 0.6131100655
-0.03586642072 -0.1312115341 0.5180494189 -0.3007490635 -0.7005214095 0.5102041364
-0.07916497439 -0.1097256467 0.5311231017 0.1411393136 -0.790299654 0.5898954868
-0.0775751248 -0.1071246266 0.5348532796 0.08581783623 -0.8056167364 0.575484097
-0.08452370763 -0.1141102836 0.5285761952 0.2324429303 -0.7780846357 0.5815492272
-0.0729944706 -0.109108001 0.5349905491 0.01914968342 -0.7781472206 0.6010436416
-0.08191724867 -0.1219354868 0.5175475478 0.2355482429 -0.7540847063 0.6013550758
-0.09643921256 -0.1271912158 0.5229231715 0.4004788995 -0.7150202394 0.570894599
-0.08624999225 -0.1245367303 0.5159079432 0.2647284269 -0.7543494105 0.5971154571
-0.102441214 -0.1328621358 0.5219286084 0.4276461303 -0.7010201216 0.5686352253
-0.09447377175 -0.116417855 0.5312048793 0.3816103339 -0.7210530639 0.5782768726
-0.09926086664 -0.1200599223 0.5320075154 0.3990272582 -0.7103607655 0.5794879794
-0.08699907362 -0.1179776341 0.5244911313 0.2815252841 -0.7551602125 0.5859181881
-0.09181660414 -0.1181918383 0.5269168615 0.3490568697 -0.7302866578 0.5823802352
-0.08832801133 -0.1215168834 0.5203821659 0.3645346761 -0.7306901813 0.5768979788
-0.0932308957 -0.1247237772 0.518660605 0.398909688 -0.7148325443 0.574123919
-0.09517318755 -0.122123234 0.5241292119 0.4051423967 -0.70723176 0.5791190863
-0.09042944014 -0.1359821707 0.5053431988 0.3598550856 -0.6924955845 0.6220300198
-0.0990049243 -0.1338421702 0.5117614865 0.4312599301 -0.6869377494 0.5843300223
-0.09641858935 -0.1278751642 0.5165910125 0.4159877896 -0.7073947787 0.5712913871
-0.1034984812 -0.1380805522 0.5167025924 0.4733786583 -0.6693567634 0.5710689425
-0.09899095446 -0.1387805343 0.5083779097 0.4335099459 -0.6794180274 0.5914455056
-0.09948123246 -0.1431838274 0.5036808252 0.4626699984 -0.650197506 0.6010003686
-0.1020715833 -0.1426921189 0.5087868571 0.4936445057 -0.6398505569 0.5882935524
-0.09524445236 -0.1387089938 0.5054238439 0.420284003 -0.6766264439 0.60403198
-0.07945948094 -0.1249071807 0.5132795572 0.1702907532 -0.7627062798 0.6168595552
-0.08352039009 -0.1271869689 0.5121834278 0.252946496 -0.7439079285 0.6067751646
-0.09241410345 -0.1305619478 0.5119534731 0.3974002004 -0.7052071095 0.5866736174
-0.08735055476 -0.1315804869 0.5086168647 0.342320919 -0.7145558596 0.6062970757
-0.1007063612 -0.1388825923 0.5129833221 0.4723545313 -0.6603626609 0.5813968182
-0.09367356449 -0.1353632808 0.5091201663 0.4100139439 -0.6891089082 0.5954175591
-0.08323596418 -0.1296022981 0.5073468089 0.2371754795 -0.7416738868 0.6260312796
-0.09017407149 -0.1920849383 0.558185935 -0.3722210228 -0.7545971274 0.5209298134
-0.07779016346 -0.1977169514 0.5560916662 -0.1563947946 -0.792783618 0.5703259706
-0.1015150324 -0.2115164101 0.5174555182 -0.7729994059 -0.5678365827 0.2750463486
-0.0641496852 -0.1436094493 0.4896149039 -0.01295971405 -0.76960814 0.6371170878
-0.06992380321 -0.1425608099 0.4892492294 0.03779770061 -0.7671092153 0.6383264065
-0.06046643853 -0.1403545886 0.4945083261 -0.04392366484 -0.7741907835 0.6305668354
-0.05692260712 -0.1463612616 0.4838749766 -0.0661380887 -0.7141488791 0.6932064891
-0.06529500335 -0.1388517618 0.4942727387 -0.01440630574 -0.7740767002 0.6327865124
-0.06090313569 -0.1442592591 0.4860402644 -0.02194033004 -0.7492442727 0.6608380079
-0.06706987321 -0.1452358812 0.4856136739 0.00389811513 -0.7654551864 0.6430545449
-0.08601638675 -0.1506009847 0.4878755808 0.3477452993 -0.6329950094 0.6830941439
-0.07737476379 -0.1492516994 0.4843815863 0.1970225275 -0.6801378131 0.6988092065
-0.08320793509 -0.1456241906 0.4923314452 0.2668122053 -0.6910461187 0.6512954235
-0.0983382985 -0.1593512744 0.4904901385 0.6608578563 -0.4444663227 0.5524300933
-0.0952539295 -0.1613376737 0.4867737591 0.6354420185 -0.4489138722 0.56636554
-0.09357722104 -0.153770417 0.4876975119 0.4579595625 -0.5742014647 0.6753242612
-0.08887849003 -0.1444313228 0.4950642884 0.342931062 -0.686245203 0.6371129155
-0.09143973142 -0.1490225941 0.4921862185 0.4190162718 -0.630065918 0.6528215408
-0.08731275052 -0.1519530267 0.4833065271 0.3738952279 -0.5975853801 0.7066736221
-0.08754596114 -0.2095326036 0.5396353006 -0.47794801 -0.7263671756 0.4891867638
-0.08176905662 -0.2004357576 0.559800446 -0.2935457528 -0.7875222564 0.5393207073
-0.08734993637 -0.1980630755 0.5580390096 -0.4019887149 -0.7480131388 0.5204250813
-0.09097954631 -0.1979191452 0.5545250177 -0.4610376656 -0.7276037335 0.5039967895
-0.08683037013 -0.1949893236 0.5623887181 -0.3691932857 -0.7647884488 0.5234690309
-0.09029128402 -0.2042982131 0.5454924703 -0.501806736 -0.7129713297 0.4890880585
-0.09090923518 -0.2047758251 0.5403943062 -0.5220517516 -0.6910226941 0.4903542399
-0.09325918555 -0.2065319121 0.5361561179 -0.5701249242 -0.6842697859 0.4510986507
-0.09825129062 -0.2124386281 0.5213720202 -0.7061085105 -0.6276001334 0.3257701397
-0.08550519496 -0.2016097456 0.5543593764 -0.3874028027 -0.7628446817 0.509749651
-0.08491551876 -0.2057354152 0.5483458042 -0.3970384002 -0.7556677461 0.517249465
-0.08085619658 -0.2041035444 0.5536882877 -0.292425096 -0.7898598909 0.5317822099
-0.08169877529 -0.21069175 0.5431360602 -0.3446659148 -0.7604971528 0.5461063385
-0.09526970237 -0.2021837682 0.5386311412 -0.5922608972 -0.6674310565 0.4505023658
-0.1003423557 -0.2077768296 0.525252223 -0.7281828523 -0.6041704416 0.3208913207
-0.09872098267 -0.2001303881 0.5347490311 -0.6588714719 -0.6189766526 0.4089666903
-0.1014652327 -0.2029596269 0.5283338428 -0.7519643903 -0.5601397753 0.3415094614
-0.08908244967 -0.1948842257 0.5508207679 -0.3747514486 -0.7398934364 0.5047882795
-0.09267868847 -0.1917716712 0.5513507128 -0.4252342284 -0.7329083681 0.4873001575
-0.09211424738 -0.1989047825 0.5457327962 -0.4884155989 -0.709435463 0.4780670106
-0.08380881697 -0.1989960074 0.5505818129 -0.303463459 -0.7540253401 0.5286565423
-0.0961150825 -0.2002084106 0.542953968 -0.5841827989 -0.6678000093 0.444611609
-0.08536449075 -0.2168416977 0.5318487287 -0.4167599082 -0.7572909594 0.486205101
-0.07471039146 -0.2118223608 0.5421569943 -0.1376613528 -0.7967112064 0.585519135
-0.08547601849 -0.2129403353 0.535053134 -0.4190714359 -0.7394778728 0.4976148605
-0.07979495823 -0.214940697 0.5359528661 -0.2781077325 -0.776789546 0.5370595455
-0.0758728981 -0.2159964144 0.5392363071 -0.1927086115 -0.8043914437 0.5565316677
-0.08131527156 -0.2199023366 0.5335583687 -0.3295755386 -0.8107097745 0.4832036793
-0.09034824371 -0.2126080543 0.5311999321 -0.5602669716 -0.6869052052 0.4286276996
-0.09611304849 -0.2107388079 0.5267800093 -0.6861574054 -0.625918448 0.3565782607
-0.09057187289 -0.2165106386 0.5281583071 -0.5338667631 -0.7195560336 0.4323200285
-0.09708057344 -0.2054861635 0.5335111022 -0.6389016509 -0.6435253024 0.4114103913
-0.09835646302 -0.1898160726 0.5543409586 -0.5021244884 -0.7143730521 0.4797101617
-0.09453455359 -0.1940765232 0.5552518964 -0.4813002944 -0.7261112332 0.4895880222
-0.06680887192 -0.2167224884 0.5387904048 0.03419181332 -0.7866790891 0.6094382405
-0.05918432027 -0.2140601277 0.5373143554 0.2190410346 -0.7164651155 0.6193156838
-0.06192262098 -0.2197843194 0.5347183347 0.1173963621 -0.7672455311 0.6229794025
-0.05654568225 -0.2191959471 0.5341374874 0.236108467 -0.7360721231 0.6285607815
-0.06335230172 -0.2137734294 0.5412916541 0.1215596944 -0.7685277462 0.6236596107
-0.09801086783 -0.1957738996 0.5449870825 -0.5616057515 -0.6937622428 0.449685216
-0.1017782167 -0.1990794688 0.5307457447 -0.746676743 -0.55332762 0.3482401669
-0.1011679024 -0.1970520467 0.5373977423 -0.6724151373 -0.6121954322 0.3961705565
-0.101055108 -0.189752683 0.5496592522 -0.5469175577 -0.6989183426 0.4603433311
-0.1006441861 -0.1910588592 0.5450804234 -0.5951025486 -0.6412302256 0.4384535551
-0.106804885 -0.1925614178 0.5229296684 -0.8225840926 -0.1852920055 0.3370465636
-0.1041555479 -0.1957894862 0.5270809531 -0.7845115066 -0.3950713873 0.3386231065
-0.1021843255 -0.1900506169 0.5396805406 -0.6532218456 -0.5095543265 0.4098145068
-0.104934819 -0.1910139471 0.5296693444 -0.7556943893 -0.3090709746 0.3642830551
-0.1034329161 -0.190751344 0.5347563624 -0.7039815784 -0.419374615 0.3861422837
-0.1087762043 -0.1926609129 0.5152529478 -0.9036659002 -0.03002278134 0.2972548604
-0.09787548333 -0.1939555407 0.5501996875 -0.535821557 -0.7007904053 0.4690681696
