# .PCD v0.7 - Point Cloud Data file format
VERSION 0.7
FIELDS x y z normal_x normal_y normal_z
SIZE 4 4 4 4 4 4
TYPE F F F F F F
COUNT 1 1 1 1 1 1
WIDTH 512
HEIGHT 1
VIEWPOINT 0 0 0 1 0 0 0
POINTS 512
DATA ascii
0.01856975816 -0.054129567 0.6389220357 -0.1113906279 0.326834321 -0.6353318691
0.02136500366 -0.04725011438 0.6345567107 -0.4309509993 0.3127534091 -0.5508339405
0.02385573089 -0.04082364216 0.6307477355 -0.7195318341 0.3003634214 -0.4754314423
0.02429085225 -0.0476254411 0.6279214621 -0.6674646139 0.2940056026 -0.4651993811
0.01596730947 -0.05597815663 0.6442287564 0.1272044182 0.3423550427 -0.7123109102
0.01984838396 -0.04350195453 0.6401173472 -0.4495281577 0.3376784623 -0.6316372752
0.01707304642 -0.0483568646 0.6455587149 -0.2047613859 0.3592782021 -0.7334133387
0.01437879074 -0.05359287187 0.6504452825 0.06054404378 0.3770413101 -0.8241170645
-0.07061129063 -0.09902454168 0.6287781 -0.6162170768 0.3954089284 -0.6810873747
-0.07446190715 -0.09813994169 0.6341074109 -0.6534718275 0.4141451418 -0.6334621906
0.01453029364 -0.06649004668 0.6501945853 0.5321397185 0.3697862327 -0.7353984118
0.01863129437 -0.07848529518 0.6505846381 0.6907676458 0.392454654 -0.563136816
0.008223588578 -0.06839524209 0.6442329884 0.5146030188 0.4249644279 -0.7175622582
0.01139684208 -0.07452102751 0.6437029839 0.6392118335 0.5249698758 -0.525740087
0.008134168573 -0.06247178838 0.6462271214 0.4355191886 0.4000864923 -0.803435266
0.005542741623 -0.03785756975 0.6631925702 0.06783282757 0.4752426445 -0.8462444544
0.01102044154 -0.04486062378 0.6579172611 -0.223800391 0.3606653512 -0.8367467523
0.01136077754 -0.05106306821 0.6566077471 0.0890275836 0.4152905047 -0.8975183964
0.02320486307 -0.08862777054 0.6455392838 0.8010448217 0.409724921 -0.4363573492
0.02566527016 -0.08905615658 0.651278317 0.7988442183 0.4089072049 -0.4410861433
0.02596611343 -0.05889624357 0.6212400794 -0.659457922 0.2965022027 -0.4284318388
0.02466013096 -0.06838445365 0.627353549 -0.2219928801 0.3316459358 -0.4393031299
0.02440893464 -0.06722038984 0.6222051382 -0.436771214 0.3210010231 -0.488308996
0.02398756891 -0.07472971827 0.6335887909 0.1492010057 0.3582397103 -0.4220021665
0.02277389914 -0.08381042629 0.6398268938 0.5820612907 0.3924316466 -0.4279747605
0.02339267544 -0.07467739284 0.6271182895 -0.08898500353 0.3487774432 -0.4956118762
0.02309782617 -0.07280362397 0.618965745 -0.3164176345 0.1137712002 -0.7323188186
0.0238097515 -0.06760951877 0.6163473725 -0.6124340892 0.2556566 -0.6010471582
0.02639604919 -0.05993895978 0.6270649433 -0.4627406895 0.3065986037 -0.3911501467
0.02432642505 -0.08045419306 0.6449098587 0.5116376281 0.3850802183 -0.4337548912
0.02496238798 -0.07519984245 0.6410322189 0.2694346011 0.3654443324 -0.424125433
0.02126217075 -0.05637187138 0.6335115433 -0.2710336149 0.3131842315 -0.5562360883
0.0254581254 -0.06928279251 0.6377573013 0.02274154313 0.3448343873 -0.4239258468
0.0209971033 -0.06399428844 0.6400287747 0.07032556087 0.3412319124 -0.5602523685
0.02411245555 -0.06153404713 0.6334941983 -0.2253760695 0.3218357563 -0.4682152867
0.02087404951 -0.06890952587 0.644161284 0.2875160873 0.359154731 -0.5614085197
0.01623266749 -0.06226392835 0.6456052661 0.2882585824 0.3513354957 -0.7038350701
0.01974091865 -0.07251434773 0.6487172842 0.5106619596 0.3758595586 -0.5934901834
0.01112063881 -0.084755674 0.6159988642 0.2089998573 -0.2301545739 -0.9147868752
0.01518141571 -0.07889972627 0.6170291901 0.03285647556 -0.1923310161 -0.92171067
-0.06439892948 -0.08942357451 0.62647295 -0.5719826221 0.4296421111 -0.69751513
0.01761395298 -0.07088795304 0.614025414 -0.4344272017 0.05034131929 -0.8645343781
-0.08109529316 -0.08254043013 0.6497062445 -0.6972824931 0.4436392486 -0.5628668666
-0.07836163044 -0.09480962157 0.6359135509 -0.6657573581 0.404392153 -0.6269675493
0.02168264054 -0.05917798728 0.6144483685 -0.7738700509 0.3145707548 -0.5425635576
0.01655217446 -0.06189490855 0.6125180721 -0.6896552444 0.2809901834 -0.6631059051
0.019590443 -0.1031866372 0.6312017441 0.7785807252 0.1283362657 -0.6129951477
0.02520751953 -0.1087388024 0.6381807327 0.8344976902 -0.04604479298 -0.5282213688
0.03134533018 -0.1022272632 0.6499723792 0.9207991958 0.2194685489 -0.3214874566
0.02900315635 -0.09573625773 0.6491363049 0.796672225 0.4029477239 -0.4502419829
0.0302873794 -0.1287505627 0.6541145444 0.8813406229 -0.2028196901 -0.07021982968
0.03106074408 -0.1384894252 0.6611129642 0.8778886199 -0.2553850114 0.1765486896
0.03111223504 -0.1289016753 0.6651720405 0.8539207578 -0.2415873557 0.1748877019
0.03219931945 -0.1434597671 0.6665258408 0.8927329183 -0.2652728558 0.3232050836
0.03088461049 -0.1228256449 0.6541950703 0.903382659 -0.1194354594 -0.1107070521
0.02907115407 -0.1098184809 0.6440916657 0.8832921982 -0.0847133249 -0.4437180758
-0.01911071874 -0.1171471179 0.7402187586 0.05342557281 -0.5954844952 0.797868073
-0.07799823582 -0.1013220325 0.6370704174 -0.7143552303 0.331310302 -0.5987846851
-0.07770501077 -0.08760291338 0.6433365345 -0.705699563 0.3712184131 -0.590669632
-0.07540559024 -0.08899237216 0.6373952627 -0.6635043025 0.4131517708 -0.6236290932
-0.08166376501 -0.09344031662 0.6417139769 -0.6814261675 0.4128050804 -0.6033465266
0.009229443036 -0.05534018204 0.6524964571 0.2502243519 0.4634183347 -0.837217629
0.0117533002 -0.06016287953 0.6503436565 0.4278223813 0.3852317333 -0.8111037612
0.002549573313 -0.04697734863 0.6541675329 0.2129141092 0.5323821306 -0.8191683292
0.01473468728 -0.04042652994 0.6481020451 -0.6626121402 0.2519311309 -0.684902966
0.01458215248 -0.04731552675 0.6525400281 -0.3352843523 0.3254809082 -0.7985786796
-0.02525266819 -0.02970586903 0.6586847305 -0.004352958407 0.6890897155 -0.7243893743
-0.03253829107 -0.03403829783 0.6555762291 -0.09894771129 0.6731685996 -0.7292326689
0.007328285836 -0.07620410621 0.6383129358 0.3911381364 0.6595574617 -0.5796678066
0.0181635879 -0.09235220402 0.6366796494 0.8114390969 0.3505836129 -0.46269238
0.01493777242 -0.08444294333 0.6422317028 0.6533064842 0.4827668071 -0.5005289316
0.01916722395 -0.0863712579 0.6486426592 0.7735008597 0.417784363 -0.4582318962
0.01392482501 -0.08663458377 0.6363930106 0.6519097686 0.4642800689 -0.5083608031
0.01048147585 -0.08044448495 0.638666451 0.5063645244 0.5764721036 -0.5467979312
0.0128511088 -0.06674158573 0.6124712229 -0.5953679681 0.2658998668 -0.7465769649
0.009163103066 -0.08692529798 0.6308573484 0.5190373659 0.4722689688 -0.5921928287
0.002611241071 -0.07484593987 0.6327944398 0.250634104 0.7066338658 -0.6461490393
0.007099109702 -0.08164908737 0.6324212551 0.4250946641 0.5734484792 -0.6007890701
0.003336198162 -0.08384820819 0.6276100278 0.3292647004 0.538172543 -0.6839621067
0.02521594241 -0.1003913954 0.6432884336 0.8269487619 0.2676579356 -0.4881232977
0.01904626563 -0.09608956426 0.6276080608 0.6276120543 -0.03265438974 -0.6965041757
0.02379857004 -0.09399645776 0.6397183537 0.7397835851 0.3230675161 -0.4726961255
0.02350973338 -0.07998039573 0.6240352392 0.006339043844 0.06637600809 -0.7632399201
0.0228003189 -0.08189772815 0.6295449138 0.2420563251 0.1712969989 -0.6657642126
0.02401441708 -0.08735443652 0.6345122457 0.4352456033 0.2384108603 -0.5853353739
0.02179688215 -0.09205919504 0.6319551468 0.5847605467 0.196307078 -0.5691661835
0.02271982841 -0.09789276123 0.631991744 0.6364058256 0.1137465835 -0.6116781831
0.02273947559 -0.08945062011 0.6254079342 0.2726693749 0.01569510065 -0.7376856208
0.02010163665 -0.08470906317 0.6217685938 0.2361892313 -0.1560942531 -0.8138656616
0.02115729451 -0.0797065869 0.6187472343 -0.01727284305 -0.1296832114 -0.8599694967
0.02353086695 -0.09989541769 0.6376491189 0.8168755174 0.2287288308 -0.5150399208
-0.05531907827 -0.1730893105 0.6964780092 -0.3812817037 -0.3398372531 0.8483101726
-0.05274648219 -0.1757728606 0.700579226 -0.322682023 -0.378539294 0.8623461723
-0.05723443627 -0.08698797971 0.6217772961 -0.4692647159 0.4412531257 -0.7637648582
-0.06242338568 -0.09432861209 0.621681869 -0.548048079 0.4059414268 -0.7289006114
-0.07338126004 -0.08368923515 0.6400177479 -0.6538738012 0.4260540605 -0.6243962049
-0.07229854167 -0.08998018503 0.6323573589 -0.6500062346 0.4141456783 -0.6370120645
-0.08248542249 -0.09910653532 0.6536729932 -0.7837818861 0.2024434954 -0.3258462846
-0.08347119391 -0.1055960953 0.6588016152 -0.8138084412 0.09929850698 -0.1738707125
-0.08473671973 -0.1151110679 0.6614049673 -0.8652718067 -0.04239950329 -0.04367731139
-0.08462111652 -0.1125193834 0.666960001 -0.8417763114 -0.01595035009 0.0388905257
-0.08174777776 -0.09354412556 0.652210474 -0.7536067367 0.2851643264 -0.4008375406
-0.0831893608 -0.1065893099 0.6477555633 -0.8363047242 0.1064532474 -0.3735316992
-0.08425587416 -0.1126507595 0.6565317512 -0.8583197594 0.002383832121 -0.1564804465
-0.08568112552 -0.1198953912 0.6682994962 -0.8734980226 -0.1121933609 0.1240599826
-0.0837944597 -0.09799447656 0.6452256441 -0.6931763887 0.364903003 -0.543379128
-0.08419321477 -0.09211797267 0.6467398405 -0.6809836626 0.4152902067 -0.5927966237
-0.08593155444 -0.1008814722 0.6637115479 -0.773691535 0.1674034745 -0.1978289783
-0.08535767347 -0.08430847526 0.6539824605 -0.6850504875 0.4352665544 -0.5710864067
-0.08567234129 -0.0910416469 0.6586070657 -0.7236670256 0.320404917 -0.408216089
-0.01492508501 -0.1618222147 0.7033141255 0.1974897236 -0.5778886676 0.78946805
-0.01390420832 -0.1665378511 0.6993852258 0.2186414748 -0.5866257548 0.7770617604
-0.01981055364 -0.1660959721 0.7001402378 0.1415850818 -0.5409184098 0.8233051896
-0.02757355943 -0.1752907038 0.7002886534 0.03701784089 -0.4852534831 0.8681943417
0.02858313173 -0.1309600323 0.6586430073 0.8109014034 -0.305049479 0.08536673337
0.02676656097 -0.1404166073 0.6790460944 0.7855162621 -0.4106658101 0.4628734291
0.02913258038 -0.1213683859 0.6602432132 0.8477538228 -0.2078187913 -0.02112466283
0.02926013619 -0.1155945212 0.6535004377 0.8675541878 -0.139864102 -0.2029747367
0.02872244269 -0.1141328141 0.647950232 0.8636628985 -0.1471492797 -0.335385561
-0.05289123207 -0.0549146533 0.6458318233 -0.401755929 0.6010426879 -0.6886432767
-0.05098756775 -0.04697125778 0.6520725489 -0.3909936249 0.6063883305 -0.6857813597
0.004085289314 -0.05305241048 0.6513118148 0.2293311656 0.5215645432 -0.8216885924
-0.01058601309 -0.0350076668 0.6526018381 -0.06216228381 0.5786774755 -0.7321121097
0.003836254124 -0.03622258082 0.6471896172 -0.4791414738 0.3213523924 -0.7005527616
0.0132771628 -0.03274900094 0.6341654062 -0.7147312164 0.264336735 -0.5479376316
-0.005830905866 -0.03515264019 0.6502497196 -0.1974054873 0.5005075932 -0.7138061523
0.0008511964115 -0.03406483307 0.6430848837 -0.3675647378 0.4326614141 -0.6377974153
0.00970046781 -0.03749273717 0.6507611275 -0.5654800534 0.1578415334 -0.7269563079
0.002688808367 -0.03562279418 0.6565603018 -0.2187723815 0.3840454519 -0.7876014709
-0.02258693427 -0.03781355172 0.6527673006 0.02249507047 0.6480750442 -0.7602459192
-0.01601833291 -0.03529986367 0.6556705236 0.06243832037 0.6441130042 -0.7623111606
-0.01654447429 -0.04051522166 0.6517266035 0.136968419 0.6304590702 -0.7624248862
0.007661858108 -0.08064692467 0.6129368544 -0.1718051434 0.04750328884 -0.9297078848
-0.003425973002 -0.09661658853 0.6092827916 0.1975440085 -0.01667505875 -0.9733825326
0.002251475584 -0.08845256269 0.6111542583 0.008826851845 0.0158651378 -0.9511935115
0.007234884426 -0.07426245511 0.6125713587 -0.3736957014 0.2165555954 -0.8385068178
0.0129082175 -0.07460289448 0.6147144437 -0.2998759747 0.04081209376 -0.9291101694
0.005434072111 -0.07019794732 0.6380634904 0.459841013 0.6597570181 -0.5685027242
0.00352103333 -0.05973723158 0.6202015877 -0.3519890904 0.4447547495 -0.6663167477
-0.009128317237 -0.06327047944 0.6288710833 0.03643331677 0.5749513507 -0.722795248
0.004245201126 -0.06565288454 0.6163568497 -0.4137824774 0.3928766847 -0.7351061106
-0.001032256056 -0.06550292671 0.6195114851 -0.2692106962 0.4585205615 -0.7255363464
-0.008777344599 -0.06789509952 0.6231863499 -0.06409539282 0.5360544324 -0.7471696138
-0.0007713900995 -0.05908246711 0.6246820688 -0.2104454786 0.4869255126 -0.6876254082
0.0120090358 -0.05422616377 0.6173269153 -0.602674365 0.3656162322 -0.6041876674
0.003372916486 -0.05433967337 0.6241697669 -0.358384043 0.4491170049 -0.630220294
-0.00863682013 -0.05665520579 0.6321623921 0.0004741525045 0.5555149913 -0.707965672
0.001684712595 -0.05633176118 0.6468723416 0.2677068412 0.5012921095 -0.8222848177
-0.003702828893 -0.07668270916 0.6269967556 0.1718970835 0.6421436667 -0.7416517138
0.003513407661 -0.09319289774 0.6152253151 0.3434312344 -0.04064604267 -0.9160366058
0.02413570322 -0.05028232187 0.6181626916 -0.8655818105 0.3023133874 -0.3981892169
0.01904948987 -0.05399456993 0.6143757701 -0.7698625922 0.3156814277 -0.5427646041
-0.05586398393 -0.1163390502 0.7303343415 -0.4455916286 -0.5030689836 0.737947464
-0.04995157197 -0.1264917105 0.7286088467 -0.3772281706 -0.5565136075 0.738594532
-0.05537071452 -0.1247600913 0.7262685299 -0.4567926824 -0.5263926983 0.7153983712
-0.07493017614 -0.1649090499 0.6827564836 -0.7269545197 -0.1949928701 0.6496345401
0.01811845601 -0.1353146881 0.7000473738 0.7045331001 -0.4797858 0.520571053
0.03038875014 -0.1432194412 0.673381567 0.7808353901 -0.4169575274 0.4650864303
0.02510077693 -0.1502593309 0.6766625047 0.7736670375 -0.4096480608 0.4830267429
0.02370746806 -0.1458539814 0.6816070676 0.7789375782 -0.4144318402 0.4704283476
-0.007952819578 -0.1721804738 0.697122097 0.3065861762 -0.5974982977 0.7383726835
-0.01603100821 -0.1715710312 0.6973598003 0.1922733933 -0.5615450144 0.793125391
-0.005818848964 -0.1669574231 0.6991391778 0.3495094776 -0.5883235335 0.7289046645
-0.06885433197 -0.1649483144 0.6857655048 -0.6651137471 -0.2147096992 0.7098684311
-0.09130258858 -0.1359778494 0.6595602036 -0.9769362211 -0.08613566309 0.189680174
0.03080741316 -0.1372593641 0.6761773825 0.7896131873 -0.4058341086 0.4601089954
0.03092282079 -0.1175794229 0.6657786369 0.8620250225 -0.07842306793 0.06364749372
0.03079047985 -0.1230607182 0.6710864902 0.8408937454 -0.1838051677 0.1979320645
0.03052951954 -0.133017391 0.6811245084 0.8024677038 -0.377045542 0.4451430142
0.03051513061 -0.1286475509 0.6765037179 0.8205655217 -0.313930124 0.3219664693
0.03096196428 -0.110478282 0.6574916244 0.8913246393 0.03129386157 -0.1409281492
0.03097855672 -0.1305077672 0.6711448431 0.8129620552 -0.2947341502 0.3207870126
0.03035802767 -0.1089496017 0.6519958377 0.9036598206 -0.02611773275 -0.2753130198
-0.06239221618 -0.08057148755 0.6300663948 -0.555373311 0.4836408794 -0.6747680306
-0.06623773277 -0.08628301322 0.6307218075 -0.5983201861 0.4419595897 -0.666834712
-0.08225527406 -0.07722450048 0.6546097398 -0.6825278401 0.4696273506 -0.5594521165
-0.07916939259 -0.07466699928 0.6510606408 -0.6610259414 0.4870990217 -0.5693788528
-0.03760557622 -0.03078392334 0.6606078148 -0.1826065034 0.6609796882 -0.7258910537
-0.02574365772 -0.1171816736 0.7392654419 -0.04067402333 -0.5982391834 0.7991294861
-0.04778885469 -0.05803466961 0.6411445141 -0.3324016035 0.6171267033 -0.7125701904
-0.04569203407 -0.0507844165 0.6456670165 -0.3007059991 0.6190370321 -0.7242852449
-0.0205850061 -0.1239726916 0.7368556857 0.07946949452 -0.5982129574 0.7927673459
0.00425897073 -0.1257382482 0.7237693071 0.4779784381 -0.5393090844 0.6890790462
0.01019692235 -0.1334898472 0.7123560905 0.5791885257 -0.5356960297 0.6133661866
-0.04618889838 -0.04555949569 0.6497613192 -0.3146016896 0.6128504872 -0.7236557007
-0.05107806623 -0.03903580084 0.6577681303 -0.3745183349 0.6273639202 -0.6821128726
-0.05438971519 -0.04458781332 0.6556957364 -0.4449467063 0.6022068262 -0.6619657874
0.02197167464 -0.03901386261 0.6248259544 -0.8576083779 0.3105141222 -0.4091323912
0.02330548316 -0.04356528074 0.6216893196 -0.8727539778 0.3055185974 -0.3792954385
0.01852448471 -0.04620892555 0.6188192964 -0.8296781778 0.3352547288 -0.445005089
-0.002799465321 -0.04850822315 0.6510727406 0.2107977271 0.5330165625 -0.8188874722
-0.01391464751 -0.04929714277 0.6456874609 0.1996712387 0.6058599353 -0.7690859437
-0.00851718802 -0.05097782984 0.6467234492 0.2153376788 0.5730286837 -0.7886347175
0.01309706084 -0.09284875542 0.6294574738 0.6511051059 0.1976215094 -0.6281556487
0.006581009366 -0.08948350698 0.626008153 0.4437067211 0.3032881618 -0.7152314186
0.002386215609 -0.09002498537 0.6208729744 0.3189727068 0.1591252983 -0.867123127
0.01438805927 -0.1005514637 0.6266236305 0.7189741731 0.02115011588 -0.6815930009
0.006500101648 -0.09678433836 0.6203095913 0.5220872164 0.06289370358 -0.8282901049
0.01473707147 -0.08901316673 0.6213447452 0.4553842247 -0.1955389082 -0.8144801855
-0.02343286574 -0.08870771527 0.6140010953 0.03615887463 0.5629972219 -0.8202930093
-0.006002077367 -0.08102523535 0.6224811673 0.134745568 0.5867616534 -0.7968787551
-0.005624597892 -0.09198755026 0.6159989834 0.3001165092 0.3366283178 -0.8532907963
-0.01091720257 -0.08375440538 0.6194314957 0.1948815733 0.55353266 -0.7975264192
-0.004558190238 -0.08618142456 0.6201382279 0.2315984368 0.4299196303 -0.8299541473
-0.02950746566 -0.06398062408 0.6304331422 -0.02614572644 0.6409231424 -0.7617909908
-0.02483634278 -0.06718587875 0.6279550195 0.06225686893 0.6476067305 -0.7590622902
-0.06474823505 -0.07682663202 0.6356163025 -0.5673407316 0.5163255334 -0.640093565
-0.0730323419 -0.07890973985 0.6432661414 -0.6412770748 0.4709267616 -0.6038715243
-0.03360209242 -0.09037698805 0.612726748 -0.1056403294 0.5428916216 -0.8312628865
-0.05731061473 -0.09239131212 0.6185346842 -0.4723422229 0.4116357565 -0.7789270878
-0.03182741627 -0.1270195842 0.7349415421 -0.1117229015 -0.60597229 0.7850681543
-0.02722551301 -0.1235650033 0.7382212281 -0.03299655765 -0.6029259562 0.7958960533
-0.002929824172 -0.1247746125 0.7295611501 0.3493475318 -0.5700244904 0.7375658751
-0.01060671359 -0.1192489937 0.7377586961 0.1747627258 -0.5879808664 0.7849617004
-0.004400664475 -0.1221989468 0.734028399 0.2947595716 -0.569427371 0.7594535947
-0.008893335238 -0.1274573952 0.7327745557 0.2275938541 -0.6024544835 0.7637211084
-0.05525965616 -0.1302904189 0.721221447 -0.4801029265 -0.5518977642 0.6773616672
-0.05993378907 -0.1199920177 0.7246487141 -0.5407119989 -0.4922375679 0.6771403551
-0.06510705501 -0.1244323626 0.7185588479 -0.6263174415 -0.4761794806 0.61483711
-0.06798479706 -0.117900528 0.7183791399 -0.6459271312 -0.4552755058 0.6111927629
-0.05149990693 -0.1210601255 0.7304239273 -0.377086997 -0.5364096165 0.7535113692
-0.03601251543 -0.1299803853 0.7318229675 -0.1764992774 -0.6093907952 0.770078063
-0.04080549628 -0.1251975447 0.7336958647 -0.2495827824 -0.5768089294 0.7746734619
-0.03944247589 -0.1333949268 0.7278375626 -0.2256218195 -0.6167092323 0.749671638
-0.04612709209 -0.1318194121 0.7263688445 -0.3199074864 -0.5944881439 0.7372220159
-0.07221077383 -0.1537752301 0.6848367453 -0.7708815336 -0.2291845381 0.5820145607
-0.06495371461 -0.1567479372 0.6907168031 -0.6550832987 -0.2553258836 0.6975954771
0.02799033932 -0.1537118703 0.6703632474 0.766533196 -0.4139318764 0.4907364249
0.02351143584 -0.1563991159 0.6734847426 0.7590549588 -0.4066188037 0.5080706477
0.02686497942 -0.1479089558 0.670370698 0.7694613338 -0.4205312729 0.4805973172
0.02065018751 -0.1517062485 0.680341363 0.764919579 -0.4066563845 0.4994849265
0.01140842028 -0.1539079547 0.693538487 0.668913126 -0.4649731517 0.5783655047
0.009507676587 -0.1581192464 0.6897664666 0.6601654291 -0.4654271603 0.5886075497
0.006836508866 -0.1554526389 0.696226716 0.6058898568 -0.4880399704 0.6238837838
0.005819618702 -0.1301311255 0.7184922099 0.5207770467 -0.5582126379 0.6448862553
0.01182744186 -0.1281873435 0.7133985162 0.5636404753 -0.5332194567 0.6307111979
-0.01816753484 -0.1609339714 0.7079497576 0.1400122494 -0.5892444253 0.7919104695
-0.02183313482 -0.1719763279 0.702251792 0.09939146787 -0.5406040549 0.8328569531
-0.0585395135 -0.1718237698 0.6918451786 -0.4743256271 -0.3079213798 0.7973086834
-0.06475602835 -0.1702962667 0.6883200407 -0.5919216871 -0.2578761578 0.7483461499
-0.04844777659 -0.1720058918 0.695946157 -0.3026711047 -0.3742618263 0.8610520363
-0.04653904587 -0.1666015834 0.6971841455 -0.2485713512 -0.3814867437 0.8866363764
-0.05387197062 -0.1669998169 0.6935283542 -0.3902679384 -0.3236560822 0.831889987
-0.06257710606 -0.1653634012 0.6898499131 -0.550942421 -0.2566335201 0.7768828869
0.004845461342 -0.1607715935 0.6913596392 0.5776013136 -0.4949400425 0.6280580759
0.01329259574 -0.1648388952 0.6837301254 0.6622675657 -0.4652144313 0.5671808124
0.008696166798 -0.165339604 0.6878557801 0.6148084998 -0.5006802082 0.5997831225
-0.0871944949 -0.1304409653 0.6583045125 -0.9873532653 0.03544737399 0.08128236234
-0.0827159062 -0.103897728 0.6414932609 -0.8305429816 0.1690686345 -0.5118239522
-0.08464909345 -0.1131745875 0.6469638944 -0.8802958727 0.1170137152 -0.3101997077
-0.08542779833 -0.120078139 0.6520290375 -0.9284595251 0.07789885253 -0.1414383948
-0.08868698776 -0.1267296523 0.6542610526 -0.9412869215 -0.0005022740224 -0.01387656201
0.02245193534 -0.1419433951 0.6873548627 0.7739357948 -0.4196648896 0.4738459885
-0.06609823555 -0.05875536799 0.6530487537 -0.5971505642 0.5393617749 -0.5936459899
-0.008629063144 -0.04174914211 0.6536498666 0.1680265665 0.580247283 -0.7952440381
-0.01041218638 -0.03155121207 0.6605468392 0.05512895808 0.5893501639 -0.7831751704
-0.0001464501547 -0.03672325984 0.6514664292 -0.3659022748 0.3660643697 -0.7444565296
0.00366672175 -0.04235545918 0.657861948 0.1980929375 0.5297771692 -0.8240604401
-0.001674877829 -0.04333923012 0.6551831961 0.1947173327 0.5332092047 -0.8230359554
2.182296885e-05 -0.038070824 0.6607798338 0.1656822413 0.5241854191 -0.8348604441
-0.00624806853 -0.0371170342 0.6581081748 0.1323713362 0.5867028236 -0.7987146378
-0.004262562376 -0.03351403028 0.6624417901 0.1054970026 0.5445407033 -0.8270013332
-0.0455628112 -0.03911656141 0.6552329659 -0.3357385099 0.6270538568 -0.7023833394
-0.03090548515 -0.1180103272 0.7406643629 -0.09254658222 -0.5943418741 0.7959020138
-0.03859098256 -0.1205918789 0.737380743 -0.2131482661 -0.5638896823 0.7960674167
-0.03886912018 -0.06589515507 0.6304645538 -0.1879231781 0.6311923862 -0.7474733591
-0.04445741698 -0.06555143744 0.6319633722 -0.2800829411 0.6190099716 -0.7333047986
-0.05550719053 -0.05092237145 0.6497747898 -0.4588916898 0.5737137198 -0.6765162349
-0.06208214536 -0.05444217846 0.6524205804 -0.5557062626 0.5476831794 -0.6225094199
-0.05876309052 -0.05596834049 0.6479715705 -0.4928164482 0.5689153075 -0.6568369865
-0.02276974358 -0.06136063114 0.6330879331 0.09164728224 0.6383140683 -0.7617813349
-0.01569557935 -0.06064825505 0.6352018118 0.2063544691 0.6243616939 -0.7527624369
-0.02490219846 -0.05647189915 0.6368168592 0.06501226872 0.6345547438 -0.7695130706
-0.02044037357 -0.05279703438 0.6411423683 0.1287844032 0.6197634935 -0.7690579295
-0.01490289904 -0.05373193324 0.6415799856 0.2242303491 0.6140771508 -0.7566654682
-0.03467880562 -0.0606726557 0.6338781714 -0.1249294728 0.6385483742 -0.7592514753
-0.00375033333 -0.06431541592 0.6370182037 0.325892657 0.6084202528 -0.7203201652
0.004023919813 -0.06576690823 0.6406027079 0.4022940099 0.514415741 -0.743465364
-0.0007885638624 -0.06112444773 0.6412656307 0.3305228353 0.5898059011 -0.731420815
-0.005605114624 -0.0862294808 0.6120519638 0.01350305043 0.2834067345 -0.8695306182
0.001891536405 -0.07859573513 0.6120424271 -0.2445209622 0.2616219223 -0.8378416896
-0.004104684573 -0.08083184063 0.6129700541 -0.1147562414 0.3688823283 -0.8296898007
-0.01237889845 -0.08616906404 0.6137147546 0.1088860333 0.4646205902 -0.8379320502
-0.01804943383 -0.06849557161 0.6294832826 0.1389475763 0.6534374952 -0.7403210402
-0.01452106982 -0.06527157128 0.6324796081 0.2028044611 0.6349209547 -0.7449944019
-0.008372844197 -0.06774982065 0.6331012249 0.2600486875 0.6448079348 -0.7165672183
-0.00198568101 -0.06984625757 0.6344801188 0.2817135453 0.6768074036 -0.6758509874
-0.02346074395 -0.07279670238 0.6233326793 0.09965630621 0.6193752885 -0.777515173
-0.01632072963 -0.07252690196 0.6250801682 0.1469155997 0.650559485 -0.7444280386
-0.01273636986 -0.0768378973 0.6243923306 0.1776294112 0.620585084 -0.7617273927
-0.01783664338 -0.08457401395 0.6176592112 0.1027182117 0.5817086101 -0.8007013202
-0.02555888519 -0.08352649212 0.6159250736 0.01998323575 0.5827047229 -0.810903132
-0.004086800851 -0.07433273643 0.6154232621 -0.2144339681 0.4542099833 -0.787086308
-0.012501196 -0.07790187746 0.617323935 -0.001313901506 0.5446949005 -0.7898136973
-0.01731574722 -0.07566469908 0.6194173694 0.01865030825 0.5700179935 -0.7863772511
-0.01245586295 -0.07189387828 0.6186345816 -0.1491131932 0.5047560334 -0.7837097645
1.879102274e-05 -0.07011522353 0.6155477762 -0.3591179252 0.4068740904 -0.7780784369
-0.04354395717 -0.08924715221 0.614810288 -0.2887574434 0.501203835 -0.812784791
-0.03838038817 -0.0824040249 0.6174200177 -0.1774746329 0.5542806387 -0.8061202765
-0.03030522726 -0.08009315282 0.617254734 -0.04282103851 0.5886417031 -0.8048558831
-0.02176819183 -0.07947300375 0.6181907058 0.07353363931 0.600453496 -0.7950311303
-0.04895184934 -0.08888090402 0.6172455549 -0.3727985919 0.4708630145 -0.7968728542
-0.0522743389 -0.08337309957 0.6211519241 -0.387857765 0.4861103892 -0.7786228657
-0.04640756175 -0.08382609487 0.6182709932 -0.2936988473 0.5249662399 -0.7978363633
-0.02514720894 -0.1292102784 0.7333029509 0.01005838998 -0.6161676049 0.7873459458
-0.01579030231 -0.1304793656 0.7308568358 0.1671711206 -0.6268757582 0.7590379119
-0.01409593504 -0.1250133216 0.7334943414 0.1601554602 -0.6111024618 0.7726307511
-0.07165323943 -0.120430395 0.7125979066 -0.6913787723 -0.4428257346 0.570782721
-0.02322664671 -0.1565213054 0.7085155249 0.02608108707 -0.6022933125 0.7944146395
-0.06028310955 -0.156409964 0.69564116 -0.564884007 -0.3213244081 0.7542548776
-0.06268511713 -0.1305118352 0.7149986625 -0.5956467986 -0.5024154782 0.6205037236
-0.0580053553 -0.1346460134 0.7159202099 -0.5060217381 -0.5504505634 0.6606053114
-0.05985148251 -0.1266678423 0.7222474217 -0.5353893638 -0.5230007172 0.6603918076
-0.03438914195 -0.1616888195 0.7048321962 -0.1112209111 -0.5242064595 0.8410192728
-0.03183692694 -0.1673337072 0.702172339 -0.04561932012 -0.4903849661 0.866465807
-0.0476651676 -0.1739758402 0.7021483779 -0.2390895635 -0.4186893404 0.8724548817
-0.04358782247 -0.1688430905 0.7038836479 -0.2140723169 -0.4705319107 0.848528266
-0.03832192346 -0.1672783643 0.7038061619 -0.1447407901 -0.4866128266 0.8522833586
-0.04097746685 -0.1736260355 0.701300323 -0.1390683204 -0.4226634204 0.8884290457
-0.02609164268 -0.1602633595 0.7053471208 -0.002261461923 -0.5654785633 0.8221562505
-0.02705961838 -0.1682294756 0.6989386678 0.04508430138 -0.4963451922 0.8646889925
-0.08257148415 -0.1352169067 0.6809425354 -0.8933395147 -0.2540307641 0.3692156374
-0.07767344266 -0.1421081871 0.6847754121 -0.8170677423 -0.2985322773 0.4913287461
-0.08310812712 -0.1402752399 0.6758063436 -0.8944051862 -0.2483041137 0.370637089
-0.08463089913 -0.1384418905 0.6693392992 -0.9222092628 -0.1949071437 0.3221858442
-0.08953882009 -0.1354752928 0.6669111252 -0.938427031 -0.1865422726 0.2820736468
-0.08823353797 -0.1403173804 0.6632502079 -0.9233000278 -0.2110011727 0.309812665
-0.07903675735 -0.1459865719 0.6813908815 -0.839527905 -0.2639630437 0.4675910175
-0.07684975863 -0.1540351957 0.6809382439 -0.7976416349 -0.2419449836 0.5470777154
0.01491838042 -0.1348814964 0.7065372467 0.6419064403 -0.5107507706 0.5709756613
0.01608476602 -0.1292747557 0.7079979777 0.6420332193 -0.5043005347 0.5765663385
-0.009910011664 -0.1573730856 0.7057102919 0.280262053 -0.5794901848 0.7597643733
-0.00306316861 -0.159834981 0.7004417777 0.4163323939 -0.5582156181 0.7057421803
0.001894803136 -0.1589355767 0.6960514188 0.5145972371 -0.5208657384 0.6593134403
-0.0315599516 -0.1438040733 0.7198359966 -0.0888222456 -0.6556017399 0.7454364896
-0.00333092059 -0.16564174 0.6937234998 0.4127867818 -0.5493281484 0.6915646195
0.00102259859 -0.1699031889 0.6948538423 0.4652865231 -0.5769657493 0.6682337523
3.262224254e-06 -0.1644270718 0.6980810165 0.4521321356 -0.5555326343 0.6950264573
0.002075691707 -0.1551525593 0.702146709 0.5091096759 -0.528624773 0.6770210862
-0.0007766124909 -0.1501191258 0.7073114514 0.4559513927 -0.5703101754 0.6820423007
0.0151053993 -0.1515301317 0.689961195 0.7213795185 -0.4405574501 0.5306760073
0.01991234533 -0.161313653 0.6789706349 0.7494874597 -0.4138037264 0.515137732
0.01673097908 -0.1546233147 0.6851926446 0.756464839 -0.4088971913 0.5102137923
0.01906798966 -0.1477819979 0.6866441965 0.7679824233 -0.4232126176 0.4806513488
0.01778260805 -0.1410785019 0.6953940392 0.7315958142 -0.4637607336 0.4993559718
0.02180653624 -0.1381542385 0.6916460395 0.7593144178 -0.4355916679 0.4829418659
0.02632006444 -0.1338687986 0.6879857779 0.7729654908 -0.4197203219 0.4729921222
0.02210611291 -0.1298339516 0.7000797987 0.7119110823 -0.464558661 0.5229612589
0.02519025281 -0.1319810748 0.6938286424 0.745123446 -0.4364797771 0.4981410801
-0.07371924073 -0.07063020021 0.6519588232 -0.6384839416 0.5099840164 -0.5753449798
-0.06943321228 -0.066066131 0.6501589417 -0.6101561785 0.5309226513 -0.5877438188
-0.07242607325 -0.07431873679 0.6460514665 -0.6325980425 0.5020027161 -0.5895078778
-0.07006411999 -0.06200759113 0.6545359492 -0.6173782945 0.5326064825 -0.5783684254
-0.07492888719 -0.06411635876 0.658485055 -0.6449220181 0.5160807967 -0.5635613799
-0.04590671137 -0.1220833212 0.7339806557 -0.3165874183 -0.5564315319 0.7667255998
-0.04619083926 -0.1168925986 0.7369529605 -0.3059584498 -0.5390204191 0.7840030193
-0.0401933603 -0.11499881 0.740149498 -0.2314224243 -0.5628527403 0.791316092
-0.06254888326 -0.05027464405 0.6565229297 -0.5654966831 0.5523512363 -0.6113302112
-0.02550132386 -0.04211501405 0.6483336687 0.02557767741 0.6454520822 -0.7629718184
-0.02079285495 -0.04575200751 0.6464416981 0.1001631767 0.6284253001 -0.7677682638
0.00468296092 -0.04193833843 0.6333642602 -0.4415881038 0.4183681011 -0.5703042746
-0.001171492273 -0.04426889122 0.6366753578 -0.2523331046 0.475997299 -0.6266472936
-0.008975153789 -0.04722113535 0.6411854625 -0.001763705164 0.5526533723 -0.7017794251
0.007512892131 -0.03661086783 0.6351784468 -0.5247935057 0.3375245929 -0.5837675333
0.01310267951 -0.03738602996 0.6294116974 -0.7229762673 0.3306687474 -0.4924353957
-0.01142801065 -0.04123406112 0.6486805677 0.05961090326 0.580294311 -0.7385906577
0.001837560674 -0.03881902248 0.6383248568 -0.3515676558 0.4050362408 -0.6298038363
-0.00393662136 -0.04001319408 0.6426779628 -0.1729833931 0.4806576371 -0.6769551039
0.0117985867 -0.03665363044 0.6437964439 -0.7084280849 0.1723439991 -0.6723198295
0.01745363325 -0.03658928722 0.63919276 -0.7781312466 0.171526745 -0.5779039264
0.02130641043 -0.03533906862 0.6330063343 -0.821303606 0.2467822582 -0.4986598492
-0.003640200477 -0.05696554855 0.6428762078 0.3001975119 0.565703094 -0.7658206224
0.01851651259 -0.03556030244 0.6275228858 -0.8445481062 0.2749367058 -0.4561316967
0.007474613842 -0.05015003309 0.6239198446 -0.5064002872 0.4261365533 -0.5487395525
-0.001459565479 -0.05222621933 0.6297002435 -0.2313705087 0.5016370416 -0.6244390011
0.003644941142 -0.04945225641 0.6277074218 -0.391538918 0.4610469341 -0.5753785372
0.01263494883 -0.04843831062 0.6210039258 -0.6662346125 0.3833499849 -0.5031405091
0.01041292306 -0.04432623088 0.6261290312 -0.6136273742 0.3910006285 -0.5123035908
0.01580667496 -0.04057418555 0.6246102452 -0.7892398834 0.3366290331 -0.4624763429
-0.007737799548 -0.05950399116 0.6393128037 0.277862817 0.6197910905 -0.7318115234
-0.008245795965 -0.05150121823 0.636665225 -0.01327811927 0.5463270545 -0.6894894838
-0.01240062248 -0.05567027628 0.6360585093 0.1063136533 0.5855149627 -0.7241270542
-0.03555818647 -0.07031213492 0.6258838773 -0.1358710676 0.6281868219 -0.764670372
-0.0431208685 -0.07412147522 0.6244923472 -0.250381887 0.5959569216 -0.7614771724
-0.04687474295 -0.07185254246 0.6280885339 -0.3023541272 0.6062256694 -0.7333551645
-0.07802160084 -0.1332377046 0.6930351257 -0.7978630662 -0.3561481833 0.4855335057
-0.02979122475 -0.08589386195 0.612396121 -0.05245589092 0.5606271029 -0.821543932
-0.02311360277 -0.09132989496 0.6088879108 0.04447314143 0.5207067132 -0.8455321789
-0.01001899503 -0.09553993493 0.6095807552 0.1741568297 0.1885700673 -0.9236655831
-0.01324022841 -0.09114816785 0.6107192039 0.1426643878 0.3307625353 -0.8838026524
-0.0178038422 -0.08728592098 0.6120176315 0.1034153104 0.526704669 -0.8318613768
-0.02839220501 -0.09193915874 0.6105353236 -0.02887259051 0.5383136868 -0.8392985463
-0.02903469652 -0.1361341327 0.7273994088 -0.05476689711 -0.6347370744 0.7669896483
-0.03430907801 -0.1378009766 0.7243621945 -0.1453011632 -0.6492086053 0.7443458438
-0.02389083803 -0.1330381483 0.7288635969 0.04237449914 -0.6291154027 0.7744146585
-0.06053716317 -0.1729563624 0.7013132572 -0.4425256848 -0.3420937657 0.826566875
-0.04103922471 -0.137545526 0.7242170572 -0.2527814209 -0.6260793805 0.7347021103
-0.03630243242 -0.1468397528 0.7169154882 -0.1966130286 -0.6416296959 0.7407898903
-0.08044903725 -0.1595727801 0.6774969697 -0.8183869123 -0.2138094604 0.5296638012
-0.08355867118 -0.149973318 0.672252357 -0.8875284791 -0.2345892638 0.3911304474
-0.08588141203 -0.1438519806 0.6667899489 -0.9026323557 -0.2326410711 0.3542470336
-0.08058802038 -0.1522351652 0.6771012545 -0.8564988971 -0.2462698668 0.4503332078
-0.01885832101 -0.1536018848 0.7104262114 0.09990508854 -0.6248037815 0.7619795799
-0.006095217075 -0.1530942619 0.7080358267 0.3334332108 -0.5913828015 0.7327167988
-0.03146697581 -0.1510491222 0.7132302523 -0.1147652492 -0.6378051639 0.7575337291
-0.02642080188 -0.152862817 0.7119762301 -0.03441817313 -0.6455754042 0.7611160874
-0.02655343898 -0.1478573829 0.7158272862 -0.00927816052 -0.6545338631 0.7520979643
-0.0316837579 -0.1567163914 0.7082471251 -0.1105864719 -0.5932883024 0.7937024236
-0.04116145149 -0.1506119668 0.7111498713 -0.2638999224 -0.6198493838 0.7379021049
-0.03763804212 -0.1557896435 0.708350718 -0.2037937045 -0.588326335 0.7796994448
-0.04428273067 -0.1555465162 0.7064651251 -0.2806462348 -0.5040670037 0.814556241
-0.01659760065 -0.1399932653 0.7224528193 0.1732055694 -0.641125977 0.7455960512
-0.02351093479 -0.1432270259 0.7199239731 0.04816112667 -0.657548368 0.7485277653
-0.01096402854 -0.1329890192 0.72864604 0.2217404991 -0.6183555126 0.7533544898
-0.01708910987 -0.1351125985 0.7264075875 0.1639017314 -0.6344864964 0.7522497773
-0.02207685262 -0.13796781 0.7249490619 0.07224611938 -0.6385684609 0.7623848915
-0.05809704959 -0.06241869181 0.6426692605 -0.4716599584 0.5820590258 -0.6611151695
-0.06440874934 -0.06362847984 0.6464306116 -0.5435481071 0.5522918701 -0.6309401393
-0.0660995245 -0.04948801547 0.6616039276 -0.6007487178 0.5430603027 -0.5833358765
-0.05899103358 -0.04317675158 0.6601138115 -0.5129264593 0.5883734822 -0.6241985559
-0.07970141619 -0.0678351596 0.6630362868 -0.6569407582 0.5060483813 -0.5587980747
-0.0782058239 -0.07040590048 0.6584109068 -0.6579340696 0.5010545254 -0.5621111989
-0.08507332951 -0.07056769729 0.6664745808 -0.6703740358 0.4897724688 -0.5567349195
-0.0845374316 -0.07332263887 0.6592103243 -0.6742610931 0.4805255234 -0.5601591468
0.009776883759 -0.1499032229 0.6988286376 0.6340005398 -0.4920397103 0.5921220183
0.01045547891 -0.1446343064 0.7027748823 0.6326884031 -0.513597846 0.5775478482
0.005677879322 -0.1509136707 0.7023240328 0.5736405849 -0.5125040412 0.6366569996
0.01399467885 -0.1462368965 0.6956032515 0.703366816 -0.4715945125 0.5257176757
-0.07936732471 -0.1359638721 0.6862391829 -0.8403690457 -0.300740093 0.4495785832
-0.08548080176 -0.1234965846 0.677670598 -0.8915706873 -0.1990091354 0.3075599968
-0.08635729551 -0.07991205901 0.6635248065 -0.706613183 0.39934811 -0.4727801979
-0.08333408833 -0.1154480428 0.6747176051 -0.8521947861 -0.08398598433 0.1485088915
-0.08230555058 -0.1044448689 0.6657105684 -0.7999799848 0.09527213871 -0.09393617511
-0.0817488879 -0.09720586985 0.6601233482 -0.7660637498 0.2113981098 -0.2503824234
-0.08126319945 -0.08815944195 0.6537333131 -0.724442184 0.3533548117 -0.4405387342
-0.08417276293 -0.1339702606 0.6738587618 -0.9243021607 -0.1739517301 0.2916719019
-0.0848942399 -0.1279722005 0.6742169261 -0.9315969944 -0.1501793712 0.2714013159
-0.08540955186 -0.1311561614 0.6668559313 -0.9591408968 -0.07196246833 0.1933224052
-0.08478151262 -0.1297603697 0.6796911955 -0.9012838006 -0.242565766 0.3587355912
-0.076760903 -0.1225529164 0.702724874 -0.7477494478 -0.4172002673 0.515679419
-0.07303968817 -0.1245446727 0.7067751288 -0.7151910067 -0.4367929995 0.5445750952
-0.07213591784 -0.1304929852 0.7043915391 -0.7259818316 -0.4347662628 0.532274127
-0.06742663682 -0.129187867 0.7105849981 -0.6488524079 -0.4753295183 0.5902947783
-0.04647119343 -0.1367265731 0.7219024301 -0.3248708546 -0.6144321561 0.718301475
-0.04516771808 -0.1412506998 0.7175912857 -0.3127461672 -0.6263768673 0.7108190656
-0.03820379823 -0.1416044682 0.7201986909 -0.2060562074 -0.6436207294 0.7326512337
-0.04097338766 -0.1611226648 0.7059010267 -0.218309328 -0.5168474317 0.8217862248
-0.04870437086 -0.166366905 0.7035464048 -0.2969272733 -0.4336710274 0.8485648036
-0.04014765099 -0.1685055345 0.6978108883 -0.1267871112 -0.4023780525 0.9022288322
-0.0466571264 -0.1602832228 0.7014192939 -0.2688935697 -0.4137420952 0.8589096069
-0.05271591619 -0.1548445076 0.7023640275 -0.4139139652 -0.4098699093 0.8082280159
-0.05179898068 -0.160788551 0.6979739666 -0.38658759 -0.3626316786 0.8339571953
-0.04683253542 -0.1468103528 0.7120890021 -0.3374564648 -0.5947034359 0.7248675823
-0.05160538107 -0.1379637718 0.7174808383 -0.4003791213 -0.5982979536 0.6912332177
-0.06003384292 -0.1654788256 0.7033691406 -0.4541688263 -0.4034313262 0.7836847901
-0.05468932912 -0.1625224352 0.7044566274 -0.3927851021 -0.4274370372 0.8027618527
-0.0567429699 -0.1560737491 0.7070804834 -0.4312769771 -0.4826174974 0.7477935553
-0.05113875121 -0.1434274018 0.7133679986 -0.3888655603 -0.6032016873 0.6933069825
-0.07506763935 -0.1481411308 0.6864400506 -0.7665954232 -0.3054090142 0.56032902
-0.0104729645 -0.141583696 0.7196139097 0.278224647 -0.6248030066 0.7230989933
-0.005346911494 -0.145416975 0.7143196464 0.3281741738 -0.5988097191 0.730007112
-0.01451007463 -0.1510084718 0.7133461833 0.185466662 -0.6259243488 0.7565956116
-0.01494820416 -0.1459011883 0.7179014087 0.1820083708 -0.6367786527 0.7492181063
-0.02100758068 -0.1498245299 0.7145164609 0.06867431849 -0.6447291374 0.7556282282
-0.001403357601 -0.1350097507 0.7203286886 0.4329721034 -0.5799459815 0.6881793737
-0.007247072645 -0.1363988668 0.7215604782 0.3405495882 -0.6014113426 0.7120242119
-0.0008848847938 -0.1292467266 0.7248771787 0.4119628966 -0.5711756945 0.707251668
-0.06760820746 -0.07311967015 0.6409545541 -0.5700175762 0.5374368429 -0.620864749
-0.06929957122 -0.07967760414 0.6376948357 -0.6182319522 0.4696739614 -0.6287121773
-0.06386930496 -0.04420950264 0.663267076 -0.5669432282 0.5616550446 -0.6015812159
-0.08072808385 -0.05561647192 0.671702981 -0.6408830285 0.5265523195 -0.5585570335
-0.08200994134 -0.06274458766 0.6710360646 -0.6512790322 0.5160438418 -0.5562560558
-0.0793780908 -0.06231088936 0.6627860069 -0.6472531557 0.5154723525 -0.5614948869
-0.0747385174 -0.05835399032 0.663967967 -0.6429631114 0.5200356245 -0.5621631145
-0.08414328098 -0.1130944416 0.681242466 -0.8252963424 -0.1299096644 0.1954276413
-0.08409098536 -0.1047277227 0.6804679036 -0.7741530538 -0.05436598137 0.08218225837
-0.08286492527 -0.1135070398 0.6888586283 -0.7838978171 -0.2530186772 0.31468606
-0.08490663767 -0.1097549871 0.6762938499 -0.8317727447 -0.02666742727 0.08063302189
-0.0850161314 -0.09307602048 0.6734852195 -0.7371481657 0.1438497156 -0.1640892625
-0.08398743719 -0.1240469366 0.6835833788 -0.8845546842 -0.2497061342 0.3635778427
-0.084608078 -0.0983697623 0.6765851378 -0.754381299 0.05493726581 -0.05328881741
-0.08618427068 -0.09114912152 0.6685026288 -0.7468822598 0.2231896073 -0.2496595681
-0.0857668817 -0.08493171632 0.6682152152 -0.7128801942 0.2871018648 -0.3407595456
-0.08632794023 -0.09848560393 0.6702525616 -0.7807261944 0.1296688765 -0.1247705296
-0.08630423248 -0.104417339 0.6722331643 -0.8055724502 0.04679564014 -0.01682109945
-0.08416318148 -0.1184081733 0.6853371859 -0.8266499639 -0.2568878829 0.3417466283
-0.06734216213 -0.1345100105 0.7076863647 -0.6598980427 -0.4776656926 0.5797122717
-0.0575087294 -0.1477212757 0.7039021254 -0.507874012 -0.498818934 0.689422667
-0.07244294137 -0.1426012516 0.694437623 -0.7274900079 -0.3914417624 0.5606528521
-0.07387511432 -0.1374344379 0.6959103942 -0.752009511 -0.386585474 0.5263513327
-0.07236117125 -0.1346938759 0.7011425495 -0.7395795584 -0.4209980369 0.5240804553
-0.05059149861 -0.1483488679 0.7073479891 -0.4083225429 -0.5769292116 0.7015120387
-0.05840619653 -0.03900371864 0.6634086967 -0.4974576831 0.6070652008 -0.6177473664
-0.06236599013 -0.03718843311 0.6672251821 -0.5260157585 0.5913223028 -0.610460937
-0.06720868498 -0.04181686789 0.6701787114 -0.5808342099 0.5618149638 -0.5880110264
-0.0809052512 -0.1257887036 0.6902844906 -0.835921824 -0.3242820501 0.4286288321
-0.08064938337 -0.123915866 0.6962465048 -0.7904872894 -0.3702244461 0.4864574373
-0.06459109485 -0.1443342417 0.7021925449 -0.6083988547 -0.4702529907 0.6378325224
-0.06727406383 -0.1394619495 0.7039048076 -0.6685692668 -0.453130126 0.5869020224
-0.06846351177 -0.145338729 0.6976668239 -0.698382616 -0.3859854639 0.6009269357
-0.07067546248 -0.1705695838 0.6873657703 -0.6375419497 -0.1612862051 0.7520191073
-0.06520102918 -0.1708952039 0.696359396 -0.5339239836 -0.279481709 0.7859662771
-0.06866854429 -0.1628319025 0.6920627356 -0.639293313 -0.2526275516 0.712226212
-0.06175191328 -0.1500377655 0.699935019 -0.5753650069 -0.399733305 0.712469995
-0.06524564326 -0.1543636173 0.699241221 -0.6083782911 -0.3826140463 0.6809431911
-0.06407075375 -0.160587281 0.7000741363 -0.5558241606 -0.3701273501 0.7287265062
-0.06862267852 -0.1508648098 0.6944246888 -0.6920599937 -0.3399424255 0.6314712763
-0.06183962151 -0.1518644989 0.7054451704 -0.5322719216 -0.458702296 0.6987715364
-0.06134195626 -0.157862708 0.7051914334 -0.5036391616 -0.4288772941 0.7359366417
-0.06024588272 -0.1418146789 0.7086945176 -0.5390466452 -0.5334934592 0.6486021876
-0.06202717125 -0.1364173442 0.7112421989 -0.576367557 -0.5206286311 0.6277531385
-0.05606837198 -0.139527902 0.7135028839 -0.4679497182 -0.571351707 0.6726902723
