# .PCD v0.7 - Point Cloud Data file format
VERSION 0.7
FIELDS x y z normal_x normal_y normal_z
SIZE 4 4 4 4 4 4
TYPE F F F F F F
COUNT 1 1 1 1 1 1
WIDTH 512
HEIGHT 1
VIEWPOINT 0 0 0 1 0 0 0
POINTS 512
DATA ascii
-0.08265355974 -0.1314564347 0.6856635809 -0.5193880796 -0.6088184714 0.5990773439
-0.0951173678 -0.1834858954 0.6242793202 -0.5581479073 -0.4773840606 0.6749265194
-0.09026288986 -0.1870824993 0.6259998679 -0.5508683324 -0.5026967525 0.6492720246
-0.0706371367 -0.1325486898 0.6912615895 -0.3231843412 -0.646784842 0.6740343571
-0.07769370079 -0.1328545809 0.689089179 -0.4140564203 -0.6359628439 0.6445271969
-0.1140695959 -0.1410185248 0.586925745 -0.9771426916 0.1948334873 0.07615984231
-0.002631862415 -0.06307308376 0.6328765154 -0.5070234537 -0.5623276234 0.6436537504
0.003493577708 -0.06445275992 0.6253115535 -0.3856750727 -0.7502381802 0.4263651371
-0.09648051113 -0.05977502465 0.6285411716 0.5590415001 -0.665115118 0.4933517873
-0.0992827341 -0.06863986701 0.6237825155 0.5979259014 -0.6294733882 0.4959991574
-0.1015605032 -0.06479274482 0.6294234991 0.5983921885 -0.6305354834 0.4943195581
-0.09171946347 -0.06025495008 0.6224430203 0.5395331979 -0.6823346019 0.4924259186
-0.092412211 -0.06441947818 0.6185061932 0.5657898784 -0.6590966582 0.4943393171
0.001473583397 -0.06923153251 0.6342263818 -0.4665398002 -0.5338640213 0.6997097731
0.002379892394 -0.08134347945 0.6274651885 -0.4646755755 -0.5600789785 0.6799758077
0.001988412347 -0.07575859874 0.6312708259 -0.4687153101 -0.5601030588 0.6759219766
0.006896697916 -0.08043382317 0.6313371658 -0.2972071469 -0.5959961414 0.7063888907
-0.08640680462 -0.1267694533 0.6815322042 -0.5608132482 -0.6045450568 0.5647900701
-0.100912571 -0.1808912307 0.6220237017 -0.7310296297 -0.4406012297 0.5194182396
-0.1026914343 -0.1723264903 0.6164798737 -0.8173472285 -0.3595345616 0.4441288114
0.01532964129 -0.07848800719 0.6276557446 0.07729929686 -0.7632356882 0.5868799686
0.01212964579 -0.07410444319 0.6299397945 -0.06740920246 -0.6882781982 0.6264262795
0.007603132632 -0.06760989875 0.6296498775 -0.3380894959 -0.673108995 0.5408940911
0.01508609764 -0.07107399404 0.6225903034 -0.145067066 -0.8527086973 0.3545615375
0.01088624168 -0.08723680675 0.6222755909 -0.2063786536 -0.6361817718 0.6351465583
0.01199604757 -0.08647466451 0.628323257 -0.1519372314 -0.6622222662 0.6538222432
0.01717343926 -0.096192725 0.6029581428 -0.09630610049 -0.5586548448 0.6964652538
0.01093240362 -0.0937308073 0.6088243723 -0.2878058553 -0.538236618 0.6806554198
0.02441258356 -0.09198157489 0.6061926484 0.2112010717 -0.6851670146 0.641067028
0.0245905295 -0.09649404883 0.5997148156 0.1629891694 -0.6211098433 0.6878695488
0.008925513364 -0.08930528909 0.6158729196 -0.305480659 -0.584546864 0.6376550794
0.01698216237 -0.0872900337 0.6156777143 0.004476101138 -0.686473608 0.6038753986
0.02364313789 -0.08805077523 0.6120687127 0.2314163893 -0.735429883 0.6012700796
0.0208797548 -0.08361120522 0.6194243431 0.1870937049 -0.7751274705 0.5593205094
0.02804481052 -0.09112252295 0.6018792391 0.3265494108 -0.6856289506 0.6358078122
0.01989766769 -0.1011647433 0.5862934589 0.1521344185 -0.5950354934 0.7876366973
-0.06583414227 -0.1352579892 0.6916826963 -0.2544407248 -0.6620502472 0.7017937899
-0.07664317638 -0.1396283656 0.679559648 -0.4608034194 -0.6496553421 0.602545321
-0.07420264184 -0.1376734972 0.6849811673 -0.4079143107 -0.6590088606 0.6306021214
-0.007489317097 -0.06189015135 0.6277611852 -0.5642871857 -0.5987030864 0.5653700233
-0.08150764555 -0.1355798542 0.6785110235 -0.5132934451 -0.6272321939 0.583022356
-0.0909120813 -0.1288486868 0.6771177053 -0.5925573111 -0.5775023103 0.5599400401
0.01653111726 -0.0705934912 0.6162145138 -0.1559667736 -0.9246652722 0.230605036
0.01304642949 -0.07321359962 0.6093299985 -0.07230688632 -0.7373105288 0.4482467175
0.004582805559 -0.070938088 0.6147039533 -0.3941491842 -0.7782149315 0.3331409693
-0.002861052752 -0.07208485901 0.611379087 -0.4858919382 -0.6334673166 0.4664717019
0.0068763569 -0.07354706526 0.6081522703 -0.1858523339 -0.6527562737 0.5127835274
-0.1009344757 -0.1431563348 0.6445938349 -0.7824485302 -0.465272963 0.4119980931
-0.1046095714 -0.1361060292 0.6465164423 -0.808447957 -0.4521896243 0.3700198829
-0.1014187634 -0.1347666234 0.6556991339 -0.7217144966 -0.5201120377 0.4546546936
0.02234407142 -0.0742085129 0.6166426539 0.216260761 -0.8334690928 0.508174181
0.02971312404 -0.07953476906 0.6071568131 0.3903543055 -0.710079968 0.5736780167
0.02127963118 -0.07906181365 0.6240324378 0.2246798575 -0.8192779422 0.526843071
0.02489005029 -0.07444444299 0.6092268229 0.3010424972 -0.7783658504 0.5349620581
0.03020286933 -0.08520448208 0.6031650305 0.3781304955 -0.6922581792 0.6034459472
0.02630114183 -0.08140222728 0.6135234833 0.3156819344 -0.7550324202 0.5589718223
0.03143304959 -0.09069798887 0.5958242416 0.3929313719 -0.6500075459 0.6468368769
0.008672259748 -0.1062426046 0.5830604434 -0.1034209728 -0.6840942502 0.6533340216
0.02845725231 -0.09227710217 0.5911149979 0.327854991 -0.6225634217 0.7059730887
-0.0610078238 -0.1596417129 0.6646301746 -0.1694282591 -0.7520586848 0.6330018044
-0.003682246897 -0.1101606488 0.5810234547 -0.480863601 -0.720318079 0.4962772429
0.002300378168 -0.1437610835 0.621460855 0.5545800328 -0.5936443806 0.4322488606
0.002057008678 -0.1505619437 0.6235044599 0.7000491023 -0.5155300498 0.4247234464
0.001642585965 -0.1111865789 0.6110687852 -0.1621218026 -0.6970914602 0.5077685714
0.003989513032 -0.1184051409 0.5989743471 -0.06280253828 -0.8183891177 0.4485310912
0.001172296703 -0.143688038 0.6313572526 0.5975214839 -0.5508447289 0.4533036053
0.003188280622 -0.1219729111 0.6062777042 0.04180643708 -0.7553111315 0.4569675326
0.001411865931 -0.1376627237 0.6265640855 0.4523803592 -0.587516129 0.4604702294
0.002405573148 -0.1305927485 0.6161142588 0.2619012892 -0.6752482653 0.4551758468
0.002748321276 -0.1056091264 0.600645721 -0.3214993477 -0.786490202 0.4974033833
-0.1061666608 -0.1401348859 0.632401526 -0.8586555719 -0.3705920875 0.342403084
-0.02001353912 -0.05467347801 0.6200945973 -0.5447401404 -0.6597780585 0.5167551041
-0.01061522681 -0.05726557598 0.6246984601 -0.5396487713 -0.6569839716 0.4982187152
0.01065557636 -0.06724546105 0.6192111373 -0.2732030451 -0.9004843235 0.2429884374
-0.01329024043 -0.05889093131 0.6186181307 -0.5217583179 -0.6743780375 0.486790359
0.003544195089 -0.06532185525 0.6179868579 -0.3389797509 -0.8400193453 0.31116274
-0.003960008733 -0.06087676808 0.6209591031 -0.4412002563 -0.7500140071 0.3969988823
-0.01153131761 -0.06307283789 0.6153704524 -0.5317771435 -0.6656141281 0.4740829766
-0.005158852786 -0.07944507897 0.6148995161 -0.6326469183 -0.5321869254 0.550489068
0.007743868977 -0.08364745229 0.5965130925 -0.186132744 -0.5843597054 0.6018151045
0.01665700413 -0.08218561113 0.59718436 0.07667163014 -0.6302372813 0.6207213402
0.02363749593 -0.08086716384 0.5978912115 0.2836912274 -0.6673751473 0.6331186891
0.01902164333 -0.0775545314 0.601790309 0.1757105142 -0.6719378829 0.5668361783
0.003544182284 -0.08855811507 0.622943759 -0.4758107066 -0.5364781022 0.6906614304
9.202561341e-05 -0.08280273527 0.6220149398 -0.5246546865 -0.54888165 0.6494652629
0.001570790075 -0.08820214868 0.6165167689 -0.5512560606 -0.5066868067 0.6598442793
-0.001179739949 -0.07491188496 0.6267190576 -0.53668046 -0.555342555 0.635073185
-0.008112737909 -0.07797648013 0.6018044949 -0.5361166596 -0.5703143477 0.5191571116
0.004895786755 -0.07641337067 0.6023931503 -0.1622463316 -0.632349968 0.548409164
-0.001012553461 -0.07966975868 0.6012293696 -0.3992121816 -0.5782400966 0.5164787769
0.01317903679 -0.07536596805 0.6032038927 0.06486704201 -0.6682860851 0.5648833513
-0.01264820155 -0.07243285328 0.6087931395 -0.632604599 -0.56466645 0.5254769921
-0.01762160286 -0.06833366305 0.6061757207 -0.5850919485 -0.6000688076 0.5450077653
-0.02951749042 -0.05100772902 0.6170154214 -0.3907412291 -0.7208709717 0.564735651
-0.06006919965 -0.04752354696 0.6150990129 0.1261558384 -0.8156487346 0.5576243997
-0.06610380113 -0.05021162331 0.6143866777 0.2380784899 -0.7824196815 0.5649209023
-0.100513421 -0.1304107159 0.6619018316 -0.6896939874 -0.5346692801 0.4860063493
-0.09694480896 -0.1285172999 0.6695851684 -0.645427227 -0.5543217659 0.5232508779
-0.09761929512 -0.1490678042 0.6469323635 -0.7125656605 -0.5159750581 0.4696839452
-0.1034323946 -0.1451979578 0.6392034888 -0.8188744187 -0.4244180918 0.3782345057
-0.09565275908 -0.1419895887 0.6554735899 -0.6791555285 -0.5500526428 0.4839461148
-0.08999732882 -0.1461839825 0.6584051251 -0.6273365021 -0.5801900625 0.5162401199
-0.09376613051 -0.147464782 0.6517050266 -0.6814169884 -0.5435262322 0.482578814
0.01867135987 -0.08828017861 0.5902814865 0.1074037626 -0.6035667062 0.7165253162
-0.006765014026 -0.0836899206 0.5956171751 -0.497065872 -0.5750745535 0.5536206961
0.003363677766 -0.08597434312 0.5922498107 -0.2250996083 -0.6000345945 0.6299616098
0.009886162356 -0.08792901784 0.5892280936 -0.05748769268 -0.6092115045 0.6747618318
0.0301905442 -0.07960242033 0.5997906923 0.451492101 -0.6674971581 0.5914039612
0.0286067836 -0.08524425328 0.5947874784 0.4227780998 -0.6634045839 0.617092073
-0.08951546997 -0.1818007827 0.6288272142 -0.5504024625 -0.498480022 0.6577731371
-0.06878855079 -0.1623541415 0.6587184072 -0.2964870632 -0.7212175727 0.6156355739
-0.06691817939 -0.1846411973 0.6377298236 -0.2262902111 -0.6610205173 0.7115120888
-0.07055486739 -0.1882243007 0.633654058 -0.2755924165 -0.6413575411 0.713208437
-0.0585000664 -0.189593479 0.6346477866 -0.0778882876 -0.7174945474 0.6891448498
-0.06432066113 -0.1922938079 0.6319383383 -0.1674932241 -0.6770986319 0.7162057757
-0.07306876779 -0.1829592586 0.6339610219 -0.345322907 -0.5911254883 0.7285196185
-0.04142987356 -0.1490323991 0.6766018867 0.1597329527 -0.7234178782 0.66814816
-0.03552635387 -0.1515894979 0.6717680693 0.2589503527 -0.7103233337 0.6543935537
0.005659960676 -0.0985860303 0.6050643921 -0.35647434 -0.6625970602 0.5893267393
0.004213073291 -0.0943152234 0.6108558178 -0.484600991 -0.5356256366 0.6562011242
0.01170379389 -0.09977728873 0.600931406 -0.1794495285 -0.6684202552 0.6115971804
0.03047711402 -0.09813883156 0.5914359689 0.3386951983 -0.6153120995 0.7106477618
0.02323627099 -0.09332365543 0.5879030228 0.23533687 -0.6027632356 0.7609793544
-0.06826087087 -0.1401036978 0.6845396757 -0.3287425935 -0.6759615541 0.6524806619
-0.0608042106 -0.1389396638 0.6884495616 -0.1580904573 -0.6994057298 0.6956560016
-0.06809687614 -0.1449760497 0.6802172661 -0.3001874387 -0.7004060745 0.642139852
-0.05893270671 -0.1433253735 0.683244586 -0.1140100956 -0.7166599035 0.6684309244
0.010430797 -0.1130691022 0.5873651505 -0.04812729359 -0.7154713273 0.6609928608
0.0007892638678 -0.1147433519 0.584367156 -0.2787745595 -0.8128134012 0.4528129995
0.004459859338 -0.1571072936 0.6097134352 0.886033237 -0.3086157739 0.2913186252
0.009294033051 -0.1318402141 0.6018307209 0.423250854 -0.6407812238 0.4855736792
0.004868589807 -0.1514767706 0.6111856699 0.7678099275 -0.4133919775 0.3599307239
0.003492005635 -0.1531081498 0.6168358326 0.7736521959 -0.4409174919 0.3877112567
0.007398692425 -0.148590982 0.5987191796 0.7528425455 -0.3496231735 0.2860548198
0.005825735163 -0.1194458604 0.5902555585 -0.05658803135 -0.8813682795 0.4249998331
0.01290890388 -0.1190918759 0.5911960006 0.2130138874 -0.7490735054 0.5287688375
0.006148221437 -0.1414621174 0.5965217948 0.5207956433 -0.4966005087 0.3075973988
0.01056318916 -0.127429232 0.5932064652 0.3345687389 -0.6515782475 0.4488392472
0.004471506458 -0.1458141059 0.6053574681 0.5928990245 -0.4963116646 0.3418244421
0.004192533437 -0.1363349706 0.6033947468 0.341338098 -0.6687313318 0.3982936442
0.005297576543 -0.1529739946 0.6032397151 0.7946910858 -0.334426105 0.2692653835
0.00512083713 -0.1312579066 0.5960379839 0.227232486 -0.7056459785 0.3761615753
0.006714058574 -0.1136307642 0.5931922793 -0.1068058312 -0.8444299698 0.4818915725
0.008912052028 -0.1067775115 0.5971573591 -0.1248526499 -0.7669333816 0.5571026206
0.0208249744 -0.1082931161 0.5907549262 0.2005093098 -0.722512722 0.6361757517
0.01602260396 -0.1016487926 0.5972262025 -0.03464699537 -0.6856136322 0.6219729185
0.0136294812 -0.1109825298 0.5922976136 0.06612423062 -0.782088995 0.5778554082
0.02740924805 -0.103601262 0.5904086232 0.2786431611 -0.6523695588 0.6970053315
0.01676081307 -0.1074299589 0.5867617726 0.08363444358 -0.6351066232 0.7626017928
0.00310330838 -0.1647196859 0.6077292562 0.7510388494 -0.5035127997 0.4270800948
0.005146621261 -0.1609038264 0.6034530997 0.8728958368 -0.3257775605 0.2979923189
-0.02836606838 -0.09986594319 0.565700233 -0.4407072365 -0.6400018334 0.6046904325
-0.04295268655 -0.09656591713 0.5593119264 -0.1858699918 -0.7537493706 0.6175529957
-0.03214191645 -0.1007867157 0.5603482127 -0.3564270735 -0.6665326357 0.6119293571
-0.01648903824 -0.1030135825 0.5709404945 -0.5750649571 -0.5675430894 0.5880590677
0.006346912589 -0.1004025713 0.5815914273 -0.1318639964 -0.6035093069 0.6972478628
-0.01149052195 -0.1054601595 0.5746996999 -0.5687712431 -0.6155757904 0.5353178978
-0.007348716259 -0.1092051119 0.5768107772 -0.5228827 -0.6964111924 0.485444814
-0.07019731402 -0.09570717812 0.5615247488 0.3116354346 -0.7120827436 0.6209110618
-0.06449270993 -0.09659507871 0.5571929216 0.2319428474 -0.7400826812 0.6259191632
-0.05771921948 -0.09720855951 0.5537389517 0.1134574562 -0.7577633262 0.6273793578
-0.04647677019 -0.09887120128 0.5486298203 -0.09984758496 -0.7695210576 0.6240702868
-0.1153152213 -0.1503588855 0.594653964 -0.9594751596 -0.1545607895 0.1578006446
-0.1061677635 -0.1524853855 0.6257615685 -0.8767814636 -0.33833462 0.3408219218
-0.1090926528 -0.1376802176 0.6234323382 -0.9105884433 -0.2854415774 0.2878838181
-0.1064766273 -0.161291346 0.6172588468 -0.8862300515 -0.2962333262 0.3429198265
-0.1102603301 -0.1554738134 0.6142857075 -0.9226178527 -0.2800473571 0.2463363707
-0.02573160827 -0.1397954375 0.6790310144 0.3243141174 -0.6984886527 0.6348178387
-0.03518398106 -0.1429901421 0.6809792519 0.2366603762 -0.6998410225 0.6737394929
-0.04660411179 -0.1356139928 0.6925165653 0.07240109891 -0.6954052448 0.7130013704
-0.04623897746 -0.1402250975 0.6873613596 0.09111578763 -0.7076688409 0.6983100772
-0.05347661301 -0.1408635825 0.6862448454 -0.02125541307 -0.7191242576 0.6864615679
-0.05595086142 -0.1365193725 0.6920061111 -0.08404317498 -0.6982840896 0.7089279294
-0.08967627585 -0.1414104402 0.6634708047 -0.6168144345 -0.5754899383 0.5314852595
-0.09497215599 -0.1361586004 0.6636334062 -0.6503307819 -0.5623999238 0.5097400546
-0.08397635818 -0.1429845095 0.6690997481 -0.5558742285 -0.6090715528 0.5643168688
-0.08487226069 -0.1380026191 0.6733653545 -0.566904366 -0.6050356627 0.5584816337
-0.09143213183 -0.1310027689 0.6715211272 -0.6147133708 -0.5795848966 0.5336731672
-0.08974990249 -0.1366804987 0.6686979532 -0.6137980819 -0.5737351179 0.5417566299
-0.06706119329 -0.1584519446 0.6637907624 -0.275142163 -0.731782496 0.6176512241
-0.08522479236 -0.1521963775 0.6592547894 -0.5513842702 -0.6213196516 0.553141892
-0.08452109993 -0.147241652 0.6640017629 -0.5515875816 -0.6176517606 0.5599225163
-0.07802494615 -0.1565866172 0.6593438387 -0.4524354339 -0.6763657928 0.579759717
0.002290113829 -0.1700827777 0.6095136404 0.7387545705 -0.5152109265 0.4344769716
-0.00741812773 -0.1795010716 0.6172487736 0.6691628098 -0.5453281999 0.5028853416
-0.008036232553 -0.1742740422 0.6208342314 0.69284904 -0.536935091 0.4808930755
-0.05117998272 -0.1894825548 0.6339256763 0.02380258963 -0.7231769562 0.6864998937
-0.04858762026 -0.1818712503 0.6414347291 0.06656643003 -0.706269443 0.7010446191
-0.05502903834 -0.1844747365 0.6373209953 -0.04374084622 -0.6960192919 0.702064991
-0.08555690199 -0.06682528555 0.6076898575 0.5206067562 -0.6651669741 0.5339117646
-0.01703893766 -0.07732494175 0.5976853967 -0.5804296136 -0.6005420685 0.5496581793
-0.01354208216 -0.07701958716 0.6038919091 -0.6312925816 -0.5640177727 0.5237609744
-0.01313241106 -0.08290909976 0.5971779227 -0.6437467337 -0.5661054254 0.5086053014
-0.04626766965 -0.04914771765 0.6128987074 -0.08906661719 -0.8018211722 0.5878747106
-0.05317910016 -0.04788591713 0.6140948534 0.01108176727 -0.8079906702 0.5862879753
-0.08220323175 -0.1680473238 0.64376086 -0.4922708273 -0.6186459661 0.6109759808
-0.09666665643 -0.1565602124 0.6403445601 -0.7049472332 -0.4925355017 0.507109344
-0.09426264465 -0.1549469084 0.646571815 -0.6700739861 -0.5310813189 0.514015913
-0.09195841104 -0.1602368951 0.6430870891 -0.6391419172 -0.5493904352 0.5366940498
-0.02240835689 -0.1875733882 0.6249825954 0.4777116776 -0.6279447079 0.5964417458
-0.0155144427 -0.1830465347 0.6222928166 0.6033416986 -0.5792544484 0.5397273898
-0.02829486877 -0.1906391233 0.6279450059 0.3894397318 -0.6693913937 0.6316779256
-0.01529714838 -0.08483335376 0.5907446146 -0.5886668563 -0.604841888 0.5362334847
-0.09698458761 -0.1743464917 0.6210210919 -0.7007623911 -0.415029943 0.5435651541
-0.09298120439 -0.1773627698 0.6248731017 -0.6058764458 -0.4648032486 0.6252475977
-0.08403139561 -0.1872569025 0.6264609098 -0.4603990614 -0.5143410563 0.7182765603
-0.07793285698 -0.1895667315 0.6294898391 -0.373734206 -0.5800875425 0.7202264667
-0.09774579853 -0.1750373989 0.6283867955 -0.6880572438 -0.4672076404 0.5531449914
-0.08449657261 -0.1770996153 0.6315743923 -0.4997458458 -0.5282278061 0.6811340451
-0.07430404425 -0.1667731404 0.6511976719 -0.3684845865 -0.6920841932 0.6185848713
-0.05508217216 -0.1544580609 0.6712526679 -0.05819499493 -0.7529711723 0.6544629931
-0.05628586933 -0.1504971981 0.6759230494 -0.06671392918 -0.7410042882 0.6629716158
-0.05110550299 -0.1576530039 0.6670780778 0.00371038029 -0.7586462498 0.6437171698
-0.06389204413 -0.1516540498 0.6735537648 -0.221031487 -0.7379130125 0.635027349
-0.06137774885 -0.1472544819 0.6798570752 -0.1700428575 -0.7257157564 0.6597284079
-0.06248167902 -0.1558673233 0.6693812013 -0.1892331243 -0.7435967326 0.6371915936
-0.04979515076 -0.1517826915 0.6742608547 0.04492534697 -0.7422104478 0.6643945575
-0.07288498431 -0.14544788 0.6761972904 -0.3723094463 -0.6969534755 0.6093899012
-0.07044441998 -0.15026097 0.6731827259 -0.3332231939 -0.7074772716 0.620172143
-0.007601379883 -0.1690868288 0.6244292855 0.7196056247 -0.5135199428 0.4647932351
-0.003350526094 -0.1696848422 0.6163787246 0.7392056584 -0.5102096796 0.4387078285
-0.003439493943 -0.1587429941 0.6266026497 0.7644870281 -0.4798362851 0.428871572
-0.005136177409 -0.1575886011 0.6350371838 0.7138148546 -0.532872498 0.4531182349
0.0004569354351 -0.152194187 0.6318936944 0.735391438 -0.5178102851 0.4369321465
0.003039145377 -0.1595320553 0.6147347689 0.7658417821 -0.485501498 0.4211073816
0.0015512713 -0.1652540565 0.6156020761 0.7584807277 -0.4919293523 0.4265213013
-0.002677681856 -0.1648027748 0.6215918064 0.7612943649 -0.4863349497 0.4285235107
0.001527315821 -0.157491833 0.6218679547 0.774207294 -0.4741660058 0.4190354943
-0.03704907373 -0.08996857703 0.5663942099 -0.3393068612 -0.7231260538 0.5989119411
-0.02193702571 -0.1015522033 0.5680512786 -0.5395361185 -0.5930486321 0.5969871283
-0.05683706328 -0.09295848012 0.5600679517 0.07930521667 -0.7775989771 0.618091464
-0.1033899486 -0.08902813494 0.6054626703 0.6552436948 -0.5818768144 0.4811097085
-0.1009203866 -0.08006109297 0.6111879349 0.6284003258 -0.6012010574 0.4926762581
-0.09718199819 -0.07195089757 0.6165806055 0.606990099 -0.6195852757 0.4975091815
-0.1082917601 -0.1468908042 0.6238043904 -0.8996199965 -0.300856024 0.3079656661
-0.1157070845 -0.1573099494 0.6009944081 -0.9550798535 -0.2406204939 0.1728705168
-0.114036642 -0.1541537493 0.6070388556 -0.9551299214 -0.2317768633 0.1834670901
-0.1069702357 -0.1602487564 0.6102311611 -0.914912045 -0.2731377184 0.2714889944
-0.104166843 -0.1670606583 0.6142361164 -0.8609965444 -0.3165991008 0.3850410283
-0.1119570658 -0.1631204486 0.6068857312 -0.9227322936 -0.2661714554 0.2457541823
-0.1044496149 -0.158637017 0.6242512465 -0.8623160124 -0.340274334 0.3717043996
-0.1041306928 -0.1543264538 0.6184957623 -0.859868288 -0.3217481971 0.3375053704
-0.03412127495 -0.1367680579 0.6857770681 0.2181685865 -0.7048736811 0.6736357212
-0.01415407658 -0.1528251916 0.6542034149 0.5865432024 -0.6328396201 0.503855288
-0.01949332096 -0.1514725089 0.6629326344 0.4894816577 -0.6685212851 0.5574076176
-0.01714846119 -0.1446256787 0.6684615016 0.4503569007 -0.6706709862 0.586299181
-0.01363543421 -0.1477323025 0.6604097486 0.5499530435 -0.6459556222 0.5276370645
0.0035793446 -0.09436061978 0.6191737652 -0.4841995239 -0.5895903707 0.6207168102
0.006395195145 -0.09056101739 0.6297026277 -0.3853208721 -0.5693187118 0.7239678502
-0.0006961325416 -0.1005764455 0.6040397286 -0.6086947322 -0.6532937884 0.4501870573
-1.132090983e-05 -0.1054738835 0.6075466275 -0.4454632699 -0.6545566916 0.4610734582
8.188072388e-05 -0.1197444275 0.6139674783 -0.1089701578 -0.5998407006 0.4431140423
0.001033027307 -0.1365641952 0.6183272004 0.318762064 -0.5381858349 0.430766046
0.0004108293797 -0.1308397949 0.6233284473 0.2180655152 -0.570887804 0.4464999437
0.002369079273 -0.1116446182 0.5984281301 -0.3032211959 -0.7630162239 0.4348812103
0.002924853936 -0.1452673078 0.6141474247 0.54934901 -0.5815910697 0.4181154668
0.0007373180124 -0.110997811 0.6048024297 -0.3364721239 -0.6657745838 0.4406512082
0.003314403817 -0.1259685904 0.6022065878 0.06735660136 -0.7297540903 0.42535761
0.002576830098 -0.1300485134 0.6074296236 0.1624436229 -0.6577163935 0.4260283709
0.003272542497 -0.1397159249 0.609742105 0.4131503403 -0.6388529539 0.4194068909
-0.001699254499 -0.1027292982 0.597119689 -0.5816466808 -0.6631258726 0.4670663774
-0.002916320693 -0.1063376069 0.5867918134 -0.5264884233 -0.6866626143 0.4947274625
-0.0004237492685 -0.1069101617 0.5936483741 -0.4834251702 -0.7138810158 0.4770092964
0.001073679188 -0.1115664244 0.589877069 -0.3508186638 -0.7776905298 0.4701319635
-0.02537368983 -0.1531411856 0.6653875113 0.4032405019 -0.6991584301 0.5888608694
-0.04365928099 -0.1673100591 0.6556230187 0.1278087795 -0.7545071244 0.6411659122
-0.0280926358 -0.06227877736 0.6053142548 -0.432078898 -0.6726320386 0.5918654799
-0.02324250899 -0.06188323721 0.6092620492 -0.4918517172 -0.6547068357 0.5730044842
-0.02848458849 -0.05654107034 0.6117421985 -0.4008939862 -0.6964831352 0.585956037
-0.03412913159 -0.05355919898 0.6110491157 -0.3113990426 -0.732981801 0.6043369174
-0.01974463649 -0.05914594606 0.6144835949 -0.5299293995 -0.648974061 0.5434117317
-0.01672454178 -0.06477012485 0.6110985875 -0.5901837945 -0.6058469415 0.5326295495
-0.04448543489 -0.05521134287 0.6050409675 -0.1371830851 -0.7690029144 0.6231859922
-0.03897110373 -0.05461764336 0.608240962 -0.2244778425 -0.7564865947 0.6070737243
-0.04837045074 -0.05220047385 0.6085969806 -0.07135926187 -0.7869949937 0.606852293
-0.102222383 -0.1514135748 0.6364028454 -0.8096141219 -0.4238496721 0.3993075192
-0.1056899503 -0.1474056691 0.630290091 -0.8636334538 -0.3534900546 0.3508297801
-0.1002549455 -0.1609739512 0.6301646829 -0.7841175795 -0.3978468776 0.4688521028
-0.1033392474 -0.1551870704 0.631031394 -0.8425729871 -0.3862099349 0.3738467693
-0.01024197973 -0.1627638042 0.6380806565 0.6903648376 -0.5511617064 0.4680478573
-0.009771226905 -0.1656196266 0.6315972209 0.7027161717 -0.520406425 0.4849264622
-0.07365188003 -0.09002736211 0.5711981654 0.3532882631 -0.7027959228 0.6140431762
-0.07791379839 -0.1002397761 0.5649029613 0.4178456664 -0.660515964 0.6211104393
-0.07892879099 -0.09292233735 0.5695338845 0.4259847403 -0.6717501283 0.605263412
-0.08248815686 -0.0914176628 0.5743670464 0.4914520383 -0.6564750671 0.5696889162
-0.07443601638 -0.09416826814 0.5652508736 0.3703941405 -0.6929939985 0.6168493032
-0.08033338934 -0.1830176562 0.6303602457 -0.4260029197 -0.5487157106 0.7119557858
-0.07576549053 -0.1780432314 0.6386743188 -0.3847602308 -0.6027753353 0.6956177354
-0.09117800742 -0.1722013205 0.6305744648 -0.5863561034 -0.4742549658 0.65615803
-0.08582832664 -0.1715293229 0.6348385811 -0.5204181671 -0.5473023057 0.6500756741
-0.07940458506 -0.1712601483 0.6393293142 -0.4363307953 -0.6132176518 0.6487541795
-0.07551807165 -0.1702329963 0.6441270709 -0.375417769 -0.6636936665 0.6433580518
-0.03821567819 -0.1902660578 0.6301140189 0.2195271403 -0.702480793 0.6601551175
-0.04437932745 -0.1883695573 0.6338232756 0.1050832421 -0.7139130235 0.6909280419
-0.03162709624 -0.186329022 0.6318665147 0.3649969697 -0.6749599576 0.6380180717
-0.06306702644 -0.1814026833 0.6416362524 -0.1727650017 -0.6817373037 0.7107717991
-0.06419660151 -0.1744283289 0.6440136433 -0.2354739457 -0.677572906 0.6800602078
-0.06788803637 -0.1771945655 0.6394505501 -0.3033773601 -0.6376207471 0.7000454068
-0.05809455365 -0.1747469008 0.6467213035 -0.1209755465 -0.7159594297 0.6770916581
-0.07078878582 -0.1716683656 0.6477435827 -0.3223014176 -0.6731567383 0.6606663465
-0.04059940204 -0.1712275743 0.650072813 0.1745317429 -0.7328409553 0.6565395594
-0.05372725055 -0.1716389656 0.650359273 -0.03376137838 -0.7420970201 0.6644013524
-0.05614964664 -0.1792606711 0.6403107643 -0.07940053195 -0.6680992246 0.7010273933
-0.05073104426 -0.1765028685 0.646515727 0.01844898053 -0.7269627452 0.6785269976
-0.02362340875 -0.1481008828 0.669054687 0.3897749484 -0.6948125958 0.6017060876
-0.03005232289 -0.1474772096 0.6733327508 0.3085047901 -0.7062484026 0.6321009994
-0.01936605945 -0.1394065917 0.6746623516 0.3929640353 -0.673640728 0.6250486374
-0.02430996671 -0.1443436742 0.6743710041 0.3791101575 -0.6899603605 0.6157967448
-0.06912686676 -0.1537849456 0.6682040095 -0.3064519763 -0.720778048 0.6152336597
-0.07634044439 -0.1485100389 0.6712041497 -0.4295500815 -0.6772836447 0.5949567556
-0.07894566655 -0.1512672454 0.6657409072 -0.4771251082 -0.660379529 0.5775183439
-0.0731048882 -0.1589036137 0.6618129611 -0.3792265356 -0.7055934668 0.5960521698
-0.0153040234 -0.1627829075 0.6440363526 0.6089118123 -0.6203894019 0.4926770031
-0.04072230682 -0.09756998718 0.5539487004 -0.2258632481 -0.7450619936 0.612824142
-0.03490163013 -0.09585286677 0.5624470115 -0.352778852 -0.7089762092 0.5993342996
-0.006533454638 -0.09999218583 0.5873526335 -0.5944663882 -0.6448129416 0.4796369672
0.0005705776275 -0.1004945189 0.5796106458 -0.2566050589 -0.5923078656 0.6638140082
-0.007827735506 -0.1038779393 0.5812004209 -0.5861133337 -0.6430084109 0.4919983149
-0.1073543355 -0.1182588115 0.6155373454 -0.255923897 -0.4180678725 0.3745261431
-0.1056182832 -0.1045222431 0.6092602611 0.2229987085 -0.5017512441 0.429435879
-0.1086249948 -0.130432114 0.6203756928 -0.6774566174 -0.3332389593 0.319034934
-0.1079849005 -0.1244768426 0.6184478402 -0.4693071544 -0.3826677203 0.3506557047
-0.1088367477 -0.1399303675 0.6164986491 -0.9550602436 -0.1872411966 0.2253841013
-0.1010187119 -0.1086353809 0.5815873742 0.4754843116 -0.3984032273 0.4772906303
-0.1079291329 -0.1234214455 0.5826025605 -0.2716166079 -0.07752037793 0.2448019534
-0.1024951786 -0.115160346 0.5794314742 0.06902091205 -0.2907167375 0.357824713
-0.1116270423 -0.1350745559 0.5838784575 -0.8468798399 0.1709928066 0.06563641876
-0.1015623584 -0.1648174822 0.6212703586 -0.8178311586 -0.3398810327 0.444129169
-0.09747351706 -0.168528229 0.6284930706 -0.7200405002 -0.429494679 0.5435003042
-0.1014455631 -0.1700905263 0.6243437529 -0.7878921032 -0.3844092488 0.4748184979
-0.1084738374 -0.1456557214 0.6001354456 -0.9544118047 -0.03146427125 0.1748694479
-0.1078876555 -0.1488062441 0.6126638055 -0.9326117039 -0.2492464483 0.2428404838
-0.1088145226 -0.1530718058 0.6038695574 -0.9521225095 -0.173298046 0.1796147823
-0.1123079136 -0.1462765336 0.6062364578 -0.9567440748 -0.2186563164 0.1914848238
-0.1089834347 -0.1411004663 0.6060461998 -0.959595263 -0.06184732169 0.1868439764
-0.1145774946 -0.1439055949 0.5949169993 -0.9815474749 0.01156888064 0.1366357952
-0.1137736216 -0.1408337355 0.5997462869 -0.9752383828 0.02375709824 0.1403195709
-0.006027054507 -0.09324140847 0.5967358351 -0.6386014223 -0.6141228676 0.4579049349
-0.006646770053 -0.08852421492 0.6009846926 -0.6980226636 -0.5527257323 0.4502252936
-0.007191332988 -0.08273219317 0.6061566472 -0.7085586786 -0.5257441401 0.4681564271
-0.003212528536 -0.08501696587 0.6103679538 -0.6900272965 -0.489554882 0.5245884061
-0.001620852971 -0.09105288982 0.6089779735 -0.6615368724 -0.5383259058 0.5069592595
-0.002845208393 -0.09447078407 0.603366673 -0.6369858384 -0.6282909513 0.4413592517
-0.02137996815 -0.08410059661 0.5867800713 -0.5158803463 -0.6343812346 0.5664934516
-0.02974422835 -0.08125409484 0.5830427408 -0.3929130137 -0.688172698 0.6065806746
-0.0261459332 -0.08645970374 0.5791079402 -0.4591583312 -0.6596763134 0.5943145752
-0.02226939052 -0.09143030643 0.5772714615 -0.5199720263 -0.6173802018 0.5880925059
-0.02683547512 -0.1631292999 0.6554603577 0.4047138393 -0.6985042691 0.5889297128
-0.0247767698 -0.1589072198 0.6584624648 0.4187030196 -0.6950393915 0.5834133625
-0.04718663171 -0.1714627147 0.6516404748 0.06980784982 -0.744605422 0.659615159
-0.05912011862 -0.1697736382 0.6527301073 -0.1418672353 -0.7435798645 0.6488197446
-0.06472156197 -0.168892771 0.6503443718 -0.2636281848 -0.7144944072 0.6317220926
-0.06064831465 -0.1655581743 0.6578294635 -0.1590075642 -0.7475900054 0.6384940147
-0.08043292165 -0.0662446022 0.6032384038 0.4529929459 -0.6840589643 0.5667590499
-0.05075353011 -0.09584843367 0.5581404567 -0.04244484007 -0.7668174505 0.6314964294
-0.004053681623 -0.07448539883 0.6213762164 -0.6009381413 -0.5447844267 0.5796627402
-0.008117044345 -0.07053401321 0.6182569861 -0.6580340266 -0.5445405841 0.5164422989
-0.01082615368 -0.06380126625 0.621557951 -0.6048403978 -0.5953202248 0.5277025104
-0.005455908831 -0.06843657792 0.6239808798 -0.5921031833 -0.5670223236 0.5718203187
-0.008341885172 -0.07452850044 0.6132005453 -0.6948366761 -0.5245145559 0.4913950264
-0.003485885449 -0.06667552888 0.6152670979 -0.4663374424 -0.7262427211 0.3966065943
-0.01500746235 -0.1670681238 0.639821291 0.6046439409 -0.5990290046 0.5161954761
-0.01177546382 -0.1714048833 0.6291455626 0.6654235125 -0.5407391787 0.5114626288
-0.01279258169 -0.1779261082 0.6255564094 0.625577867 -0.5685536861 0.5325996876
-0.03747521341 -0.186246857 0.6352864504 0.2323857546 -0.7012575865 0.6723778248
-0.04220769182 -0.1829675287 0.6388815045 0.1560802162 -0.6984499693 0.6962922215
-0.03753746673 -0.1783265471 0.6406620145 0.2410533577 -0.6972771287 0.6702916622
-0.04442703351 -0.1778001338 0.6442768574 0.144459188 -0.7122282386 0.685890913
-0.08721841872 -0.07158813626 0.601321876 0.5369781256 -0.6480706334 0.5398549438
-0.09469494224 -0.07499148697 0.6092712879 0.6035979986 -0.6166688204 0.5052288771
-0.09861795604 -0.0818784833 0.6049032211 0.6245127916 -0.597822845 0.5021705627
-0.09123713523 -0.06745924801 0.612944901 0.5735265017 -0.6469993591 0.501318872
-0.09441290051 -0.0777099058 0.6024976373 0.6082342267 -0.6039545536 0.5146577358
-0.009414849803 -0.1517769247 0.6497555971 0.666036725 -0.5761623979 0.4734779894
-0.01163697522 -0.1583176106 0.6449453831 0.6651557088 -0.5825959444 0.4664343596
-0.006562530529 -0.1531603187 0.6426685452 0.6882103086 -0.567097187 0.4519834816
-0.002633431694 -0.1491648555 0.6395341158 0.6999689341 -0.5545687079 0.4496887624
-0.03108837456 -0.09422073513 0.5669798851 -0.4068586826 -0.6875519753 0.5973951817
-0.02711264789 -0.09277702123 0.5723748207 -0.4578049183 -0.6419245601 0.6095116735
-0.03385620564 -0.08594623208 0.5744436979 -0.334648788 -0.6875820756 0.6415630579
-0.1098657548 -0.1419513822 0.6273310781 -0.8970265985 -0.3227635026 0.2936011851
-0.1062039062 -0.1391106546 0.6394338012 -0.8510671854 -0.4030421078 0.3341164589
-0.106751956 -0.1265019625 0.5957008004 -0.4169285297 -0.1522661448 0.2792524993
-0.1078931838 -0.132689327 0.5993492603 -0.6797612906 -0.07896705717 0.2253784239
-0.1043789014 -0.1135718748 0.5963304043 0.1061059013 -0.3939639628 0.4153996408
-0.1068098098 -0.126763165 0.6025987864 -0.4494493306 -0.2214972079 0.2962305248
-0.1055677161 -0.1200698242 0.5934034586 -0.1484486908 -0.2445031255 0.3395271003
-0.108974576 -0.1386280507 0.593110621 -0.9010871053 0.09584761411 0.1458627135
-0.10742338 -0.1300568283 0.6087717414 -0.6028015018 -0.2278512865 0.279630065
-0.1074206904 -0.130194515 0.5892814994 -0.5464730263 -0.01632757485 0.2225597352
-0.1030535623 -0.1063736826 0.5937114954 0.4067130387 -0.4966716766 0.4827157855
-0.1048921272 -0.1163193062 0.5865715146 0.1692503393 -0.241317302 0.4042748809
-0.09947527945 -0.1018002927 0.5835220814 0.6422017217 -0.5448840857 0.5328431129
-0.1035642326 -0.09803915024 0.5985971689 0.5719410777 -0.5510112047 0.4876636565
-0.1110288799 -0.1347908378 0.6160800457 -0.8549072742 -0.1965529919 0.2280052304
-0.1044279933 -0.09520339221 0.6042892337 0.5460401177 -0.5464478135 0.4598659873
-0.1047490388 -0.1012865081 0.6044706702 0.3639698029 -0.5001043081 0.4366553724
-0.1065874621 -0.1236739084 0.6084545851 -0.3702990711 -0.3141246736 0.3283619881
-0.1045233607 -0.1086551398 0.6015877128 0.2034919858 -0.4583975673 0.4299390018
-0.1060274765 -0.1126424223 0.608237803 -0.04229407758 -0.397644937 0.3696796596
-0.1050921082 -0.1102737859 0.5886885524 0.2580164373 -0.3573606014 0.4112007022
-0.1109002009 -0.1278509647 0.5848011971 -0.4800070524 0.03243844956 0.1773427278
-0.1117229313 -0.1324439794 0.5944249034 -0.7360699773 0.005887706298 0.1489583999
-0.1116890013 -0.1348098069 0.6029425263 -0.8319265842 -0.05490386859 0.1663440913
-0.1071430296 -0.1196258068 0.5999785066 -0.1716556698 -0.3142550886 0.3434569538
-0.1115590334 -0.1362498105 0.6093134284 -0.8892374039 -0.1068113074 0.183551386
-0.1089422852 -0.1221706718 0.5892165899 -0.292129755 -0.1293495148 0.250906527
-0.06749600172 -0.07574160397 0.5850359797 0.2695787251 -0.7258635163 0.6307852268
-0.06911551207 -0.07151881605 0.5898776054 0.2913925648 -0.7230009437 0.6260057688
-0.06686453521 -0.06683862209 0.5937685966 0.2637082934 -0.7288569212 0.6300659776
-0.0734668225 -0.06833963096 0.5950752497 0.3511347473 -0.7035773396 0.6160672903
-0.0107894605 -0.09077655524 0.591165185 -0.6491324306 -0.5705989599 0.4972265959
-0.01758458652 -0.09648498893 0.5759056807 -0.5614714622 -0.5995208025 0.5698526502
-0.01828633435 -0.09036497027 0.5820673108 -0.5444458127 -0.6171209812 0.5634679794
-0.01189498976 -0.09006591141 0.5848221183 -0.519310236 -0.6027570367 0.5567235947
-0.002224476542 -0.0887612626 0.586594522 -0.3030988574 -0.6080685854 0.6113368273
-0.01263042074 -0.09782959521 0.5804960728 -0.6023808718 -0.6067701578 0.5175679326
-0.006970680319 -0.09565195441 0.5815823674 -0.4077249169 -0.6016568542 0.6059052348
0.0143288793 -0.09346118569 0.5866218209 0.0380737111 -0.611374557 0.7193165421
0.00842151884 -0.09376242012 0.5857289433 -0.09304302186 -0.6082299948 0.6842935085
0.001163880923 -0.09487341344 0.5844529271 -0.2509463131 -0.6055223346 0.646351397
-0.03842084482 -0.1570959836 0.6670367718 0.2057270259 -0.7381727695 0.6368470192
-0.03263096511 -0.1618693173 0.658495307 0.294744432 -0.7244439125 0.6190332174
-0.03232965991 -0.157333985 0.6633004546 0.3052970171 -0.724806428 0.6133196354
-0.08684380352 -0.1583895385 0.6468524933 -0.5836481452 -0.5956096053 0.5486588478
-0.07940951735 -0.1607127935 0.6538876295 -0.4592526853 -0.6734834909 0.5773649216
-0.07789172232 -0.1638471037 0.6478168368 -0.4692904949 -0.6465784311 0.586864233
-0.08903501928 -0.1536272913 0.6504808664 -0.6188258529 -0.5796422362 0.5279408097
-0.08564963937 -0.1565327942 0.6539757252 -0.5474094152 -0.6291814446 0.5485082865
-0.09012828022 -0.1662818044 0.6359632015 -0.5881253481 -0.5324954987 0.6033917069
-0.09530802816 -0.1609688997 0.6360917091 -0.6828291416 -0.4794489145 0.5473346114
-0.0869737342 -0.1641109586 0.6431331038 -0.5604929328 -0.5983986855 0.5694223642
-0.08210592717 -0.07165640593 0.596930027 0.4764235914 -0.666541338 0.5729979873
-0.02318153344 -0.1777472198 0.6347321272 0.4872490466 -0.6317923665 0.5984173417
-0.03130742908 -0.180111289 0.6362465024 0.3408018947 -0.6711684465 0.6532613635
-0.01639901288 -0.174953863 0.6309846044 0.5938849449 -0.5842315555 0.5500858426
-0.02551065572 -0.1837116033 0.6307250261 0.4714468122 -0.6267740726 0.6198384166
-0.02028806135 -0.1806973517 0.6293746233 0.5450446606 -0.6111510992 0.569276154
-0.1017560884 -0.09938376397 0.5920364261 0.6328501105 -0.5683486462 0.5257072449
-0.09767724574 -0.09645926207 0.5884253979 0.6260102391 -0.5733599663 0.528431356
-0.1051246896 -0.1299472451 0.5825886726 -0.6184952855 0.04084311426 0.146163702
-0.09671415389 -0.1096632257 0.5768402815 0.2777063847 -0.4306149185 0.4373787045
-0.09834782779 -0.1209172532 0.5775809288 -0.2761895061 -0.1727487147 0.2822274864
-0.09025558084 -0.1093647555 0.5715740919 0.1777229458 -0.4465668499 0.4569814205
-0.08570252359 -0.1024810821 0.5682452917 0.4506082833 -0.6087596416 0.5595853329
-0.09482783824 -0.11553175 0.5749042034 -0.05361821502 -0.3016132414 0.365452826
-0.08490154147 -0.09696873277 0.5708355308 0.5083870292 -0.6357374191 0.5780581832
-0.07579232007 -0.08593697846 0.576233089 0.385250181 -0.6983347535 0.6003138423
-0.08232419938 -0.08688944578 0.5797204971 0.4879671931 -0.6590308547 0.5721731782
-0.079707928 -0.08046418428 0.5852177143 0.4494982064 -0.6776857376 0.5813375711
-0.03616609797 -0.0771857053 0.5839288235 -0.3014803231 -0.7167615294 0.626367569
-0.04362761229 -0.07590215653 0.5824571252 -0.1836932003 -0.7388630509 0.6454039812
-0.03231357411 -0.07365196198 0.5900140405 -0.3627383411 -0.6941466928 0.6172932982
-0.02758951858 -0.07721605152 0.5889997482 -0.4353544712 -0.6748631001 0.5932241678
-0.04083223641 -0.08502627909 0.5717532039 -0.2606805265 -0.7320989966 0.6210643053
-0.04410522804 -0.09184755385 0.5655353665 -0.1876228303 -0.7623816729 0.6187408566
-0.04945513234 -0.0800928697 0.5760427713 -0.07340816408 -0.7487044334 0.6527512074
-0.05019817501 -0.0903358683 0.565274179 -0.06786528975 -0.7870903015 0.6040485501
-0.04762645438 -0.08606829494 0.5695514679 -0.1086187437 -0.7708066702 0.6214665771
-0.05419932306 -0.08379144967 0.571397543 0.01481984556 -0.7733839154 0.6304534078
-0.04009684175 -0.08126762509 0.5771967769 -0.2338353395 -0.7175704241 0.6494426131
-0.04117777571 -0.07095248997 0.588157177 -0.2000761181 -0.7291903496 0.6457195282
-0.05007408559 -0.07490134984 0.582172513 -0.0523837693 -0.7406090498 0.6641692519
-0.04509232193 -0.1561817825 0.67075634 0.08672578633 -0.7435810566 0.6628776789
-0.03789555654 -0.1615636945 0.662306726 0.2106250823 -0.7465397716 0.6285008192
-0.04501846433 -0.1636115462 0.6610640287 0.08950981498 -0.7584485412 0.6453139186
-0.04532688111 -0.1601637751 0.6656258106 0.08090785146 -0.7530789971 0.6523778439
-0.05353532732 -0.1627416015 0.6619004607 -0.0367965661 -0.7640321851 0.6404748559
-0.05425410345 -0.166962862 0.6561004519 -0.0524187535 -0.7623397708 0.6437257528
-0.06201014295 -0.05569943413 0.6057888269 0.1814786941 -0.7745547295 0.6009170413
-0.05526765063 -0.05332394689 0.6076928973 0.05714644119 -0.7918406725 0.6069911122
-0.05019210279 -0.06559626758 0.5918367505 -0.03913625702 -0.7551811934 0.6500464082
-0.03572956845 -0.06932212412 0.5924596786 -0.3048524559 -0.7093451023 0.6325334311
-0.04451404884 -0.06647904217 0.5926885605 -0.1551766098 -0.7474451065 0.6454684138
-0.0413762778 -0.06298687309 0.5976179242 -0.1973874122 -0.7378002405 0.6406961083
-0.03339407966 -0.06172631308 0.6016571522 -0.3150349855 -0.7074707747 0.6318570375
-0.0384949334 -0.05894271284 0.6029266715 -0.2333014309 -0.7345296741 0.6292735934
-0.05442979559 -0.05939089134 0.5989595652 0.0474351719 -0.7642538548 0.6416036487
-0.02799978666 -0.1760623902 0.6408188343 0.396750778 -0.6521921754 0.6406780481
-0.02219058014 -0.1720600128 0.6390994787 0.5012916923 -0.612408042 0.5861809254
-0.01470429543 -0.1698655635 0.6347633004 0.6345424056 -0.5604840517 0.5271598101
-0.09997177124 -0.09142564982 0.5977392197 0.6383646131 -0.5842844248 0.5002723336
-0.08589465916 -0.08164922893 0.5906405449 0.5459048152 -0.6266146898 0.5538564324
-0.09012003988 -0.07804152369 0.5972700119 0.5748949647 -0.6212800145 0.5306170583
-0.08131038398 -0.07714572549 0.5923029184 0.4717133045 -0.6530920267 0.5820289254
-0.07623954117 -0.07427176833 0.5909959674 0.3904069662 -0.6877399087 0.6091910601
-0.08560442179 -0.08518902957 0.585827291 0.55697155 -0.626811862 0.5445435643
-0.09072030336 -0.08805800974 0.588311553 0.6039182544 -0.5968321562 0.5279583931
-0.09132767469 -0.08502806723 0.5929167867 0.5985507965 -0.6017913818 0.5282923579
-0.09591376036 -0.0912142396 0.5920835137 0.6192818284 -0.589895308 0.5180799961
-0.09678608179 -0.08517028391 0.597812891 0.6243669987 -0.5904210806 0.5113059878
-0.06577628851 -0.0856180042 0.5709487796 0.2432083488 -0.7255712748 0.6425284743
-0.06328859925 -0.09000407159 0.5659886599 0.2032651901 -0.7390359044 0.6366427541
-0.05623981729 -0.08837080002 0.5662691593 0.05357900634 -0.7923074365 0.6021571159
-0.06165114418 -0.08240690082 0.574596107 0.1620178074 -0.7448650002 0.6362246275
-0.05613925308 -0.07846513391 0.5785487294 0.05707359686 -0.7450349331 0.6621857882
-0.06331780553 -0.07950286567 0.5802161694 0.1966357082 -0.7304952741 0.6378741264
-0.07363471389 -0.08012333512 0.5822623372 0.3622325957 -0.7074368 0.599163115
-0.06898266822 -0.08158379793 0.5778667927 0.2881753743 -0.7221415043 0.6193998456
-0.09015260637 -0.09880458564 0.5744310021 0.5682216883 -0.6129446626 0.5478787422
-0.08888483793 -0.09406419098 0.5778646469 0.5778852701 -0.6100378036 0.5412045717
-0.05982681364 -0.07489745319 0.5826585293 0.1317264289 -0.7409521341 0.6540526748
-0.05407712609 -0.06912966818 0.5878545642 0.02127653174 -0.7403499484 0.6706833839
-0.04673533514 -0.07109353691 0.5871150494 -0.124568291 -0.7449128032 0.6507411003
-0.06006482616 -0.06522332877 0.5930842757 0.1450388879 -0.7486730218 0.6400792003
-0.05972920358 -0.06997469813 0.5873064995 0.1440654546 -0.7365807295 0.6561620235
-0.03545897827 -0.1722109914 0.64719069 0.2645618021 -0.7099072933 0.6491698027
-0.0352614224 -0.1676136553 0.653019309 0.2591173649 -0.7269884944 0.6337573528
-0.02832081169 -0.1713482589 0.6454555988 0.3993659914 -0.6760884523 0.6177022457
-0.0259264037 -0.16686593 0.6502794623 0.4219271541 -0.6801421642 0.5987612009
-0.02142557502 -0.1680661738 0.6447182894 0.4897746742 -0.6646344066 0.5619852543
-0.02043717727 -0.1626604348 0.6489222646 0.5044022799 -0.6628928781 0.5521531105
