# .PCD v0.7 - Point Cloud Data file format
VERSION 0.7
FIELDS x y z normal_x normal_y normal_z
SIZE 4 4 4 4 4 4
TYPE F F F F F F
COUNT 1 1 1 1 1 1
WIDTH 512
HEIGHT 1
VIEWPOINT 0 0 0 1 0 0 0
POINTS 512
DATA ascii
-0.0188839864 -0.07782453299 0.7683128119 0.7939023972 0.4160479903 -0.4426022172
-0.04884300008 -0.182808727 0.786098063 0.4833197296 -0.4592962861 0.7415832877
-0.04803135619 -0.1885049194 0.7831929326 0.4735387266 -0.4578021467 0.7426039577
-0.05488554388 -0.1983279139 0.7861953378 0.3257452846 -0.511318028 0.7857512236
-0.0245554857 -0.1648709178 0.7690447569 0.729013741 -0.3554888368 0.5849051476
-0.1226406768 -0.149666518 0.7943292856 -0.6603391767 -0.4817347825 0.5755835772
-0.02104549296 -0.08563860506 0.7670297027 0.8034973145 0.408932209 -0.4321685731
-0.06012830511 -0.1971921325 0.7828060985 0.257078737 -0.5424625874 0.794955194
-0.05410081521 -0.1969289482 0.7800435424 0.366115272 -0.4870053828 0.7634988427
-0.06586155295 -0.2009844482 0.7837714553 0.1541839242 -0.562530756 0.8103488088
-0.06726384163 -0.1952969879 0.7841991186 0.1211585626 -0.5472685695 0.8250743151
-0.07502727211 -0.1990501583 0.7844295502 -0.0005298442557 -0.5636152625 0.8249860406
-0.02554029413 -0.07571487129 0.7646609545 0.748560369 0.4745175242 -0.461631
-0.02317355201 -0.08996349573 0.7621736526 0.8054159284 0.4078533351 -0.428943187
-0.03497172892 -0.1088717207 0.7035747766 0.5885232091 -0.01187676564 -0.6841235757
-0.03294796869 -0.1135648713 0.7089043856 0.6497157216 0.1721187234 -0.6212299466
-0.1321970969 -0.1363702863 0.7497584224 -0.7797041535 0.07380003482 -0.1361770332
-0.1298902184 -0.1493885368 0.7693790793 -0.7883216143 -0.2772710025 0.3226501942
-0.1322660595 -0.1454937458 0.760499537 -0.8141807914 -0.1207940355 0.1311708987
-0.1339433044 -0.1254264861 0.7355995178 -0.7677792907 0.3419382572 -0.4871021807
-0.1349238455 -0.1195490956 0.7387894988 -0.7543233037 0.3720283508 -0.5208633542
-0.1345995218 -0.1238820851 0.7449765205 -0.7643528581 0.263961643 -0.3759734035
-0.13493523 -0.1235586181 0.751188159 -0.7636896372 0.2049062699 -0.293002665
-0.1340474039 -0.1299396008 0.7515112162 -0.778347075 0.134154126 -0.2031362802
-0.1335129142 -0.1301582158 0.7407230735 -0.7787109017 0.2403498888 -0.3518259823
-0.1297156662 -0.1395525932 0.7729934454 -0.738725543 -0.229691565 0.2532401383
-0.1336680651 -0.1328753531 0.7632277012 -0.7772734761 -0.02067084983 0.004112137016
-0.1312839836 -0.1330283582 0.7687712908 -0.7368223071 -0.1084408015 0.1011669263
-0.1356555074 -0.1195021942 0.757419765 -0.7521998882 0.1834633201 -0.2587245405
-0.1306315809 -0.07779820263 0.76221627 -0.6746921539 0.4609036744 -0.5764186382
-0.1252713501 -0.07607620955 0.7570921183 -0.6680611968 0.4767971933 -0.5711678863
-0.1335529834 -0.08627652377 0.7615749836 -0.6886795759 0.4522072971 -0.5665955544
-0.1217505112 -0.1701275706 0.772431612 -0.7497068048 -0.4146896303 0.5133704543
-0.09953455627 -0.1906556934 0.7878569365 -0.3906690776 -0.5313315988 0.7464030385
-0.09903226793 -0.1824940294 0.7908871174 -0.4044499695 -0.5575743914 0.71720016
-0.1034036428 -0.1987886876 0.7840255499 -0.4333141744 -0.5002249479 0.7481506467
-0.1066610292 -0.1870924532 0.7833753228 -0.5383769274 -0.4739935696 0.6867544651
-0.04587207735 -0.1927768439 0.7777624726 0.5149248838 -0.4325232804 0.7327417731
-0.08241418004 -0.1928568631 0.7844532728 -0.1560004205 -0.5295419097 0.8308772445
-0.08868078887 -0.1941224784 0.7860072851 -0.2160058469 -0.5388535857 0.7981037498
-0.03066013195 -0.1737606376 0.7723509669 0.7051334977 -0.3755271137 0.6007421613
-0.02789532207 -0.1765212566 0.7672639489 0.7040334344 -0.377243489 0.6011263728
-0.03786629066 -0.1782080978 0.7806797624 0.640209794 -0.4062119424 0.6512161493
-0.1112570837 -0.1492908746 0.8028744459 -0.5594395995 -0.5188387036 0.6428519487
-0.07242528349 -0.1129587591 0.6984596252 -0.02495921962 0.5500149727 -0.8247970939
-0.02436457574 -0.07991790771 0.7602468133 0.7805870175 0.4330537617 -0.4496544898
-0.03000904247 -0.08119812608 0.755715549 0.7633054852 0.4524915516 -0.4587322474
-0.03344818205 -0.07704921067 0.752400279 0.6208396554 0.3328210413 -0.4956185818
-0.03048608638 -0.08244460076 0.7486287951 0.7330079079 0.4334281385 -0.4634386003
-0.01883721724 -0.1028724238 0.7575096488 0.8271904588 0.3875743449 -0.4067553878
-0.01767713577 -0.1186127216 0.7438440919 0.8155688047 0.389359951 -0.4279054999
-0.01938392594 -0.1131118238 0.7470209002 0.8208888173 0.3872668445 -0.4194936156
-0.03539468348 -0.07651678473 0.6959727407 -0.8809577823 0.258546263 -0.3940649927
-0.03772928566 -0.0886863023 0.6929807067 -0.1045670435 -0.0310645178 -0.4514420331
-0.1309422255 -0.1234998479 0.7563080192 -0.732611835 0.1061436236 -0.1688053757
-0.12751095 -0.1449871361 0.776039958 -0.7327621579 -0.3358973861 0.3834428787
-0.1305841804 -0.1296971738 0.7572431564 -0.7393241525 0.03614449501 -0.08668804169
-0.1303785741 -0.1368325502 0.7567638159 -0.7492343187 -0.02564024739 -0.01738529094
-0.1327668428 -0.1155038103 0.7448406219 -0.7383395433 0.3205012381 -0.4412310123
-0.12909168 -0.1396057457 0.7656661868 -0.7403414845 -0.1595242769 0.1570056528
-0.1308177263 -0.1268982738 0.7640034556 -0.7269690037 -0.00773320999 -0.0249485597
-0.1368019134 -0.1050112993 0.7510251999 -0.7193359733 0.3944157362 -0.5312322974
-0.1356150359 -0.111513637 0.7557971478 -0.7208386064 0.2717434764 -0.3782583177
-0.1324081272 -0.1103387699 0.749630332 -0.7249962687 0.3124288917 -0.4207401872
-0.1318660975 -0.1151712313 0.7537039518 -0.7256728411 0.2194196582 -0.3055766821
-0.1339458972 -0.1411157846 0.7464842796 -0.8219043016 0.07575127482 -0.0906688273
-0.1356027424 -0.154100731 0.7459660172 -0.9216735959 -0.002464215271 0.1823835671
-0.07685318589 -0.05956035852 0.7397230268 -0.0944526419 0.6492856145 -0.7515530586
-0.1256294101 -0.1394179016 0.6990360618 -0.7384279966 0.4503539503 -0.4948579669
-0.1200073734 -0.1899164468 0.7638576031 -0.7408216 -0.3725787699 0.5463132262
-0.12540856 -0.1847451478 0.7595701814 -0.789029181 -0.3759494722 0.4745803773
-0.1237702295 -0.1790000796 0.7658188939 -0.7706262469 -0.4007532895 0.4928182364
-0.1299249381 -0.1797302663 0.7566733956 -0.8430906534 -0.3656256497 0.3895783424
-0.1350935549 -0.1597212851 0.7503354549 -0.9357655644 -0.1095767021 0.3092032969
-0.1331487894 -0.161034137 0.7575957179 -0.897827208 -0.2363303751 0.3438727558
-0.05760543421 -0.1913781762 0.7838267088 0.2975646257 -0.5171356201 0.7977597117
-0.07331940532 -0.1911447644 0.7866868973 0.006995403208 -0.5443863869 0.8330560327
-0.05076162145 -0.1765124947 0.7911992669 0.4418608248 -0.4994192421 0.7421360612
-0.08388265967 -0.1798556745 0.7955414653 -0.1535496861 -0.6092965603 0.7763599157
-0.08429592848 -0.1738619357 0.800788343 -0.1403073221 -0.6208266616 0.7704176307
-0.07712435722 -0.1864123642 0.7905171514 -0.06459987164 -0.5643345714 0.8212815523
-0.08259142935 -0.1843661815 0.7917298675 -0.1448244452 -0.5963097215 0.7870530486
-0.07645371556 -0.1803131402 0.794267714 -0.01358707994 -0.5869439244 0.8061922193
-0.06173595414 -0.1999020129 0.7883065343 0.1977412254 -0.5390140414 0.811205864
-0.06552296877 -0.1871750653 0.7916691899 0.1566461325 -0.5278442502 0.8290823102
-0.06519760936 -0.1941903532 0.7901694179 0.1356344074 -0.5409685373 0.8180218339
-0.07153765112 -0.1825080663 0.7926085591 0.06457017362 -0.5574102998 0.8218727112
-0.04222954065 -0.1866194159 0.7787450552 0.5641641021 -0.4336083233 0.702072978
-0.0877366811 -0.1878968775 0.7887300849 -0.2132165581 -0.552988708 0.8017306924
-0.09738821536 -0.1953513175 0.7855364084 -0.3469095528 -0.5181130767 0.7714614868
-0.09216753393 -0.182070151 0.7898494005 -0.322175473 -0.5565701127 0.7522624135
-0.05140287429 -0.06454084069 0.7453157306 0.3361755908 0.8650867343 -0.2083483785
-0.03748879582 -0.07033606619 0.7555121183 0.5946263075 0.624102056 -0.3803997636
-0.0566554293 -0.06159576029 0.7420027852 0.2324244976 0.9473205209 -0.1448182762
-0.04430025071 -0.06658810377 0.7509864569 0.4526468217 0.7062636018 -0.3050551713
-0.03262869269 -0.07135909051 0.7592900395 0.6546744704 0.4588004649 -0.4621013403
-0.04048671573 -0.07069922984 0.7461684346 0.2831453681 -0.1540694982 -0.5809624791
-0.02632625215 -0.183540225 0.7663708925 0.6794701219 -0.3910892606 0.6199023724
-0.03200875223 -0.1873638481 0.7702641487 0.6339272857 -0.397090137 0.6609435678
-0.0337812826 -0.1816648096 0.7713568211 0.6551748514 -0.4025891721 0.6360649467
-0.03833392635 -0.1908535361 0.7735594511 0.5927257538 -0.4054479301 0.6938651204
-0.03434242681 -0.1167952791 0.7036183476 0.6026848555 0.1235410944 -0.6777780056
-0.03976628184 -0.1220001578 0.7061136961 0.6078831553 0.3154905736 -0.7183712721
-0.03788650408 -0.1177023351 0.7108141184 0.6763376594 0.3578107059 -0.6272946596
-0.04392148182 -0.11569646 0.7070584893 0.5748234391 0.4063128233 -0.6822381616
-0.05080237985 -0.117858991 0.7009446621 0.3969796002 0.3727486134 -0.8161079884
-0.04512653127 -0.1206357852 0.702891171 0.5162086487 0.3127200007 -0.7821757197
-0.04726681113 -0.1248973981 0.6983838677 0.4993421435 0.2411147356 -0.81267488
-0.03480873257 -0.1298974007 0.7053798437 0.6486834884 0.3887574673 -0.6397618055
-0.03040988371 -0.1598934382 0.7831907272 0.7012891769 -0.3793289959 0.6024082303
-0.03514336795 -0.1724441499 0.780033648 0.6852920651 -0.3809862435 0.6195356846
-0.03705693781 -0.167479828 0.7852565646 0.6543986797 -0.4140087962 0.63084203
-0.04129501805 -0.1747200042 0.7852292061 0.6089546084 -0.4287049472 0.6652454138
-0.02872505039 -0.1605447829 0.7770397067 0.7237913013 -0.3549280465 0.5902070403
-0.03250088543 -0.1663343459 0.7801536918 0.7075594664 -0.3758801222 0.5972480178
-0.08316711336 -0.1516052485 0.8162519336 -0.1143647656 -0.6261284351 0.7602399588
-0.09015034884 -0.1483356208 0.8154736161 -0.2190108299 -0.5941674709 0.7414666414
-0.09779638797 -0.1482062191 0.8138119578 -0.3481486142 -0.5682030916 0.7277699113
-0.1033957228 -0.1516483128 0.8097450137 -0.460444212 -0.5379962921 0.7025977373
-0.05037031695 -0.09601901472 0.7191087008 0.4624370337 0.5636246204 -0.6686351299
-0.04413191229 -0.1057796553 0.7158825397 0.5828250051 0.5658453703 -0.5610932112
-0.05970137566 -0.09832435101 0.7123877406 0.159796387 0.6731804013 -0.7192304134
-0.06244166568 -0.09370869398 0.7149807811 0.108194612 0.646590054 -0.7354196906
-0.05888495967 -0.09062381089 0.7192150354 0.2651884854 0.5906296372 -0.740604043
-0.05210917443 -0.09778245538 0.6934815049 -0.5815671682 0.1036093757 -0.7867438197
-0.07256881148 -0.1203757599 0.688139081 -0.0239916686 0.5469430089 -0.8275425434
-0.05959986523 -0.1063049585 0.6913016438 -0.3751652837 0.2663810551 -0.8023644686
-0.06576385349 -0.1101346463 0.6923513412 -0.2340516448 0.3945039213 -0.806538105
-0.05432202294 -0.09308662266 0.6897103786 -0.5155025721 0.3227181137 -0.732368052
-0.05877849832 -0.09675633907 0.6913727522 -0.4088448882 0.388322711 -0.7447856069
-0.07041231543 -0.10223528 0.700299561 -0.1237880141 0.5577818751 -0.7693977952
-0.07132324576 -0.1071027443 0.6971850395 -0.1089779064 0.5546216965 -0.7844330668
-0.06631890684 -0.1036492139 0.6942874789 -0.2297407836 0.4857875705 -0.7706069946
-0.01862369664 -0.1064760461 0.7515718341 0.8264567256 0.3855216205 -0.410197556
-0.02015559375 -0.09827898443 0.7531052828 0.8215916157 0.3912014961 -0.4146296382
-0.01762571745 -0.09168932587 0.764541924 0.8222296238 0.3883445263 -0.4160853028
-0.01943387836 -0.09759706259 0.7625741959 0.8264916539 0.3876624405 -0.4081513286
-0.02130658925 -0.09323271364 0.7573227882 0.8204933405 0.3907752335 -0.4172211587
-0.02722208574 -0.09004062414 0.755237639 0.7995160818 0.4114476442 -0.4357792437
-0.02724543959 -0.09157905728 0.7481079102 0.8062145114 0.4091615975 -0.4260645807
-0.03369699046 -0.1071535274 0.710270822 0.7580353618 0.1580442488 -0.5325564742
-0.03672902659 -0.1015133932 0.6981779337 0.683624208 -0.1626990587 -0.6142748594
-0.04268698394 -0.1013006493 0.7214400768 0.58549577 0.5188471675 -0.603425324
-0.03878301755 -0.1067519337 0.7200231552 0.6600279212 0.515026927 -0.542512536
-0.0489339754 -0.05891504511 0.726511538 -0.2843404114 0.666698575 -0.2898490727
-0.04000706971 -0.05736790597 0.7128608227 -0.729427278 0.2647955716 -0.4636754692
-0.04421131313 -0.06019960344 0.7208563685 -0.4736556113 0.1628133506 -0.4620010555
-0.05072426051 -0.0635664165 0.7328101993 -0.08691215515 0.1598736793 -0.4148466885
-0.09733349085 -0.1047886461 0.7086597681 -0.370595485 0.5712509751 -0.7307351828
-0.04855796695 -0.0899945721 0.7255705595 0.4882438481 0.5293579698 -0.6738255024
-0.05372424796 -0.08780425042 0.7228047848 0.4058914185 0.5295419693 -0.7424390316
-0.06357078999 -0.08589969575 0.7055349946 -0.283469528 0.4712033868 -0.7249173522
-0.05621813983 -0.08449745923 0.6988660097 -0.471873194 0.3823482394 -0.6813696027
-0.05003029108 -0.08262103051 0.6940279007 -0.6346901655 0.314434886 -0.6285069585
-0.1129637957 -0.1138023138 0.7123543024 -0.587338984 0.5051257014 -0.6306701303
-0.1182841361 -0.1334838122 0.6925243735 -0.50354743 0.5885180831 -0.630480051
-0.1188229844 -0.1658876538 0.7823063731 -0.697142005 -0.47765553 0.5335261226
-0.125783205 -0.1564525068 0.7771552205 -0.735286355 -0.4429930747 0.5122005343
-0.1306537241 -0.1581864506 0.7709924579 -0.8225084543 -0.3625306785 0.4332461357
-0.1239131317 -0.1620314717 0.7779862285 -0.7488926053 -0.4370996952 0.4906814098
-0.1014679372 -0.1804827899 0.7856145501 -0.5020213723 -0.4856384099 0.7136637568
-0.1202215329 -0.1580250859 0.7857103944 -0.6757067442 -0.4785283804 0.5572856069
-0.1134924889 -0.16597341 0.7863495946 -0.6281766891 -0.5117892623 0.579438746
-0.1170631349 -0.1614181846 0.7897669673 -0.6660254598 -0.4749386013 0.573765099
-0.1125202626 -0.155624792 0.798253715 -0.6050086617 -0.5003782511 0.6189174652
-0.1113283038 -0.1650486439 0.7918667793 -0.6013391018 -0.5129561424 0.6085937023
-0.1068699658 -0.1625043005 0.7968418598 -0.5490522385 -0.5261446834 0.6489422321
-0.08281487226 -0.05972459912 0.739325285 -0.1296221763 0.6834004521 -0.7179097533
-0.07830312103 -0.06425645202 0.7359312177 -0.05134060606 0.6616998315 -0.7438890338
-0.1164810658 -0.07479875535 0.7468926311 -0.6359707117 0.5056342483 -0.5827507377
-0.1195279285 -0.07311059535 0.7515321374 -0.650102675 0.4981050491 -0.5736605525
-0.1215036586 -0.07870211452 0.7503480315 -0.6603289247 0.4804542959 -0.5767357349
-0.1170081794 -0.147953257 0.7982744575 -0.6169167161 -0.4947798252 0.609028995
-0.1235488951 -0.1514196992 0.7851399183 -0.7015003562 -0.4589541554 0.5426614285
-0.1170278192 -0.1544089317 0.7933446169 -0.640062511 -0.4867506027 0.5932460427
-0.1274691224 -0.1132511199 0.729603231 -0.7064671516 0.4357359409 -0.5574097037
-0.1259040833 -0.1073350161 0.7346161604 -0.7055332661 0.4386056364 -0.5565737486
-0.1349617839 -0.1077843681 0.7425500154 -0.721073091 0.4195518196 -0.5512830019
-0.1356629133 -0.1133033261 0.7398825884 -0.7311184406 0.4053456187 -0.5475768447
-0.1345558465 -0.1354894191 0.7373598218 -0.8280373812 0.2406058758 -0.2707831264
-0.1324861944 -0.1525869817 0.7591506243 -0.869918406 -0.1745622903 0.260441035
-0.1318151504 -0.154960379 0.7659267187 -0.8535396457 -0.2707796693 0.3583424687
-0.1340936273 -0.1550097018 0.7530269027 -0.9079598784 -0.1076390892 0.2615568638
-0.1333450824 -0.1488464773 0.7496016622 -0.8909854889 -0.03723519295 0.1147121489
-0.1345295012 -0.14784275 0.7416126728 -0.9194261432 0.06833467633 0.03448553011
-0.1321792305 -0.1429553628 0.7529391646 -0.8303666115 -0.03063702583 0.01343414187
-0.1374513805 -0.1506625116 0.7333093882 -0.9435566664 0.153051272 -0.04222131148
-0.1354871839 -0.1415118277 0.7313563824 -0.9141771197 0.2207994908 -0.2117794752
-0.1407901347 -0.160438329 0.730869472 -0.9807392359 0.1337458342 0.06822939962
-0.116128996 -0.1774721295 0.7750898004 -0.7040668726 -0.4167916477 0.5743443966
-0.1145294458 -0.1833226532 0.7730385065 -0.6897901893 -0.3966675401 0.603892684
-0.1082390398 -0.1862764657 0.7759100795 -0.5944410563 -0.4169286191 0.6843948364
-0.04598658532 -0.1721082181 0.7917029262 0.5025073886 -0.503111124 0.7006314993
-0.05160909146 -0.1703601032 0.7951360941 0.4151010215 -0.5236392021 0.7352067232
-0.07057350874 -0.1491335779 0.8217810988 0.06251864135 -0.6598445773 0.7469946146
-0.07673386484 -0.1545514315 0.8175940514 0.007803631481 -0.6588932276 0.7502830029
-0.08827878535 -0.1602849215 0.8103512526 -0.2119490355 -0.6180673838 0.7441527247
-0.09484386444 -0.1569646001 0.81030792 -0.3664784729 -0.5793069601 0.7225211859
-0.08817823231 -0.1548553556 0.8139713407 -0.2251307815 -0.6095924377 0.7536277175
-0.0594018586 -0.1902263314 0.7902806401 0.2593018413 -0.5188031793 0.8129584193
-0.05689230189 -0.1848187149 0.7876620889 0.3132758141 -0.4992018342 0.8058025241
-0.04793292657 -0.1652330011 0.7987272739 0.4668967128 -0.5611783862 0.6821596026
-0.04466334358 -0.1597344279 0.7995756269 0.4979159832 -0.5783711076 0.6441275477
-0.04232764989 -0.1628781408 0.7947841883 0.5516723394 -0.5053038597 0.660002172
-0.0638134107 -0.180279389 0.7937011719 0.2084969431 -0.5387783647 0.8140886426
-0.1014828086 -0.1652648449 0.8002310991 -0.4861482084 -0.5490859151 0.6767442822
-0.1048760265 -0.167500481 0.7934577465 -0.5231995583 -0.5491832495 0.6467095017
-0.09458507597 -0.1741268933 0.7948162556 -0.358863771 -0.5838997364 0.7164509892
-0.08908043802 -0.1737007499 0.7969968915 -0.2432292104 -0.6105303764 0.7383533716
-0.1019655466 -0.1749001145 0.7896540761 -0.5040588379 -0.5238750577 0.6798221469
-0.04180999845 -0.07243634015 0.7323614359 0.05000269413 -0.2253055423 -0.5763911009
-0.04461188614 -0.0656504333 0.7259005904 -0.2904773355 -0.2950624824 -0.5876060128
-0.04711338878 -0.06875418127 0.7314023972 -0.1175214201 -0.5481853485 -0.641710639
-0.03990181908 -0.07678487152 0.736425817 0.2676756978 -0.1721148044 -0.5674402118
-0.03679963574 -0.06562705338 0.7206127048 -0.3272685409 0.2940295339 -0.4651705623
-0.03692356125 -0.07024245709 0.7263733149 -0.0864501223 0.1885551065 -0.4893222451
-0.03489335626 -0.08065187931 0.7378108501 0.4461653531 0.1246934384 -0.507628262
-0.05363965034 -0.1091022938 0.6906945705 0.09430918843 0.08633668721 -0.8266304731
-0.05397717282 -0.09995416552 0.7135775089 0.2910241187 0.6588859558 -0.6697283983
-0.1145677492 -0.1201059446 0.7094830871 -0.5898153186 0.5568982959 -0.5807994604
-0.1040241718 -0.1115611941 0.7073857188 -0.4723623395 0.5388784409 -0.6963868737
-0.03592411056 -0.1610044241 0.788931191 0.6470838189 -0.45605582 0.6079194546
-0.04028482363 -0.1556483209 0.7981339097 0.5527220964 -0.540725708 0.6239503026
-0.0456389077 -0.1522224844 0.8090366721 0.4128342271 -0.6076840758 0.6680749655
-0.04175662249 -0.1533534527 0.8042869568 0.474470377 -0.5757407546 0.6437362432
-0.07822839171 -0.1500286758 0.8216869831 -0.03552731872 -0.6543191075 0.7516906261
-0.09091386944 -0.1479483098 0.8228415847 -0.2319332808 -0.5971956849 0.7676287293
-0.1016161963 -0.1577180773 0.8064396381 -0.468083322 -0.5412992239 0.6970204115
-0.105517827 -0.159044385 0.8019310832 -0.532461524 -0.5255061388 0.6620099545
-0.03978797048 -0.08223373443 0.6925824285 -0.8705939651 0.2267208397 -0.422077477
-0.02318713255 -0.1012337953 0.7481610775 0.8229792118 0.393047601 -0.4100302756
-0.0188692566 -0.1096406132 0.7422547936 0.8115787506 0.3930301368 -0.4309745431
-0.01830339245 -0.1163630038 0.7383053899 0.8023921847 0.3905048966 -0.4503973126
-0.02967722714 -0.08445033431 0.7263735533 0.2078952193 0.3764299154 -0.4197227359
-0.03151531145 -0.07270599902 0.7035912275 -0.7699864507 0.2941061556 -0.3685080707
-0.03103221394 -0.07581935823 0.7095060349 -0.5146940947 0.3154750168 -0.3819188178
-0.02935428545 -0.08529099822 0.7337271571 0.4587258697 0.4031994939 -0.4310084283
-0.03060169891 -0.07832051069 0.7155261636 -0.2695245147 0.3372687995 -0.3943812549
-0.02822541632 -0.09137791395 0.7407623529 0.7893464565 0.423268944 -0.4441475272
-0.02989739738 -0.110690251 0.7252832055 0.7533643842 0.3994867504 -0.5220355988
-0.03444314003 -0.09779209644 0.7071850896 0.6388983727 0.01955798455 -0.511988461
-0.03211886808 -0.07875443995 0.7040422559 -0.481751442 0.241650641 -0.4015348554
-0.03374993801 -0.0884411484 0.7042413354 0.124619104 0.09205946326 -0.461797744
-0.03592148796 -0.09237170219 0.6996087432 0.4924122095 -0.09181191772 -0.499925971
-0.03153205663 -0.08776548505 0.7107965946 -0.08735764027 0.2741602957 -0.4385346174
-0.03254877776 -0.101377219 0.7150577903 0.6618723869 0.167998448 -0.5116642118
-0.03426259756 -0.08281233907 0.6995660663 -0.109959349 0.05983195826 -0.4400090575
-0.03217682987 -0.0937211588 0.7120369077 0.2565820217 0.2113997191 -0.4723426402
-0.03233598918 -0.1095606461 0.7180585861 0.7459338903 0.3153539598 -0.5351096988
-0.01829828322 -0.13825427 0.7466691732 0.8257225752 0.1697287261 -0.09709551185
-0.01842362434 -0.1327397823 0.7355779409 0.7911760807 0.3174309433 -0.3467389941
-0.01894087531 -0.1486551762 0.7469694614 0.8252024055 0.07211577147 0.05244873092
-0.01852233335 -0.134187758 0.729334712 0.7721913457 0.3685433567 -0.4331643879
-0.01719413325 -0.1244027913 0.7387818098 0.8049955368 0.3863705397 -0.4333423972
-0.01863555424 -0.1493433714 0.7531165481 0.8450561166 0.01507449895 0.1547090411
-0.01816166192 -0.136654526 0.740526557 0.8076579571 0.2492267787 -0.2258045226
-0.01917044818 -0.1587093174 0.7586303949 0.8605200648 -0.1254754215 0.3775479198
-0.01862889528 -0.1390048265 0.735111475 0.7896972895 0.2720365226 -0.274278909
-0.01744015701 -0.130598709 0.7446308732 0.8222977519 0.2745853961 -0.2521235049
-0.01868197694 -0.1432636231 0.7415006161 0.8091998696 0.1749646664 -0.1133447662
-0.02171343565 -0.1164560243 0.7327207327 0.7687231302 0.3982177675 -0.4998891652
-0.02301537246 -0.1121293604 0.7383640409 0.8000614643 0.3885941505 -0.4534178972
-0.02114582062 -0.1229712069 0.7317208648 0.7807235122 0.3904596865 -0.4874570668
-0.02393456362 -0.1205351725 0.7264605165 0.7620789409 0.4048171341 -0.5052893758
-0.02043847553 -0.1293650568 0.7251540422 0.7573812604 0.4139255285 -0.5046348572
-0.02886411548 -0.1184377149 0.7216476798 0.7495257258 0.4095973372 -0.5194472075
-0.02734655142 -0.1240667924 0.718264699 0.7378687263 0.4213039577 -0.5268934965
-0.0317735374 -0.1226562187 0.7135874033 0.6972433329 0.417943269 -0.580586791
-0.04164696485 -0.07168180496 0.6961612105 -0.8622946143 0.2903876305 -0.4125828743
-0.04664418474 -0.07047078758 0.6996577978 -0.7699383497 0.3309020996 -0.4426442683
-0.05803968757 -0.07715533674 0.7065204382 -0.4586012065 0.4452710748 -0.5766845942
-0.06989137828 -0.08428991586 0.7135748863 -0.1343261898 0.5640620589 -0.7173476815
-0.04957571626 -0.07634756714 0.6995335221 -0.6790374517 0.3567581773 -0.5057666302
-0.0624981001 -0.08061490208 0.7088215947 -0.334597528 0.4892930388 -0.6349434853
-0.02958900109 -0.08517280966 0.7395046353 0.6473287344 0.4270711243 -0.4455860257
-0.03624721617 -0.06271986663 0.7127537131 -0.6133210659 0.3552560806 -0.4327105582
-0.03234231472 -0.07572891563 0.7275608182 0.09455224872 0.3935062885 -0.4377736151
-0.03349490836 -0.07044202834 0.7151722908 -0.4005754292 0.3470435441 -0.4136531353
-0.03443424404 -0.06621718407 0.7059072852 -0.7772727609 0.3133757114 -0.3965707123
-0.03063534014 -0.07864278555 0.7218238711 -0.05637065694 0.3614051044 -0.4075017273
-0.09463546425 -0.09556674212 0.7152369618 -0.3324477375 0.5633288622 -0.7559031248
-0.08826991171 -0.1035594791 0.706970036 -0.2215124518 0.5908207297 -0.7712830901
-0.09294397384 -0.1007072106 0.7106571198 -0.2970687151 0.580367744 -0.7535142303
-0.09149525315 -0.09039019793 0.7173348665 -0.2747370303 0.5862166882 -0.7589539289
-0.04898306355 -0.0865059495 0.6886747479 -0.6394070983 0.266110599 -0.707841754
-0.06632665545 -0.09760265797 0.6993129849 -0.219938755 0.5054893494 -0.7557767034
-0.1155918986 -0.1717440486 0.7808073163 -0.6733267307 -0.4674144685 0.5704309344
-0.1100574806 -0.1729881614 0.7858830094 -0.5983953476 -0.5044686794 0.6151563525
-0.1105730832 -0.1764583588 0.7808020711 -0.6338958144 -0.4517933428 0.6212345362
-0.1020432711 -0.07637292147 0.7322894335 -0.4324971735 0.5805119276 -0.689108789
-0.101856865 -0.07195133716 0.7366713285 -0.428522855 0.6033609509 -0.6716555357
-0.1302512139 -0.1115549207 0.7368646264 -0.7282040715 0.4196173549 -0.5418176055
-0.1234159917 -0.1173692048 0.7224595547 -0.707284987 0.4387189746 -0.5538238883
-0.1314375848 -0.1266818792 0.7287912369 -0.7837494612 0.3763418198 -0.4755740762
-0.1216324419 -0.1229739785 0.7167307138 -0.6686668396 0.5161216855 -0.5322028399
-0.1286965162 -0.1197146997 0.7259606123 -0.700429976 0.4655686021 -0.5392175913
-0.1321363449 -0.1212115884 0.7315687537 -0.7387958169 0.4044080675 -0.5363963842
-0.06642698497 -0.06042351946 0.7397755384 -0.1643133909 0.6005250216 -0.7686291933
-0.06638082862 -0.05907861888 0.7340191007 -0.2412992567 0.5764406919 -0.7021730542
-0.05566645786 -0.05786515772 0.723059833 -0.5165595412 0.4732030332 -0.5791325569
-0.06164048612 -0.05841162801 0.72861588 -0.3704447448 0.5284692645 -0.641332984
-0.05056397989 -0.05768931657 0.7168782949 -0.6485449672 0.4226553142 -0.5139549375
-0.07302746922 -0.06230174378 0.7344089746 -0.08044201136 0.6304161549 -0.7331752777
-0.04713222384 -0.08546175063 0.7299041152 0.4998785853 0.5011034012 -0.6736983061
-0.04177748784 -0.08736736327 0.7330946326 0.5896002054 0.4901671708 -0.6066992283
-0.07473435253 -0.06845104694 0.7321084142 0.003961910959 0.6416088939 -0.7669064999
-0.06909439713 -0.06485660374 0.7291791439 -0.1542220265 0.5930029154 -0.7023942471
-0.04631573707 -0.05760679767 0.7130950689 -0.7484648824 0.3837355673 -0.4743938148
-0.06212214008 -0.06231288984 0.7245475054 -0.3354863822 0.5303355455 -0.632106185
-0.07200105488 -0.07343084365 0.7285137177 0.03675729409 0.6255176663 -0.7781096697
-0.05996658653 -0.06679501384 0.719302237 -0.3925118446 0.5234397054 -0.6046346426
-0.06519537419 -0.0676003322 0.7233542204 -0.2607848942 0.5616799593 -0.6596640348
-0.1265736222 -0.164219901 0.7716369033 -0.7816447616 -0.3956573606 0.4764718115
-0.126742661 -0.1725529283 0.762146771 -0.8146315813 -0.3667011857 0.4470111132
-0.1263036579 -0.1687925607 0.7676486373 -0.797780633 -0.3785753846 0.4654087126
-0.1274820268 -0.1303725243 0.7177132368 -0.7554290891 0.4344165921 -0.4705200493
-0.1300554127 -0.1303215027 0.7237707973 -0.8091147542 0.366219759 -0.4371995926
-0.1183170751 -0.1174370721 0.7152561545 -0.6454700828 0.4908918738 -0.581905961
-0.1081290692 -0.1915569901 0.7797053456 -0.5581716895 -0.4495862424 0.6881726384
-0.1171487421 -0.1860472858 0.7680400014 -0.7356951833 -0.381931603 0.5564067364
-0.114357613 -0.1909290254 0.7701157331 -0.6847090721 -0.3999444544 0.6046847105
-0.09426378459 -0.1939860582 0.7793772817 -0.3379221261 -0.4923198819 0.796682477
-0.04740581289 -0.1490340233 0.8162895441 0.3249994218 -0.6445022821 0.6904498935
-0.07835706323 -0.1672670096 0.8056083918 -0.005558443256 -0.6362711191 0.7651533484
-0.08484996855 -0.1690367162 0.8044873476 -0.1389480382 -0.6264964938 0.7668454647
-0.07799131423 -0.1722131521 0.801525414 -0.02056979947 -0.6183786392 0.7810591459
-0.07788906991 -0.1577433944 0.8123951554 -0.02032021433 -0.6453150511 0.7599835396
-0.07295132428 -0.175849691 0.7985472679 0.04502242804 -0.5921723247 0.8001020551
-0.06630499661 -0.1716828495 0.8012499809 0.1752010733 -0.6023075581 0.7781381011
-0.07200438529 -0.1698881835 0.8026250005 0.08912421018 -0.6187813282 0.7760248184
-0.09741000831 -0.1689298153 0.7978520989 -0.3951867521 -0.6051418185 0.6904254556
-0.09671577066 -0.1629312038 0.8038300276 -0.3871853352 -0.559310317 0.7281812429
-0.09080661088 -0.1658905894 0.8051261306 -0.2789512873 -0.6007362604 0.7418968678
-0.09122947603 -0.2010005265 0.7819722891 -0.2490360737 -0.5248113871 0.7893710136
-0.08074070513 -0.2015154809 0.7832700014 -0.08103692532 -0.5490646958 0.8094161749
-0.09760717303 -0.1991398782 0.7799734473 -0.3626419902 -0.5057169199 0.7821641564
-0.1068965048 -0.1989174783 0.7780608535 -0.5128946304 -0.4557599723 0.7113960385
-0.1008819938 -0.1952118129 0.776843369 -0.4384672344 -0.4698562324 0.7535730004
-0.1082191393 -0.194452852 0.7721328139 -0.5760375261 -0.4166885018 0.6806157827
-0.06480325013 -0.07538583875 0.7279080153 0.09163724631 0.6110050678 -0.7861327529
-0.04087584838 -0.08316693455 0.7375714183 0.5132237673 0.4921990037 -0.6166520119
-0.03511265293 -0.08384738117 0.745172143 0.6763506532 0.4565016031 -0.5205308795
-0.0470479764 -0.07968707383 0.7340581417 0.3474114835 0.5139927268 -0.7114949822
-0.05319559947 -0.0775924176 0.7302080393 0.2768683136 0.527180016 -0.7790570259
-0.0436745584 -0.09815799445 0.6930540204 -0.06150633097 -0.1435904354 -0.8161225915
-0.04357303306 -0.0915286839 0.6904121637 -0.03929622471 -0.02420965955 -0.687024951
-0.06094178185 -0.1035234481 0.7079282403 0.1413775086 0.6484013796 -0.7448723316
-0.06645086408 -0.105659835 0.7036573291 -0.01347273029 0.5944964886 -0.8035277724
-0.06616606563 -0.1108174846 0.7000355721 0.0829943493 0.5656288266 -0.816139102
-0.04879133403 -0.1070627198 0.711856842 0.4508869648 0.5889428854 -0.6184490323
-0.05455956608 -0.1052237153 0.7094002962 0.2873358727 0.630094707 -0.6872797012
-0.04956232384 -0.1114662066 0.7073076963 0.4477691352 0.5177149773 -0.6724217534
-0.04373015091 -0.110965535 0.7113721967 0.5948179364 0.5060552359 -0.5948987603
-0.05796388164 -0.1119757146 0.7017259598 0.2356821299 0.5379517078 -0.7816609144
-0.03455651924 -0.1242682412 0.7089506388 0.6803281307 0.3955329359 -0.6136758327
-0.03953548148 -0.1202984601 0.699319005 0.5648406148 0.1318929791 -0.7420838475
-0.03832416236 -0.126106143 0.7018130422 0.60431844 0.2777930796 -0.7039163113
-0.03733232617 -0.1096145213 0.6967957616 0.5275166631 -0.1285967976 -0.7528205514
-0.02329056337 -0.1326154023 0.7197833657 0.7443515658 0.4277766943 -0.5124971271
-0.02931902558 -0.1325989068 0.708576858 0.6967209578 0.417439431 -0.5827932358
-0.02696387656 -0.130065009 0.7146729231 0.726456821 0.4272322953 -0.538156569
-0.06188871711 -0.1194528863 0.6950647831 0.1600268334 0.4179878533 -0.8687685132
-0.06816460192 -0.1195153892 0.6930330396 0.03798143566 0.5257772207 -0.8488192558
-0.07547192276 -0.1169320047 0.6935459375 -0.02447657101 0.5766291618 -0.816439867
-0.06434385478 -0.1216565445 0.6889641285 0.1232892796 0.429597348 -0.8539053202
-0.05770019442 -0.1221943274 0.6919472218 0.2759614885 0.3355637491 -0.8462104797
-0.05955350399 -0.1161594838 0.6892501116 0.1730657816 0.2531202137 -0.8446597457
-0.04317242652 -0.1050562412 0.6926665306 0.4221327603 -0.2082667202 -0.8178778291
-0.04421244189 -0.1125481427 0.6946004629 0.4758712351 -0.0536387451 -0.8238422275
-0.05139015242 -0.1218743771 0.6945172548 0.4124539495 0.2309109569 -0.8383800983
-0.09751533717 -0.1097622812 0.7055745721 -0.3805336952 0.554882288 -0.7298541665
-0.09094647318 -0.1080890149 0.7030617595 -0.2688710093 0.5852159858 -0.7628865838
-0.1010374725 -0.1162207499 0.7025433779 -0.408043772 0.5641130805 -0.7137255073
-0.08925595134 -0.1148486063 0.6987816691 -0.254717499 0.5738645196 -0.774600327
-0.09092528373 -0.121034041 0.6944630146 -0.2696885467 0.540925622 -0.7888290286
-0.08309520036 -0.1160093769 0.69469136 -0.1526297927 0.5850204825 -0.7944227457
-0.07829599082 -0.120875597 0.6899508834 -0.07069416344 0.5615699291 -0.8210952282
-0.08342550695 -0.1087260172 0.7012984753 -0.1477847844 0.5976234674 -0.7856413722
-0.07643289119 -0.1057486534 0.7030509114 -0.03187097609 0.6197326779 -0.7818194032
-0.07929433137 -0.1125100702 0.6973683238 -0.0882833302 0.5969990492 -0.7931969762
-0.09892242402 -0.1228648722 0.6968058348 -0.3924284875 0.5457490683 -0.7379492521
-0.1103236824 -0.1271097958 0.7016196847 -0.5135522485 0.5735456347 -0.6281989813
-0.1224825904 -0.1314155757 0.7073836327 -0.6476358175 0.5548891425 -0.519446969
-0.1181273758 -0.1253482252 0.7101537585 -0.6334233284 0.5582171679 -0.5349389911
-0.1241297349 -0.1288572252 0.7124298811 -0.6826607585 0.5206101537 -0.5102853775
-0.1247794852 -0.1435219496 0.6945704222 -0.7596557736 0.4247699082 -0.4901233613
-0.1181827188 -0.1331617236 0.7024621964 -0.6160782576 0.5610733032 -0.5419960022
-0.1196054369 -0.1371402889 0.6981069446 -0.6623259187 0.5024837255 -0.5340743065
-0.1078692824 -0.1281007975 0.6957087517 -0.4802016616 0.5435425043 -0.6748765707
-0.05874450877 -0.08492764831 0.722576201 0.2760432363 0.5475144982 -0.7763961554
-0.05921787024 -0.07986813039 0.7260407209 0.2552671432 0.5561056137 -0.7784155607
-0.02745940909 -0.0985635221 0.736364305 0.7901488543 0.4073356986 -0.4575354755
-0.04294150323 -0.09201206267 0.7287619114 0.567682445 0.513035059 -0.6184354424
-0.03644393012 -0.09284549952 0.7335366011 0.6601110697 0.4854550362 -0.5573416948
-0.03387486935 -0.0987881124 0.7317626476 0.6912865639 0.4592933953 -0.5525898933
-0.03903762624 -0.09936347604 0.7270267606 0.6215109825 0.480270803 -0.5986605287
-0.03427181393 -0.1042383611 0.7269576192 0.6943204999 0.4631355405 -0.5494138002
-0.02748181298 -0.1058202013 0.7371267676 0.7613314986 0.419144839 -0.4855407476
-0.02542652376 -0.09670221061 0.7437452674 0.8167772293 0.4014619887 -0.4133977294
-0.03005737253 -0.09931660444 0.7222552299 0.3964461088 0.3689545691 -0.4796853065
-0.02921826206 -0.10430751 0.7304854393 0.7666710019 0.3980773091 -0.496927321
-0.03035412915 -0.09330906719 0.7182594538 0.1401204616 0.3527178168 -0.4542659819
-0.0301671885 -0.084890984 0.7176555395 -0.05907458812 0.3458687067 -0.4147045612
-0.02897252515 -0.09318646789 0.7296774387 0.5031902194 0.3889966011 -0.4446711838
-0.04243670031 -0.0602632165 0.7058716416 -0.8373821378 0.3299691081 -0.4338594377
-0.03574414924 -0.06878393888 0.6993902326 -0.884614408 0.2877989113 -0.366587013
-0.04160746187 -0.0661861077 0.6992411017 -0.8671851158 0.3009227812 -0.3957696557
-0.08812042326 -0.08546660095 0.7199656963 -0.199912712 0.6039654016 -0.7661118507
-0.09470681846 -0.08493882418 0.7223822474 -0.3185234964 0.5886557102 -0.742375195
-0.08674582094 -0.07802598923 0.7257069349 -0.168702051 0.6092845201 -0.7723422647
-0.1017499492 -0.08566746861 0.7250792384 -0.4385529757 0.559276104 -0.7025429606
-0.08463414013 -0.0976799652 0.7089560628 -0.1416012794 0.6094533205 -0.7793536186
-0.0783636719 -0.09974235296 0.7070753574 -0.05305333436 0.6232377887 -0.778075099
-0.06686516851 -0.1000732034 0.7092556357 0.07324223965 0.6544630527 -0.7492825389
-0.07894194871 -0.09413325042 0.7118494511 -0.05719018355 0.6090893745 -0.7864424586
-0.06905855983 -0.09361885488 0.7130975723 0.02503438666 0.6443225145 -0.762937367
-0.06368517876 -0.09111938626 0.7014107108 -0.2702894807 0.4660699964 -0.7527224422
-0.05862438679 -0.09025788307 0.6964356899 -0.4005069435 0.3993939161 -0.7353699207
-0.07178501785 -0.09513727576 0.7072274089 -0.07331373543 0.5805550814 -0.7736220956
-0.08474433422 -0.09242715687 0.7137582302 -0.1513613164 0.6025215387 -0.7828076482
-0.08053794503 -0.08818310499 0.7165252566 -0.07088645548 0.6149818301 -0.7816170454
-0.1208093613 -0.1068124175 0.7275165319 -0.6851382852 0.45398736 -0.569596529
-0.1298748851 -0.1056312621 0.7406917214 -0.7201640606 0.4274231195 -0.5463737845
-0.1324149519 -0.1010461226 0.7481738925 -0.7158171535 0.4258133471 -0.5530748963
-0.1332615316 -0.09233798087 0.7578331232 -0.6971481442 0.4478555322 -0.5597933531
-0.1372061074 -0.09898421168 0.7549028993 -0.7100625038 0.4276394844 -0.5590708256
-0.128785938 -0.08801807463 0.7554316521 -0.688870132 0.4513168931 -0.567163527
-0.1323298514 -0.09492371231 0.7496598959 -0.7023782134 0.4393087626 -0.5598378778
-0.1054117158 -0.104065381 0.7140783072 -0.4925172031 0.5379254222 -0.6841432452
-0.1047090739 -0.09567286074 0.7203686237 -0.4888435602 0.5303833485 -0.6921661496
-0.0789430514 -0.07188733667 0.7297099829 -0.05517156795 0.6303318739 -0.7695218921
-0.09287603945 -0.07569847256 0.7294962406 -0.2872926295 0.6097522974 -0.7369436026
-0.0882782042 -0.07021281868 0.732514143 -0.2297403812 0.6293421984 -0.739725709
-0.08499988914 -0.06608228385 0.7350425124 -0.1566380411 0.6753546 -0.7198526263
-0.09253043681 -0.06638283283 0.7369245887 -0.2915375233 0.6375541091 -0.709949255
-0.1370406896 -0.1617033035 0.7435206771 -0.9531965256 -0.04339337721 0.2535465658
-0.1363210529 -0.1666774899 0.7399625778 -0.9539925456 -0.05226672441 0.2297323048
-0.1392574161 -0.1647105217 0.7350609899 -0.9695000648 0.05832211673 0.1597678959
-0.1346246004 -0.1708626002 0.7474213839 -0.9064440727 -0.2911834717 0.2972841561
-0.1295659244 -0.1663533151 0.760424912 -0.8560751677 -0.3268728554 0.3918267488
-0.1324756593 -0.1606820673 0.763387084 -0.8645011187 -0.3179758787 0.3804405928
-0.1328682005 -0.1664828807 0.7537984252 -0.9016405344 -0.2848733068 0.3187375665
-0.1324988753 -0.1740855277 0.753360033 -0.8849802613 -0.3341424167 0.3228958845
-0.09646190703 -0.1853072196 0.7848366499 -0.3756048977 -0.5054754615 0.7743677497
-0.09963785857 -0.1896909624 0.779725492 -0.4312740266 -0.4739401042 0.76438272
-0.06749263406 -0.1612420678 0.8087741137 0.1464306563 -0.6480802894 0.7450354695
-0.07293386757 -0.1643986553 0.8073610663 0.09753604233 -0.6396926045 0.7595362067
-0.05847097188 -0.1716038138 0.797529161 0.3047249913 -0.5625409484 0.764223516
-0.05664251 -0.177280128 0.7938013077 0.3245596886 -0.5279385448 0.7839394212
-0.05609573796 -0.06669819355 0.7372978926 0.1588768363 0.7380351424 -0.5050724745
-0.03870488703 -0.07911702245 0.7467916608 0.5893628001 0.4988513291 -0.5083941817
-0.04849289358 -0.0710246563 0.7427059412 0.3753218651 0.6972190142 -0.3991834521
-0.05502921715 -0.0723060146 0.7329785228 0.1299026161 0.585103929 -0.7548423409
-0.06079862639 -0.07252893597 0.731154561 0.09161192179 0.5882619619 -0.8018565774
-0.06380849332 -0.06582868099 0.7361383438 0.0008887011791 0.6175911427 -0.7807545066
-0.05533652753 -0.06039298326 0.7353907228 -0.06326986849 0.7690227032 -0.3210663199
-0.09593569487 -0.1152752116 0.6991587877 -0.3560489416 0.5446079373 -0.7583527565
-0.1054175422 -0.1202692166 0.698877871 -0.4381012022 0.5523259044 -0.7063120604
-0.1163113415 -0.1291551441 0.6963016987 -0.5061030388 0.5848662257 -0.633235991
-0.11134094 -0.1202199161 0.7035320997 -0.5162085891 0.5571786165 -0.6478362679
-0.1288921982 -0.1438874304 0.7062169313 -0.8120296001 0.3654717803 -0.3908132613
-0.1246292144 -0.1390204579 0.7056578994 -0.7287775874 0.4533224702 -0.4496207535
-0.1279366165 -0.1441204697 0.7135518789 -0.79477036 0.3741020858 -0.3135726154
-0.1357476115 -0.154233858 0.7213135362 -0.9485778809 0.2031447142 -0.1241604611
-0.1257650256 -0.1363108009 0.7115728259 -0.7308064103 0.4578883052 -0.4364573061
-0.1320905983 -0.1464329064 0.717729032 -0.8635941148 0.3054383993 -0.2564969361
-0.1371034682 -0.1563819796 0.7280275822 -0.97500664 0.1260734797 -0.0135973366
-0.1360814571 -0.1552859396 0.7389910221 -0.9539142251 0.04426916316 0.1245247871
-0.1334180534 -0.1352459043 0.7306830883 -0.8939779401 0.2495742738 -0.3136062026
-0.1368015409 -0.1474145949 0.7267001867 -0.9423222542 0.219915092 -0.1640974283
-0.08276746422 -0.08190453053 0.7211682796 -0.1123968437 0.6184592843 -0.7725912929
-0.07607735693 -0.07661726326 0.7256795764 0.001310081338 0.6224412918 -0.781196177
-0.06675010175 -0.08828601986 0.7181887627 0.08882538229 0.6233243942 -0.7767564654
-0.07473262399 -0.08697288483 0.7166986465 0.001226544264 0.6131563783 -0.7751959562
-0.06656848639 -0.07885979116 0.7151414752 -0.1806277782 0.5390817523 -0.6830381751
-0.06962462515 -0.07356907427 0.7229508758 -0.1289289445 0.5869568586 -0.7190114856
-0.06485743076 -0.07318421453 0.719129622 -0.2378436923 0.5550897717 -0.6665050387
-0.06604346633 -0.08233120292 0.7221874595 0.09718259424 0.6033089757 -0.7912607789
-0.04714484885 -0.06690763682 0.7046250105 -0.7390463948 0.3730939627 -0.45101282
-0.05820798129 -0.0718864724 0.7132894993 -0.4122234285 0.4925168455 -0.5880012512
-0.07194802165 -0.08099932969 0.7197226286 -0.01935587451 0.5997602344 -0.7503200173
-0.0514658168 -0.06607235223 0.7121161819 -0.599027276 0.4587180614 -0.5119345188
-0.05330979079 -0.07121612877 0.7071868777 -0.5637505651 0.4181316793 -0.5232564807
-0.1071540043 -0.08233275265 0.7322852612 -0.5006831884 0.5365589261 -0.6767795682
-0.09846821427 -0.08063226938 0.7281102538 -0.3701362908 0.5765346289 -0.7202744484
-0.1063731089 -0.07731688768 0.7363666892 -0.493946135 0.5570012927 -0.6610693932
-0.1125772446 -0.08366429061 0.7363057733 -0.5978577733 0.4993831217 -0.6237314343
-0.1096350923 -0.07440377027 0.7412731647 -0.553599298 0.5457744002 -0.626747787
-0.1142887324 -0.07867399603 0.742459774 -0.6214350462 0.5016701221 -0.5977976918
-0.1164754331 -0.0996478796 0.7287118435 -0.6362940669 0.4711443484 -0.604757607
-0.1107496172 -0.1015384272 0.7207602859 -0.5704574585 0.514154315 -0.6385163069
-0.0530333966 -0.1529387236 0.8102146983 0.3291737139 -0.6301631927 0.6978324056
-0.07167384028 -0.1576167792 0.8137099147 0.08772963285 -0.6570652723 0.7475448847
-0.06442566961 -0.1569367498 0.8119664788 0.1540603042 -0.6529531479 0.7411549091
-0.06580320001 -0.1531316638 0.8165192604 0.1285250485 -0.6550806761 0.7438804507
-0.05883332714 -0.1491805315 0.818598032 0.1929744482 -0.6523656249 0.7285473943
-0.0568690002 -0.1657777429 0.801445365 0.3207890689 -0.597928822 0.7315340638
-0.06348698586 -0.1657490134 0.8040937185 0.2377789915 -0.6153714061 0.7488273382
-0.05144444108 -0.1606425196 0.8021843433 0.3980464339 -0.5976191759 0.6908460855
-0.1113188714 -0.09433491528 0.7256003618 -0.5845223069 0.5000535846 -0.6374694109
-0.1152463704 -0.09280747175 0.7316347361 -0.6398399472 0.4724118412 -0.6042638421
-0.1091218963 -0.08760226518 0.7288963199 -0.5456712246 0.5186616182 -0.6562450528
-0.1270637065 -0.09518859535 0.7457444072 -0.7004908323 0.4478621483 -0.5555416346
-0.1256524771 -0.09960344434 0.7400469184 -0.7039657235 0.4463152885 -0.5522794724
-0.05034185946 -0.1577475369 0.8078362942 0.3511411548 -0.6242525578 0.6945655942
-0.05797101185 -0.1573905498 0.8085401654 0.2556504905 -0.6469335556 0.7148963213
-0.1232752353 -0.09297011048 0.7413537502 -0.6951829195 0.4531923532 -0.5579016805
-0.118833214 -0.0927817896 0.7359787822 -0.6742602587 0.4586496949 -0.5782677531
-0.1182125136 -0.08690632135 0.739770174 -0.6656383276 0.4615861773 -0.5848993659
-0.1197148114 -0.08319916576 0.7457107306 -0.6664612889 0.4676225781 -0.5803945661
-0.1248112097 -0.08477756381 0.752174139 -0.6790423989 0.4572066367 -0.5741260648
-0.1251389086 -0.08904714137 0.745791018 -0.69667238 0.4426777065 -0.5644232631
