# .PCD v0.7 - Point Cloud Data file format
VERSION 0.7
FIELDS x y z normal_x normal_y normal_z
SIZE 4 4 4 4 4 4
TYPE F F F F F F
COUNT 1 1 1 1 1 1
WIDTH 512
HEIGHT 1
VIEWPOINT 0 0 0 1 0 0 0
POINTS 512
DATA ascii
0.002613690682 -0.1513684541 0.6435988545 0.3876627684 -0.5999981761 0.6893021464
0.09534500539 -0.1153990552 0.6927030087 0.4820406735 -0.005279990379 0.7018108964
0.09540494531 -0.1243303642 0.6918386221 0.01480716281 -0.2235823572 0.6192414761
0.09779705852 -0.1207099631 0.6873635054 0.2604221106 -0.2545873821 0.5822588801
0.0938583836 -0.1294740885 0.6944982409 -0.2910653949 -0.2711194158 0.6177862287
0.08720877022 -0.1311537623 0.7002551556 -0.6707476377 -0.2672638297 0.6894564033
-0.01757805981 -0.1026288345 0.7100203633 0.6688248515 -0.5364390612 0.514516294
-0.02342015505 -0.108780615 0.7143326402 0.7056223154 -0.5096465349 0.4920814335
-0.0230986774 -0.1149774119 0.7100844383 0.7275335789 -0.4872213304 0.4827407002
0.03789960966 -0.1507956237 0.6378551722 -0.1304713488 -0.6331062913 0.7616785169
-0.01596497744 -0.154396683 0.6616439819 0.6487751007 -0.5139641762 0.5567179918
-0.01115190424 -0.1532612294 0.6557531953 0.5998693705 -0.5408990383 0.5852136016
0.02196370251 -0.1798152477 0.7684577107 -0.08718375862 -0.5828586221 0.8070505857
0.008527413942 -0.1898356378 0.7614557147 -0.2724166512 -0.5693339109 0.7748334408
0.01535225846 -0.182242021 0.7665999532 -0.1806973368 -0.5755467415 0.792348206
0.08333402127 -0.1326768845 0.6941053271 -0.660418272 -0.3357664347 0.6711291075
0.008658770472 -0.1507482678 0.6410962939 0.2937915325 -0.6057121754 0.7381392717
0.001463831868 -0.09228783101 0.6996129155 0.5122305155 -0.6170794368 0.5967347622
0.00153151725 -0.0984152779 0.693631649 0.5081188083 -0.5962746739 0.6188848615
0.1007145271 -0.1154824197 0.6690753102 0.6269259453 -0.5708187819 0.5210694671
0.09107382596 -0.1258283705 0.7000481486 -0.1226312146 -0.08688285202 0.7270517945
0.08483111858 -0.1168821231 0.7018419504 -0.4091359675 -0.230283916 0.8473331332
0.09006073326 -0.1183406115 0.7001939416 0.2574689984 -0.008278594352 0.7858895063
-0.006127173547 -0.1519213766 0.6497968435 0.5430187583 -0.5737813115 0.6117402911
-0.005633697845 -0.09786531329 0.7013297081 0.6067036986 -0.5628311038 0.5601648688
-0.02281476744 -0.1196918339 0.7050651312 0.7409252524 -0.4735069871 0.4761053324
0.00469568558 -0.1848254055 0.7617074251 -0.331926614 -0.5532458425 0.7624741197
-0.01247305702 -0.1467457712 0.6638866663 0.6468635798 -0.5119799972 0.5644547343
0.03344776109 -0.1857739538 0.7643563747 0.1021407023 -0.5862487555 0.8010279536
0.02135737054 -0.09166746587 0.6909096241 0.1667300463 -0.6777260303 0.7106620073
0.01227304619 -0.08884726465 0.6951395273 0.3106923997 -0.6757111549 0.6653359532
0.006938557141 -0.09146209806 0.6967805028 0.4137699008 -0.6361985207 0.6390903592
0.01056730654 -0.09371425211 0.6915935278 0.3490967751 -0.6475332975 0.6744472384
0.0613039583 -0.2171787024 0.7234252691 0.5739821196 -0.512991786 0.6336936951
0.06496093422 -0.221136108 0.7188794613 0.6188907623 -0.5044410825 0.5996710658
0.08560215682 -0.1983675957 0.7026894689 0.8390393257 -0.3852633238 0.305005312
0.08923092484 -0.1927254349 0.7059546709 0.870847404 -0.3530010879 0.248409912
0.09058181196 -0.1909524053 0.7130525112 0.8082090616 -0.4071753621 0.3658936024
0.09367526323 -0.1407747567 0.6606762409 0.700550437 -0.4944503307 0.4934072196
0.09375116229 -0.1349844486 0.6589587331 0.6300997138 -0.5226357579 0.5694015622
0.0872143507 -0.1374535412 0.6584358215 0.2065556943 -0.2349215895 0.9344226122
0.1014977768 -0.12763004 0.6676524282 0.5199378729 -0.4673421383 0.5721512437
0.1002619937 -0.1262518466 0.6748664379 0.3155241609 -0.4266355038 0.5775063038
0.09769865125 -0.1279806495 0.682795763 0.04532056302 -0.3762261569 0.587887764
0.1031101868 -0.1212329492 0.6709854007 0.5888087749 -0.4627681077 0.5169923902
0.09568355232 -0.1299835891 0.6880046129 -0.1614912301 -0.3407300115 0.6062287092
0.1020207554 -0.1198075116 0.6777926087 0.455182761 -0.4274829626 0.4872522354
0.07837655395 -0.1332999766 0.6850278378 -0.6721265316 -0.5379790664 0.490763396
0.08322651684 -0.1404655278 0.6851499677 -0.7353303432 -0.5583695769 0.3763158917
0.09476643056 -0.1348925382 0.6788348556 0.0004788220394 -0.4195856154 0.5564175844
0.08905999362 -0.137796998 0.6800373197 -0.3232375085 -0.5104207397 0.4492640495
0.0968407467 -0.1343414634 0.6703557968 0.2904462516 -0.477545321 0.5234787464
0.09282484651 -0.1351851672 0.6903275251 -0.3471219838 -0.3251042962 0.6190379858
0.0875544697 -0.1380708367 0.6882010698 -0.5767502189 -0.4456182718 0.4911361635
0.08117724955 -0.1120558828 0.7019683123 -0.3772230148 -0.2928883433 0.8725119829
0.03334014118 -0.0864090398 0.6941074729 -0.04121430218 -0.7182460427 0.6909502149
0.02611137368 -0.08676664531 0.6942870617 0.09094975144 -0.7182478309 0.6872469783
0.0726165846 -0.2151208073 0.7130292058 0.6882693172 -0.4880282283 0.5307965279
0.07796739787 -0.2103080899 0.7095689178 0.7341849208 -0.4785532057 0.4802375734
0.07563228905 -0.1954867244 0.7282608151 0.6846793294 -0.4994179904 0.5282480717
0.07873167098 -0.1165753528 0.698438406 -0.4160484374 -0.2978352606 0.8472816944
0.08290347457 -0.1238663644 0.6994907856 -0.5923286676 -0.2814304531 0.7469399571
0.07686474919 -0.1218071803 0.69390589 -0.5800304413 -0.3276254535 0.7373655438
0.07090807706 -0.2204616517 0.7164832354 0.6726896167 -0.4842931926 0.5584448576
-0.003820699174 -0.1087610871 0.6874046922 0.5468899012 -0.5717399716 0.608568728
0.04829709977 -0.2145139277 0.7354264259 0.4044065475 -0.55453825 0.7142727971
0.04246809706 -0.2137843221 0.7385368347 0.323251456 -0.559397161 0.7520135045
-0.008861831389 -0.1963323504 0.7399179935 -0.6354866624 -0.4670851529 0.612670064
-0.01112030726 -0.1385190785 0.6685576439 0.6418351531 -0.5116790533 0.5694735646
0.03608644381 -0.2036453635 0.7481950521 0.1524427235 -0.6121938229 0.7713500261
0.03787574545 -0.2122166902 0.7416377068 0.2062917203 -0.5730064511 0.7837241292
0.01231061574 -0.1852743477 0.762653172 -0.2520746589 -0.5681723356 0.7803941369
-0.005749184638 -0.1364129782 0.6653761268 0.573787868 -0.5589137077 0.597014606
-0.0174861867 -0.1500675678 0.667888701 0.6952947974 -0.4810974598 0.5325140357
0.07518427074 -0.1070378125 0.7008992434 -0.3589352667 -0.398753047 0.8335898519
0.07338310033 -0.09778189659 0.7052283883 -0.3300515413 -0.5025075078 0.7957862616
-0.005272524897 -0.1035751328 0.6953806281 0.604594171 -0.5602055192 0.5652142167
-0.01615030132 -0.1100378633 0.707233727 0.6926152706 -0.5148794055 0.5043570399
-0.01042255573 -0.1063293219 0.6990759373 0.6570414901 -0.5404749513 0.5246229172
-0.0105710784 -0.1014781296 0.7027462125 0.6380331516 -0.5593428016 0.5285893679
-0.01161162462 -0.1118918583 0.6949096322 0.672768712 -0.522105217 0.5238596201
-0.01655140705 -0.1122396067 0.7013973594 0.7009558082 -0.5061334968 0.5021829605
0.07181501389 -0.2029283643 0.7245704532 0.6962789893 -0.4669723511 0.5446312428
0.06567338854 -0.2051726133 0.730196774 0.6431764364 -0.4952640831 0.5825493336
0.0694752261 -0.1998210251 0.7296065688 0.6566460729 -0.5137577057 0.5492665172
0.07632996142 -0.2050828338 0.7190935612 0.714776814 -0.4703667462 0.5165320635
0.08659040928 -0.1968171597 0.7180422544 0.7380050421 -0.4630392194 0.4900440872
0.08223002404 -0.2027647197 0.7175694108 0.7271673679 -0.4631716907 0.5057313442
0.0866978392 -0.145372957 0.6599029899 0.2699847519 -0.322047621 0.6833098531
0.08039528877 -0.1277996153 0.6950992942 -0.6506643891 -0.3241639137 0.6845462322
0.1000713632 -0.1338550597 0.6619799733 0.6928391457 -0.4940708578 0.5241077542
0.09167315811 -0.138152793 0.6720976233 0.05877658352 -0.5273103118 0.4442265928
0.09259954095 -0.1406092942 0.6672293544 0.3741473556 -0.5113036633 0.4456034601
0.07668229938 -0.1373746991 0.6779188514 -0.6068882346 -0.6696499586 0.4109663069
-0.007430681027 -0.1434930265 0.6611115336 0.5837773681 -0.5552459955 0.5878808498
-0.00428159954 -0.1460786164 0.6551799774 0.5296077728 -0.5749223828 0.6154478788
-0.0004041719658 -0.1406730711 0.6548132896 0.4766319394 -0.6104925275 0.6314122081
-0.001691618585 -0.1471149027 0.6490471959 0.4896807075 -0.5988904238 0.633308351
0.01345723588 -0.1448254436 0.646312952 0.2174129635 -0.6284636259 0.741818428
0.02178161964 -0.1002460867 0.6828762889 0.1649609506 -0.6497724652 0.7390056849
0.08972080797 -0.1505298167 0.6675133109 0.5045265555 -0.6258155704 0.4616776705
0.08910428733 -0.1451667249 0.6705852747 0.216316849 -0.5635427833 0.4287187159
0.08732187748 -0.1559627205 0.6706665754 0.4092359245 -0.7200495005 0.4761275053
0.08852209151 -0.1839620918 0.6989812255 0.6567376256 -0.2834527194 0.2094342411
0.0897545442 -0.1712317616 0.7036748528 0.2885828614 -0.307543844 0.3894975781
0.09148373455 -0.1729528457 0.7135223746 0.3183346987 -0.3873576522 0.5166583061
0.09078472108 -0.1846241206 0.7116017342 0.6513115764 -0.384152472 0.3860111833
0.09075658023 -0.1626935154 0.7077928185 0.03980836645 -0.3313886225 0.5242854953
0.08963541687 -0.153306216 0.7000300288 -0.2102303952 -0.2602041662 0.4948383868
0.0906887576 -0.1775081158 0.7098857164 0.4538091719 -0.3632268608 0.4239388406
0.09177561104 -0.187316671 0.7175289989 0.7159613967 -0.4338978827 0.4479452968
0.0906829834 -0.1495113671 0.7051899433 -0.3271583915 -0.2971896231 0.602870822
0.09168364853 -0.1783890724 0.7155333161 0.4678786397 -0.4088910222 0.497800976
0.08639642596 -0.1758070737 0.6841645241 0.6122971177 -0.5709896684 0.3154109716
0.08543779701 -0.184944272 0.7076199651 0.6971990466 -0.5030335784 0.4322832823
0.08695375174 -0.1899207085 0.699450016 0.8456431627 -0.3740109503 0.21750319
0.09011457115 -0.1388159245 0.7001692653 -0.612480104 -0.2643577456 0.6353654861
0.08717698604 -0.1630648673 0.6860517263 0.235336408 -0.5352017879 0.432128191
0.08693890274 -0.1811347008 0.6882768273 0.7030160427 -0.4721798301 0.2454624623
0.08841978759 -0.1550740004 0.6924989223 -0.06715929508 -0.4086490273 0.4941421449
0.08907756209 -0.1606443524 0.6979614496 0.01551215816 -0.2899624705 0.4234004915
0.08744790405 -0.1881086379 0.6930611134 0.8329725862 -0.3662836254 0.1625731289
0.08592022955 -0.1687725782 0.679035604 0.4824445546 -0.6756967306 0.394494921
0.08813586831 -0.179013133 0.6956524849 0.5497797132 -0.3208814263 0.2462765127
0.08961057663 -0.147559911 0.6987060905 -0.3534685373 -0.2866415381 0.5520563126
0.08662009239 -0.1565565318 0.6810519695 0.1209428385 -0.6451426148 0.5109614134
0.08867558092 -0.1474169195 0.6925680041 -0.2783676684 -0.4143253267 0.5704453588
0.08714455366 -0.1702574939 0.6873446107 0.4162513614 -0.5016540289 0.3567014635
0.08500556648 -0.1616579145 0.6794851422 0.2602288425 -0.7395342588 0.4744631052
0.08437095582 -0.1661893427 0.6972703338 0.1294588745 -0.5695108771 0.4402582347
0.08362302184 -0.150699988 0.6885442734 -0.3761858046 -0.5805992484 0.3986473083
0.08498500288 -0.1763018221 0.7007228732 0.5006412864 -0.5868455768 0.4742581248
0.08492159843 -0.1790007651 0.705701232 0.5254811645 -0.5470531583 0.4709804058
0.08506450057 -0.1724655926 0.6938365698 0.4618611336 -0.6413270235 0.4783389866
0.08415059 -0.1578474045 0.6893144846 -0.08328250796 -0.6111359596 0.4277627766
0.08416386694 -0.1510098726 0.6793325543 -0.1943350583 -0.6831479073 0.4280582964
0.08469674736 -0.1658095121 0.6909140348 0.2294410765 -0.637034893 0.4579393864
0.08565028012 -0.1605544686 0.7031728029 -0.0917570591 -0.4470565915 0.4855837226
0.08469436318 -0.1515762657 0.6954089999 -0.3774840534 -0.4919784367 0.4408781826
0.0844149217 -0.1661244333 0.703189373 0.04218286648 -0.4993387759 0.4382355213
0.0851867795 -0.1713296771 0.7082619071 0.2129942179 -0.4637538195 0.4730917513
0.08623062819 -0.1425142437 0.6941387057 -0.6066178083 -0.4276790321 0.498463124
0.08534804732 -0.1801417619 0.7138423324 0.4750249982 -0.453722775 0.4850641489
0.08510576934 -0.1462028176 0.6840385199 -0.3875265121 -0.5844990611 0.4605459869
0.01353478897 -0.09846967459 0.6866235733 0.2977303267 -0.6435685158 0.7002136707
0.007824036293 -0.0990087986 0.6883417368 0.402436167 -0.6272419691 0.6645233035
0.02962833084 -0.180401057 0.7668304443 0.04908077791 -0.5885057449 0.8039761186
-0.007225620095 -0.2237797678 0.7238233089 -0.5715470314 -0.4360343516 0.6937717199
0.05084463209 -0.219913885 0.7320348024 0.4163268507 -0.5699272156 0.7062330246
0.03659528494 -0.2177861482 0.7384722829 0.2249787897 -0.5635447502 0.7935985923
0.04486463964 -0.2202292085 0.7356037498 0.321527034 -0.5736069083 0.753199935
0.02243639342 -0.228459999 0.7406249046 -0.07289285213 -0.5611203909 0.8082436919
0.02737341262 -0.2126057148 0.7432299256 0.03530840203 -0.5621769428 0.8235345483
-0.01104746945 -0.213223204 0.7238611579 -0.6486941576 -0.3985107243 0.6348033547
-0.01992069371 -0.212244302 0.7134413123 -0.7643352747 -0.3462572396 0.5387474895
0.05949774012 -0.2062937319 0.7359327674 0.5595265627 -0.5285027027 0.6376084685
0.05859658495 -0.2142995745 0.7286189795 0.5481870174 -0.5237216353 0.6511611938
0.06145691499 -0.2094779015 0.7305014729 0.5912786126 -0.5031313896 0.6277194619
0.1027373672 -0.1112502217 0.6770109534 0.7328383327 -0.3971784115 0.5023140311
0.09957918525 -0.1117490456 0.6837666631 0.6865912676 -0.2044373155 0.5981508493
0.06432808936 -0.1099032611 0.6877467632 -0.4630394578 -0.5426734686 0.6999757886
0.05988705158 -0.1109488979 0.6834243536 -0.4478526115 -0.5632681251 0.6937975287
0.06000364944 -0.1038917303 0.6896499991 -0.4632045329 -0.5566276908 0.6890324354
0.06825146079 -0.2144791037 0.7212749124 0.6604583263 -0.4756987393 0.5796771049
0.07145155966 -0.2088532895 0.7190389037 0.7025565505 -0.4678529501 0.5349276662
0.06917575002 -0.2089557499 0.7243688703 0.6727786064 -0.4732562006 0.5682538748
0.08229449391 -0.2039344758 0.7061729431 0.749081552 -0.4705309272 0.466262728
0.08442167938 -0.191835314 0.714609921 0.7481316924 -0.4633293152 0.4749630988
0.05179851875 -0.1511595696 0.644605577 -0.4052880108 -0.5814264417 0.7043741941
0.04671287537 -0.1511202604 0.6401444674 -0.3044103384 -0.6192225814 0.7196047306
0.05316682905 -0.1344835162 0.6594857574 -0.3847150505 -0.6002042294 0.6989597082
0.07310136408 -0.190914765 0.733890295 0.6490222216 -0.5146110058 0.5601036549
0.08724261075 -0.1899702251 0.722925961 0.7279013991 -0.4743634164 0.4923703671
0.06922616065 -0.1956292838 0.7350386977 0.6461386085 -0.5133349895 0.5647051334
0.06524439901 -0.2008706927 0.7363282442 0.6108022332 -0.5228649378 0.5908942819
0.0004047146649 -0.1374315917 0.6595116854 0.4659298658 -0.608174324 0.6324260831
0.08022779226 -0.1516367346 0.6603801847 0.05726413801 -0.4426817596 0.6718146205
0.08141858131 -0.1043584794 0.702755332 0.09446353465 -0.2370167673 0.7979719043
0.08710679412 -0.1101756096 0.7010785937 0.3740490675 -0.05129349977 0.8070682287
-0.001099857269 -0.1034784615 0.6903516054 0.5278937817 -0.5818014741 0.6172065735
-0.006653448567 -0.1083974019 0.6928781867 0.6164450049 -0.5530927777 0.5587193966
0.03174864501 -0.1039562523 0.6784967184 -0.01800553873 -0.6444178224 0.7602376342
0.06456798315 -0.1173228621 0.6816979051 -0.5508942008 -0.5356496572 0.6327130198
0.05862642825 -0.1150768399 0.678606689 -0.4687569737 -0.5644488335 0.6767442226
0.05733982101 -0.1192881912 0.6737838984 -0.4496397376 -0.5727412105 0.6831804514
0.07223998755 -0.1098003462 0.6821533442 -0.2320325971 -0.563438952 0.6296950579
0.08672405779 -0.109837383 0.6784172058 0.2101887316 -0.6232720613 0.5709882379
0.08184161782 -0.1129182205 0.6767309308 0.05341996625 -0.6044399738 0.5859783292
0.09380330145 -0.1107599139 0.6750037074 0.3967421651 -0.6398128271 0.5424341559
0.08839666843 -0.1148993522 0.6724616885 0.2542535365 -0.5882287025 0.5786157846
0.09290606529 -0.1161269248 0.6697487831 0.417599678 -0.5580252409 0.587253511
0.06869352609 -0.1146240681 0.687871933 -0.5221329927 -0.4974471033 0.6855360866
0.07018359751 -0.1212415919 0.6848822832 -0.6082670689 -0.4651407599 0.6332805157
0.07400207967 -0.1141562313 0.6937783957 -0.4778953791 -0.4077115059 0.7745651603
0.09901291132 -0.1261890531 0.6622673273 0.630156517 -0.5200753808 0.5750387907
0.09825110435 -0.1207276732 0.6651425362 0.6152046919 -0.5253242254 0.5874028802
-0.003068637569 -0.2210897952 0.7270979285 -0.5209779143 -0.4563858807 0.7187541723
-0.0163048543 -0.2202580422 0.7182998061 -0.702085793 -0.3693334162 0.6074675322
-0.01077444479 -0.2185504884 0.7207739949 -0.6322562099 -0.4079016745 0.6423574686
0.05537704751 -0.219011277 0.7269353867 0.5003111362 -0.5391311049 0.6743733287
0.03505625576 -0.229139179 0.7324587703 0.2164298743 -0.5616186857 0.7983778119
0.03943217173 -0.2221476734 0.734190166 0.2722586095 -0.5735134482 0.7680322528
0.02905774117 -0.2214003056 0.7360771298 0.04529427364 -0.5621118546 0.8159026504
0.02131874114 -0.217503801 0.7382943034 -0.1271542609 -0.5354762077 0.8295761347
0.01574592292 -0.218884483 0.7364022732 -0.2278352678 -0.5335268378 0.811471045
0.02078285813 -0.2241165936 0.7342104316 -0.1194038019 -0.5644946098 0.8122512698
-0.02609959431 -0.2014463246 0.7090916038 -0.819555521 -0.3245698214 0.4713248014
-0.03246979788 -0.1951634586 0.6975432634 -0.9169011712 -0.08499398828 0.3564674556
-0.02930892259 -0.1967008114 0.7068840861 -0.8326339126 -0.3135376871 0.456341207
-0.03441804647 -0.1917090267 0.6912543774 -0.9649556279 0.007700475864 0.218565762
0.001626283862 -0.1862070858 0.7553494573 -0.4358554482 -0.5487847924 0.7115561366
-0.01772077382 -0.1938916296 0.729354918 -0.7580376863 -0.3585268557 0.5428442359
-0.01266759448 -0.1917503625 0.7351046801 -0.6822814941 -0.425305903 0.5753552318
-0.02204108983 -0.1319287568 0.6907480359 0.7351028323 -0.4672849774 0.4911150336
-0.02584467083 -0.1298157424 0.7001675963 0.7498863339 -0.4619705975 0.473384738
-0.02882332541 -0.1356541663 0.7003657222 0.756285727 -0.4558740556 0.469235599
-0.02271296456 -0.1281128228 0.6955778599 0.7384411097 -0.4708314836 0.4826973975
0.01945338212 -0.1980607361 0.755094111 -0.1538349688 -0.6214797497 0.7646906972
0.02518325113 -0.1977325976 0.7556478977 -0.03952725604 -0.6185789704 0.784381032
0.0152834747 -0.203827247 0.7493236661 -0.2185932696 -0.6246214509 0.7495651245
0.01183222234 -0.1997015774 0.7530243397 -0.2470686287 -0.6000372767 0.7596921325
0.01768269204 -0.2251236588 0.7429698706 -0.1727573723 -0.5778970122 0.7955249548
0.01618406363 -0.2163839489 0.7447701693 -0.1987436116 -0.5989135504 0.7736198306
0.02236838825 -0.2087510526 0.7478319407 -0.09507804364 -0.6116612554 0.7819615006
0.01539026108 -0.2098553032 0.7440524697 -0.2192277312 -0.5698304176 0.7897788882
0.02458864264 -0.203324616 0.7515463233 -0.0589011237 -0.632186234 0.7721377015
0.02847805433 -0.2067508399 0.7468774319 0.03293142095 -0.5956476927 0.7931521535
0.02409865148 -0.2183119208 0.744453907 -0.05869501084 -0.5852519274 0.799742341
0.03112922423 -0.2170238495 0.7421192527 0.07795701921 -0.5734323859 0.8046425581
0.0257332772 -0.2230470777 0.7418408394 -0.02263223566 -0.5690197349 0.8064002395
-0.01595316827 -0.1213710457 0.6902316809 0.7088362575 -0.4924736023 0.5024396777
-0.01607673056 -0.1174186394 0.6953209043 0.7101458907 -0.4981541932 0.4969000518
-0.02019851282 -0.12170358 0.6982212067 0.7271846533 -0.4825831056 0.4875364304
0.005701311398 -0.1966750175 0.7505438328 -0.3954130411 -0.5740358829 0.7166177034
3.071106767e-05 -0.1927845776 0.7508842945 -0.4437305927 -0.5645197034 0.6948065162
0.009028613567 -0.2027452439 0.7463377714 -0.3368402719 -0.5991581678 0.7184506059
0.006309545133 -0.1909647733 0.7539532781 -0.3802360892 -0.5688022375 0.7247371078
0.04462302476 -0.2084783018 0.7441340685 0.3025127649 -0.5824415088 0.7544401884
0.04230391234 -0.20394288 0.7491689324 0.2568799555 -0.6060103178 0.7509257197
0.05239181221 -0.2043529302 0.742518723 0.4432180524 -0.5600000024 0.6972633004
0.04803357273 -0.2012515664 0.7461572289 0.3510358632 -0.5804885626 0.7158898711
0.05576631799 -0.1970735043 0.7466059327 0.4675753713 -0.5628423095 0.6807729006
0.05348471925 -0.208757773 0.7384585142 0.4634898007 -0.5555949807 0.6890112162
0.05447546765 -0.2127003521 0.7341769934 0.4920634329 -0.5498790145 0.6746887565
-0.005051622167 -0.2145082206 0.7298423052 -0.5316982269 -0.455173701 0.7125941515
-0.009767677635 -0.2033802271 0.7339171171 -0.6212064624 -0.4326004982 0.6471831799
-0.01474675257 -0.2012123764 0.7293476462 -0.7132701874 -0.3724438548 0.5895427465
-0.01246520132 -0.1975890845 0.7337260842 -0.6669116616 -0.4261763394 0.600620091
-0.0165674258 -0.2053700089 0.7235563993 -0.7658154964 -0.3317677677 0.5496203303
-0.01003481634 -0.2074537873 0.7279674411 -0.6481416821 -0.3954980075 0.6224652529
-0.005410147831 -0.2077724338 0.7341267467 -0.5288936496 -0.4730491936 0.7032003999
0.00125677255 -0.2048797607 0.7416670918 -0.467202872 -0.5269749165 0.7065814734
0.001984479837 -0.2101333141 0.7385851741 -0.4644865394 -0.504309535 0.7247198224
0.008821235038 -0.2081695944 0.7421286106 -0.3371130824 -0.5516968966 0.755310297
0.00326176174 -0.1997989118 0.744741261 -0.4454140365 -0.564688921 0.6933104396
0.01145933941 -0.2137758136 0.7381961942 -0.2984853685 -0.5205598474 0.7941723466
0.004246835131 -0.2139027119 0.7345789671 -0.4314015508 -0.4797763228 0.7635279894
-0.003848200897 -0.2032635361 0.7376075983 -0.5450934172 -0.481587559 0.6760354638
0.06644425541 -0.1054985672 0.6934745312 -0.4953040183 -0.5106638074 0.7015878558
0.07124444842 -0.1094141901 0.6953008175 -0.4618147016 -0.429993242 0.7643991709
0.0420489125 -0.09136513621 0.6912174225 -0.1862991899 -0.6663056016 0.7174167037
0.03471396863 -0.09236656129 0.6884823442 -0.06922552735 -0.6819934845 0.7275343537
0.0282980483 -0.09599130601 0.6850636005 0.05068604276 -0.6550961733 0.7495831847
0.02744202688 -0.09220711887 0.6892760992 0.0614872314 -0.6819342971 0.7245125175
0.04298730195 -0.1465304941 0.6420582533 -0.2468940765 -0.6441351771 0.7237386107
0.04100963101 -0.1412448585 0.6466888189 -0.2248762548 -0.6559573412 0.7186073661
0.03024069965 -0.1491024196 0.6382026076 -0.01365317963 -0.6238371134 0.7711150646
0.02261303179 -0.1501514465 0.6400613189 0.09992855042 -0.6146395802 0.763476491
0.01585407555 -0.1492938101 0.6421099901 0.1912199706 -0.610886097 0.7583539486
0.0763002634 -0.1978021562 0.7208573222 0.7234921455 -0.4739477038 0.5003219247
0.07782490551 -0.2021368742 0.7138043642 0.7437221408 -0.4693515897 0.4759441614
0.08175115287 -0.1970464885 0.709102869 0.7492769957 -0.4647002518 0.4717880785
0.04440770671 -0.1251079738 0.663831234 -0.2443759739 -0.6390495896 0.727863729
0.08724511415 -0.1642536372 0.7123990059 0.07260775566 -0.3791204989 0.5604009628
0.09027986228 -0.14384076 0.7040467262 -0.48516348 -0.2831118405 0.6348743439
0.0890558064 -0.1562261283 0.7089950442 -0.1460649818 -0.3389772475 0.5902631879
0.08597108722 -0.182530567 0.7196100354 0.5736600161 -0.4595893025 0.4950368106
0.06235430017 -0.1908132732 0.7455106378 0.5419267416 -0.5354514718 0.64315027
0.0619237572 -0.1972756684 0.7422136068 0.5674291849 -0.540378511 0.6208158135
0.06732779741 -0.1918142587 0.7398943305 0.62853688 -0.5160983801 0.580326438
0.06757281721 -0.1865450442 0.7446963191 0.6032863259 -0.5167159438 0.606642127
0.05825272202 -0.2019620538 0.7400279641 0.5309708118 -0.5405135155 0.65053159
0.008404383436 -0.1431324035 0.6481366158 0.3335248232 -0.6406203508 0.6869353652
0.00796829164 -0.1379733682 0.653786242 0.3406189382 -0.6465230584 0.6775558591
0.01397724915 -0.1350089461 0.6542879343 0.2419932783 -0.6584252715 0.7116453052
0.006947653368 -0.1342825741 0.6581263542 0.3690931499 -0.6429890394 0.6688380837
0.003425728995 -0.133157596 0.6628645062 0.4371885061 -0.6096432805 0.64745754
0.008545190096 -0.1303551644 0.6626125574 0.3578016162 -0.634062469 0.67894876
-0.0005557586555 -0.1287828982 0.6686422825 0.479870826 -0.5864496827 0.646867156
0.001737743965 -0.1079413593 0.6852914095 0.47251001 -0.5900353193 0.6472640634
0.004487621598 -0.1128721982 0.6784325242 0.4240007102 -0.6035950184 0.6737650633
0.0136821717 -0.1041555628 0.6818130612 0.2795673907 -0.6283394694 0.7251697779
0.00784615986 -0.1052848101 0.6835001707 0.3729048669 -0.6112893224 0.6930420399
0.04760296643 -0.09346596897 0.6913746595 -0.2750638723 -0.6402934194 0.7118601203
0.04520185292 -0.09759568423 0.6850678325 -0.2494846433 -0.6444969773 0.7220805883
0.05164623633 -0.09754731506 0.6871572733 -0.3430517614 -0.6176190376 0.7073740959
0.03570239618 -0.09875671566 0.6828368902 -0.08695238084 -0.6565659046 0.7488594651
0.04089870676 -0.1010972634 0.6819391251 -0.1801413745 -0.644924283 0.7388879657
0.05468945205 -0.1074668542 0.6822675467 -0.4032507539 -0.581864655 0.7058372498
0.04529412091 -0.1074482799 0.6778466702 -0.2346894145 -0.6231131554 0.7452769876
0.04752767831 -0.1028829515 0.6821378469 -0.2910834551 -0.6223953962 0.7247938514
0.0521973446 -0.1219060272 0.6682450771 -0.3564914465 -0.6040391326 0.7097378969
-0.01099198405 -0.117403172 0.6894316077 0.6585765481 -0.5233661532 0.5363301039
0.05200203508 -0.1137033403 0.6762891412 -0.363550216 -0.5981991291 0.7083208561
0.05107504874 -0.1179515123 0.6725211143 -0.364726752 -0.6032564044 0.7073380947
0.09590328485 -0.1057375371 0.6826108098 0.4948527515 -0.6054921746 0.5489968657
0.09258343279 -0.1092921346 0.6944531798 0.5993712544 0.1454367787 0.7780628204
0.01927169971 -0.2316108197 0.7365199327 -0.1353210807 -0.5606572628 0.8099563122
0.02722375281 -0.2318579108 0.7355658412 0.04106840119 -0.5614919066 0.8051947951
-0.01660758071 -0.2120747566 0.7206613421 -0.7321676016 -0.341445893 0.5876054168
-0.01975922287 -0.2064789385 0.7178644538 -0.7782191038 -0.3326208591 0.5323588252
-0.0190400891 -0.1973201931 0.7249640226 -0.7800203562 -0.335814178 0.5276678205
-0.02300683595 -0.2041534781 0.714099586 -0.7934171557 -0.3288851976 0.5115045309
-0.0229186248 -0.1979141533 0.717531383 -0.8166267276 -0.3047959507 0.4875546992
0.04186157137 -0.2276062816 0.7300440669 0.308057189 -0.5613604188 0.7607724071
0.04878773913 -0.2250890136 0.7294687629 0.3964311481 -0.5678293109 0.7202025652
0.05417408794 -0.22466892 0.7266713977 0.4681999087 -0.5513217449 0.6842348576
0.06000958383 -0.2245250791 0.7236335874 0.5442406535 -0.5341042876 0.6428146958
-0.02768935077 -0.1918772757 0.7095038891 -0.8492504358 -0.2716054618 0.4314741194
-0.02854947187 -0.1563825458 0.6946242452 0.3958719075 -0.4134650826 0.4863472283
-0.02614831366 -0.1664372087 0.6960711479 0.06507194787 -0.3824682534 0.4840081036
-0.0260700006 -0.1865625679 0.7131166458 -0.7401482463 -0.2982844114 0.4657695889
-0.025536865 -0.1718306392 0.6988720894 -0.1328494847 -0.3626728654 0.4808134139
-0.02634197101 -0.1601058543 0.6912145615 0.3132754266 -0.4081606269 0.4892612398
-0.02970335446 -0.1749119163 0.6819041371 -0.2917787433 -0.1682645977 0.2901905477
-0.02289492637 -0.1600106657 0.6797203422 0.424526304 -0.4191694558 0.4932239652
-0.0255498495 -0.1694548875 0.6863116622 -0.008017324843 -0.3192902803 0.4250787795
-0.02350209653 -0.1639443636 0.6840298176 0.2508040667 -0.3953317404 0.48302266
-0.0257265009 -0.183485806 0.7079218626 -0.6019706726 -0.305120945 0.4612183571
-0.02969393879 -0.1806619167 0.6910167933 -0.5341299772 -0.1653722376 0.3079839349
-0.02959489636 -0.1875617355 0.7022268772 -0.8238101602 -0.1650271863 0.3325347602
-0.02441812307 -0.1711036712 0.692465961 -0.06292842329 -0.3586807251 0.4713485241
-0.02564054541 -0.1784576029 0.7002485394 -0.388825506 -0.311005652 0.4490930736
-0.032546442 -0.1621379852 0.690351367 0.1038908958 -0.2636698186 0.3535354137
-0.02951334603 -0.1577559114 0.6857108474 0.3483244479 -0.3376737535 0.4111942649
-0.03138096258 -0.1685446203 0.6858128309 -0.09937461466 -0.2091421932 0.3150917888
-0.02781328 -0.168159306 0.6787302494 0.01295476127 -0.2472843081 0.3471913338
-0.02500996552 -0.1516879648 0.678671658 0.6951445937 -0.4430558383 0.4935197532
-0.03477833793 -0.1829825342 0.6877651215 -0.7232170105 -0.02852936648 0.179129824
-0.02730344236 -0.1496098191 0.6840168238 0.7083702087 -0.4423867762 0.4903057218
-0.02384336479 -0.1564604193 0.6746874452 0.551938653 -0.4052966535 0.467325598
-0.03108731657 -0.1818829775 0.7042952776 -0.5355444551 -0.286834687 0.4351623654
-0.0311570894 -0.1643170863 0.698120594 0.08398818225 -0.3560874164 0.4528740644
-0.03282770514 -0.1822204292 0.6966155767 -0.6172839999 -0.1673692614 0.3162814677
-0.031343624 -0.1703044325 0.6992835999 -0.1356129348 -0.3182174563 0.432522893
-0.03067145497 -0.174653694 0.7037445903 -0.262748003 -0.3454898 0.4727091789
-0.03285042197 -0.1700131148 0.6924399137 -0.1857104152 -0.2172438204 0.3303439319
-0.03251012787 -0.1754872054 0.69579041 -0.3660031855 -0.2172687501 0.3465048373
-0.03391620517 -0.1742066741 0.6890675426 -0.3770160675 -0.1272928715 0.2524454594
-0.02594344132 -0.1931755543 0.7154888511 -0.8284919262 -0.2955338955 0.475004673
-0.01990059949 -0.1877852976 0.7262569666 -0.7922695875 -0.3233574331 0.5173413754
-0.02200584672 -0.1927458346 0.7218024731 -0.80861485 -0.3123144805 0.4984035492
-0.02522467077 -0.1739755273 0.7156044841 -0.3794475496 -0.3615925014 0.4862949848
-0.02983905748 -0.1415647566 0.7008883953 0.6666890383 -0.4444689155 0.4681124985
-0.02728043869 -0.1580813676 0.7088712454 0.1318563372 -0.4046477377 0.4795159996
-0.02377642319 -0.1860713065 0.7204573154 -0.7675949931 -0.327472508 0.490254283
-0.02901543304 -0.1522010416 0.7040774822 0.33005476 -0.409379214 0.4671209157
-0.02854150347 -0.1633152515 0.7048947811 0.03610086069 -0.3771193922 0.4719120562
-0.02512982674 -0.1378324479 0.6908431649 0.7426581383 -0.4590583146 0.4874132276
-0.02698252723 -0.1432020813 0.6887978315 0.7418795228 -0.4514224827 0.4956736267
-0.02921060473 -0.1412001103 0.6944144368 0.7498769164 -0.4532409608 0.4817763567
-0.0284448415 -0.1473511904 0.7011990547 0.521630466 -0.4336477816 0.4786371887
-0.02586206608 -0.1653713733 0.709885478 -0.06606681645 -0.388109237 0.4887470603
-0.02543423511 -0.180846259 0.7138574123 -0.5647007823 -0.3286539912 0.4786891341
-0.02718757279 -0.158953473 0.7008147836 0.2106485069 -0.3959210515 0.482878238
-0.026490964 -0.1723302454 0.7078430653 -0.259147048 -0.3504063189 0.4764765799
-0.03008556738 -0.1500538588 0.6951101422 0.5811064839 -0.4299657643 0.4864269197
0.01319611166 -0.1941411942 0.7553576827 -0.2608056664 -0.5979188085 0.7544279099
-0.02177882008 -0.1360682845 0.68619591 0.7333143353 -0.4631188512 0.4977554083
-0.01885972358 -0.1383400708 0.6791276932 0.7234991193 -0.4617197812 0.5126988292
-0.02068544179 -0.1449113041 0.6762498021 0.7285058498 -0.4582535326 0.5088965893
-0.02332399599 -0.1435508132 0.6828770041 0.735080421 -0.4529865682 0.5044086576
-0.009981093928 -0.1856943518 0.7468794584 -0.6023383141 -0.4990973771 0.6192461252
-0.001385571668 -0.1952655315 0.7456787229 -0.5090124607 -0.5553252697 0.654125452
-0.00426277332 -0.1882344633 0.7491111159 -0.5142121315 -0.5477867723 0.6582574248
-0.01233533025 -0.1896387637 0.7418729067 -0.6662905812 -0.4645086229 0.5830538869
-0.006739424076 -0.1913659424 0.7450636625 -0.5642008185 -0.5276310444 0.6327215433
-0.007735770196 -0.1803453714 0.7520385385 -0.5712613463 -0.5040887594 0.6468900442
-0.002874558093 -0.1809184104 0.7595089078 -0.4302195013 -0.5372934937 0.7221352458
0.01925176382 -0.1921642125 0.7574593425 -0.1453112215 -0.5876169205 0.7824211717
0.02104340121 -0.1877001375 0.7614222169 -0.1120756492 -0.5860750079 0.7910253406
0.03221986815 -0.1965098083 0.7549510598 0.08159129322 -0.6010661125 0.7917940021
0.02734435908 -0.1858249158 0.7637900114 0.004642971791 -0.5939189196 0.8014560938
0.03894582391 -0.1987773031 0.7519005537 0.1932692975 -0.6057868004 0.767097652
0.03098678589 -0.2026028931 0.7511183619 0.05889845267 -0.6211463809 0.775590837
0.0307834819 -0.192664206 0.7595620155 0.07174415141 -0.6049092412 0.788895607
0.04983501509 -0.1846881062 0.7610858679 0.3412271142 -0.5281259418 0.7756686211
0.05496428162 -0.1865751445 0.7559415102 0.4123773575 -0.5515591502 0.7243129015
0.04550151154 -0.1922208667 0.7563535571 0.3018183708 -0.567587316 0.7652513385
0.04235990718 -0.1847158968 0.7624844313 0.2362581491 -0.5655453205 0.7853016853
0.03728762269 -0.1898366809 0.7589406371 0.1718862206 -0.5787485242 0.7912723422
0.05004039407 -0.1949786544 0.7516784668 0.3800801337 -0.5684203506 0.7237721086
0.05787302181 -0.1898924708 0.750208199 0.4738656878 -0.546731174 0.6898717284
0.05205704644 -0.08964703977 0.6954143643 -0.3107694089 -0.650696516 0.6917696595
0.05517783016 -0.09482505918 0.6933217049 -0.4020231366 -0.6064556241 0.6847513914
0.06155954674 -0.09508407861 0.6957419515 -0.4149312675 -0.584194243 0.6970498562
0.05877284333 -0.08946601301 0.6981527805 -0.3849424422 -0.6114038229 0.6894128323
0.07161098719 -0.1549549401 0.6577629447 -0.4758173823 -0.3317022622 0.8142772317
0.07461144775 -0.1552295238 0.6639916301 -0.4339877963 -0.4610301256 0.7710816264
0.07579510659 -0.1481561065 0.6682612896 -0.5124235749 -0.5358670354 0.6519935727
0.07130561024 -0.147252515 0.664545536 -0.4424879849 -0.5260429978 0.7174390554
0.06777473539 -0.1348576546 0.6699585319 -0.5115355253 -0.59297961 0.6139077544
0.07232272625 -0.1359025687 0.6736271381 -0.5301203728 -0.6871615052 0.4829522669
0.07135467976 -0.1408115327 0.6682044864 -0.4898641109 -0.6031753421 0.6069911122
0.0659924224 -0.1385759711 0.6650735736 -0.4531838596 -0.5666664839 0.6847828627
0.05742536485 -0.1238842085 0.6703616381 -0.4489178061 -0.5809273124 0.67884624
0.0348675698 -0.1440718621 0.6437544823 -0.1019825488 -0.6568205953 0.7464975119
0.02739462815 -0.1439072192 0.6424865723 0.03282263875 -0.6472702622 0.7593272328
0.02925712056 -0.1389576197 0.6470044851 -0.002615049947 -0.6683072448 0.7403890491
0.03432397917 -0.136380747 0.650151372 -0.09738921374 -0.6746558547 0.7313706875
0.02828202583 -0.1336565018 0.6526235342 0.01781382225 -0.6664995551 0.7383885384
0.07850924879 -0.1874815226 0.7303606868 0.6806358099 -0.5050909519 0.5268452168
0.0798702985 -0.1922858655 0.7206832767 0.7240403891 -0.48002702 0.4932931662
0.05647434294 -0.128765434 0.6646057367 -0.4200536013 -0.5962595344 0.681652844
0.04983925447 -0.1283880621 0.6605010629 -0.3417085409 -0.6137960553 0.710328877
0.02208702452 -0.1332704276 0.6534795165 0.1310272366 -0.6631409526 0.7326852679
-0.007250455674 -0.1325330436 0.6701964736 0.5892259479 -0.5311399698 0.6081059575
-0.00148957374 -0.1219958141 0.6750825644 0.4867565334 -0.5823549032 0.6488607526
-0.005259807687 -0.1267472953 0.6738083363 0.5419160724 -0.5606402755 0.6248794794
-0.01047168486 -0.1282190084 0.6769834757 0.6268135905 -0.5228891969 0.5760316849
-0.0005998099805 -0.1127774268 0.6821520329 0.4990518093 -0.5897535086 0.6329004765
-0.006653300487 -0.1162602678 0.6846569777 0.5895428658 -0.5543443561 0.5855858922
0.008948778734 -0.1148284599 0.6745895743 0.345448494 -0.6164464951 0.703918457
0.009694169275 -0.1090904772 0.6785055399 0.351591289 -0.614121139 0.704648912
0.01602141559 -0.1137398034 0.6728828549 0.2345865369 -0.6369597316 0.7317892909
0.01805605367 -0.1087279618 0.6765711308 0.2043537498 -0.6397171021 0.7378450632
0.0268394053 -0.1124553904 0.6720632911 0.05102723464 -0.637485981 0.7649074197
0.03349945694 -0.1093409508 0.6739571691 -0.06336069852 -0.6397486329 0.7631675601
0.02578792535 -0.106717445 0.6764995456 0.08614884317 -0.6430760622 0.759755969
0.07545375824 -0.106366545 0.6851129532 -0.1419880539 -0.6004636288 0.6305299401
0.08995312452 -0.1047425345 0.6837218404 0.296221137 -0.690225482 0.5827479959
0.08106556535 -0.1068173796 0.6825715899 0.031303633 -0.5988435745 0.6008979082
0.06839560717 -0.1012631059 0.6872106194 -0.1340929419 -0.6546857357 0.6611931324
0.05954838917 -0.09873846918 0.687326014 -0.2294466496 -0.6416043639 0.6858918667
0.07337646931 -0.09990578145 0.6896912456 -0.063609384 -0.6735464931 0.6542539001
0.08284935355 -0.1015969738 0.688700974 0.1228924021 -0.7175524235 0.6260724068
0.06409845501 -0.09817771614 0.6908996105 -0.2533814013 -0.6282561421 0.6824468374
0.0907305032 -0.1051666662 0.6897952557 0.4162656367 -0.3700655401 0.672436595
0.0789886564 -0.09852679074 0.6928240657 -0.009367968887 -0.6830272675 0.6454240084
0.07381937653 -0.09641604125 0.6965559125 -0.1683854908 -0.6402298808 0.671230495
0.06599728018 -0.09302353114 0.7006810308 -0.3786387146 -0.5871944427 0.7015272379
0.08439461142 -0.1023718342 0.6962588429 0.179613322 -0.3360812962 0.7348761559
0.06886681914 -0.09850113839 0.7007306814 -0.3901475072 -0.5340960026 0.7493160367
0.01553818211 -0.2272528112 0.7317300439 -0.1953903139 -0.5480980873 0.7861299515
0.009625942446 -0.2288607955 0.7326176167 -0.3074965477 -0.5240079165 0.7826462984
0.001470512361 -0.2237925828 0.7292851806 -0.4535760581 -0.4893785417 0.7429333925
0.0004857634485 -0.2161904275 0.7309576273 -0.4809106886 -0.4624513984 0.7399551868
0.01059199963 -0.2193022668 0.7401226163 -0.331528455 -0.516412437 0.7805328369
0.007176836953 -0.223707363 0.735609293 -0.3667267263 -0.5101992488 0.7622131109
0.01328641083 -0.2275999337 0.739408493 -0.2597876787 -0.5370388627 0.7910649776
-0.01842751354 -0.1287184209 0.6855990887 0.7082751393 -0.4841888249 0.5119900107
-0.01502416935 -0.1346646994 0.6767516136 0.6940711141 -0.4774347246 0.5379666686
-0.008143038489 -0.1219658405 0.6808136106 0.6117216349 -0.5384685397 0.5793848038
-0.01314412244 -0.1250580996 0.684138 0.6709167361 -0.5041065216 0.5373487473
0.08057250082 -0.1484769136 0.6742194295 -0.6023805737 -0.5512626171 0.4857093692
0.08089398593 -0.1424946189 0.6775380969 -0.6988946795 -0.5921046734 0.3729600608
0.0772055611 -0.1414324939 0.6727747321 -0.6066294312 -0.5978220105 0.5125267506
0.07932293415 -0.1536232531 0.6700769663 -0.5422152281 -0.4966672659 0.6241322756
0.08398953825 -0.16099222 0.6714885235 0.1487563998 -0.7329980135 0.5555019379
0.08147802949 -0.1584722102 0.6659438014 -0.06407120079 -0.5704099536 0.6948872805
0.05783024058 -0.1464451551 0.6518054605 -0.4331121147 -0.5464519262 0.7154867053
0.06534899026 -0.1464992166 0.6585339904 -0.4271671772 -0.5111525655 0.7424705029
0.0609530881 -0.1509488374 0.6515151262 -0.456443131 -0.4871783555 0.7420376539
0.07312854379 -0.1449152082 0.6543729305 -0.1404691339 -0.3886719048 0.8297581077
0.06731352955 -0.1488817781 0.6529232264 -0.318789959 -0.4130777717 0.7951562405
0.08101206273 -0.1420523226 0.6570781469 0.00383836613 -0.2651304007 0.9006045461
0.06289856136 -0.1298639476 0.6690880656 -0.490282923 -0.5867427588 0.6430279016
0.0887113288 -0.1285958588 0.6611021757 0.417933315 -0.5604013801 0.5894682407
0.06576530635 -0.1228775904 0.6784079671 -0.5824019313 -0.5306546688 0.6080307364
0.07701785117 -0.118703261 0.6723314524 -0.04955052212 -0.5448316932 0.6288392544
0.06878942251 -0.1178755686 0.675863564 -0.3168756664 -0.5418411493 0.6434826255
0.08341425657 -0.1190165281 0.6699213982 0.1548707485 -0.5458102822 0.6173040271
0.06768731028 -0.1228749231 0.6711412072 -0.3002815545 -0.5622776747 0.6477988958
0.07810853422 -0.1244252697 0.6666635871 0.04224126786 -0.5594549775 0.6284505725
0.0727744475 -0.1266222447 0.6663930416 -0.1035379618 -0.5649189353 0.6387557387
0.08399042487 -0.1242882684 0.665527761 0.2243364304 -0.547534883 0.6163231134
0.09157399833 -0.1228153184 0.6648767591 0.4470075071 -0.5355096459 0.6011203527
0.08148686588 -0.1298866421 0.6620203853 0.1842166632 -0.5458572507 0.6388482451
0.01370152831 -0.139406696 0.6507243514 0.2380557507 -0.6573432088 0.7141550779
0.02314486541 -0.1389675289 0.6477354765 0.09387884289 -0.6595572233 0.7440120578
0.0191597566 -0.1430704445 0.645675838 0.1416795552 -0.6416682601 0.751999557
0.04430067167 -0.1308079064 0.6573911309 -0.2355210185 -0.6440911293 0.7264846563
0.04888765141 -0.139372915 0.6520362496 -0.3671002984 -0.6086187959 0.7028967142
0.04859952256 -0.1345380992 0.6552862525 -0.3122690916 -0.617651403 0.7195158005
0.04212182388 -0.136585936 0.6515043974 -0.2225014269 -0.6464201808 0.725921452
0.0420419015 -0.1142556071 0.6712361574 -0.2037614584 -0.6311910748 0.7454422712
0.04602399468 -0.1204743311 0.668636322 -0.2884684503 -0.6207934022 0.7198290229
0.0393691957 -0.1186710224 0.6667994261 -0.1580905765 -0.6391718984 0.7493946552
0.0337774083 -0.1149705499 0.6692257524 -0.07299480587 -0.6421798468 0.7607114911
0.02635836229 -0.117786631 0.6674600244 0.06776195765 -0.6574811339 0.7487770915
0.05654142797 -0.1403597146 0.6548280716 -0.4111318886 -0.5777699947 0.7045676112
0.05878923088 -0.1367491186 0.6608892679 -0.4202142656 -0.5780177116 0.6989033222
0.07082755119 -0.1393885911 0.656457305 -0.1361475736 -0.4541995525 0.7964655757
0.07161267102 -0.1337713301 0.6620765924 -0.1671768725 -0.4651339948 0.7761484385
0.06306511909 -0.132607758 0.6638525128 -0.3949532807 -0.5517901182 0.698291719
0.06481835246 -0.1374868602 0.6593317986 -0.3420631588 -0.5234239101 0.7294738889
0.06895698607 -0.1302427799 0.6745765209 -0.5827368498 -0.5556391478 0.5887990594
0.07370587438 -0.1262682527 0.684219718 -0.653660059 -0.4706180096 0.5904378295
0.07280407101 -0.1293707788 0.6793340445 -0.6492033005 -0.5322527885 0.5402570963
0.02069042809 -0.1311471462 0.6584383845 0.148625344 -0.6565057635 0.7088965178
0.02752527967 -0.1293254048 0.6583807468 0.02718018182 -0.6597115993 0.7251102328
0.03789824247 -0.1330200881 0.6549825072 -0.1620387584 -0.6590752602 0.7296129465
0.03870908171 -0.1240661144 0.6619554162 -0.15631181 -0.6497197747 0.7411235571
0.01475619059 -0.1262124032 0.6617519259 0.2494132966 -0.656855762 0.7101554275
0.009179261513 -0.1238457412 0.6672326326 0.3264520466 -0.6318284869 0.697360754
0.0131209325 -0.1177868992 0.6699777246 0.2705096304 -0.6371133327 0.7184199691
0.005794128869 -0.1194153577 0.6727873683 0.3787834346 -0.6092811227 0.6934998035
0.02828393877 -0.1233114898 0.6624825597 0.006683509331 -0.668209672 0.7390285134
0.03382482007 -0.1280942559 0.6579424739 -0.0859747082 -0.6634735465 0.7397480607
0.03352288157 -0.1207557768 0.6648663878 -0.07298017293 -0.6572679877 0.7465265393
0.02104018442 -0.1208502799 0.6648860574 0.1357379854 -0.6608461738 0.733717382
0.02329065464 -0.1256827712 0.6592491269 0.08645213395 -0.6644259095 0.7392116189
