# .PCD v0.7 - Point Cloud Data file format
VERSION 0.7
FIELDS x y z normal_x normal_y normal_z
SIZE 4 4 4 4 4 4
TYPE F F F F F F
COUNT 1 1 1 1 1 1
WIDTH 512
HEIGHT 1
VIEWPOINT 0 0 0 1 0 0 0
POINTS 512
DATA ascii
-0.0329693146 -0.07541453093 0.694578588 0.5728503466 -0.5944389105 0.562181294
-0.03630327061 -0.08143645525 0.6929767132 0.6215366125 -0.5459038019 0.5602400899
0.07916551828 -0.1006888747 0.6663208008 0.5903742909 -0.4909331501 0.6400846243
0.001755368314 -0.07444610447 0.6806988716 -0.005336031783 -0.6730241776 0.7355908155
-0.003203246975 -0.07346305251 0.6818082929 0.08421853185 -0.678327322 0.7272669077
0.003168183146 -0.06933084875 0.684920907 -0.004048342351 -0.6891637444 0.7224552631
-0.002811522922 -0.0674104169 0.6861991286 0.08422604948 -0.701382041 0.704074204
-0.04055351019 -0.08492933214 0.6949217319 0.6668953896 -0.5082573295 0.5435848236
-0.03924690187 -0.07973250002 0.6985743046 0.6310960054 -0.5484822989 0.5448993444
-0.01712666079 -0.125448972 0.6405072212 0.292126894 -0.5896990299 0.7518569231
-0.01391023304 -0.1289240718 0.6376042366 0.2633551657 -0.5594123006 0.7841683626
-0.0517815128 -0.1285344809 0.6769719124 0.7419425249 -0.4534421563 0.4937158823
-0.04896939173 -0.1134400293 0.6848493814 0.7491887808 -0.4356935918 0.4988143146
-0.05190546438 -0.1198330447 0.6856960654 0.7502341866 -0.4405265749 0.4926978946
-0.04118174314 -0.1943492442 0.7117765546 -0.6960076094 -0.4022122324 0.5884360075
0.01647642627 -0.2111778855 0.7230232358 0.3022451103 -0.5754925609 0.7497802377
0.001712842379 -0.2136865407 0.7289315462 0.01539964601 -0.5918736458 0.7973150611
-0.004864768125 -0.2132668048 0.727575779 -0.1208611354 -0.5868821144 0.7967992425
0.007956021465 -0.07315436751 0.68210572 -0.1031837314 -0.6672052741 0.7343879938
-0.003950469662 -0.09865764529 0.6617597938 0.07551623881 -0.644207716 0.7586062551
0.06475558132 -0.09774635732 0.6966401339 0.3839016557 -0.3539393544 0.8318284154
-0.01588711329 -0.08761636168 0.6724166274 0.2856405973 -0.6215469241 0.7292701006
-0.009477400221 -0.06776234508 0.6867849231 0.1977920979 -0.6846311688 0.6979882717
-0.01904760301 -0.07144811749 0.6888341904 0.3653672636 -0.6478182673 0.6676679254
-0.02787314542 -0.159084335 0.7568249106 -0.3617190719 -0.5984077454 0.7103168368
-0.05263116583 -0.109606646 0.6964578629 0.7578639984 -0.4292127788 0.4912949204
-0.04877697304 -0.1082516462 0.6890288591 0.7457917929 -0.4406083822 0.4996007383
-0.05272265524 -0.1028078496 0.6985494494 0.7418907285 -0.4470358193 0.499605149
-0.05188272521 -0.09534275532 0.7024804354 0.7191000581 -0.4697568417 0.5113844275
-0.04986636341 -0.08894964308 0.7047591209 0.6984421015 -0.4885267317 0.5228224993
-0.04606987536 -0.08535812795 0.7025209069 0.6845658422 -0.4996667802 0.5305579901
-0.04739354551 -0.09118439257 0.6988384128 0.7054775357 -0.479031235 0.5221431851
-0.04262193292 -0.09054129571 0.6939419508 0.6986091137 -0.4837544262 0.5270984173
0.05870324373 -0.09225173295 0.7015078068 0.0312462505 -0.3108118474 0.9326841235
0.06356999278 -0.09185685217 0.697218895 0.2419896573 -0.3442558944 0.834862411
0.05681182444 -0.08650200814 0.7023690343 -0.06726127863 -0.3059598207 0.9190967083
0.06913793087 -0.09498119354 0.6928001046 0.4931546748 -0.3775838315 0.7542088628
0.0621080026 -0.0883224085 0.6922333241 0.1111290157 -0.3676266968 0.9088377953
-0.0502464287 -0.1365090013 0.6666836143 0.7049317956 -0.4709485471 0.5285506248
-0.003273919225 -0.1686491519 0.7556670308 -0.09208097309 -0.6080870628 0.7852268815
0.003089471254 -0.1655789167 0.7589731812 0.03621959314 -0.5985286832 0.7974844575
-0.02954655513 -0.1644545645 0.7507192492 -0.42837888 -0.5792546868 0.6934583783
-0.02347435988 -0.1678786725 0.7486748695 -0.4186636806 -0.5801612139 0.6977829337
-0.04134913906 -0.1277875006 0.6573857069 0.6632263064 -0.4901262224 0.5651470423
-0.03590444103 -0.1262375414 0.6528738737 0.6128116846 -0.5048169494 0.607557714
-0.02143537812 -0.1302523762 0.638571322 0.3620178699 -0.5512809753 0.7498883009
-0.02410412952 -0.1253060997 0.6437307596 0.413058877 -0.572309494 0.7076643109
0.07732273638 -0.1179808006 0.6607427597 0.5872983336 -0.5809702277 0.5588706732
0.08158751577 -0.1088937819 0.6627684236 0.6148993373 -0.5100858808 0.6010634899
-0.04059521109 -0.1937379986 0.7174144387 -0.6735440493 -0.4151569605 0.6100968122
-0.03530895337 -0.1946708411 0.7209985256 -0.5925696492 -0.4369727671 0.6737157702
-0.0487591885 -0.1862472594 0.7053618431 -0.7906938195 -0.3436535001 0.5066286325
-0.05104246736 -0.190771386 0.700120151 -0.7782748342 -0.3572194576 0.5163370967
-0.05022121221 -0.1692847013 0.7159965634 -0.8099052906 -0.3248085976 0.488329798
-0.04598169401 -0.1731247902 0.7206202745 -0.7742003202 -0.3544531167 0.5211656094
-0.04837178066 -0.1665265262 0.7217749953 -0.7763260007 -0.3661448956 0.5093144774
-0.008218065836 -0.2112289518 0.7226340771 -0.1466091722 -0.5718462467 0.7898150682
-0.001155370031 -0.2110607773 0.7217705846 -0.02950662561 -0.5658559203 0.7961791754
0.05427163467 -0.19245103 0.699570775 0.7861194015 -0.3621250987 0.5008449554
0.02709046192 -0.08119978011 0.681176126 -0.3878778815 -0.5925693512 0.7053374052
0.01677578129 -0.07557182014 0.6813123226 -0.2284286171 -0.6360670328 0.7336089015
-0.001329287887 -0.07988335937 0.6758214235 0.05517314002 -0.6575617194 0.7475055456
0.002589843003 -0.08371911943 0.6723536849 -0.007472250145 -0.6391432285 0.7659899592
0.02345330454 -0.1610106379 0.7541546226 0.3318211734 -0.5394227505 0.7593474388
0.01204505842 -0.1618882865 0.7606735229 0.1494015455 -0.5551993847 0.8156611323
0.05076121539 -0.107648097 0.6825162768 -0.6045538783 -0.3541073203 0.7045764327
0.04676081613 -0.1098815724 0.6755034924 -0.6521084309 -0.4647918046 0.5905755758
-0.03192448243 -0.08026919514 0.6883536577 0.5543119907 -0.5895149112 0.5852031112
-0.0267373845 -0.07376097888 0.6905087829 0.4650657177 -0.6372997165 0.6137856245
-0.01439079549 -0.07073769718 0.6859335303 0.2870622277 -0.6600939035 0.6920312047
-0.01348368172 -0.08268208057 0.675260365 0.2454195768 -0.6419609189 0.725682199
-0.006535049994 -0.08402012289 0.6731283069 0.1389355063 -0.6323502064 0.7598978877
-0.009711143561 -0.07463026792 0.6814937592 0.1920441687 -0.6680791378 0.7157480121
-0.04905453697 -0.1026822478 0.6934841871 0.7375310659 -0.4490279257 0.504268527
-0.04263291508 -0.09808319807 0.6855306029 0.7189019918 -0.4584763646 0.522418201
-0.04202361032 -0.09366613626 0.6891743541 0.7079476118 -0.4723866582 0.5247707963
-0.04504802451 -0.0984505266 0.6917491555 0.7243173718 -0.4610350132 0.511531651
-0.04916350916 -0.09648914635 0.6968230009 0.7187254429 -0.4659169912 0.5159819126
0.0681733191 -0.08978756517 0.6874027848 0.3331196308 -0.4942409992 0.7536432147
0.01947928779 -0.06848103553 0.6873489618 -0.2592205703 -0.6693252921 0.6924940348
0.01533291768 -0.07102052122 0.6842845678 -0.1999275088 -0.6586691737 0.7239964008
0.02239270136 -0.07542368025 0.6827331781 -0.3161959946 -0.6310498714 0.7068538666
-0.006184543483 -0.1051407605 0.6540262699 0.1108774394 -0.6429914236 0.7555324435
-0.001510187634 -0.1024300158 0.6563267112 0.04216897488 -0.6434197426 0.761349678
-0.002589472104 -0.1078842133 0.650858283 0.05280439556 -0.6440084577 0.7607358098
0.003609992564 -0.1704519838 0.7543682456 0.02937621251 -0.5909867883 0.803011179
-0.005727779586 -0.1582685113 0.761102438 -0.1092979163 -0.6449914575 0.754801929
-0.01319598779 -0.1582182348 0.7612763047 -0.2191753536 -0.63641119 0.7392299771
-0.01779119298 -0.1709170341 0.7493591905 -0.3293506503 -0.5952339768 0.7293073535
-0.04588885978 -0.1934614331 0.7049412131 -0.724150598 -0.3913968205 0.5597844124
-0.03907254338 -0.2004003823 0.7133387327 -0.6576898694 -0.4320105016 0.6131550074
-0.03282734752 -0.2009749115 0.7199240923 -0.5360446572 -0.4537815452 0.7080926895
-0.04468464479 -0.1357623488 0.6558755636 0.6656618118 -0.4753255248 0.5747065544
-0.04022465646 -0.1357721537 0.6500731707 0.6269311905 -0.4771557748 0.614817977
-0.045314271 -0.1311694235 0.6606149673 0.6792768836 -0.4806120396 0.5544477701
-0.0507027097 -0.1405449808 0.6611414552 0.6789765358 -0.4746674597 0.5592163205
0.07168440521 -0.1240611821 0.6588799953 0.524598062 -0.653598547 0.5339609385
-0.03349113837 -0.1865828782 0.7269009352 -0.5826294422 -0.4603163004 0.6682963967
-0.05209068209 -0.1699860245 0.7104175687 -0.8076723218 -0.3300643563 0.4885643125
-0.05442621931 -0.1691307127 0.7039586306 -0.8041590452 -0.3346012533 0.4912919998
-0.04835361987 -0.175372079 0.7147530913 -0.8044583201 -0.3344951272 0.4908694327
-0.04191692546 -0.1876519322 0.7143858671 -0.7413250804 -0.3720553219 0.5529611707
-0.03485166654 -0.1882367283 0.7214901447 -0.6370999217 -0.4120053053 0.6384503245
-0.05017248914 -0.1783485562 0.706713438 -0.7969443202 -0.3373805583 0.5007480979
-0.04718979076 -0.1850604564 0.7117901444 -0.7830554843 -0.345062077 0.5160639286
-0.02875547297 -0.2047555 0.7192392349 -0.5108020902 -0.4532300532 0.7278998494
0.00961843878 -0.09975574166 0.6590464115 -0.1027469561 -0.6405684948 0.759834826
0.01523028594 -0.09966314584 0.6608040929 -0.1822832227 -0.6320915222 0.7522870898
0.02216271684 -0.1043605134 0.6595652699 -0.3197245002 -0.596726656 0.7340235114
0.02385331504 -0.1006242931 0.6635616422 -0.3375835121 -0.5936778188 0.7277799845
0.01308052707 -0.07888364047 0.6773688197 -0.1789428592 -0.6407966614 0.7453423738
0.008599911816 -0.08380393684 0.6726484299 -0.1054473594 -0.6344096065 0.7618836761
0.006276422646 -0.07879166305 0.6765300035 -0.07822709531 -0.6435305476 0.759795785
0.01834687591 -0.08128417283 0.6772401929 -0.2567478716 -0.622097075 0.7353829145
0.01432345062 -0.08482533693 0.6727716327 -0.1968011558 -0.6280682087 0.7509549856
0.03270017728 -0.1079710945 0.6631246805 -0.4723045528 -0.545861423 0.6878966093
0.07065602392 -0.08720178902 0.6818874478 0.397356838 -0.684777379 0.5929647684
0.08234035969 -0.09637937695 0.6716311574 0.6124495864 -0.489474982 0.6206023097
0.07752554864 -0.09563472867 0.6800553799 0.5998747349 -0.4466720223 0.6602604985
0.0736458227 -0.09239246696 0.6849025488 0.593796432 -0.4184339345 0.6857471466
0.01671088301 -0.1595998257 0.7564855218 0.2477252781 -0.5543197393 0.7744425535
0.01574437693 -0.1657554805 0.7514916062 0.2331964672 -0.5608000159 0.7689223886
0.01080816239 -0.168447271 0.7521103621 0.1471175104 -0.5742974877 0.7854529023
0.006096762605 -0.1602973193 0.7615218163 0.05898603052 -0.5942932963 0.7996876836
5.737385072e-05 -0.1610172689 0.7593997717 -0.05076122284 -0.6189174056 0.776370585
0.03937323764 -0.2014325112 0.7131158113 0.5957368612 -0.5088386536 0.6097775698
0.03381324932 -0.2034520358 0.7150203586 0.5319525003 -0.5155143738 0.6578835249
0.04397823662 -0.1983369291 0.7096562982 0.665186286 -0.4638724327 0.5717112422
0.03603256121 -0.1955716759 0.7213274837 0.589725852 -0.5026860237 0.6311302781
-0.0318676047 -0.1148781851 0.658151567 0.543307066 -0.5592781305 0.6259950399
-0.03350822255 -0.1100886315 0.6646841168 0.5827506185 -0.5377436876 0.6080377698
-0.02368705533 -0.1162890717 0.6515631676 0.4024549127 -0.6002768874 0.6898757815
-0.01657957211 -0.1162204817 0.6482945681 0.2666622698 -0.6253590584 0.730335772
-0.02685963362 -0.0783982873 0.6858057976 0.495608747 -0.6043888927 0.6227394938
-0.03399447724 -0.08989328891 0.6824421287 0.607881844 -0.5276922584 0.5922282934
-0.01818954386 -0.07593917102 0.6837809086 0.3535540998 -0.6332749128 0.6836947799
-0.01309526805 -0.09605781734 0.6637786627 0.2157454342 -0.6281899214 0.7450647354
-0.01400944684 -0.09201148897 0.6685791016 0.2499552369 -0.6193330288 0.7393766046
-0.01919354312 -0.08352921158 0.6774224639 0.3398106098 -0.6162911654 0.7032051086
-0.02236727439 -0.07997553796 0.68163836 0.4260565042 -0.610722363 0.6606959105
-0.01510494668 -0.07883349806 0.6793594956 0.282666713 -0.6454969049 0.7032722831
-0.02722448856 -0.08380888402 0.6811975241 0.4677760005 -0.5840175748 0.6619291306
-0.0151194334 -0.1608611047 0.7569935322 -0.2595111728 -0.6083645225 0.7496469617
-0.01024302468 -0.1674103439 0.7552275658 -0.2039772123 -0.6150815487 0.7604451776
-0.009497209452 -0.163449809 0.7588259578 -0.1920599937 -0.6227380037 0.7574934363
-0.01724534109 -0.1649079621 0.7528247833 -0.3101277351 -0.600828886 0.7322289944
-0.02959597483 -0.1604876071 0.7463649511 -0.4741401672 -0.554776907 0.6743813157
-0.02497792058 -0.1593162566 0.750846386 -0.3964319229 -0.5709366202 0.7039636374
-0.02077190019 -0.1573355198 0.7597334385 -0.2804089785 -0.616945982 0.7344979644
0.001997821731 -0.1107529998 0.6483732462 -0.01228321623 -0.6462023854 0.760198772
-0.02503022179 -0.1216345206 0.6487808228 0.4355489016 -0.5764714479 0.6851078868
-0.01970688067 -0.1217503548 0.6448909044 0.3415232003 -0.5978588462 0.7219898105
-0.02951743081 -0.1258620769 0.6474753618 0.5159202814 -0.5368852019 0.663895309
-0.02720005065 -0.1299696416 0.6431600451 0.4952862263 -0.5316338539 0.6865341067
-0.008661453612 -0.1228235364 0.6408302784 0.1892716736 -0.621243 0.7579421401
-0.01326990314 -0.1202526689 0.6439300776 0.2318460196 -0.6215757728 0.7467666864
0.01193381008 -0.1299049407 0.6309227943 -0.1476204097 -0.6424624324 0.746252358
0.004293567501 -0.1306706071 0.6316244602 -0.05871329084 -0.6392401457 0.7621391416
-0.0007225303561 -0.1287472844 0.6340641975 0.04548347741 -0.6243183017 0.7712997198
-0.00669264514 -0.1299843639 0.6346043348 0.1306929439 -0.5934248567 0.7741490602
0.05574217439 -0.1734793633 0.7058904767 0.8200003505 -0.3185699582 0.4751619697
0.05638671666 -0.1678994298 0.7097481489 0.8308179379 -0.3018131852 0.4671124816
0.05767886341 -0.1769399643 0.6972392797 0.8142514825 -0.3257835507 0.4804579616
0.05612421781 -0.1853399873 0.6997852921 0.8092679977 -0.3305372596 0.4856179953
0.02985406481 -0.1609862596 0.7473896146 0.4734545052 -0.5086747408 0.7089583874
0.03554209694 -0.1636159569 0.7440728545 0.5335168839 -0.4820373654 0.6778835058
0.04162616283 -0.1661459953 0.7375044823 0.6412461996 -0.4305315018 0.6234058142
-0.05369474366 -0.1788759083 0.6984644532 -0.8027840257 -0.3360931277 0.4924885035
-0.05264655873 -0.1846931726 0.6996746063 -0.8004657626 -0.3409204185 0.4929452538
-0.05306568369 -0.1629800349 0.6849619746 -0.3025537729 -0.3821525276 0.5135638118
-0.05350827426 -0.1543213725 0.6767114401 0.09704975784 -0.4183691442 0.5266679525
-0.0503561534 -0.1453324705 0.6660715938 0.4811407328 -0.4604827166 0.5462696552
-0.05569650233 -0.1716867089 0.6968314648 -0.8596374393 -0.2511053383 0.4127463996
-0.05463043228 -0.166676119 0.6909784079 -0.6075968742 -0.2897545993 0.4371058345
-0.05444531143 -0.1572767794 0.6811768413 -0.1329716742 -0.3531687856 0.4735887647
-0.05231926963 -0.1490762085 0.6719402075 0.2198511064 -0.3886674047 0.4884225428
-0.0004616305523 -0.2066977322 0.7325178981 -0.05908040702 -0.5764360428 0.8094249368
0.004833872896 -0.2000131309 0.736561954 0.05836221948 -0.6090533733 0.7848365307
0.04274068028 -0.1791829765 0.7235886455 0.6935819983 -0.4342249036 0.5644991398
0.03925362229 -0.1935105622 0.7168126106 0.6222233176 -0.488031745 0.6026153564
0.02942388132 -0.2059559375 0.7195755243 0.4925169945 -0.5371979475 0.6774837971
-0.0118700834 -0.1110238656 0.6502714157 0.1786196977 -0.6369852424 0.7463686466
-0.01043861825 -0.1158983335 0.6474812031 0.1848916262 -0.6358653903 0.7468343973
-0.01355283149 -0.107403107 0.6551442742 0.228418529 -0.622338593 0.7470214963
-0.003763432382 -0.1134217381 0.6489292383 0.09645521641 -0.6444131136 0.7568117976
-0.003767687595 -0.1180666164 0.64361763 0.09627155215 -0.6376321316 0.7618392706
0.00561434729 -0.1085909456 0.6521068811 -0.06301035732 -0.6376571059 0.7673329115
0.01484440081 -0.1037070453 0.6571553349 -0.1854053438 -0.6213237047 0.7588403225
0.007894933224 -0.1045654938 0.6552651525 -0.09533275664 -0.6305494308 0.76794976
0.0462118499 -0.1045017987 0.6786689162 -0.6398816109 -0.4273264706 0.6348856091
0.0008007965516 -0.09177106619 0.6657999158 0.007566847838 -0.6408923268 0.7632334232
0.004709188361 -0.09450164437 0.6635010839 -0.06005722657 -0.6401661634 0.7648885846
-0.003142780159 -0.08806786686 0.6689447165 0.07645370066 -0.6392526627 0.7633236051
-0.00695650233 -0.09364905208 0.6653058529 0.1363013834 -0.6341320276 0.7578779459
0.01788970456 -0.08999829739 0.6702023149 -0.2616585493 -0.6142342091 0.7415753603
0.01687450893 -0.09427431971 0.6659462452 -0.2225913554 -0.6140372157 0.7547093034
0.006687536836 -0.08948614448 0.6676373482 -0.0673520118 -0.6424515843 0.7621325254
0.01123844087 -0.09461434931 0.6643292308 -0.1394014508 -0.6275735497 0.7636290789
0.01210154872 -0.0888222754 0.6685979366 -0.1406009942 -0.6317846179 0.7614589334
0.03299999982 -0.1842259318 0.7301883698 0.5530552864 -0.5366696119 0.6369649768
0.02042661794 -0.1689830273 0.7481316328 0.3342180252 -0.5557537079 0.7559927702
-0.02707165852 -0.1842055023 0.7312793732 -0.5071198344 -0.5030215383 0.6947507262
-0.03303087875 -0.1815505177 0.7285888195 -0.593178153 -0.4633204639 0.6494044065
-0.03806125 -0.1776403338 0.7277632356 -0.6649665833 -0.4415783286 0.6018938422
-0.02753357962 -0.1784807444 0.7357619405 -0.5032673478 -0.5184969902 0.6859577298
-0.03325195983 -0.17688784 0.7325671911 -0.5869469643 -0.4862722754 0.6390545368
-0.0382587947 -0.183204487 0.7245307565 -0.6554609537 -0.4245783687 0.6199750304
-0.04260515422 -0.1797688305 0.7196560502 -0.7406710982 -0.3817952573 0.545802176
-0.04562617838 -0.1804416478 0.7148845792 -0.7883993387 -0.3444782495 0.5088227391
0.05182659626 -0.09823916852 0.6921017766 -0.3887503147 -0.4364667833 0.798928082
0.05176085979 -0.1031567752 0.6880662441 -0.4804230928 -0.3744169176 0.7729060054
0.04822170734 -0.09927199036 0.6859477162 -0.5350516438 -0.4235727787 0.7156221867
0.05548740178 -0.09776297212 0.6970860958 -0.2059297562 -0.3560911119 0.8942009807
0.05057312176 -0.08717723191 0.6981199384 -0.416667819 -0.50658077 0.7446473241
0.05294971541 -0.09241427481 0.6976259947 -0.3358556926 -0.4292073548 0.8227665424
0.05982802808 -0.1090802997 0.6917997599 -0.3663489521 -0.2474309206 0.7735090256
0.06383594871 -0.1034901813 0.6920927763 0.009857656434 -0.3036834598 0.7606500983
0.0598751083 -0.1047000289 0.6963235736 -0.03570683673 -0.2900291681 0.8399456143
0.0548123084 -0.1079150885 0.6888433099 -0.5369480252 -0.2940236926 0.7774105072
-0.04295184836 -0.1663472503 0.7311267853 -0.6915208697 -0.4475243092 0.5661084652
-0.04207377881 -0.1709749997 0.7283328772 -0.705652535 -0.4422168434 0.5522869229
-0.03422803432 -0.1718021184 0.7368766665 -0.5767026544 -0.5219860077 0.6274161339
-0.03807515278 -0.1660668254 0.7369701266 -0.6062039137 -0.517003119 0.6031702161
-0.0357474573 -0.1625656635 0.7464498878 -0.5128156543 -0.5377891064 0.6536502242
-0.02827082947 -0.172554031 0.7399855256 -0.4940876365 -0.5507157445 0.667642355
-0.0233685188 -0.1049401686 0.663197577 0.4075849354 -0.5865682364 0.6792991757
-0.01048075967 -0.1015221402 0.6588506699 0.1793328822 -0.6319767237 0.7498421073
-0.03233939037 -0.1035546884 0.6693902612 0.5625182986 -0.5382947922 0.6254743934
-0.03250991553 -0.09822467715 0.6738017797 0.5606565475 -0.5298377872 0.6354125142
-0.02786430344 -0.1010048389 0.6672110558 0.4821805656 -0.5704945326 0.6583039761
-0.04950034618 -0.1281080693 0.6716920733 0.7317899466 -0.4625821412 0.5004495382
-0.04833981767 -0.1223842427 0.6740962863 0.7353407145 -0.4565583169 0.5006790161
-0.0493142046 -0.1203122437 0.6789782047 0.7433831096 -0.4457084239 0.498591125
-0.01763313636 -0.1040213108 0.6602428555 0.3014295697 -0.6190906167 0.7210621238
-0.02777449973 -0.109730199 0.6604061127 0.50747329 -0.5628085136 0.6475571394
-0.02157871798 -0.108800523 0.6565831304 0.3668052554 -0.6105225086 0.7003541589
-0.01796779223 -0.1115953699 0.6522750258 0.2761069834 -0.6248341799 0.7263284326
0.004000163171 -0.1195468158 0.6428413391 -0.036100775 -0.6543792486 0.7516016364
0.004367006477 -0.1244275197 0.6377179623 -0.02639653906 -0.6489412189 0.7596123219
-0.001388674485 -0.1239341497 0.6387590766 0.08158752322 -0.636597693 0.7622121572
0.01019262243 -0.1261239201 0.6371676326 -0.1578727961 -0.6457048059 0.7427555323
0.01542695053 -0.1291635185 0.637268126 -0.2220835239 -0.6275100112 0.7308023572
-0.0445260331 -0.1254655421 0.6651262045 0.7005867958 -0.4794856012 0.5283442736
0.01638460159 -0.1219784245 0.6403421164 -0.2325970829 -0.63395226 0.7349455357
0.01851224899 -0.1292897314 0.6325981617 -0.2598063052 -0.6305924058 0.7264812589
0.02187914029 -0.1215830073 0.6454498172 -0.3503525257 -0.6083616614 0.7105134726
0.009169352241 -0.121767059 0.6418823004 -0.1356859654 -0.6520882249 0.7418970466
0.01241997816 -0.117686078 0.6446869969 -0.177280888 -0.6413051486 0.7433484793
0.05355939642 -0.1831067055 0.704590857 0.8112316728 -0.3286641538 0.4835847914
0.05237137154 -0.1776482612 0.7097170949 0.8063931465 -0.3346712291 0.4871162474
0.05800363421 -0.1658609658 0.7050507069 0.8935961723 -0.1907450706 0.3660328388
0.05697766319 -0.148911342 0.6610703468 -0.5357580781 0.3948784173 0.6593508124
0.06157277152 -0.141861245 0.6615065336 -0.2038075775 -0.009900860488 0.6452258229
0.06586040556 -0.1364188641 0.6614027023 0.0245456025 -0.1744757444 0.6202915311
0.07029033452 -0.1304775327 0.6611502767 0.2688368857 -0.3312354088 0.5976769328
0.03220265731 -0.1708463728 0.7429259419 0.5278295875 -0.5080712438 0.6790735126
-0.006115591619 -0.1991562396 0.7327169776 -0.1710608304 -0.510420084 0.8387975693
-0.006968393456 -0.2068917751 0.7296465635 -0.1867812276 -0.5319578648 0.8171589375
-0.01250574831 -0.2031415552 0.7279673219 -0.2757607698 -0.5009115934 0.817841351
-0.019705493 -0.2031787187 0.7243258357 -0.3949954212 -0.4716763198 0.7803300023
-0.01415406261 -0.2108605653 0.7228820324 -0.2474991828 -0.56857723 0.7827475667
-0.01702625863 -0.1980210245 0.7288819551 -0.3589730859 -0.4786947072 0.7959473133
0.01487081964 -0.2103136182 0.7173876166 0.2528690398 -0.5503466725 0.7952605486
0.008283466101 -0.2088233083 0.719471097 0.1249265149 -0.5385134816 0.8001230955
-0.0007558700745 -0.2045206428 0.7263483405 -0.03660961613 -0.5443428159 0.8105900288
-0.008958172053 -0.2057041526 0.7233563662 -0.2127948403 -0.4970227182 0.8087964058
0.004655988421 -0.2113212794 0.7237374187 0.09199868888 -0.5677205324 0.8066713214
-0.0243778713 -0.1908198744 0.727748096 -0.4662640095 -0.4774127007 0.7400209308
-0.02349125594 -0.1972179562 0.7238202691 -0.4550012946 -0.4668287337 0.7429508567
-0.02794692852 -0.1940298378 0.7246311903 -0.4858607352 -0.4717932343 0.7299310565
0.0434371233 -0.1904331744 0.7143344879 0.692296803 -0.43483904 0.5641221404
0.04702328518 -0.1935384423 0.7071411014 0.7279059887 -0.4051795304 0.5454993844
0.0389521271 -0.1902321875 0.7215591669 0.6267382503 -0.4783837795 0.6135531664
0.03964147344 -0.1850506514 0.7243956923 0.6343455911 -0.4682246149 0.6144180298
0.002335832221 -0.1965423673 0.7325277328 0.04242599383 -0.5196396112 0.8387048244
-0.001560316538 -0.1999961883 0.7293289304 -0.042626407 -0.5362614393 0.8152204156
-0.01128552388 -0.196896717 0.7291679382 -0.2379031777 -0.4934255183 0.8095605373
0.04743528366 -0.1741150171 0.7215453386 0.7634319663 -0.3690614104 0.5198630691
0.05325968191 -0.1722950637 0.7133178711 0.816462636 -0.3301620781 0.4730561972
0.05349239334 -0.1670244485 0.7160143852 0.8250432611 -0.3033971488 0.4760460854
0.05011466891 -0.1766254157 0.7160341144 0.7966926694 -0.3485318124 0.4933969676
0.05035641789 -0.1686208844 0.7225490212 0.7986754179 -0.3378507793 0.4970631301
-0.03599523753 -0.1180890128 0.6599283218 0.6108896732 -0.5255382657 0.5874185562
-0.03023675643 -0.1214886606 0.6528589129 0.5236769915 -0.5511088967 0.6429994106
0.04177675024 -0.1077083722 0.6709070206 -0.6163280606 -0.4888170362 0.6160770059
0.06781642884 -0.1027601734 0.6658233404 0.3249332011 -0.5082003474 0.6435910463
0.07487591356 -0.1048687026 0.6632316709 0.5344753265 -0.5071989298 0.6340335608
0.05532987416 -0.1016246527 0.6684834361 -0.03598514944 -0.5145710707 0.6528246403
0.04663449526 -0.1016068831 0.6697626114 -0.2844271064 -0.5203781128 0.6569687128
0.05289292708 -0.10518343 0.6645851135 -0.03474291041 -0.5224174857 0.6588647366
0.03533145785 -0.09781635553 0.6721369028 -0.5020561814 -0.5378830433 0.6746999621
0.03068089299 -0.09424887598 0.6719203591 -0.4389986098 -0.5593819618 0.6994873881
0.02506736293 -0.09606703371 0.6674236655 -0.3595424294 -0.5851252079 0.7261968851
0.03018002026 -0.1016603485 0.6663203835 -0.4308941066 -0.562908113 0.6993643045
0.03613386303 -0.1035774797 0.6681183577 -0.5156242251 -0.5311993957 0.6718651652
0.03979683667 -0.1011113152 0.6732714176 -0.5669945478 -0.5136931539 0.6418197751
0.03722441569 -0.09317845851 0.6761208773 -0.4705694616 -0.5442188978 0.6735239625
0.06510736793 -0.09049925953 0.6788585782 0.2813121676 -0.6660113335 0.6079494357
0.05183697864 -0.09548553079 0.6724590659 -0.07080835849 -0.5427814722 0.6593113542
0.04441130161 -0.09344930947 0.675309062 -0.2592869103 -0.5777676702 0.6554009318
0.04901129752 -0.09127467871 0.6781219244 -0.1364381909 -0.6300930977 0.6345784664
0.06121699139 -0.09329270571 0.6752081513 0.1757228225 -0.6012061238 0.6320155859
0.06966117769 -0.09689884633 0.6702475548 0.3877651393 -0.5336260796 0.6451935172
0.05610272661 -0.09054374695 0.6789652109 0.04829985648 -0.6543017626 0.620212853
0.0675079748 -0.09355005622 0.6747493148 0.3380028307 -0.6031752825 0.6253991723
0.06211949885 -0.09824230522 0.6692811251 0.1808009297 -0.509809196 0.6580845714
0.07388582081 -0.0922985822 0.6760072112 0.4740763903 -0.6104741693 0.6198757887
0.07532922924 -0.09631823748 0.6708459258 0.5278701186 -0.546287179 0.6365033388
0.03000020236 -0.1750763804 0.7406073213 0.4945801198 -0.5313363075 0.6864501238
0.02586191334 -0.171595782 0.7450991869 0.4225704968 -0.5372310281 0.7293127775
0.0151389949 -0.1894142777 0.7368165255 0.2473149896 -0.5930580497 0.7648367286
0.0164480079 -0.1951888949 0.7318924069 0.3007199168 -0.5752700567 0.7591614723
0.02258294262 -0.1968701035 0.7291663885 0.3825056553 -0.5578439236 0.7356033325
0.02306212112 -0.2065447271 0.7223607302 0.4055889249 -0.5491366982 0.7299869061
-0.007037418894 -0.1725810319 0.7511829138 -0.1740970016 -0.6039984226 0.7738626003
-0.01451755874 -0.1744440347 0.7472387552 -0.2950821221 -0.5998939276 0.7408185601
0.003764137393 -0.1746968776 0.7501361966 0.02297518589 -0.6052621007 0.7924093604
-0.002290306613 -0.1769509614 0.7486494184 -0.1052989513 -0.6090340018 0.7798171639
0.02672132105 -0.1669932455 0.7490227222 0.3828442693 -0.5532824397 0.7395813465
0.008448504843 -0.1666419357 0.7578644753 0.1221557483 -0.5711479187 0.8092122674
0.01075230353 -0.187826708 0.7425326705 0.1973938346 -0.6035852432 0.7702118754
0.01254582591 -0.181356594 0.7466142774 0.2285526246 -0.5793150067 0.7813418508
0.01135467459 -0.1746294349 0.7486810088 0.1773762852 -0.5842558146 0.7849394679
0.04672560841 -0.1157318279 0.6708676219 -0.6232857704 -0.5253715515 0.5677709579
0.04742410406 -0.1247868985 0.664116323 -0.4423605502 -0.5781635642 0.6719235778
0.0514122583 -0.1254118383 0.6691320539 -0.2696199715 -0.6148610711 0.7078289986
0.05351543799 -0.1368982941 0.6645370722 -0.2512362301 -0.617092967 0.7233700156
0.05319240689 -0.1313222647 0.667768538 -0.225404337 -0.6299117208 0.7183321118
0.02420107834 -0.1097951829 0.6562331915 -0.3584583998 -0.5846039653 0.7268720269
0.0322679691 -0.1151228771 0.6564599276 -0.4790952504 -0.5457807183 0.6856162548
0.04150928184 -0.1141680554 0.6662517786 -0.5929413438 -0.5193497539 0.6103648543
0.04897631705 -0.09196674824 0.692174077 -0.4558405578 -0.4843252003 0.7387445569
0.06419975311 -0.0858997032 0.685053587 0.2413785458 -0.7457141876 0.5784374475
0.04384587705 -0.0771452114 0.6966136098 -0.474714756 -0.5485568643 0.6835612059
0.05781535432 -0.08349769562 0.6903328896 -0.02005348355 -0.665935576 0.6284025311
0.0509115383 -0.0819452554 0.7010334134 -0.3703520596 -0.490659982 0.7598125339
0.05683558434 -0.08381015062 0.6953686476 -0.09892178327 -0.557072401 0.7201011777
0.04721504077 -0.0795802772 0.6926458478 -0.3469523191 -0.6781951785 0.58270818
0.0379775539 -0.07651738822 0.6922889352 -0.4718267024 -0.5687538385 0.6735169888
0.04509419575 -0.08578427881 0.6923475266 -0.510769248 -0.4935758114 0.7036627531
0.04515486583 -0.09352914989 0.6860129237 -0.546908021 -0.4873139262 0.6798248291
0.04429990798 -0.0989413932 0.6799129844 -0.6040333509 -0.4656250179 0.6436779499
-0.03218903393 -0.1688619554 0.7430355549 -0.5182151794 -0.5493893027 0.6530809402
-0.01940915734 -0.0984974131 0.6656237841 0.3320468366 -0.6056063175 0.7169302106
-0.02362192795 -0.08644062281 0.6761807799 0.4299086034 -0.5930043459 0.6801316142
-0.021760704 -0.09301054478 0.6697471738 0.3807905018 -0.6009081602 0.700263381
-0.02753859572 -0.09393662214 0.6731660962 0.4760716558 -0.5601305962 0.6750006676
-0.03374432027 -0.09430468082 0.6787571907 0.588013649 -0.5204421282 0.6143862009
-0.04130908102 -0.1171810701 0.667430222 0.6809575558 -0.4844467044 0.5489321351
-0.04155942798 -0.1131093651 0.67145437 0.7001017332 -0.4740546346 0.5324479938
-0.03725323081 -0.1146948785 0.6648595333 0.6440351009 -0.5065848827 0.5726320148
-0.04369399324 -0.108753562 0.6782337427 0.7241145372 -0.4643517733 0.5097702146
-0.04535293952 -0.1060710624 0.6828960776 0.7301290035 -0.4574273527 0.5074685812
-0.0452795364 -0.1171543449 0.6734411716 0.7319794893 -0.464875102 0.4980529547
-0.04740305617 -0.1147715747 0.6799636483 0.7436047196 -0.4452812672 0.4985525906
0.02221491002 -0.1267541945 0.6417276859 -0.3778442144 -0.5955236554 0.7007507682
0.02562189102 -0.1313581616 0.6394841075 -0.4316377342 -0.5641030073 0.6988690495
0.02816220373 -0.1278859973 0.643895328 -0.472743243 -0.5431085825 0.6931188107
0.04518064111 -0.1155899838 0.65883255 -0.237647742 -0.5636897087 0.6642636061
0.05468950421 -0.1162163317 0.6587281823 0.01645808481 -0.5923472047 0.6559144855
0.06300815195 -0.1251632571 0.6585647464 0.2293829918 -0.580109179 0.7568714023
0.06795104593 -0.1191447973 0.6573594809 0.4089319408 -0.6306417584 0.6578102112
0.06080712751 -0.1158984825 0.6586194634 0.2008147389 -0.6150591373 0.6532920599
0.03888896108 -0.1084514484 0.6636853814 -0.3952847421 -0.5457311869 0.6755821705
0.05634054169 -0.1106528938 0.6613537669 0.08166867495 -0.5735345483 0.6584590673
0.06477300078 -0.1066561043 0.6627357602 0.2856864929 -0.5270997286 0.6465077996
0.06424093992 -0.1118062511 0.6602866054 0.2885448635 -0.5804209113 0.6493138671
0.04631172493 -0.1056957245 0.6643930078 -0.1921604127 -0.5288552642 0.6686046124
0.07111235708 -0.1109838635 0.6602387428 0.4626134932 -0.5676289797 0.6405949593
0.04788926616 -0.1103415266 0.6620506048 -0.1366699338 -0.5756579638 0.668628335
0.03144028038 -0.1329810172 0.6428011656 -0.455370903 -0.4808581769 0.7369672656
0.02066933177 -0.1169452816 0.648852706 -0.3191205561 -0.6019560099 0.72949332
0.009209453128 -0.113155745 0.649094522 -0.1213207394 -0.6379887462 0.75480479
0.01361097861 -0.1083144769 0.6536166072 -0.1773976684 -0.6181966662 0.763186574
0.01628665999 -0.1122445464 0.6507760286 -0.2299336493 -0.6088465452 0.7586054206
0.0608295612 -0.1655866802 0.694621563 0.8737611771 -0.08016892523 0.2771164775
0.05973611772 -0.1602032781 0.6856153011 0.4831987917 0.09507001191 0.3715286553
0.05820142105 -0.1627620012 0.6807678342 0.2443313003 0.05425694957 0.4896042049
0.05685439333 -0.1554888934 0.6690186858 -0.2614177167 0.2892346978 0.6062780023
0.05806357041 -0.1670545489 0.6865993142 0.4450706244 -0.08258661628 0.5051734447
0.05886305496 -0.1708730459 0.693867147 0.7511935234 -0.2118160725 0.4389646351
0.0582691431 -0.1568985134 0.6764672399 0.07640586793 0.219578445 0.4923146069
0.04290539026 -0.1699087918 0.732600987 0.6813021898 -0.4222337604 0.5960090756
0.04651279747 -0.1694593877 0.7273923159 0.7348265648 -0.3972966075 0.5457969308
0.04400337115 -0.1844867468 0.7211440802 0.6796880364 -0.4390781224 0.5841041803
0.04962406307 -0.1902324706 0.7124823928 0.748621285 -0.3847747445 0.5382294059
0.04770614207 -0.179834798 0.7196787 0.7596219182 -0.382951051 0.5246355534
0.04698360711 -0.1849021167 0.7145605087 0.761490643 -0.3808994889 0.5231791139
0.05096156895 -0.183819294 0.7107147574 0.8037183881 -0.3359751701 0.4896023571
0.05286708102 -0.1901093721 0.7062503099 0.7743955255 -0.3630263507 0.5169106722
0.007218595129 -0.2031414956 0.732223928 0.1677970737 -0.5871608257 0.7853274941
0.009006254375 -0.1955256462 0.7381637692 0.1800866723 -0.6028179526 0.7737856507
0.008242734708 -0.1965839714 0.7322081327 0.1678945869 -0.5292465687 0.8231782317
0.01568786241 -0.2018944174 0.7283482552 0.2996799052 -0.5750910044 0.7593181729
0.01099126041 -0.204387024 0.7259823084 0.2250562608 -0.5672374964 0.7831859589
0.005689458922 -0.2077567279 0.7297846675 0.1421824843 -0.5827261209 0.7917824984
0.009866083972 -0.2120487541 0.7264714241 0.1902566701 -0.5791720748 0.774745822
0.02425392531 -0.1775610745 0.7414770126 0.4034907222 -0.5555711985 0.7177498341
0.01794227585 -0.1798828542 0.7427837849 0.2983476818 -0.5801525712 0.7501015663
0.0201952178 -0.1754336506 0.7453344464 0.3365265727 -0.5584374666 0.7530915141
0.01639311947 -0.1728590727 0.7508295774 0.2844457924 -0.5479792356 0.7832239866
0.01480267383 -0.1842434108 0.741130054 0.2411665618 -0.5995202661 0.7628830671
0.02284748666 -0.2001205534 0.7235306501 0.3724294305 -0.5559048057 0.7390608788
0.01639216021 -0.2039614916 0.723126471 0.31041646 -0.5541839004 0.7703585029
0.03274224326 -0.1913764626 0.7238538265 0.5435808897 -0.5112603307 0.6637209654
0.03365935013 -0.2006684095 0.7206630111 0.5487134457 -0.5269348621 0.6477835178
0.02894377708 -0.1912334114 0.7296830416 0.4716801941 -0.5439395905 0.6930695772
0.0300873667 -0.1972319782 0.72484231 0.4955538511 -0.5366119146 0.6805492043
0.001625799108 -0.1796910018 0.746322453 -0.02368626744 -0.6067708135 0.7876644135
0.0551228188 -0.1149086431 0.6829327345 -0.6195093393 -0.4234495163 0.6391550899
0.0524356775 -0.119895786 0.6749227047 -0.2619217634 -0.6542062163 0.6523656249
0.0680668056 -0.1068446189 0.6857369542 0.387981981 -0.5473326445 0.6775750518
0.06903970987 -0.1017290428 0.6883957386 0.4667351246 -0.481536001 0.694257915
0.07088756561 -0.1095408723 0.6803010106 0.3795311451 -0.5785964131 0.6535562873
0.07332482189 -0.1015968919 0.6833085418 0.5110140443 -0.4754714668 0.6752318144
0.07672067732 -0.1042079926 0.6772404313 0.5094165206 -0.5050672889 0.6489380598
0.06132079661 -0.1170911118 0.6855894923 0.008654857054 -0.595757544 0.6792560816
0.06382527947 -0.112279214 0.6864813566 0.1856192201 -0.5764394999 0.6810875535
0.06737902761 -0.1237130091 0.6718019843 0.3198958635 -0.6747238636 0.6171522141
0.06336233765 -0.1273247451 0.6693975925 0.2436493933 -0.6761803627 0.6789274216
0.06264322996 -0.1250151396 0.6752841473 0.1925192475 -0.7091229558 0.6583601236
0.0664075315 -0.1279148459 0.6641083956 0.3436514139 -0.6382811069 0.6677007079
0.08240579069 -0.1033296138 0.6708359122 0.60259974 -0.4763753116 0.6257439852
0.07791579515 -0.1145678833 0.6667111516 0.5607873797 -0.5505897999 0.5945397615
0.07423749566 -0.1192976609 0.6674096584 0.4886122346 -0.6009989977 0.5908399224
0.07795225829 -0.1081914529 0.6724692583 0.5078881383 -0.5354018807 0.625487566
0.06905031204 -0.1174084693 0.6761904955 0.3143292964 -0.6522244215 0.6274221539
0.06532416493 -0.1187599525 0.6800310612 0.212078318 -0.6953069568 0.6404730082
0.07420704514 -0.1148696393 0.6714841723 0.4501754045 -0.59104985 0.6126253009
0.04961384088 -0.08407204598 0.68851161 -0.2602472305 -0.7552261353 0.5291730165
0.03710618988 -0.08450856805 0.6842694283 -0.4558285475 -0.5876828432 0.6488530636
0.04054800048 -0.08169989288 0.6889214516 -0.4233313203 -0.6047751904 0.6488444209
0.03896236792 -0.0896582678 0.682262361 -0.5116084218 -0.5247371197 0.6803219318
0.04502257705 -0.08524309099 0.6853257418 -0.3086328804 -0.6910607815 0.5737097263
0.05305455625 -0.08674094826 0.6834192276 -0.04399140179 -0.6606086493 0.6216915846
0.04195518047 -0.1349377483 0.6489400268 -0.4562187493 -0.3494524956 0.8011983037
0.03603766859 -0.13082093 0.6471524835 -0.5292154551 -0.4893742204 0.6911231279
0.05997552723 -0.1308154613 0.6590550542 0.1290281564 -0.5725427866 0.7247641087
0.052354265 -0.1306560785 0.6536995173 -0.1227605715 -0.4536669254 0.7631568313
0.05989500135 -0.1496877819 0.6994383931 0.6016761661 -0.43844226 0.5230602026
0.06008341908 -0.1365824044 0.6916671395 0.3588168621 -0.5917862654 0.5826030374
0.0598253347 -0.1721618026 0.7011188269 0.8431316018 -0.2926650345 0.4431051016
0.05826019123 -0.1611433029 0.7092264295 0.8359332681 -0.2905298173 0.4656264484
0.03491234407 -0.1791073233 0.7322795391 0.5719472766 -0.508882463 0.6370498538
0.0382825695 -0.171080932 0.7380728722 0.5602205396 -0.5016112924 0.6591038108
0.04104252532 -0.1762521416 0.7307236195 0.6381037831 -0.4726391137 0.6062475443
0.02439087257 -0.1825226843 0.7389062047 0.4086188972 -0.5784341097 0.7046581507
0.03002354503 -0.1797938794 0.7367520332 0.4988809824 -0.5439333916 0.6736711264
0.02645005286 -0.1863581538 0.7342413068 0.4375915527 -0.5735017061 0.689065814
0.02136104368 -0.1905582845 0.733602047 0.350774467 -0.5692954063 0.7396968603
-0.001132498728 -0.1842963994 0.7435154319 -0.08201110363 -0.6060520411 0.784953773
0.004691884853 -0.1879619062 0.7403321266 0.04519916698 -0.6089516878 0.7914023995
0.05972445384 -0.1609581858 0.7021329999 0.8835961223 -0.1837592423 0.3544789255
0.06029728055 -0.1508198828 0.6923140287 0.7152974606 -0.2699262202 0.3923509419
0.05950738117 -0.1549812555 0.6989300251 0.7752452493 -0.2633569837 0.4082719386
0.05936907604 -0.1397144794 0.6862396002 0.4642577767 -0.4515138268 0.5250841379
0.05847949535 -0.142024979 0.6798668504 0.2958934307 -0.5017499924 0.5737521648
0.06047957018 -0.1572636366 0.6914947629 0.7590959072 -0.198118642 0.3425845504
0.05906584114 -0.1538838893 0.6822989583 0.4623126388 -0.3437596262 0.4619427621
0.0577666685 -0.1387223452 0.6754414439 0.13962695 -0.5901018977 0.6434587836
0.05958942324 -0.1504048854 0.6863298416 0.5526263714 -0.3339676559 0.4459243417
0.06053100899 -0.1280450374 0.6844213605 0.20012936 -0.6710623503 0.5979884267
0.05890098959 -0.1486501545 0.6797884107 0.3251340985 -0.4435440898 0.520332098
0.06087610871 -0.1439525038 0.6896631122 0.5332480669 -0.4043683112 0.4414369464
0.05702489242 -0.1468745768 0.6690975428 0.01679776423 -0.5776497126 0.6485074759
0.05813347548 -0.1455544978 0.6749166846 0.1569625586 -0.5352101922 0.5929893851
0.05944981426 -0.1353411525 0.6800090075 0.1700193882 -0.6191180348 0.600854516
0.05823499709 -0.131973207 0.6889074445 0.339676559 -0.5813997388 0.6397595406
0.05796163529 -0.1524995565 0.7051614523 0.674021244 -0.3403936625 0.5121374726
0.05797509477 -0.1421873271 0.7025148869 0.2987854779 -0.2671164274 0.5767291188
0.05811116844 -0.1265663803 0.6933514476 -0.0760595277 -0.3376228511 0.6741282344
0.05917181447 -0.1405443996 0.6962278485 0.4399860501 -0.5194063783 0.5614477396
0.05824010447 -0.1352868378 0.6986993551 0.1206628606 -0.3014307618 0.6148197651
0.05817172304 -0.120890379 0.6934381723 -0.3421465755 -0.2476821691 0.7077432275
0.05824961886 -0.1149038151 0.6907352805 -0.5169728994 -0.2485917062 0.7441048622
0.05997251347 -0.122986801 0.6855282784 0.02210820094 -0.6472510695 0.6558237672
0.05567922071 -0.1201623753 0.6795598865 -0.2012320608 -0.5899127722 0.6989192963
0.05745675415 -0.1259137839 0.6780467629 0.09904061258 -0.6894207597 0.7023530006
0.05478112772 -0.126994431 0.6730704308 -0.1015444323 -0.694822371 0.7100588083
0.05861841142 -0.1361945271 0.6684187651 -0.0136323804 -0.6865859628 0.7017945051
0.05857304484 -0.1321795732 0.6744698286 -0.01600108296 -0.7182571292 0.6810823679
0.05663825944 -0.1425767094 0.6646102071 -0.1319107562 -0.6731516123 0.7202532291
0.05433892459 -0.1381087005 0.6590046883 -0.2201914191 -0.4714300334 0.7636576295
0.05295946822 -0.144377768 0.6602091193 -0.4286860228 -0.1791799217 0.7323364615
0.04630693048 -0.1404315829 0.6529891491 -0.5168765187 -0.08089315146 0.7589105964
0.02630718984 -0.1151925027 0.6534141302 -0.3860161901 -0.5742520094 0.7205671668
0.03874385357 -0.1166220084 0.6614847779 -0.5196383595 -0.5336820483 0.6663016677
0.04332666844 -0.1209273115 0.6626114249 -0.4980754256 -0.5631452799 0.6584041715
0.0363725163 -0.121687226 0.6548871398 -0.5130288601 -0.5055873394 0.6933661699
0.03115632571 -0.119904384 0.6517452002 -0.4771417081 -0.547529757 0.6856896281
0.03242071718 -0.1253255308 0.6476272941 -0.5313766599 -0.5226942897 0.6658475995
0.04635118321 -0.121654205 0.6544973254 -0.2170162499 -0.5461836457 0.6826949716
0.03755143657 -0.125010699 0.6490121484 -0.4210161567 -0.5298469663 0.6664363742
0.05705947801 -0.12034183 0.6546751261 0.1003603861 -0.5965665579 0.6582971811
0.04320961237 -0.1264493018 0.6504946351 -0.33094877 -0.5001387596 0.6911106706
0.05194323882 -0.1239829659 0.6529173851 -0.08658471704 -0.5381535888 0.6823797822
-0.001638250891 -0.1888558269 0.7391859293 -0.06397273391 -0.5965095162 0.7943525314
-0.01142796408 -0.1928031445 0.7344415188 -0.2374654561 -0.5484226942 0.7985017896
-0.007169244345 -0.1901270598 0.7377141118 -0.1621034443 -0.5756265521 0.7997046709
0.002022493165 -0.1920824051 0.7365677357 0.02491609752 -0.5561968088 0.822820425
-0.003762112232 -0.1940619349 0.7351740599 -0.1110144407 -0.519451499 0.8419145346
0.04732455686 -0.1303205639 0.6599460244 -0.4823741913 -0.4877142608 0.7273899913
0.04446994513 -0.1333672255 0.6555747986 -0.4738383889 -0.4585345089 0.7490530014
0.04855845869 -0.1397187412 0.657635808 -0.4334748983 -0.4388571084 0.7866662145
0.04241026193 -0.125461638 0.6577717662 -0.4906565845 -0.5276232362 0.6919006109
-0.0206744168 -0.187351644 0.7331478 -0.4013719857 -0.5353578329 0.7356250882
-0.01822659746 -0.1922732741 0.7319612503 -0.3581781983 -0.5177879333 0.7730536461
-0.01279117819 -0.1878678799 0.737265408 -0.2643639445 -0.5792245269 0.7658663392
-0.006775843445 -0.1856341511 0.7415437102 -0.1735244691 -0.5932014585 0.7844386697
-0.01574377902 -0.1814015657 0.7415697575 -0.3255932331 -0.5830698013 0.7402350307
-0.02175601199 -0.1745427549 0.7432923913 -0.4073967338 -0.578327775 0.7034915686
-0.009204668924 -0.1772132367 0.7474704385 -0.2153462917 -0.6081651449 0.7623782754
