# .PCD v0.7 - Point Cloud Data file format
VERSION 0.7
FIELDS x y z normal_x normal_y normal_z
SIZE 4 4 4 4 4 4
TYPE F F F F F F
COUNT 1 1 1 1 1 1
WIDTH 512
HEIGHT 1
VIEWPOINT 0 0 0 1 0 0 0
POINTS 512
DATA ascii
-0.0522521548 -0.1252738982 0.5576421022 0.5452483296 -0.6070706248 0.5643203259
-0.04951846227 -0.1255530417 0.5521646142 0.5985197425 -0.5549912453 0.5699521899
-0.09782613069 -0.03867705166 0.5486156344 0.2784965634 -0.7228873372 0.6290777922
-0.09479445964 -0.03508535028 0.5532203317 0.1813587695 -0.748278141 0.6340764761
-0.0799780935 -0.04150596634 0.5447065234 -0.07550826669 -0.7824712396 0.6086394191
-0.07035703212 -0.03908511996 0.550948143 -0.2650262415 -0.7793989778 0.5508378148
-0.101798512 -0.1335931867 0.5502192974 -0.482573241 -0.5427083373 0.5609925389
-0.1202827916 -0.1398011148 0.5342956185 -0.762275517 -0.4190972447 0.4905758202
-0.0907868892 -0.08399697393 0.4921155274 0.2102361768 -0.6873739958 0.6903389096
-0.1083607152 -0.04462665692 0.5511615872 0.3970872164 -0.684956491 0.6096850634
-0.1021336615 -0.03733043373 0.553616941 0.3331320882 -0.7011486888 0.6280835271
-0.1029233858 -0.05948904902 0.5360834002 0.3728192747 -0.6985937357 0.5844174027
-0.08939313143 -0.0593268536 0.5261980891 0.1267819554 -0.7617794275 0.6114131212
-0.0938199535 -0.05686079338 0.5326861739 0.2053008825 -0.7377685905 0.6054983139
-0.08851782233 -0.05548447371 0.5305080414 0.1078542024 -0.7607899308 0.6175976396
-0.09666834027 -0.06096205115 0.5281673074 0.2736691833 -0.7368422747 0.5906658173
-0.09891708195 -0.06894010305 0.5142524838 0.3342263699 -0.725077033 0.600269258
-0.1156231239 -0.08610802144 0.5119737387 0.6175684929 -0.5434044003 0.5637601018
-0.1091755107 -0.07869864255 0.5113319159 0.5024735928 -0.629755497 0.5917649865
-0.1082232147 -0.08561339229 0.5033295155 0.525257051 -0.6092305779 0.5903453231
-0.09379085898 -0.07024910301 0.509704411 0.2726763487 -0.7377759218 0.6162831187
-0.08730242401 -0.06427650899 0.5140471458 0.1342404932 -0.764118135 0.6232421994
-0.08454859257 -0.03801052645 0.5476504564 0.048155047 -0.7680059075 0.6348193288
-0.08200161904 -0.03453088179 0.5522827506 -0.01412840933 -0.8256835938 0.5550842881
-0.08802617341 -0.0343703106 0.5523779392 0.09360501915 -0.7936497927 0.5956367254
-0.055761531 -0.04356428608 0.5564233065 -0.5134702325 -0.6503427029 0.5537252426
-0.05143997818 -0.04937205091 0.5580635071 -0.4920074046 -0.5969850421 0.6245063543
-0.05135669187 -0.03826832399 0.5586140156 -0.4390681088 -0.6398519278 0.6264765263
-0.06080691889 -0.03870636597 0.5563437939 -0.4422081709 -0.716743052 0.5342910886
-0.06816910207 -0.03550673649 0.5547923446 -0.2918848097 -0.78780967 0.5365352035
-0.07553113997 -0.03919090331 0.5481109619 -0.1713123322 -0.8049896955 0.567536056
-0.07519783825 -0.04436934367 0.5405409336 -0.164571166 -0.7645955086 0.62143296
-0.08106271923 -0.04524186999 0.5392072201 -0.0295278877 -0.7648969293 0.633349061
-0.1048044413 -0.1368044615 0.5458701849 -0.5443453193 -0.5264719725 0.5432128906
-0.1017824262 -0.1416382343 0.5448334217 -0.4691369236 -0.5655425787 0.6068959832
-0.1085671708 -0.136572808 0.5410298705 -0.6060544252 -0.5053707957 0.5169147253
-0.09712138027 -0.1404744834 0.5491604209 -0.3565580547 -0.6136989594 0.6379293203
-0.1209439859 -0.1243278012 0.5370916724 -0.8479645848 -0.3669755757 0.3795682192
-0.1210814789 -0.1226563901 0.5228843689 -0.2894360721 -0.2519775331 0.3076075315
-0.1211137995 -0.1204367802 0.5177220106 0.03278037906 -0.2351191193 0.3152869344
-0.1213263124 -0.1156978756 0.5144935846 0.1745979786 -0.1429323554 0.2412068397
-0.1211198866 -0.1246358901 0.531139493 -0.8326621652 -0.2406844944 0.2583694756
-0.1120241731 -0.1503535956 0.5343244076 -0.6468856335 -0.4565350413 0.5998758674
-0.1135809049 -0.04715206474 0.553959012 0.4390352666 -0.6725144386 0.5952426195
-0.1155074984 -0.05190367624 0.5507592559 0.461550653 -0.6678023934 0.583357811
-0.11959932 -0.05755798891 0.5489819646 0.5065158606 -0.6528558731 0.5621309876
-0.09170480818 -0.03995282575 0.5485916734 0.1520554572 -0.7423633933 0.6359037161
-0.1000344157 -0.0440954268 0.5450937152 0.3566856682 -0.7026101351 0.6101995111
-0.113870196 -0.1026296392 0.494194448 0.6618560553 -0.5004516244 0.5361093283
-0.1135918126 -0.05720709264 0.544629693 0.4952640533 -0.6555406451 0.5696616173
-0.1159687266 -0.06165381148 0.5406684875 0.5312718749 -0.6399739385 0.5544391274
-0.1139042377 -0.06570871174 0.5340768695 0.5497618914 -0.631262362 0.5453403592
-0.1177662313 -0.09477722645 0.5462400317 -0.1963656694 -0.5648415685 0.4446486831
-0.1156364307 -0.06991247833 0.5414260626 0.3756946325 -0.6235654354 0.5254085064
-0.1161254197 -0.08079440147 0.5414223671 0.1503150463 -0.5971447229 0.4920918345
-0.1195761561 -0.1059452891 0.5524665117 -0.5014129877 -0.5398532152 0.4044708014
-0.1215983778 -0.08894809335 0.5236275196 0.6642429233 -0.4602896273 0.4040627778
-0.1214176044 -0.07721159607 0.532491684 0.64015764 -0.5340610147 0.4637959301
-0.1211041957 -0.1010759994 0.5461821556 -0.1928202063 -0.5197246075 0.4045622945
-0.1212904528 -0.08848445863 0.5379856825 0.2737410069 -0.5231266022 0.4339065552
-0.1212354675 -0.0684056133 0.5413085818 0.5618503094 -0.598678112 0.5128639936
-0.1210487112 -0.08239243925 0.5494754314 0.06967113912 -0.5908869505 0.4784278572
-0.1211479604 -0.07825299352 0.5450100899 0.2722943425 -0.584430635 0.4846005142
-0.1213494167 -0.08224977553 0.5354763865 0.4616752565 -0.5314384103 0.4514760077
-0.121275492 -0.07604426891 0.5391547084 0.476986438 -0.5661298037 0.4810803235
-0.1212973222 -0.09877791256 0.5372750163 0.09843102098 -0.4886422455 0.3953769505
-0.1210165843 -0.09693737328 0.5504196286 -0.232229948 -0.5504942536 0.4278071523
-0.1211555302 -0.08596341312 0.5443649292 0.1441161931 -0.5581167936 0.4555179775
-0.1214442179 -0.08823908865 0.5308339596 0.477273345 -0.4932830036 0.4207599461
-0.1214636117 -0.09514729679 0.5296686292 0.3787624538 -0.467194736 0.393550992
-0.1210686192 -0.09015212208 0.5482535958 -0.04340657592 -0.5619561076 0.4480362833
-0.1172780842 -0.07642699778 0.5260475278 0.5987392664 -0.5802647471 0.5470001698
-0.116213508 -0.07102568448 0.5306379199 0.5746657252 -0.6057711244 0.5464298129
-0.1194899082 -0.07040775567 0.5353655815 0.5708923936 -0.6058574319 0.548691988
-0.1204322577 -0.08202152699 0.5238300562 0.6230586767 -0.5521364212 0.5489960313
-0.09270746261 -0.1208486259 0.5842136145 -0.1760390997 -0.7579518557 0.6256843805
-0.09055478126 -0.1154378504 0.5907627344 -0.1514618397 -0.7906537652 0.5895218849
-0.09993972629 -0.06485390663 0.5195351839 0.3494827449 -0.7289133072 0.5865327716
-0.09105762094 -0.0621320121 0.5186280608 0.1974529624 -0.7545868158 0.6155623198
-0.1158976778 -0.1036246121 0.5183967352 -0.1877691448 -0.3723054528 0.3391973376
-0.1073674038 -0.08396190405 0.5097577572 0.456197232 -0.6010811925 0.5663010478
-0.1101235524 -0.09309167415 0.5164811611 0.04383699223 -0.4888096154 0.43435058
-0.1161216199 -0.1082324684 0.524417758 -0.5057144165 -0.3097828627 0.2469244748
-0.1157549843 -0.09120835364 0.5172460675 0.3368001878 -0.5009934306 0.4872391522
-0.1126189902 -0.09697858244 0.5196146369 -0.08301403373 -0.4391612113 0.384937942
-0.1215546951 -0.09430969507 0.513035059 0.8269994855 -0.4121268392 0.3783866465
-0.1212566569 -0.1049865335 0.5033271909 0.8753375411 -0.3377712965 0.3346121609
-0.1032316834 -0.07358597964 0.5121307969 0.4402922392 -0.671672523 0.5935158134
-0.1038047746 -0.08023899049 0.5051286221 0.4641397893 -0.6545990109 0.5961939096
-0.08438863605 -0.07808349282 0.4982119501 0.08704382926 -0.7307161689 0.6761625409
-0.08937108517 -0.08130890876 0.5014725327 0.17652753 -0.7246004343 0.659824729
-0.1003896818 -0.08559539169 0.495962441 0.418558538 -0.6429109573 0.63205266
-0.09778000414 -0.09074106812 0.489151299 0.3737258017 -0.6356914639 0.6654859781
-0.006617347244 -0.05538125709 0.5359113812 0.5502984524 -0.5877972245 0.5907281041
-0.008450786583 -0.04971610755 0.5409860015 0.5070411563 -0.6141986251 0.6032074094
-0.0804990977 -0.05089332536 0.5323211551 -0.05221230909 -0.7730751038 0.6239356995
-0.06082220376 -0.04054312035 0.5504873395 -0.3222898543 -0.7042376995 0.6231983304
-0.06263369322 -0.04446621984 0.5446285009 -0.3240135312 -0.712651968 0.6192899346
-0.1213634759 -0.1074926481 0.5283430815 -0.2486147732 -0.2744214535 0.2603994012
-0.1210994273 -0.116352573 0.5349667668 -0.7956488132 -0.2117786109 0.2093203366
-0.1203193069 -0.1008501127 0.5245937109 0.02790412121 -0.4135214686 0.4039847851
-0.1188243032 -0.1175562888 0.5411344767 -0.7851119637 -0.3658051789 0.3219407797
-0.119492881 -0.1093774661 0.5337533951 -0.3792903125 -0.4015166759 0.3768464327
-0.120507881 -0.1163597032 0.547401011 -0.691098094 -0.4490924776 0.3742381334
-0.1212408394 -0.1051754877 0.5383332968 -0.06118507311 -0.4721336365 0.3755207658
-0.1157786846 -0.08754084259 0.5388355851 -0.000180571893 -0.5515032411 0.4759353101
-0.1185214818 -0.1111020371 0.5472345352 -0.6189112663 -0.4757306874 0.3972457647
-0.1149151102 -0.07604829222 0.5367156863 0.3010581732 -0.6048080325 0.5113058686
-0.1169258282 -0.09992169589 0.5420230627 -0.324960351 -0.501550138 0.4364538491
-0.1043247133 -0.1319454163 0.5554491878 -0.5671651959 -0.6090533733 0.4982967377
-0.09694864601 -0.1372798979 0.5561744571 -0.374858886 -0.6780499816 0.6098024845
-0.1078240797 -0.1302657872 0.5501804948 -0.6378403902 -0.5180447698 0.4838822782
-0.07715705037 -0.154593721 0.5492212772 0.1547323167 -0.6387681961 0.7522435188
-0.07408633083 -0.1468572319 0.5526922345 0.2299675643 -0.6384341121 0.7330967784
-0.07873602957 -0.1479081661 0.5493581891 0.09396890551 -0.625790596 0.7189042568
-0.09455057234 -0.1467983872 0.5489333272 -0.3220572174 -0.6294824481 0.7008074522
-0.08979170024 -0.1433280706 0.5526776314 -0.1913797706 -0.6624667048 0.7025923133
-0.05360002816 -0.09147639573 0.4954510033 -0.5165732503 -0.6585166454 0.544621706
-0.04843293503 -0.09121762961 0.5021572709 -0.5529355407 -0.6677800417 0.4967769384
-0.05419556424 -0.07460718602 0.5164009333 -0.562754631 -0.6449663043 0.506533742
-0.05836967006 -0.06932254881 0.5174947381 -0.4717005789 -0.6773408651 0.5619884729
-0.03351224586 -0.04657597095 0.5519061089 -0.1851651967 -0.7282397151 0.5345548987
-0.02347921394 -0.04454497248 0.5538612604 0.04552441463 -0.8018425107 0.5150787234
-0.04098147899 -0.04669444263 0.551676333 -0.3448393643 -0.6734485626 0.5604692698
-0.03780237958 -0.04045053944 0.5573406219 -0.2227129042 -0.6995059252 0.5970714092
-0.02954599261 -0.04234884307 0.5565027595 -0.06063402072 -0.7759650946 0.5336848497
-0.05276616663 -0.04807503149 0.5478823781 -0.5190234184 -0.6400436163 0.5632970929
-0.05078170449 -0.04392682761 0.5527064204 -0.4831873775 -0.6291772127 0.6036938429
-0.0439293161 -0.08756259084 0.5079140663 -0.487382412 -0.6313198209 0.5264962912
-0.03779734671 -0.08707025647 0.5098412633 -0.3502573669 -0.5694490075 0.6375349164
-0.04610727727 -0.08384358883 0.5121938586 -0.5702502728 -0.6220261455 0.4839513898
-0.03167439252 -0.08560503274 0.5130068064 -0.2218760997 -0.49985075 0.7476335168
-0.04199132696 -0.1232807338 0.5452174544 0.6272280216 -0.3704793751 0.512175858
-0.04104106873 -0.1108191386 0.5443333983 0.2167833447 -0.4130018055 0.4656849504
-0.03963908553 -0.1176868454 0.5433894396 0.4702696204 -0.336209625 0.4759198129
-0.04626601562 -0.1181250066 0.5483207107 0.3912735283 -0.517410934 0.530238688
-0.0106142424 -0.06988588721 0.5287547112 0.3035455942 -0.5737273097 0.573915422
-0.0248908028 -0.07733688504 0.5333837867 -0.2493358701 -0.54298985 0.4808399975
-0.004989142995 -0.06668048352 0.5268438458 0.5253812671 -0.5891517401 0.6112465262
-0.05258496106 -0.1316502392 0.5509667397 0.5601698756 -0.5702914596 0.5899020433
-0.04640695825 -0.1289322674 0.5482925773 0.6753572226 -0.4346921444 0.5487311482
-0.1180232465 -0.1287440956 0.5341213942 -0.8602337837 -0.337103039 0.3195842803
-0.1170924008 -0.1237411425 0.5421949625 -0.8576039076 -0.3467032015 0.3569062948
-0.1147324964 -0.1309984028 0.543915689 -0.8196108937 -0.3867149949 0.4217554927
-0.1166475266 -0.1339391172 0.5362098813 -0.7988659143 -0.4168840945 0.4328522384
-0.1191139668 -0.1197316647 0.527626276 -0.6589927673 -0.2053846121 0.1547586769
-0.1194350198 -0.1226134747 0.5103904009 0.4482157826 -0.2355173677 0.3611940444
-0.1181379557 -0.1271146387 0.5136845708 0.2358980477 -0.2830580473 0.3831233978
-0.1195323989 -0.1321133524 0.5236614347 -0.3340120614 -0.3425844312 0.4234781265
-0.1181139871 -0.1392093152 0.5250383615 -0.4651476145 -0.3692508936 0.4752827287
-0.1209910884 -0.1158065647 0.506375134 0.7175536156 -0.180516392 0.3208283186
-0.1174079701 -0.1270043105 0.5199044943 -0.03068815917 -0.3278252184 0.3758222461
-0.1170655042 -0.1346726567 0.5289170742 -0.5411984921 -0.3922452033 0.4346256852
-0.1215277687 -0.1141271442 0.5291875005 -0.6955265403 -0.1341170818 0.1468833983
-0.1215660125 -0.104099676 0.5185132623 0.2750072777 -0.2563912272 0.2769658267
-0.1214743108 -0.1101754531 0.5177155733 0.1192329451 -0.1792116612 0.2360963374
-0.1215122044 -0.1113955528 0.5235247612 -0.2672238648 -0.1662534028 0.1967092603
-0.1214985996 -0.1028432921 0.5095216036 0.852032721 -0.2684538662 0.3332448006
-0.1165808737 -0.1471020281 0.5301446319 -0.7275512815 -0.4200375378 0.539409101
-0.1149851009 -0.1449685991 0.5379713774 -0.6867234707 -0.442190975 0.570560813
-0.1130855903 -0.1384293735 0.5367252231 -0.7113859057 -0.4567419589 0.4942205548
-0.108224757 -0.1418359429 0.5395601988 -0.6112320423 -0.5000244975 0.5576596856
-0.08564910293 -0.160521999 0.5466460586 -0.06768712401 -0.663911581 0.7135381699
-0.09817852825 -0.1437349916 0.5557827353 -0.3461772203 -0.6572564244 0.6587430239
-0.09356667846 -0.1478290111 0.5561901331 -0.2609045804 -0.6919931769 0.6660053134
-0.09464583546 -0.1525836736 0.5513286591 -0.2917748094 -0.6752295494 0.6714236736
-0.08736432344 -0.1564899087 0.552056551 -0.1391565651 -0.6948003769 0.7040397525
-0.08977627754 -0.1446417123 0.56144315 -0.1747954488 -0.7199742198 0.6703221798
-0.0860343352 -0.04285032302 0.5430644751 0.05419621989 -0.7679225802 0.6339073777
-0.0932533592 -0.04214771837 0.5428615808 0.2101365179 -0.7492735386 0.6264361143
-0.08801130205 -0.04899197072 0.5345509052 0.116619572 -0.7594079971 0.6348956227
-0.1086711362 -0.05875692517 0.5402752757 0.4655698836 -0.671861589 0.5758229494
-0.105940491 -0.04909586534 0.5442201495 0.4453175962 -0.6688229442 0.5951747298
-0.1117952168 -0.05137382448 0.5467551947 0.4637310803 -0.6629018188 0.5871177316
-0.09732933342 -0.05253187194 0.534692049 0.3217671514 -0.7163659334 0.6184194684
-0.09949528426 -0.04834964871 0.5402672887 0.3512372971 -0.7027849555 0.6114879251
-0.09387832135 -0.04773544893 0.537079215 0.2260617912 -0.7401189804 0.6326246262
-0.1030144542 -0.06270702928 0.5248945951 0.3961896598 -0.7202749848 0.5692386031
-0.1079695523 -0.1174856126 0.5771134496 -0.5031188726 -0.6732081175 0.5388704538
-0.1051750332 -0.115700528 0.5827109814 -0.438513875 -0.708344996 0.5498839021
-0.09812129289 -0.1168800518 0.5863050818 -0.2840260863 -0.7676270604 0.5676290989
-0.07539328188 -0.1184250489 0.5867715478 0.04399578646 -0.8185750246 0.5717380047
-0.08196220547 -0.1172356606 0.5890697837 -0.02168731019 -0.7997897863 0.5969207287
-0.09004588425 -0.07264303416 0.5052965879 0.2119145393 -0.7374955416 0.63889575
-0.09443451464 -0.07703293115 0.5027520061 0.2641128898 -0.7194922566 0.6417370439
-0.09789519757 -0.07436328381 0.5080428123 0.3385440707 -0.7127872705 0.6089291573
-0.1028848737 -0.08653692156 0.502286315 0.4258904755 -0.6245469451 0.6167854071
-0.09545210004 -0.08642151207 0.4982028306 0.3124657869 -0.665104866 0.6526599526
-0.1086396202 -0.09086180478 0.4996401966 0.5649594665 -0.5596442223 0.6026855707
-0.1065087169 -0.09982936829 0.492880255 0.5813495517 -0.5143075585 0.5793651938
-0.1032946557 -0.09573577344 0.4890000224 0.4959399104 -0.5857853889 0.6262609959
-0.04497668892 -0.04016836733 0.5603266954 -0.3390257955 -0.6994997859 0.5690205097
-0.05221790075 -0.1059051007 0.5605787039 -0.04030177742 -0.6423777938 0.4960728586
-0.04653282464 -0.09203243256 0.5530357361 -0.332327038 -0.6057710052 0.4862236381
-0.05518743768 -0.1130859554 0.5652577281 0.1604746729 -0.68958956 0.5306966901
-0.04797914997 -0.09864322841 0.5563254952 -0.1750776768 -0.6552276611 0.4995044768
-0.04060989991 -0.08436357975 0.5452294946 -0.6469762325 -0.5442718863 0.3849879503
-0.04294171557 -0.08808342367 0.5492751598 -0.4612267315 -0.6025084853 0.4528493881
-0.04631057754 -0.04953182116 0.5485710502 -0.4773100019 -0.6247360706 0.5657785535
-0.02208305709 -0.04761292785 0.5482954383 0.05565496534 -0.7682886124 0.5286984444
-0.01451189443 -0.04693194106 0.5484211445 0.2238272727 -0.8147314191 0.5161200166
-0.02760830149 -0.04749784991 0.5495898724 -0.06383830309 -0.7472398877 0.5300523043
-0.1202692613 -0.1191431507 0.5531976819 -0.789588511 -0.4826940298 0.3738500476
-0.1126777828 -0.1261260062 0.5560335517 -0.7181816101 -0.5585001111 0.4104136527
-0.1088756472 -0.1362523288 0.5517944694 -0.6398814917 -0.531758368 0.5308974385
-0.1105507612 -0.140600577 0.546397686 -0.6627295613 -0.485490799 0.5595433116
-0.1045637801 -0.1414305121 0.5519235134 -0.4999086857 -0.5879681706 0.6168496013
-0.1145367473 -0.1292950213 0.550360024 -0.770306766 -0.4634227455 0.4309393764
-0.1028936505 -0.1377839893 0.5573908687 -0.4780409932 -0.6466972232 0.5877172947
-0.08589520305 -0.1477692574 0.5571294427 -0.06013913825 -0.7182171345 0.6887027621
-0.08020964265 -0.1446340084 0.5580530763 0.08719271421 -0.7090986371 0.6922652125
-0.08577295393 -0.1208000034 0.5849526525 -0.06203999743 -0.7825782895 0.6163128018
-0.05974758416 -0.1395855695 0.5511393547 0.4924907684 -0.5914334655 0.6356506348
-0.05996805802 -0.1434221864 0.547154665 0.481675446 -0.5711575747 0.6587659121
-0.05354250595 -0.1372114569 0.5467197299 0.5727273822 -0.5510675907 0.6049992442
-0.07140815258 -0.1385215223 0.5576582551 0.265973419 -0.693949759 0.6658542752
-0.08309422433 -0.1395899355 0.556435883 -0.02081931569 -0.6919667125 0.6897580028
-0.07613439113 -0.1411882192 0.5546079278 0.1456195116 -0.6636897326 0.6838077903
-0.09544182569 -0.1307536364 0.5663500428 -0.3882923424 -0.7079667449 0.5589127541
-0.08797837049 -0.1326801777 0.5654153824 -0.1671115458 -0.7216187716 0.5916711688
-0.08944731206 -0.1390318871 0.5570424199 -0.18156524 -0.6957830191 0.6868261695
-0.09234248847 -0.1349732131 0.5616146922 -0.2816699147 -0.7018755078 0.6241341829
-0.07999616861 -0.1373559237 0.5605658889 0.07193636149 -0.7205998302 0.6644346714
-0.1094877347 -0.123403281 0.5599446893 -0.6562584043 -0.6195624471 0.4176464975
-0.1145238057 -0.1221959889 0.5506050587 -0.7640861273 -0.4904465377 0.3953613341
-0.1136480942 -0.1195484325 0.5553894639 -0.7200930119 -0.5440483093 0.3977663815
-0.04191965982 -0.05894817039 0.5376614332 -0.4668519497 -0.5707881451 0.475378722
-0.0236050114 -0.05834703147 0.5347369909 0.1223096102 -0.6053619385 0.560257256
-0.03124502115 -0.05792683735 0.5366906524 -0.1254172474 -0.5935156941 0.5161165595
-0.01485921349 -0.06768430024 0.534483552 0.1541325003 -0.5764788389 0.5260409713
-0.03050999343 -0.07607224584 0.5394400954 -0.4695759714 -0.5320780277 0.4081666172
-0.01171262935 -0.05685550347 0.533578217 0.4768716693 -0.6346177459 0.6061597466
-0.08849250525 -0.09105893224 0.4899791181 0.2144916803 -0.6444875598 0.6668462753
-0.08255344629 -0.08997814357 0.4909861684 0.09574522078 -0.6521530151 0.6611329317
-0.07805377245 -0.08527380973 0.4935450852 -0.04145094007 -0.6550983191 0.7023308873
-0.06953587383 -0.09019847959 0.4927150011 -0.1744566262 -0.6585941911 0.6158556938
-0.05918679386 -0.09090127051 0.4941523671 -0.4005356431 -0.6588647962 0.5726462603
-0.07541557401 -0.09176968783 0.4917109609 -0.06374807656 -0.6475391388 0.6148839593
-0.08486405015 -0.08411096781 0.4929264784 0.08948091418 -0.6691069007 0.7110794187
-0.07660329342 -0.07941041887 0.4970039725 -0.08926299959 -0.6845106483 0.721352458
-0.05428596586 -0.08666095138 0.5015084147 -0.5018304586 -0.6719484925 0.5403764248
-0.08380921185 -0.05648766458 0.5263356566 0.02165349014 -0.780200541 0.6228046417
-0.0668573007 -0.0550519526 0.5321542621 -0.3083962202 -0.7351869941 0.6001799703
-0.07398147136 -0.05538645014 0.5284798741 -0.1731804609 -0.7717500329 0.6086743474
-0.02922816947 -0.05234193429 0.5428289771 -0.06591201574 -0.6534729004 0.5471077561
-0.03511746973 -0.05167659745 0.5444633365 -0.209366411 -0.6400159597 0.5509399176
-0.04381009564 -0.05293184891 0.5443793535 -0.4649933279 -0.6038326621 0.5210924745
-0.0494482331 -0.05394006148 0.5441083908 -0.6346023083 -0.5789482594 0.4986537695
-0.02603378519 -0.05511197448 0.5388417244 0.02780547552 -0.6262077093 0.5364685655
-0.01593795419 -0.05281361565 0.54008919 0.3087124527 -0.6830969453 0.569219172
-0.0367814824 -0.05642792955 0.5390506387 -0.2911790311 -0.5852239728 0.4997623861
-0.04816067591 -0.05837664753 0.5393176079 -0.6607952118 -0.5594152808 0.4515852332
-0.04342123121 -0.08075273782 0.5166532397 -0.5349974036 -0.5728242993 0.5293959379
-0.02828082256 -0.08141878247 0.5153825283 -0.1501353383 -0.5064832568 0.7400574684
-0.02088485844 -0.07756987214 0.5164575577 0.0309868101 -0.5117871165 0.7747043371
-0.02210975252 -0.08330350369 0.5142092705 0.009389255196 -0.4648690224 0.8523013592
-0.03667241707 -0.08078864962 0.5161928535 -0.3638758063 -0.5456105471 0.619030416
-0.0225150045 -0.08638802171 0.5239968896 -0.1196973175 -0.4985128343 0.6925922632
-0.01586191915 -0.08779058605 0.5174309611 0.1532355696 -0.499302119 0.8129171133
-0.02014007419 -0.07697799802 0.5298149586 -0.05956974998 -0.5506991148 0.5398660302
-0.02369694412 -0.08230093867 0.5283240676 -0.1826292276 -0.5184726715 0.5954397321
-0.03176091611 -0.08072803915 0.5361776948 -0.5129632354 -0.5168503523 0.4521077573
-0.0147901671 -0.08071888983 0.5223831534 0.1697368622 -0.5376486182 0.6882146597
-0.01288585458 -0.07542845607 0.5251913071 0.2264361531 -0.5676842332 0.6102737784
-0.01540162321 -0.07943370938 0.5157377124 0.1662429273 -0.4818341136 0.8574935794
-0.01160560176 -0.0837033987 0.5164413452 0.3020076454 -0.543191731 0.7693829536
-0.008913083002 -0.07877081633 0.5186135769 0.3937031627 -0.5699759722 0.7113355398
-0.04331927001 -0.09612363577 0.5086421371 -0.5315203071 -0.4628990889 0.5664377809
-0.02001959831 -0.08987389505 0.5142315626 0.07349101454 -0.4901966453 0.8539983034
-0.04694291949 -0.07724791765 0.5296679735 -0.6976171136 -0.5654215813 0.4340404272
-0.04318349808 -0.08120722324 0.5327603817 -0.7097953558 -0.5831053853 0.3916536868
-0.04323519766 -0.0855178535 0.536288321 -0.5827041268 -0.5651955009 0.4050545692
-0.045074936 -0.09899782389 0.5416842103 -0.1694503576 -0.5460769534 0.4634150863
-0.04395324364 -0.09344546497 0.5370157957 -0.3694783151 -0.5793639421 0.4308831692
-0.04502407461 -0.1058984548 0.5460326076 0.02889654599 -0.5243757367 0.484722048
-0.04680321366 -0.1117062494 0.5468071699 0.2202832103 -0.5277221799 0.5184281468
-0.04241424426 -0.09395495057 0.5439424515 -0.3410075009 -0.5184876919 0.4265449345
-0.04234602675 -0.07869096845 0.539722383 -0.7400056124 -0.5140581131 0.3868878484
-0.06214430556 -0.1496290714 0.5447398424 0.4417438805 -0.5744875073 0.6829541326
-0.05563138798 -0.1494856924 0.5423119068 0.5301011801 -0.550106287 0.6447653174
-0.1066784114 -0.09382728487 0.4946249723 0.576847136 -0.5353450179 0.6165431142
-0.1138613597 -0.09361679107 0.5016010404 0.6145573854 -0.5231610537 0.5900163651
-0.1101517975 -0.09895841777 0.4971297085 0.6770303249 -0.4454600215 0.5222195387
-0.115361996 -0.1072428748 0.500898838 0.8380470276 -0.3005295992 0.3680821061
-0.1173068583 -0.0994996801 0.5002692938 0.7143344283 -0.4700247943 0.4969985187
-0.1143248752 -0.09633607417 0.5114997029 0.2070811093 -0.4652042985 0.4606475532
-0.1179425195 -0.1109735891 0.5124176145 0.2453895509 -0.2580420971 0.2744535208
-0.1174080446 -0.09152493626 0.5094517469 0.6411379576 -0.5155596137 0.5675874352
-0.1208874732 -0.1103842109 0.5014467239 0.9216414094 -0.2401013225 0.2974117398
-0.1002379879 -0.1568615586 0.5432960987 -0.4022458196 -0.5890467167 0.6738113761
-0.09315656126 -0.1601239741 0.5461723804 -0.2775585949 -0.6754494905 0.6813060045
-0.1003829688 -0.1482351571 0.5498205423 -0.404748112 -0.6248096228 0.6625157595
-0.09794294089 -0.151436016 0.5447183847 -0.4016306996 -0.5989046693 0.6883485317
-0.1060708612 -0.1480799764 0.5400692821 -0.5570200086 -0.5169657469 0.6211602688
-0.06930223107 -0.1560718268 0.5450033545 0.3042951524 -0.6087578535 0.7256130576
-0.07559978962 -0.1592195928 0.5464348197 0.1969498843 -0.6346776485 0.7429132462
-0.07169193774 -0.1507890075 0.5484995246 0.2686873078 -0.6188160777 0.7339715958
-0.08207900822 -0.1528095007 0.5466472507 0.000260724104 -0.6182799339 0.7362010479
-0.08730450273 -0.1499837339 0.5472182035 -0.1348382384 -0.6143964529 0.7162182331
-0.09201197326 -0.1533667296 0.5455782413 -0.2659584582 -0.6256991625 0.7086699009
-0.1053709239 -0.05288542807 0.5400451422 0.4504541457 -0.6736707091 0.5855839849
-0.1097220406 -0.06616920233 0.5271960497 0.4877933264 -0.6736730933 0.552726388
-0.1040586904 -0.05961349607 0.5302278996 0.4293692112 -0.7020890117 0.5662122965
-0.04091541842 -0.04500898346 0.5638410449 -0.2487991601 -0.765173912 0.5144052505
-0.04674113169 -0.04705142602 0.5628900528 -0.4226365685 -0.6029653549 0.6698645353
-0.04614746571 -0.05442712829 0.5597724915 -0.4689091444 -0.5434172153 0.6927431226
-0.03207815811 -0.04678617045 0.5642551184 -0.02366144955 -0.934938252 0.3166124523
-0.04082839936 -0.05256860331 0.5638051033 -0.2919784188 -0.5731558204 0.7526659369
-0.09196121991 -0.133498773 0.5697094202 -0.2479717433 -0.7536029816 0.6064778566
-0.09903670102 -0.137261644 0.5628805161 -0.3828258216 -0.6835373044 0.6065171957
-0.09261832386 -0.121662356 0.5783955455 -0.2295699418 -0.7426845431 0.5785089731
-0.1054088697 -0.1195916161 0.5684674382 -0.5195125341 -0.6878490448 0.457909286
-0.09766661376 -0.128205508 0.5729320645 -0.3744725287 -0.734911561 0.5598427057
-0.09901764989 -0.121573925 0.580932498 -0.3358641267 -0.7230319381 0.5917294621
-0.1015138999 -0.1242544502 0.5768176317 -0.4279506505 -0.7077806592 0.5584642291
-0.09338119626 -0.1245838627 0.5730392933 -0.2326809168 -0.7396115661 0.5582110286
-0.09949621558 -0.1220539212 0.5703976154 -0.3814298213 -0.7126307487 0.503847301
-0.08901100606 -0.1263314188 0.5780053735 -0.1151065901 -0.7653667927 0.6265066862
-0.08372826874 -0.1375210285 0.5659796596 -0.02454878576 -0.7460223436 0.6428726315
-0.1046561003 -0.1300792098 0.5651830435 -0.5422311425 -0.6519021988 0.508854866
-0.05946196616 -0.1341078728 0.5550987124 0.4831515253 -0.6333986521 0.6000460982
-0.05641523004 -0.1291309297 0.5603907108 0.5038642883 -0.6413288116 0.5752168298
-0.05829084292 -0.1232567653 0.5688572526 0.4033525586 -0.7220624685 0.5593505502
-0.06028315052 -0.1279630363 0.5647563338 0.4328652024 -0.7074366808 0.5569947958
-0.1060265824 -0.07019462436 0.5188339949 0.4545841813 -0.6831467748 0.5667467117
-0.08481546491 -0.069697164 0.5108014941 0.06520564109 -0.7636194229 0.6351821423
-0.07714553177 -0.07070148736 0.5099461675 -0.09691529721 -0.751730442 0.6364638805
-0.08148057014 -0.07199899852 0.5048928261 -0.009186376818 -0.7453945875 0.6619218588
-0.08005879819 -0.06512597203 0.513525486 -0.05443615839 -0.772187233 0.6276099682
-0.06278781593 -0.08668325096 0.497276783 -0.3726872504 -0.6730366945 0.6085101366
-0.07649654895 -0.07766611874 0.5031243563 -0.111376971 -0.718924284 0.6696243882
-0.06635433435 -0.07597883046 0.5054923296 -0.3306702077 -0.7130953074 0.6092294455
-0.05691038072 -0.07037553191 0.522978723 -0.5593984127 -0.6049656868 0.520344317
-0.06423993409 -0.06770001352 0.5201821327 -0.3806371391 -0.6904528737 0.5661201477
-0.07614401728 -0.06110691652 0.5219779611 -0.1182785258 -0.7802735567 0.6081885099
-0.08321673423 -0.06047075614 0.5215653181 0.01340599079 -0.7835347652 0.6165317893
-0.07503040135 -0.06459801644 0.5163356662 -0.1470854133 -0.7785418034 0.6100670099
-0.05232509598 -0.05668066069 0.5493808985 -0.4722975791 -0.6025469899 0.6288563013
-0.07286966592 -0.05195635557 0.5332666636 -0.1968370229 -0.7641963959 0.6095767617
-0.07596418262 -0.04782411456 0.5361309648 -0.1513713896 -0.7637128234 0.6242312789
-0.06900431216 -0.05177772418 0.5375038385 -0.2523424029 -0.7344272137 0.6000416875
-0.06936157495 -0.0441897437 0.5445010662 -0.27379179 -0.7470712662 0.5924047232
-0.05753127486 -0.04781673849 0.5517223477 -0.4460034072 -0.6712238193 0.5812600255
-0.04990350083 -0.05446248502 0.5556041598 -0.4769179225 -0.5753734708 0.6560438275
-0.0631436035 -0.0511126183 0.5383472443 -0.3721314967 -0.7144324183 0.5861773491
-0.02372091264 -0.07230233401 0.5205628872 0.04073091969 -0.5847694874 0.6296312809
-0.03575994819 -0.0756823644 0.5191172957 -0.3029262424 -0.5953221917 0.5365542769
-0.01527842786 -0.06921805441 0.5221177936 0.2933011353 -0.5858102441 0.6801882386
-0.01134973019 -0.06128697097 0.5277489424 0.4257601798 -0.6255602837 0.6526477337
-0.05193724483 -0.0826215595 0.510807395 -0.5831599832 -0.6604422927 0.4727004766
-0.05618169904 -0.08180816472 0.5057173371 -0.534714818 -0.6671969891 0.5170418024
-0.05696383864 -0.07754130661 0.510117352 -0.5440950394 -0.6563111544 0.5222480297
-0.05478904396 -0.1429876834 0.5438557863 0.5698893666 -0.5390686393 0.6198667884
-0.0365335457 -0.09514884651 0.5101848245 -0.1717938036 -0.781506896 0.483107686
-0.03034988791 -0.09403344244 0.5121569037 -0.001712608151 -0.8095691204 0.512561202
-0.03492604941 -0.0989478901 0.5145033002 -0.1269647926 -0.8411021829 0.4436429739
-0.0284035299 -0.09923286736 0.5173691511 0.1208006218 -0.8810364008 0.4524550438
-0.03482555225 -0.1231594086 0.5245246291 0.5639910102 -0.4001709223 0.5130623579
-0.03049422614 -0.105245553 0.5193858743 0.1999422014 -0.7887330651 0.4500381052
-0.03598267585 -0.1123484969 0.5216566324 -0.03397249803 -0.3194838166 0.5779520869
-0.0330392383 -0.1124472469 0.5266808271 0.4059644938 -0.6215220094 0.4681048095
-0.03552991152 -0.1219004989 0.5301753879 0.6013826728 -0.4153036773 0.4999256134
-0.03750316054 -0.1279047132 0.5344785452 0.7445579767 -0.280339241 0.5169468522
-0.03728851303 -0.1230638698 0.5383373499 0.6961464882 -0.3751366138 0.4920049906
-0.03648269176 -0.128659308 0.5282651186 0.7007796168 -0.2762956023 0.5294259787
-0.02961568534 -0.08722036332 0.5291156769 -0.3304296434 -0.5617275834 0.5391189456
-0.02394448593 -0.09274233133 0.5199877024 -0.003448678413 -0.6226356626 0.6498805285
-0.03406873718 -0.0865399465 0.5333163142 -0.466458112 -0.6083630323 0.4184839129
-0.03688063845 -0.08187906444 0.5394027829 -0.6920864582 -0.5284721851 0.3812753558
-0.03231136128 -0.1055369601 0.526160419 0.2191525698 -0.7070628405 0.4442932308
-0.03390673921 -0.0928645581 0.5303087234 -0.2503346205 -0.6840732098 0.3999259472
-0.03826681152 -0.101386629 0.5412483215 -0.06030747294 -0.4270372987 0.4190386236
-0.03497348353 -0.1075968519 0.5328687429 0.227875635 -0.5642707348 0.445738554
-0.03460402414 -0.1015002802 0.531991303 0.02831540443 -0.6102374196 0.4266381264
-0.03695676103 -0.106021896 0.5378950834 0.1282283068 -0.4718846977 0.4367011487
-0.03758982196 -0.09099027514 0.5396333337 -0.3995268941 -0.5077782869 0.3865597546
-0.03683502227 -0.09735566378 0.5376672745 -0.1647792459 -0.5169906616 0.4087536633
-0.03607324138 -0.1160263345 0.5355702639 0.4901740253 -0.4711765349 0.470985502
-0.03199249506 -0.09856785834 0.525418818 -0.01136243809 -0.7544183135 0.42225492
-0.02473889105 -0.04916169867 0.5623031259 0.1145980433 -0.8378164172 0.4501327276
-0.01675178483 -0.04494937137 0.5538792014 0.1930999756 -0.8467784524 0.4935259223
-0.01877210662 -0.05009740591 0.5560644865 0.2977456152 -0.7380853295 0.5959299803
-0.02190918848 -0.06407884508 0.5446172357 0.03744822368 -0.6477637291 0.5534723401
-0.03606415913 -0.07573467493 0.5436834097 -0.5355315804 -0.6111928225 0.4941461086
-0.007716901135 -0.06366346776 0.5325552821 0.4332778454 -0.592671454 0.5709590316
-0.03021706454 -0.07100239396 0.5439740419 -0.3001540303 -0.6256279945 0.5183451176
-0.01071786042 -0.0579774417 0.5417643785 0.4411016107 -0.6513261199 0.5887746215
-0.02266759798 -0.05823226646 0.5520297885 0.1093222499 -0.6984858513 0.5744046569
-0.0292408336 -0.06562489271 0.5493128896 -0.188140139 -0.6653844118 0.5394778252
-0.01683554612 -0.06173740327 0.5428341627 0.2137150913 -0.6459215879 0.5678945184
-0.01896682195 -0.0663389191 0.5394108295 0.082322523 -0.6172413826 0.548355937
-0.01742225327 -0.05441585556 0.5517959595 0.3136782348 -0.7079441547 0.5945153832
-0.02460297197 -0.07044429332 0.5396568179 -0.1373323947 -0.6070407629 0.5267296433
-0.01320593338 -0.05341654271 0.5463639498 0.375008136 -0.703432858 0.5900500417
-0.03778231516 -0.05768377334 0.5632572174 -0.2950782478 -0.5393556952 0.775775671
-0.03223769367 -0.05446185544 0.5642736554 -0.02872460149 -0.6106883883 0.7679305077
-0.03896327317 -0.06987274438 0.5528846383 -0.5418261886 -0.5605541468 0.6052646041
-0.02816779539 -0.05690711364 0.5593532324 -0.041786246 -0.6536004543 0.6508210897
-0.03429339454 -0.07012619078 0.5486956239 -0.4005460143 -0.640415132 0.5260935426
-0.03110779077 -0.06296361238 0.5546283722 -0.2107305378 -0.6447456479 0.5968601108
-0.0365056619 -0.06530065835 0.5578549504 -0.4220159352 -0.5514478087 0.6777653098
-0.1161801219 -0.07829658687 0.5505149961 0.1610238105 -0.6412484646 0.5040714145
-0.1167192906 -0.06771402061 0.5469272733 0.3884405792 -0.6440708637 0.5324633121
-0.1167311817 -0.08633776009 0.5511505008 -0.03696265444 -0.6118017435 0.4746300578
-0.1154322252 -0.1103246659 0.5608446002 -0.5368335843 -0.6217767596 0.4150551558
-0.1166811064 -0.1049269363 0.5574685931 -0.4407826662 -0.6013709903 0.4232666194
-0.1162313893 -0.09794063121 0.5556792021 -0.2809669971 -0.6141865253 0.4451146722
-0.1208733991 -0.06402663141 0.5480028391 0.4704432189 -0.6437917948 0.5424739718
-0.1192466989 -0.09268497676 0.5545058846 -0.1758774817 -0.6045152545 0.4563136697
-0.1207513511 -0.1119650602 0.555654943 -0.655154407 -0.5289469957 0.3842934072
-0.1122495979 -0.1201888025 0.5641869307 -0.6487098336 -0.6282832623 0.425468266
-0.1125924364 -0.117437005 0.5700345039 -0.6043795943 -0.6414622068 0.4672589004
-0.06689821929 -0.1366832405 0.5612408519 0.34856686 -0.6926749349 0.6250482798
-0.06612866372 -0.1425030828 0.5533454418 0.3839164078 -0.6343301535 0.6697544456
-0.08248505741 -0.1267989278 0.5773313642 0.01271908171 -0.7777196765 0.6201835871
-0.08033164591 -0.1228221208 0.582254529 0.01717043482 -0.783521831 0.6127399802
-0.07438700646 -0.1265472025 0.575992465 0.1768212318 -0.7883973718 0.5887507796
-0.07147158682 -0.1306264102 0.5694100857 0.240127027 -0.7673066258 0.5855109692
-0.06661736965 -0.1315366775 0.5653446913 0.350638181 -0.7363963127 0.5746777058
-0.08276905119 -0.1325022727 0.5708307624 0.01152272429 -0.7790644765 0.6174448133
-0.08985667676 -0.1388334483 0.5660873055 -0.1635471731 -0.7377966642 0.65189749
-0.07673865557 -0.1340101659 0.5662506223 0.1482644677 -0.754101634 0.6210898161
-0.0779460296 -0.1290218383 0.5724368691 0.0801769644 -0.7761672139 0.5829986334
-0.1049395576 -0.1258198768 0.571326077 -0.4965299666 -0.6895323396 0.5236437917
-0.1076383144 -0.1250939667 0.565382719 -0.5808392167 -0.6577677727 0.4627872109
-0.1109955981 -0.07136826962 0.5229609013 0.5365970135 -0.6448620558 0.5434727073
-0.1160771325 -0.09438954294 0.5390323997 -0.172082901 -0.5161052346 0.4561615288
-0.1147816181 -0.08738200366 0.5330942869 0.07658775896 -0.5553597212 0.4820148051
-0.113981694 -0.08246802539 0.5296213031 0.2402204871 -0.5811181068 0.4995538294
-0.1184588224 -0.08448348194 0.5191879869 0.6079337001 -0.5516850352 0.5426589847
-0.1202689707 -0.09461409599 0.5229724646 0.3518702984 -0.5015611053 0.5140029192
-0.1160721555 -0.08743214607 0.5266519785 0.2714548409 -0.5528464317 0.5027371049
-0.1181672141 -0.1006797701 0.5321949124 -0.08785321563 -0.488770932 0.4623152316
-0.1127108783 -0.0815654844 0.515840292 0.5699172616 -0.5934656858 0.5609779358
-0.1116946638 -0.07547850907 0.5182954073 0.534189105 -0.6251803637 0.5665066838
-0.06871668994 -0.06921571493 0.5125555396 -0.2825811803 -0.7437940836 0.5999612212
-0.06269212067 -0.070752047 0.5141233802 -0.3940795362 -0.7086665034 0.5838220716
-0.06832095236 -0.05907962099 0.5261623263 -0.2890696526 -0.7440614104 0.5980414748
-0.07066754997 -0.06213332713 0.5215984583 -0.2346570343 -0.7630636096 0.5955506563
-0.06803413481 -0.08382663131 0.4955551326 -0.2548993826 -0.6638552547 0.6841465831
-0.07076610625 -0.07888431847 0.500185132 -0.2079070657 -0.698594451 0.6664608717
-0.06016012654 -0.08259166777 0.5009054542 -0.4307385087 -0.6770575643 0.5913862586
-0.0555777438 -0.05138517916 0.5427404046 -0.5461777449 -0.6513384581 0.5192985535
-0.05944682285 -0.0555360727 0.5374193788 -0.4663245082 -0.6822006106 0.5514958501
-0.04380477592 -0.07228368521 0.5440000296 -0.7330907583 -0.4922219813 0.4505389035
-0.04443049431 -0.06183385849 0.5559378266 -0.5615546107 -0.5080186129 0.6505048871
-0.04433731362 -0.06618247181 0.5506287217 -0.6338549852 -0.5034280419 0.564218998
-0.04805367067 -0.06302603334 0.5470352173 -0.6013841033 -0.5500341654 0.5598233342
-0.0532076247 -0.05852843076 0.5428412557 -0.544493854 -0.614168644 0.5608732104
-0.05525042489 -0.06536502391 0.5276259184 -0.5455843806 -0.6433762908 0.5359450579
-0.0129694026 -0.07358325273 0.5187138915 0.3011448383 -0.5455852747 0.7678332925
-0.007418609224 -0.07125134021 0.5225389004 0.4682443738 -0.5947859287 0.6521822214
-0.01912358589 -0.06558475643 0.526104331 0.2200040221 -0.600581944 0.6097306609
-0.04680043086 -0.06911785156 0.5284494758 -0.6454741359 -0.5386670232 0.4659577906
-0.03023140319 -0.07217692584 0.5213147402 -0.116379559 -0.6106860638 0.5424565673
-0.0401895456 -0.07321582735 0.5224136114 -0.4253759086 -0.5879971385 0.4910663366
-0.03308985382 -0.06809307635 0.5264870524 -0.2188964486 -0.5727596879 0.5359536409
-0.04551366717 -0.07581018656 0.5207412839 -0.5841504335 -0.5904827714 0.4597526491
-0.03150629252 -0.06298962981 0.5314990282 -0.1332075596 -0.5780753493 0.5458816886
-0.04309746623 -0.06433206797 0.5324844718 -0.5122480989 -0.5553330779 0.4825728834
-0.01981612109 -0.06101058796 0.5311252475 0.2503021061 -0.6024475694 0.6091236472
-0.03838393092 -0.06625043601 0.5296393037 -0.3629676998 -0.5589216948 0.5107122064
-0.02576131187 -0.063216649 0.5301254392 0.05289937928 -0.5872977376 0.5781269073
-0.05041761696 -0.09345036745 0.5077690482 -0.5799629092 -0.6610100865 0.4704878032
-0.05366727337 -0.09103108197 0.5145032406 -0.5234058499 -0.6706863046 0.4814653099
-0.0654643774 -0.08446695656 0.5055393577 -0.3213353753 -0.6857568622 0.60988307
-0.05513864756 -0.08927369118 0.5073914528 -0.4968548417 -0.6570148468 0.5306327939
-0.04486678913 -0.09616682678 0.5153053999 -0.5992151499 -0.4505356848 0.5304327011
-0.04036701471 -0.0999328196 0.5167463422 -0.6004567742 -0.1348430216 0.6624920368
-0.05934339017 -0.0795744136 0.5153056383 -0.438180089 -0.7024460435 0.5324687958
-0.05096022785 -0.09089996666 0.5195562243 -0.5721842647 -0.6780492663 0.4387730956
-0.05823434144 -0.08578740805 0.5152331591 -0.4441291094 -0.6950199604 0.508946836
-0.06479162723 -0.07946512848 0.5122510791 -0.3304889798 -0.715344131 0.570148766
-0.07228129357 -0.07519212365 0.5060405731 -0.2020685822 -0.7236186862 0.6545587778
-0.04761408269 -0.1074329466 0.5350082517 -0.07243119925 -0.6020547748 0.4782371223
-0.04703806713 -0.1108194888 0.5406333804 0.1060919762 -0.5740756392 0.5000584722
-0.04604686052 -0.09946195036 0.5334689021 -0.2868504226 -0.6053808928 0.4461400211
-0.04588591307 -0.09413519502 0.5288920999 -0.4925397336 -0.6265651584 0.4188487828
-0.04973580688 -0.08421097696 0.5226887465 -0.6454735398 -0.6155009866 0.4458555281
-0.05048623309 -0.07709816843 0.5244205594 -0.6650753021 -0.5783068538 0.4680980742
-0.04587313905 -0.08727190644 0.5262053013 -0.6611961126 -0.6286741495 0.404566884
-0.05458663404 -0.08023804426 0.5190517902 -0.552534759 -0.6502526402 0.4958203435
-0.04327218235 -0.1015713736 0.5214280486 -0.4796207249 -0.339286238 0.5456336737
-0.04408229515 -0.1135073528 0.5245643258 0.0281379912 -0.394302845 0.4888682961
-0.03963532671 -0.119655408 0.5248437524 0.1419387609 -0.08148314059 0.6213728786
-0.03963893279 -0.1076124534 0.5219048262 -0.3454355001 -0.08355372399 0.651348114
-0.04454859346 -0.119800806 0.5278876424 0.2105690241 -0.4343515635 0.5072100163
-0.04199071601 -0.1301694214 0.5288490653 0.5977961421 -0.2490522414 0.5404384136
-0.04833781347 -0.1463867724 0.5367299318 0.5626475215 -0.5355821848 0.6297224164
-0.03987228125 -0.1358429939 0.5288358927 0.8202872276 -0.1291188002 0.557154119
-0.04385156184 -0.1414873004 0.5329704881 0.6416317225 -0.4308831394 0.6019500494
-0.0409890376 -0.1372304261 0.5359109044 0.7569461465 -0.3372422755 0.5447782874
-0.0663382113 -0.1249188632 0.5745808482 0.2642065585 -0.7695951462 0.5804928541
-0.06660100073 -0.1198341548 0.5806208849 0.2182138711 -0.7772048712 0.5867237449
-0.06153380126 -0.1215566024 0.5741772652 0.3290056884 -0.7500938773 0.5658947229
-0.064977929 -0.1280009449 0.5692090392 0.3555377126 -0.7389830351 0.5637583733
-0.0610980913 -0.05873061717 0.5319658518 -0.4542306066 -0.6809948683 0.5520065427
-0.0516185537 -0.06935378164 0.5334708095 -0.6204426289 -0.5908769965 0.4691722989
-0.05352802947 -0.06364616007 0.5334089398 -0.6333983541 -0.5887172222 0.4857539833
-0.04718510062 -0.07445052266 0.5356880426 -0.6863699555 -0.5541549921 0.4294447005
-0.04786144197 -0.06890130043 0.5380800366 -0.7165945172 -0.5298668146 0.4461804628
-0.05392524227 -0.05899152905 0.5369336009 -0.60281533 -0.6203947663 0.4947210252
-0.04646934196 -0.1221485734 0.5333794951 0.2351654619 -0.5422198772 0.5323646069
-0.04705128446 -0.1052779183 0.5249450803 -0.2852472663 -0.6060254574 0.4535354972
-0.04618329182 -0.1279308051 0.536041081 0.4143996239 -0.516739428 0.5587386489
-0.04693401977 -0.1131225675 0.5292728543 -0.0448000133 -0.5827517509 0.491329819
-0.04814231023 -0.11948286 0.5422699451 0.3270206153 -0.5668439865 0.5358039737
-0.0478984639 -0.09800824523 0.5229102373 -0.5148254037 -0.6582180262 0.4240152836
-0.047792878 -0.1260333508 0.5429852009 0.4600827694 -0.5559267998 0.5639617443
-0.0402858071 -0.1289849877 0.5431478024 0.7976446152 -0.2931604981 0.5141940713
-0.04447808862 -0.132911548 0.5433364511 0.7121397257 -0.3897380829 0.5513888597
-0.04972972348 -0.1386385411 0.5430344343 0.5974648595 -0.5159779787 0.6031484604
