# .PCD v0.7 - Point Cloud Data file format
VERSION 0.7
FIELDS x y z normal_x normal_y normal_z
SIZE 4 4 4 4 4 4
TYPE F F F F F F
COUNT 1 1 1 1 1 1
WIDTH 512
HEIGHT 1
VIEWPOINT 0 0 0 1 0 0 0
POINTS 512
DATA ascii
0.04146551713 -0.03680472448 0.5472112298 0.5839518905 -0.5913296938 0.5558473468
0.03750285879 -0.03348642215 0.545427978 0.5515224934 -0.5893849134 0.5894378424
-0.100954175 -0.1023791805 0.5650980473 -0.9375786185 0.1596833616 0.3030924201
0.03998905793 -0.03009014577 0.5498877764 0.5846596956 -0.5855468512 0.5606095791
0.04171432182 -0.02445788309 0.5546747446 0.640417695 -0.5539483428 0.5315725207
0.002154018963 -0.09029370546 0.6396107674 0.465698272 -0.6008387804 0.6457809806
0.005131375976 -0.09242088348 0.6340467334 0.5322683454 -0.5760299563 0.6113340259
-0.09505150467 -0.09964921325 0.5767818093 -0.9067974091 -0.03350022808 0.3183768392
-0.09805483371 -0.09688935429 0.5670123696 -0.8949318528 0.1928970218 0.280836463
-0.1006551906 -0.09655332565 0.5605977178 -0.896291256 0.3358116448 0.2649055421
-0.09440884739 -0.1011613011 0.5687733889 -0.9096013904 0.119551152 0.2914915681
-0.09126069397 -0.1037424058 0.5782333016 -0.908970654 -0.1553622186 0.3112888634
0.02684613131 -0.05327641219 0.54295367 0.2785313129 -0.6408417225 0.6900316477
0.02976009622 -0.0470335111 0.5413208604 0.3738890886 -0.5933231711 0.6872690916
-0.0925251618 -0.1005550995 0.5830078721 -0.9068274498 -0.186826393 0.3319425285
-0.01318120118 -0.1396326423 0.6079194546 0.3244972527 -0.6320117116 0.698064208
-0.0835814029 -0.06587605178 0.5512689948 0.4730365872 -0.3600589335 0.5374001265
-0.09351875633 -0.0896704793 0.5587610602 -0.5734198093 0.1744142026 0.334426254
-0.08835284412 -0.0760223493 0.5520071983 -0.02767640911 -0.05509055033 0.4261274636
-0.09680482 -0.08883367479 0.5539562702 -0.8165627122 0.3947486877 0.2169033587
-0.08520248532 -0.07190445811 0.5477465987 0.09172897786 -0.1379290968 0.4570022821
-0.08070563525 -0.07039983571 0.5429574251 0.09816072136 -0.2278918624 0.4927356839
-0.07979749888 -0.06384388357 0.5454705358 0.5482662916 -0.4016456604 0.5774031878
-0.09170734137 -0.08112801611 0.5507515073 -0.4234485328 0.1675741076 0.3180133998
-0.07331487536 -0.06226481125 0.5382380486 0.5151866674 -0.5166531801 0.6216074228
-0.08670403808 -0.07730051875 0.5466986299 -0.2628518939 0.01451800391 0.3844461143
-0.02909584343 0.002397884848 0.5772150159 -0.0525598824 -0.7437495589 0.6579930186
-0.02257042006 0.0009328671149 0.576156795 -0.1358073801 -0.7204565406 0.6770376563
-0.08983325213 -0.09915152937 0.5895094275 -0.88608253 -0.2977148294 0.3528217375
0.003848543623 -0.03869754821 0.5574924946 -0.5707291365 -0.5783705115 0.5802852511
-0.001967811026 -0.03892408684 0.5512198806 -0.4973366857 -0.5807273984 0.6389943957
0.03991492838 -0.01940914243 0.5556204319 0.6040205956 -0.5504508018 0.5753038526
0.03652799502 -0.02296581306 0.5518653393 0.5715329051 -0.5704256892 0.5892227292
0.01925766282 -0.02714977041 0.5875836611 -0.4441002905 -0.5074253082 0.7374223471
-0.04713949934 -0.09151577204 0.6499625444 -0.2327594459 -0.606811583 0.7554293275
-0.03593206778 -0.01767038554 0.5580342412 0.04354248196 -0.6741214991 0.7353425026
-0.02348120883 -0.05371188745 0.5286659598 -0.1823268533 -0.5902343988 0.778165102
-0.02750720643 -0.04972222447 0.530338347 -0.1182747334 -0.6173093319 0.7731325626
-0.09427773207 -0.1052925512 0.5719680786 -0.9117540121 -0.2796292007 0.3004465699
-0.09364733845 -0.1092582121 0.5762011409 -0.9028481245 -0.2979215682 0.3094676137
0.01885168813 -0.1236158684 0.5884154439 0.699901104 -0.4764038622 0.5321342945
0.02216322534 -0.1179924011 0.5867300034 0.7061444521 -0.4724167287 0.5274296403
-0.04182050377 -0.07579964399 0.6587905884 -0.1587604433 -0.6248654127 0.7617702484
-0.04008848965 -0.08538331091 0.6541612744 -0.1252190769 -0.6157220006 0.7748996019
-0.03795524314 -0.08069750667 0.6610313654 -0.1078622118 -0.6115990281 0.7814235091
0.01577412523 -0.02104149759 0.5862794518 -0.5043690801 -0.4852835536 0.7135210037
0.009702268057 -0.01487864275 0.5839036107 -0.4793350101 -0.5206177831 0.7056204081
0.0207272023 -0.01590448804 0.5851405859 -0.001942699659 -0.4272495508 0.8001999855
0.01749744639 -0.01313197985 0.58986485 -0.3476484716 -0.4877996743 0.7557200789
0.01546355616 -0.01509950962 0.5702525377 0.01663645171 -0.577197969 0.7236163616
0.02645079419 -0.01688552462 0.5626629591 0.3133227527 -0.5881530046 0.6396027207
0.02446473204 -0.01571111381 0.5737099648 0.1702731103 -0.539049089 0.8117274046
0.009217477404 -0.01465995051 0.5680255294 -0.09156627208 -0.6028314829 0.6652676463
0.02054446377 -0.01572477259 0.5690225959 0.1327649951 -0.5711601973 0.721744895
0.01954795234 -0.01673544198 0.561732769 0.1783822626 -0.6034784913 0.6131480336
0.002893494209 -0.01533730421 0.5670897365 -0.2164970785 -0.6077580452 0.6623263955
-0.005048868712 -0.01561924256 0.5681114793 -0.3927381635 -0.6076706648 0.6837399006
0.01301939413 -0.0170797836 0.5623906851 0.03494636714 -0.6031540036 0.6305077672
-0.003015435766 -0.02100440115 0.563770175 -0.4074425101 -0.58928442 0.6641321778
0.03219855204 -0.01855134219 0.5567544103 0.4794951081 -0.5981344581 0.574015975
0.007587500848 -0.01908238977 0.5622294545 -0.1188757792 -0.5963481069 0.6402193308
-0.06824747473 -0.0579473339 0.5365165472 0.5317364335 -0.5469996929 0.6461479068
0.02148220688 -0.05678415671 0.5432133079 0.1113465428 -0.6528438926 0.7188867927
0.01945224963 -0.06110631675 0.5455790162 0.1117327586 -0.7981386185 0.5770421624
0.01545271836 -0.1083305627 0.6022691131 0.7283915877 -0.4644600153 0.5036841631
-0.05556698516 -0.08937568963 0.6489102244 -0.3925758898 -0.5781932473 0.7139709592
-0.05304146931 -0.09396487474 0.6462939978 -0.3587900996 -0.6060609818 0.7092836499
-0.06674247235 -0.08668382466 0.6400207877 -0.560519278 -0.5379460454 0.6245365739
-0.06347258389 -0.09065171331 0.6413480043 -0.5173313618 -0.5584167838 0.6462305188
0.03630567715 -0.04086596891 0.5436553359 0.5343999267 -0.6132394671 0.5808564425
0.006042085122 -0.0961682722 0.6296119094 0.5655778646 -0.5781428218 0.5862505436
-0.01348508522 -0.134828493 0.6124433875 0.3208508193 -0.6201834083 0.7135537267
0.02750287391 -0.02099221013 0.5782464147 0.4678022265 -0.4571928978 0.7451385856
0.03884118423 -0.02136940509 0.5608794689 0.6058866382 -0.5303954482 0.586460948
0.02964827418 -0.01661835425 0.5695727468 0.3024799824 -0.5334748626 0.7518199682
0.03574348614 -0.01755747013 0.5628441572 0.4612369537 -0.5371379852 0.6600009799
0.02511965111 -0.03216578439 0.5760310292 0.0462016277 -0.5314723849 0.6724771261
0.02944340184 -0.02674107999 0.5738773346 0.3709014654 -0.5129255056 0.6729763746
0.03687810898 -0.03137842566 0.5609892607 0.434808135 -0.560552299 0.5920864344
0.02955624089 -0.03317077085 0.5694992542 0.1467291266 -0.5498585701 0.6345229149
0.033750467 -0.03009961173 0.5659690499 0.3841315806 -0.5443431735 0.6221814156
0.02223078161 -0.04226465523 0.5732118487 -0.3999605179 -0.5807299018 0.6342440844
0.02526338398 -0.0369961299 0.5726639628 -0.1204003245 -0.559386909 0.6431625485
0.03939869255 -0.02671049722 0.5591218472 0.600412488 -0.5482627749 0.5746635795
0.03555700928 -0.02424637601 0.5659469962 0.5756047964 -0.5227308273 0.6188608408
0.02287660912 -0.02142017707 0.5842615962 0.0764855817 -0.5224586129 0.7821598053
0.01523037814 -0.04486751184 0.566487968 -0.5406563282 -0.6039340496 0.5568101406
0.02703848481 -0.05221512541 0.5487789512 0.2384537756 -0.7704510689 0.4839954078
0.02259932645 -0.05415118486 0.5513507128 0.09616207331 -0.7862076759 0.5232076645
0.03629878163 -0.04769631103 0.5438569784 0.5156312585 -0.6902113557 0.4986418188
0.01961229369 -0.0465262346 0.5692275763 -0.3940796256 -0.6573451757 0.6037865281
0.02053363062 -0.04922108352 0.5620911717 -0.1951267868 -0.7225392461 0.5601033568
0.02077912912 -0.05159579217 0.5563661456 -0.04200870544 -0.7823756337 0.5245811343
0.03217625991 -0.04495815188 0.5551477671 0.1654679179 -0.635772109 0.5578754544
0.02625132166 -0.04658554122 0.5615291595 -0.1005261168 -0.6440396905 0.5676223636
0.02451997623 -0.04393819347 0.5683757663 -0.2976444364 -0.5970596671 0.6143767834
0.02808525227 -0.04824984074 0.5560953021 0.06469202042 -0.6757730246 0.534124136
0.03232401982 -0.05021968856 0.5465301871 0.3748067915 -0.7194314599 0.4830873013
0.02834249102 -0.04134302586 0.5653755069 -0.1208812371 -0.5903888345 0.6033123732
0.03195462748 -0.04097618535 0.5604515672 0.06690137088 -0.5958554745 0.5878717303
0.04066147655 -0.0336632207 0.5543839335 0.4859534204 -0.583673656 0.5534897447
0.03696668148 -0.0424470678 0.5518327355 0.3378049433 -0.6112507582 0.5655733943
0.03690413013 -0.03723106161 0.5566305518 0.3072685003 -0.5905558467 0.5681451559
-0.05355042592 -0.09912680835 0.6414110065 -0.3635771871 -0.6190960407 0.695068121
-0.04788260534 -0.09677021205 0.644325316 -0.2739421427 -0.6335676312 0.7150232196
-0.06306575984 -0.0955126062 0.637118876 -0.5324185491 -0.5570108891 0.630790472
-0.05887696519 -0.09537521005 0.6413083076 -0.4556739926 -0.5835667849 0.6698287129
-0.05872316658 -0.103237994 0.634273231 -0.4462051392 -0.5905342698 0.6677744985
-0.06304018945 -0.09976796061 0.6337417364 -0.5265278816 -0.5610067844 0.633605957
-0.01724867709 -0.08593211323 0.6543040872 0.183596313 -0.5949368477 0.7803644538
-0.02850056253 -0.07944890112 0.6606455445 0.03154160082 -0.6064280868 0.7935281992
-0.03427755088 -0.07675670832 0.6594069004 -0.04596005753 -0.6139582992 0.786739707
-0.02280680276 -0.08247693628 0.6567800641 0.1071016118 -0.6022667885 0.783475697
-0.03657855466 -0.1037619039 0.6415114403 -0.06086502969 -0.6644682288 0.7426706553
-0.04308716208 -0.1032474488 0.6404985189 -0.1625156254 -0.6566066742 0.734952867
-0.0430081524 -0.1076002419 0.6367356777 -0.1833218336 -0.6573419571 0.7277706861
-0.05249736458 -0.1052890047 0.6358772516 -0.3339300752 -0.6269805431 0.7003937364
-0.003398626111 -0.04172186553 0.5466699004 -0.4532389343 -0.6000773907 0.6573069096
-0.008495273069 -0.04371391237 0.5422770381 -0.3809383512 -0.6012625694 0.6996538639
-0.03105389699 -0.002296601888 0.5725584626 -0.01684773713 -0.720972538 0.6898428202
-0.04186651111 -0.00195912132 0.5736245513 0.1357244402 -0.7143152952 0.6828154922
-0.03621247038 0.001121686772 0.5757335424 0.04928615317 -0.7467550039 0.6609658599
-0.04203768075 0.002082978375 0.5776742697 0.1525039822 -0.7330000997 0.6598445177
-0.07889495045 -0.1267869771 0.595143497 -0.7356650233 -0.4039407074 0.5308961272
-0.04636429995 -0.1416417211 0.6099804044 -0.1780889779 -0.5951767564 0.7822566628
-0.05188569799 -0.1414815038 0.6079737544 -0.2725533545 -0.5919710994 0.7532672882
-0.04103410617 -0.1416451633 0.6096585989 -0.1077593565 -0.5945071578 0.7949807644
-0.0643248409 -0.1390997618 0.6025862098 -0.4748738408 -0.5494477153 0.6813226938
-0.0684575811 -0.1345957816 0.6012397408 -0.5594903231 -0.5013521314 0.6482514143
0.01841117628 -0.1089116856 0.596196413 0.7288829088 -0.4615335763 0.5056660771
0.01589708589 -0.1146769151 0.5969980955 0.7140055299 -0.4689567387 0.5197434425
0.01407453325 -0.01068391744 0.5821070075 -0.201644972 -0.5469062924 0.7498711348
0.02118748054 -0.0142569663 0.5798863769 -0.02782760374 -0.5238191485 0.7993981838
0.01257577073 -0.0102908425 0.5873788595 -0.3675541282 -0.5274216533 0.729282856
0.007647165563 -0.008397724479 0.5871842504 -0.4596872926 -0.5469192863 0.6980406642
-0.03039054759 -0.08669574559 0.6535280943 0.01161333825 -0.6268290877 0.7758398056
-0.03263306245 -0.08216268569 0.6558297276 -0.02060608007 -0.6222653985 0.7795618773
0.003843850223 -0.02239868045 0.570836544 -0.5326247811 -0.5211427808 0.6643631458
0.009325219318 -0.01904830523 0.5802199841 -0.4938023686 -0.5150251389 0.6997687817
0.00570623856 -0.01974793151 0.5753170848 -0.4978654981 -0.512899816 0.6982771754
0.008869571611 -0.02422373928 0.5756483674 -0.5208979845 -0.4832507968 0.7027060986
0.01393185742 -0.02546130121 0.5818754435 -0.5246675014 -0.4886089563 0.6957286
-0.07299776375 -0.08331990987 0.6382804513 -0.6106159687 -0.5149675012 0.5989792347
-0.06983779371 -0.07986456901 0.6431539059 -0.5707276464 -0.5144932866 0.6358777285
0.003225944005 -0.03414622694 0.5608972907 -0.5721316934 -0.5343966484 0.6184744239
0.001286218176 -0.0263499096 0.5652288198 -0.5488712788 -0.5350409746 0.6394963264
0.02410601638 -0.019873349 0.5579965711 0.2620549202 -0.5933127999 0.5926782489
0.002576573985 -0.02380904928 0.5599047542 -0.2705203891 -0.5886565447 0.6464229822
0.01119693927 -0.02328246273 0.557653904 -0.03244162351 -0.5946018696 0.6263429523
-0.00540406676 -0.02656970173 0.5587674975 -0.4371255636 -0.5919934511 0.6681309938
0.01696977951 -0.0232306961 0.5559471846 0.1195291728 -0.5970118046 0.6137304306
0.03007138148 -0.02438780107 0.5513337255 0.4260944128 -0.5945618749 0.5888354778
0.03474561125 -0.02700016089 0.5474221706 0.5328317881 -0.5919611454 0.5845528245
0.02226294018 -0.0234835241 0.5543044209 0.2436413318 -0.5961905122 0.6032238603
0.02354849316 -0.02725230716 0.5500867367 0.2693429589 -0.593080759 0.6084238887
-0.04385079071 -0.04954110458 0.5305458903 0.1517981142 -0.6206299663 0.7657359242
-0.03919336572 -0.05259609595 0.5275884867 0.07435424626 -0.6062197089 0.7849048972
0.01503734663 -0.05905569717 0.5412390232 -0.08932866901 -0.6834108829 0.6722830534
0.02028574422 -0.04706217349 0.5423172712 0.1050079316 -0.6117997766 0.733001411
0.02534881607 -0.04249393567 0.5427091718 0.2439999878 -0.5634504557 0.7301695347
0.008769544773 -0.04246286303 0.5467293262 -0.2286847532 -0.5948619843 0.6737738848
0.02772784606 -0.03410308808 0.5456877351 0.3202783763 -0.5858715773 0.6354429126
0.01453757193 -0.0414037928 0.5457837582 -0.06315796077 -0.5873654485 0.6802912951
0.02046608366 -0.03943481669 0.5451847911 0.1078605652 -0.5824843645 0.6762069464
0.003097726032 -0.04057515785 0.548899591 -0.388502121 -0.6116288304 0.6314918995
0.01810756139 -0.03494219482 0.5476574898 0.04513563588 -0.6013490558 0.6132163405
0.03081610613 -0.03872572258 0.5430489779 0.4012736082 -0.5669524074 0.6977245212
-0.02522142604 -0.01123720128 0.5645763278 -0.1446563154 -0.6703590751 0.7262795568
-0.03273631632 -0.02449703589 0.5514817834 -0.006207475904 -0.659229219 0.7480928898
-0.02661281638 -0.02468501963 0.5513872504 -0.1201502457 -0.664034307 0.7365913987
-0.02834514156 -0.01954056881 0.5557726622 -0.0921240449 -0.6649751663 0.7371771336
-0.01892241463 -0.02084495686 0.5583146214 -0.2512128353 -0.639876008 0.7229178548
-0.01397478115 -0.01713724248 0.5629772544 -0.3104298711 -0.6318406463 0.7096198797
-0.02469913475 -0.01568778791 0.5602796674 -0.1591369957 -0.6630533934 0.7307224274
0.01355016418 -0.03992222622 0.5692100525 -0.6178845763 -0.4477247298 0.645127058
0.008842329495 -0.03729159012 0.5649344325 -0.5965302587 -0.525437355 0.6010357141
-0.07145385444 -0.09014026076 0.6343571544 -0.6185265779 -0.5188280344 0.5888204575
-0.06910950691 -0.09882476181 0.6292104125 -0.6238248348 -0.5218293667 0.5817732811
-0.06813461334 -0.09474038333 0.6335121393 -0.6043809652 -0.5293974876 0.5940469503
-0.07442300767 -0.08897348493 0.6296889186 -0.6559143662 -0.5013065338 0.5587660074
-0.0002720053017 -0.106126152 0.6273828149 0.5261865854 -0.5892255306 0.6091395617
0.0006300235982 -0.1016474664 0.6300981641 0.5191701055 -0.5983657241 0.6098960638
0.001721840817 -0.1095064729 0.6224998236 0.5784339905 -0.5691872835 0.58379668
0.01488371007 -0.04983788356 0.5614411235 -0.2921563983 -0.7741060257 0.5471805334
0.0112016499 -0.04406185076 0.5615543127 -0.471069932 -0.6913967729 0.5266219378
-0.07307299227 -0.09433802962 0.6273797154 -0.6586774588 -0.5035379529 0.5565055013
-0.07486424595 -0.09799929708 0.6233128309 -0.6931824684 -0.4787881672 0.5380058289
-0.04460610077 -0.08414451778 0.6576603055 -0.2006458789 -0.5945003033 0.7778866887
-0.03685652837 -0.09058092535 0.6528478861 -0.08338215202 -0.6252223849 0.7737594843
-0.0300764367 -0.09258041531 0.6505241394 0.02087705396 -0.6352568865 0.7696396708
-0.02794491127 -0.09651000798 0.6468744874 0.08137463778 -0.6489293575 0.7528568506
-0.03655223176 -0.09558151662 0.6484586 -0.05598397925 -0.6428436041 0.7612650394
-0.04323314503 -0.09605193883 0.6464479566 -0.1928233057 -0.6475470662 0.7345674634
-0.03128624707 -0.009967827238 0.5645483732 -0.03564926237 -0.6799136996 0.7282884717
-0.0313025713 -0.005838846322 0.5688088536 -0.0330471918 -0.6986212134 0.7098285556
-0.04143174738 -0.02172883973 0.5548906326 0.155365929 -0.6604754329 0.7307249904
0.007927643135 -0.04741566256 0.55348593 -0.4685456157 -0.6611504555 0.5798950195
0.01240861602 -0.0504832454 0.5569420457 -0.3296442032 -0.7409194708 0.5742374659
0.009849345312 -0.05353543907 0.5498850942 -0.3214614987 -0.7083358765 0.6210691333
0.01310897712 -0.05909060687 0.5484319925 -0.2299334407 -0.7452746034 0.6190059781
0.01459452696 -0.05579102412 0.5544527769 -0.2306328863 -0.7715648413 0.5879253745
0.009107480757 -0.0597114861 0.5437368155 -0.296541661 -0.7249286175 0.6183187366
-0.01540151983 -0.05180073157 0.5327100754 -0.3279894292 -0.5858976841 0.7397698164
-0.01747388206 -0.04700925201 0.5355522037 -0.2802377343 -0.6089986563 0.7392424941
-0.02112673037 -0.04964337498 0.5317747593 -0.2191870213 -0.6040613055 0.7625270486
-0.09017959982 -0.0980508551 0.5967989564 -0.8453108668 -0.3600889742 0.3883231282
-0.05689946562 -0.1108670607 0.6278726459 -0.4344177842 -0.5955054164 0.6708031297
-0.05157632008 -0.1159702241 0.626383245 -0.3099572957 -0.6299172044 0.7071314454
-0.04610074684 -0.1149466038 0.6292700171 -0.2209995389 -0.6490686536 0.7263308764
-0.08190920949 -0.1097005904 0.5999607444 -0.7981999516 -0.3736008704 0.4657819867
-0.07816272229 -0.1142360419 0.6029290557 -0.7639510632 -0.386511147 0.5129791498
0.01596141048 -0.100296624 0.6106758118 0.7019908428 -0.5075831413 0.4985726774
0.01547851972 -0.1042632088 0.6068086624 0.717204988 -0.4840841889 0.5002499223
-0.08459492773 -0.09241737425 0.6113120317 -0.7844708562 -0.432639569 0.4434570968
-0.08953439444 -0.09273733944 0.6043878198 -0.8133798838 -0.4001016021 0.4218575656
-0.08466856182 -0.09622712433 0.6066185236 -0.8110874891 -0.4020588994 0.422768265
-0.07935018092 -0.0588289462 0.5486414433 0.6452447772 -0.4919244051 0.5817946196
-0.07540848851 -0.05937377363 0.5431750417 0.6071234345 -0.4993512034 0.6121909022
0.009928948246 -0.1242851987 0.598056972 0.6867123842 -0.4744079709 0.5502561331
0.0134087624 -0.1205107272 0.5963138938 0.6945409775 -0.4739307165 0.5408774614
0.01091827545 -0.1183720976 0.601323545 0.7062722445 -0.4706810117 0.5276020169
0.01328949351 -0.1267635375 0.5935034752 0.691676259 -0.4801220298 0.5392994881
0.00661581289 -0.1293508112 0.5986514688 0.6605060697 -0.4850264788 0.5728392005
0.004354829434 -0.1258856654 0.602938056 0.6361823678 -0.5170968771 0.5720372796
0.02076317556 -0.1099984124 0.5901871324 0.7244186401 -0.4641312659 0.5096816421
0.01833619922 -0.05264202505 0.5391736031 0.06683896482 -0.5945145488 0.7490341067
0.005985112861 -0.06208277494 0.537953496 -0.2735429108 -0.6863106489 0.6620258689
-0.009525861591 -0.05747446418 0.5308733582 -0.3715198636 -0.5628412962 0.7381187081
-0.005077404436 -0.05901800841 0.5331490636 -0.3728297949 -0.5879208446 0.717636168
-0.0001544632396 -0.003907397855 0.5830543041 -0.3888343275 -0.6405836344 0.6534150243
0.008209228516 -0.00791472476 0.5796155334 -0.1760434061 -0.6114201546 0.714394331
0.003853293601 -0.008681728505 0.5829032063 -0.4456654787 -0.5787169933 0.6796686649
-0.06440011412 -0.08146021515 0.6480299234 -0.4872522354 -0.5255703926 0.693339169
0.005549739115 -0.03567114472 0.5503633022 -0.2729357779 -0.6029158235 0.6225142479
0.02954987437 -0.02884493023 0.5474658012 0.394238919 -0.5911621451 0.5947727561
-0.00318315113 -0.03184327483 0.5567990541 -0.4927703142 -0.5794818401 0.644417882
0.002592582488 -0.02971219644 0.5539466739 -0.2477150857 -0.591716826 0.6514535546
0.01494396292 -0.02980216034 0.5507068038 0.04065857455 -0.5900309682 0.6253969073
0.008735863492 -0.03023591638 0.5520785451 -0.1103957519 -0.5900143385 0.6380038261
-0.06302084029 -0.05859006941 0.5332864523 0.4482791126 -0.5553933382 0.6900086999
-0.05434434488 -0.054591313 0.5298501253 0.3209328949 -0.5795037746 0.746434629
-0.0375543423 -0.04772230238 0.5314897895 0.03521941602 -0.6344113946 0.7687056661
-0.03402672336 -0.05171352625 0.5279926062 -0.02420755476 -0.6212982535 0.7823551893
0.01280018128 -0.04806316271 0.5428645611 -0.05603449792 -0.6833040118 0.6822277904
0.004206810147 -0.0454053469 0.5443533063 -0.2661021054 -0.6376954317 0.6713756919
-0.01821104996 -0.01306630298 0.5655169487 -0.2525296509 -0.6513062716 0.7104009986
-0.01611916907 -0.009311868809 0.5697446465 -0.2715227902 -0.6619511843 0.6907124519
-0.01107697934 -0.01361493208 0.5676165819 -0.3481041193 -0.6332524419 0.6897048354
-0.01708227955 -0.001771404059 0.5760862827 -0.2283683568 -0.6908040643 0.6836481094
-0.02078987285 -0.005158904009 0.5716071725 -0.1807329506 -0.6870058179 0.698946178
-0.02462647483 -0.007176762912 0.5680130124 -0.1380561888 -0.6851087213 0.71423316
0.0256465096 -0.0277524516 0.5795835257 0.1368694752 -0.5057097077 0.7083613276
0.02303859964 -0.03075266629 0.5830435157 -0.1696482599 -0.5122046471 0.730044663
0.0142706139 -0.03136765957 0.5766832829 -0.5667468905 -0.4497019053 0.6891785264
0.01740495116 -0.03137313947 0.5826126933 -0.557218492 -0.4625125229 0.6893763542
0.01812353358 -0.03591033444 0.5799560547 -0.5815988183 -0.4550260305 0.6732100248
0.01707627065 -0.03979203105 0.574541688 -0.6074840426 -0.4418841004 0.6592555046
0.008042572998 -0.02733308449 0.5712136626 -0.5528741479 -0.4718771577 0.6843069792
0.01159342285 -0.03223443776 0.5716111064 -0.5871649981 -0.4512954652 0.6701075435
0.007314566523 -0.03188635781 0.567022562 -0.5924256444 -0.4929068685 0.6354727149
-0.007376127876 -0.03676457331 0.5485510826 -0.4187114239 -0.595936358 0.6836772561
-0.01425089221 -0.03521057591 0.5470741391 -0.3226824999 -0.6253351569 0.709666729
-0.01378992572 -0.02945501544 0.5523754954 -0.323486954 -0.6238595247 0.7109479308
-0.01801508479 -0.02544901706 0.554500401 -0.2630689144 -0.6323887706 0.725020349
-0.02136381343 -0.02798324823 0.5505504012 -0.2045048177 -0.6478716135 0.7278180122
-0.09248220921 -0.07726977021 0.555551827 -0.3595117927 0.1262186468 0.311963737
-0.08440499008 -0.06063897908 0.555789113 0.4558634758 -0.3601766825 0.5028783679
-0.09030023962 -0.07026486844 0.5585750341 -0.1267674118 -0.01798437722 0.360058248
-0.09086243063 -0.07723198831 0.5636511445 -0.3306909502 -0.0291219838 0.3435425162
-0.08584099263 -0.07089434564 0.5740195513 0.008298197761 -0.4044581652 0.4536663592
-0.09400369972 -0.0898783803 0.5658163428 -0.7730033398 0.1319355816 0.2688454688
-0.09381052852 -0.09340764582 0.5699750781 -0.8600290418 0.08544839919 0.2705583274
-0.09152739495 -0.08797881752 0.5721510053 -0.6383423805 -0.06357225776 0.3223327994
-0.08731652051 -0.07083772123 0.5690606236 -0.04042069241 -0.2778679132 0.4225903153
-0.08633734286 -0.06057572737 0.5620878935 0.2650667131 -0.2743907273 0.4501014352
-0.09237349778 -0.09392005205 0.5752602816 -0.8247087002 -0.04172261804 0.3005176187
-0.08354943246 -0.05426130071 0.5650584698 0.5274210572 -0.4590313137 0.5131123662
-0.0876486972 -0.07601352781 0.5731146932 -0.1889949143 -0.2934409976 0.412124157
-0.08841904253 -0.08678067476 0.5812846422 -0.5007717609 -0.3190573156 0.3886787593
-0.08446937799 -0.06958911568 0.5636744499 0.2244272083 -0.4255725443 0.4963085055
-0.08931154758 -0.095015876 0.5840222836 -0.7247407436 -0.297077477 0.3667152524
-0.08726368845 -0.08471973985 0.5750246644 -0.3270427585 -0.3500059247 0.4220179915
-0.08447814733 -0.06389441341 0.5686318278 0.2694770694 -0.4430989921 0.4898630977
-0.08512966335 -0.07066396624 0.5570936203 0.2496213615 -0.3426949978 0.496924907
-0.08743919432 -0.07632502168 0.5585035682 0.01352934632 -0.2131441981 0.4534447491
-0.09085411578 -0.08349475265 0.5585491061 -0.289423883 -0.005728790071 0.3934711218
-0.08650328964 -0.08084965497 0.5695118308 -0.1527803242 -0.3556927443 0.4465506673
-0.08517472446 -0.07495032996 0.5642126799 0.08457129449 -0.3953157663 0.4810637832
-0.09507583082 -0.09436171502 0.5620075464 -0.7409223914 0.2242324948 0.3121262491
0.009528798983 -0.09799916297 0.6243866682 0.6204929948 -0.5550948381 0.5524123311
0.01254818123 -0.1004926115 0.6167823076 0.6676108241 -0.5329427719 0.5190358758
0.008111729287 -0.1056844071 0.6180306077 0.6413978338 -0.5445389748 0.5402126312
0.004824968521 -0.1043362021 0.6230214834 0.6109183431 -0.5599320531 0.5593311191
0.0133231217 -0.09644497186 0.6204004288 0.6567460299 -0.5344466567 0.530800879
-0.004287781194 -0.1039340198 0.6312171221 0.4487857521 -0.6156625152 0.638671279
-0.03373204172 -0.1094077229 0.6359224319 -0.03173040599 -0.6715347767 0.7371878028
-0.02902787924 -0.1111941487 0.6341398954 0.04845327511 -0.6704765558 0.7347730398
0.005099513102 -0.1105867848 0.6165216565 0.6142963171 -0.5517640114 0.5598836541
-0.007630085573 -0.08888982981 0.6476982832 0.3142831922 -0.6019723415 0.7316300273
-0.002054615878 -0.08878342062 0.6442426443 0.3877621591 -0.6081027389 0.6898987889
-0.03371971473 -0.09977772087 0.6451621652 -0.01063371729 -0.6561421752 0.7532628179
-0.02727196738 -0.1013370603 0.6434909105 0.08090379834 -0.6518412828 0.7521857619
-0.02671710774 -0.1061528027 0.6389784813 0.08845630288 -0.6689519882 0.7357249856
-0.04522397742 -0.01280075684 0.5645223856 0.2231969386 -0.6626222134 0.7148688436
-0.04027698189 -0.01364231203 0.5618344545 0.1333279759 -0.6713314652 0.7245327234
-0.03759469092 -0.009624919854 0.5656166077 0.08481120318 -0.6746653318 0.7283136845
-0.04379018396 -0.006585660856 0.5692808032 0.1878655106 -0.6830684543 0.7034162283
-0.03693402186 -0.005074895918 0.5696405768 0.05791169778 -0.7008592486 0.7077289224
-0.03864764422 -0.03289296851 0.544754684 0.07210653275 -0.6642591357 0.7375686765
-0.04779255018 -0.03081816435 0.5493698716 0.2613127828 -0.6546881795 0.7083455324
-0.03361283243 -0.02879191004 0.5477182865 0.007302170154 -0.6691691279 0.742210269
-0.02643226646 -0.02943601087 0.5473522544 -0.1263736039 -0.6632204652 0.73615098
-0.08073671907 -0.09373828024 0.6190267801 -0.7385579348 -0.4584268034 0.4935743809
-0.07904106379 -0.1000776142 0.6147767901 -0.7446486354 -0.4504140317 0.4905850887
-0.07601781189 -0.1055393592 0.6143419147 -0.7168026567 -0.4570379555 0.5264680982
-0.07448071986 -0.1025349051 0.6198180914 -0.6832822561 -0.4810614288 0.5478305817
-0.0812779814 -0.05178429186 0.5597212315 0.6593496203 -0.5158640742 0.5463367105
-0.07642713934 -0.0462538749 0.5573862791 0.6386289001 -0.5275095701 0.5597114563
-0.07894359529 -0.05501105636 0.5527510047 0.6437553167 -0.5154238343 0.5648929477
-0.03725706413 -0.1373481899 0.6127449274 -0.05670811981 -0.6034786701 0.7929831147
-0.07139646262 -0.1152695641 0.6116226912 -0.6269952655 -0.4761407971 0.6115401983
-0.06534402072 -0.1247976422 0.6089162827 -0.5383417606 -0.5014187098 0.6755606532
-0.06996186823 -0.1091102064 0.6180319786 -0.6328898072 -0.5091210008 0.5820524693
-0.07567729801 -0.1320688576 0.5995368361 -0.6602447033 -0.4573554993 0.5882320404
-0.07663083076 -0.1118233576 0.6086927652 -0.7153614759 -0.4349375963 0.5398430824
-0.07591220737 -0.1175380349 0.6072587967 -0.6952481866 -0.4486030638 0.5530431271
-0.08241084218 -0.1208778843 0.59482795 -0.8018807769 -0.3683223128 0.468808949
-0.07710382342 -0.1219442934 0.5987485647 -0.7164850235 -0.4166930318 0.5489290357
-0.0828127861 -0.1156113297 0.597532928 -0.8138788939 -0.3502716422 0.4623971879
-0.05622992665 -0.1165461466 0.6239688396 -0.3862960041 -0.603992939 0.6950523853
-0.06377566606 -0.1200414598 0.6150884032 -0.5288609266 -0.5223052502 0.6645389795
-0.06138751656 -0.1123315766 0.6243154407 -0.4849986732 -0.5856249928 0.6487474442
-0.06570916623 -0.1098893285 0.6212930679 -0.5700969696 -0.5386740565 0.6127505898
-0.06062393263 -0.117921412 0.6211447716 -0.4758306444 -0.5821220279 0.6581783891
-0.06201126426 -0.1058587059 0.6295562983 -0.5107653141 -0.5699113011 0.6430066228
-0.06577531993 -0.1061961576 0.6257587671 -0.56415236 -0.5375441909 0.6266162395
-0.08148429543 -0.100575529 0.6096354723 -0.7870718241 -0.4248612225 0.446207881
-0.08110916615 -0.1064533219 0.6057544947 -0.7922562361 -0.3881651461 0.4679477513
-0.08612804115 -0.1035817415 0.5985011458 -0.8336696625 -0.3613182306 0.4170337617
-0.08473622799 -0.1005105972 0.6033422351 -0.8275052905 -0.3714636862 0.4202196896
-0.003087430261 -0.05424987152 0.537039578 -0.4004571736 -0.5786747336 0.7101874352
0.003489168128 -0.05468389392 0.5417525768 -0.3668628335 -0.6587572694 0.6541749239
0.0008961459971 -0.06023051962 0.5358425379 -0.3548107445 -0.6287698746 0.6904375553
0.008743181825 -0.05251346156 0.538915813 -0.1185936928 -0.6563830376 0.7006936669
0.001017848379 -0.0496780239 0.5411753654 -0.3408568799 -0.6054057479 0.6935246587
0.003522538813 -0.05023410171 0.5461856723 -0.3937661052 -0.6416561604 0.6552219391
-0.00370736816 -0.04669265449 0.5424628854 -0.4232332706 -0.5864314437 0.6905123591
-0.01262331754 -0.0002838724758 0.5794678926 -0.2727540135 -0.6901774406 0.6653549075
-0.005785026122 -0.002009901917 0.5813982487 -0.3489563167 -0.6768362522 0.6446534395
-0.01306302845 -0.006121924613 0.5735211372 -0.3057280779 -0.6686322689 0.6761955023
0.008918025531 -0.01353872288 0.573774755 -0.1398574412 -0.5821567774 0.7474866509
0.001150238677 -0.01321059 0.5727068782 -0.2970887125 -0.6015785336 0.7088059783
0.01736258902 -0.01258328464 0.5763685703 0.02385048196 -0.5678262711 0.7821559906
0.00201758137 -0.007537951227 0.5776901245 -0.2485252917 -0.6359838843 0.686953783
-0.004613622557 -0.006275268737 0.577850461 -0.3825648725 -0.6566516161 0.6483014226
-0.004249913618 -0.0105052907 0.5740240812 -0.389184922 -0.6307907701 0.6697901487
0.005239465274 -0.01478887442 0.578741014 -0.4762970805 -0.5374590158 0.6958134174
-0.05027207732 -0.08502903581 0.6524383426 -0.2925711572 -0.597266674 0.7377985716
-0.05175368488 -0.08109838516 0.6573154926 -0.3071885705 -0.5837792158 0.7489475608
-0.04589395598 -0.07939171046 0.6610000134 -0.2083011419 -0.6014667153 0.7707769871
-0.04934810475 -0.05090983957 0.5303797722 0.2419162244 -0.5818015337 0.7763629556
-0.03054305911 -0.04057093337 0.5376950502 -0.069069691 -0.6576834917 0.7485516071
-0.01928403042 -0.04267615452 0.5386846662 -0.2378340364 -0.6347777843 0.7315025926
-0.02428356931 -0.04530539364 0.5343522429 -0.1631251276 -0.637591958 0.751914978
-0.02535206079 -0.03979504108 0.5387094617 -0.161669597 -0.650816679 0.741209507
-0.0147919897 -0.0409206003 0.5416510701 -0.3040432334 -0.626906693 0.7168466449
-0.02027632296 -0.03582931682 0.5439886451 -0.2436398864 -0.6441244483 0.7221358418
-0.02790269069 -0.03483798727 0.5427498221 -0.1319316924 -0.6602874398 0.7352659106
0.003237064462 -0.1161143333 0.6134242415 0.6059238911 -0.5401161313 0.5783146024
0.007171075791 -0.1177290604 0.60714221 0.6756942272 -0.4903101921 0.5487316251
-0.004091343842 -0.1134815961 0.6224615574 0.4912570417 -0.5977128148 0.6309626698
0.0001235102536 -0.1149433479 0.6187511086 0.5582778454 -0.5646445751 0.6060298681
-0.009421675466 -0.1134932265 0.6259568334 0.3919964433 -0.6241505146 0.6677486897
-0.009409102611 -0.1092798188 0.6307091713 0.3739393651 -0.6302842498 0.6739385128
-0.004914452322 -0.1090484858 0.6263689995 0.4499179125 -0.621004045 0.6385084987
-0.02333198301 -0.1138773039 0.631234169 0.1474004686 -0.66698277 0.7272821069
-0.01611191779 -0.1111700535 0.632717371 0.2615205944 -0.6536480784 0.7100036144
-0.02031839266 -0.1059871987 0.6381033063 0.1931663901 -0.6631051302 0.7192354798
-0.03501124308 -0.1141428426 0.6322552562 -0.03810738772 -0.6736553907 0.7376413345
-0.03997758031 -0.1136228293 0.6320717335 -0.117174603 -0.6618209481 0.7361078262
-0.02509208396 -0.1195103377 0.6262065768 0.1285042465 -0.6634452343 0.7347161174
-0.0326478444 -0.1224758253 0.6239712834 0.009948148392 -0.6417043209 0.7625434995
-0.03191072866 -0.1187925562 0.627312243 0.004982073791 -0.6709506512 0.7344792485
-0.03922247142 -0.1238522232 0.622358501 -0.08942554146 -0.622310102 0.7743405104
-0.03836848959 -0.1187181845 0.6271412373 -0.1067456901 -0.6662399173 0.7351595759
-0.04442325607 -0.1189783663 0.6257500648 -0.1931630522 -0.6492844224 0.7343479395
-0.01468128525 -0.09028545767 0.6489514709 0.2263958007 -0.609436512 0.7550151944
-0.01050913427 -0.09419403225 0.6455940604 0.3256949782 -0.6129143834 0.7158721685
-0.02384667844 -0.08768833429 0.6539337039 0.1064910814 -0.6025252342 0.7896549702
-0.02061218396 -0.09257470816 0.6496460438 0.1847026497 -0.6094543338 0.7665091157
-0.02101326361 -0.09805656224 0.6448836923 0.1888280362 -0.6420115829 0.7395466566
-0.01676238514 -0.1017018929 0.6414556503 0.2532903254 -0.6472492814 0.7176066637
-0.000878282648 -0.09835184366 0.6351687312 0.4529594779 -0.6094064713 0.6486293674
-0.007133242674 -0.0960496217 0.6400063634 0.3749003708 -0.6087214947 0.6844952703
-0.006518655457 -0.1025533825 0.6366432905 0.4034844041 -0.6264711022 0.6660868526
-0.01163819898 -0.1039778441 0.6365804076 0.3236713409 -0.6405224204 0.6936699152
-0.01501468197 -0.09681730717 0.6446570754 0.2602425218 -0.6336312294 0.728440702
-0.06988430023 -0.05202580616 0.5448046923 0.5672752857 -0.5453605652 0.6147558093
-0.04971566051 -0.002477137838 0.5755648017 0.2871783078 -0.6859298944 0.6619036198
-0.05484139547 -0.004540008493 0.5760275722 0.3928819597 -0.6538858414 0.6450416446
-0.05827213079 -0.002128050197 0.5798956752 0.4264215827 -0.6447519064 0.6330827475
-0.04823845252 -0.02475732192 0.5542798042 0.2685917318 -0.651302278 0.7060855031
-0.05038779229 -0.02141455188 0.5587168336 0.2992294133 -0.6426648498 0.6976311803
-0.08365596086 -0.03264216706 0.5810897946 0.6627653837 -0.5021781921 0.5553866625
-0.08501473814 -0.037983872 0.5785837173 0.6700407267 -0.4980536997 0.5504032373
-0.08204358071 -0.04013895243 0.5715369582 0.6714650393 -0.5012379289 0.5457187891
-0.08101212233 -0.0473119095 0.5637674928 0.6709801555 -0.5087682009 0.5393120646
-0.0725704059 -0.008233385161 0.5871623158 0.5478539467 -0.569096148 0.6126896143
-0.07696907222 -0.01192707289 0.5888315439 0.5902782679 -0.5430089235 0.5970579982
-0.06700626761 -0.02666486427 0.5652686954 0.5564468503 -0.561154604 0.6108636856
-0.07445535064 -0.01810345985 0.5796171427 0.6088778973 -0.530975461 0.5892204642
-0.06088238209 -0.1288740039 0.6085302234 -0.4822675586 -0.5309507251 0.6954345703
-0.06363128871 -0.1330848783 0.6054102182 -0.4925092459 -0.5322033763 0.6882531047
-0.04809391126 -0.1360428333 0.6088770628 -0.2375015914 -0.5881920457 0.7532507777
-0.02632262371 -0.1284365952 0.6182772517 0.0655592829 -0.6263663173 0.7761611938
-0.02640892565 -0.1242242157 0.6224398613 0.08846930414 -0.6300498247 0.7701873183
-0.0322782211 -0.1275770068 0.6195642352 0.03399307653 -0.6248158216 0.7786048651
-0.08842565864 -0.1145056933 0.5839142799 -0.8707728982 -0.3164339662 0.3652825356
-0.08518859744 -0.1129397303 0.5928561091 -0.8385024667 -0.3328711092 0.4294139147
-0.08509883285 -0.1201798767 0.5892035961 -0.8254532218 -0.3489049375 0.4347544909
-0.09278842807 -0.111211367 0.5823947787 -0.8905084729 -0.3105188012 0.3256457746
-0.08665948361 -0.1077495962 0.5934794545 -0.8451048732 -0.3439948261 0.407286495
-0.08910723776 -0.1103414744 0.5885350108 -0.863468051 -0.32780388 0.375660181
-0.08988499641 -0.1051689014 0.587954998 -0.881323278 -0.31470415 0.3477610052
-0.0718793422 -0.1232687533 0.6037073135 -0.6433213949 -0.4545219243 0.6084833145
-0.07210396975 -0.1217133477 0.608707726 -0.6442961693 -0.4656871855 0.6010352969
-0.07258571684 -0.1290013939 0.6043096781 -0.6222942472 -0.4754760563 0.6216108203
-0.06788355112 -0.1158866659 0.6155011058 -0.6057713628 -0.5020292401 0.6170091629
-0.04892022535 -0.07590733469 0.6578377485 -0.2604160905 -0.5978176594 0.7512283921
-0.05503640696 -0.0769212544 0.6552147269 -0.3363291025 -0.5637752414 0.7441218495
-0.05998881906 -0.08652824163 0.6480936408 -0.4481043518 -0.5536422729 0.6998778582
-0.05577675253 -0.08323123306 0.6536740065 -0.3631475866 -0.5591732264 0.7450759411
-0.06074706092 -0.07995142043 0.6528123617 -0.4006155133 -0.5358074903 0.7425981164
-0.06702113897 -0.005174372345 0.5841281414 0.505579114 -0.6086964607 0.6107671261
-0.0689560324 -0.0100021027 0.5815086961 0.543964088 -0.5698510408 0.6155562997
-0.07866411656 -0.08280521631 0.6313619614 -0.6942104697 -0.4685899317 0.544883132
-0.07817154378 -0.08660276234 0.6264007092 -0.6972604394 -0.4799939096 0.5313080549
-0.08088404685 -0.08804539591 0.6215823293 -0.7232373357 -0.4630298018 0.510984242
-0.0843179822 -0.08766819537 0.6165612936 -0.7650142312 -0.4320570529 0.4758688211
-0.01641382091 -0.1250879467 0.6201066375 0.2727135718 -0.6061037779 0.744368732
-0.02057971805 -0.1298707724 0.617128551 0.1649686396 -0.6230152845 0.7571004033
-0.01898908801 -0.1164722294 0.6281144619 0.2263044864 -0.6520835757 0.7207135558
-0.01512342971 -0.1189179346 0.6244665384 0.289262563 -0.6346501112 0.7151100039
-0.07114683092 -0.05576495081 0.5403754115 0.5644357204 -0.5432540774 0.6205860972
-0.07557082921 -0.05409577489 0.547954917 0.6028807759 -0.5344971418 0.5916740894
-0.07465762645 -0.04875932261 0.5506640077 0.6240357757 -0.527559936 0.5753423572
-0.05451302603 -0.01719694585 0.5640380383 0.3577395678 -0.6328639388 0.6851037145
-0.05646137893 -0.02168232761 0.5611900687 0.3904999197 -0.6257293224 0.6750190258
-0.05388404056 -0.02495618537 0.5559660792 0.352963239 -0.636983037 0.6846008897
-0.04534384236 -0.0179539118 0.5591088533 0.2207399458 -0.6573973894 0.7171878219
-0.06819172949 -0.02223260514 0.569909811 0.5830712318 -0.5493226647 0.5979414582
-0.05852125213 -0.008920752443 0.5735223889 0.4089675248 -0.6340708733 0.6556155086
-0.04982231557 -0.01079651248 0.5680040717 0.2850221395 -0.6548517942 0.6940814853
-0.05529821664 -0.01331458986 0.5674910545 0.3627259135 -0.6352112889 0.6812573075
-0.07681526989 -0.03327975422 0.5686175227 0.6472515464 -0.5193469524 0.5578247905
-0.07859642059 -0.03848381341 0.567083776 0.6609076262 -0.5121905208 0.5484339595
-0.07050035894 -0.03109825589 0.5638784766 0.6075752378 -0.5414801836 0.5803183317
-0.06449763477 -0.02847524919 0.5599691272 0.5138137341 -0.5839161873 0.6242448688
-0.06033037603 -0.02949375845 0.5561885834 0.4478123486 -0.6075507402 0.6508272886
-0.08148698509 -0.0214471221 0.585947454 0.6249781251 -0.5253099203 0.5764166117
-0.07711882144 -0.01712308638 0.5848221183 0.6079550982 -0.5334180593 0.5873033404
-0.04420385137 -0.1300485283 0.6166133285 -0.141389221 -0.6130816936 0.7744780779
-0.04212516919 -0.13455984 0.6125083566 -0.1183209568 -0.6034802198 0.7854611278
-0.03907587752 -0.1291853487 0.6175203323 -0.05957851559 -0.6182424426 0.7791945934
-0.05012727156 -0.1289771497 0.6145154834 -0.2615540624 -0.5905572176 0.7501279116
-0.04785745963 -0.1349952072 0.6138561368 -0.1970977187 -0.6068292856 0.7691091299
-0.05721212178 -0.1273044795 0.6133562922 -0.3865433633 -0.5525743961 0.7346427441
-0.05940347165 -0.1224900261 0.6180617213 -0.4473418593 -0.5705307126 0.6845397353
-0.05351723731 -0.133475244 0.612362504 -0.2939251959 -0.5821197629 0.7575304508
-0.0561603792 -0.1368581057 0.6081146002 -0.3437279165 -0.59651649 0.7251918316
-0.05370688438 -0.1221561432 0.6210057735 -0.3526124358 -0.5827673078 0.7297605872
-0.04689184204 -0.1237265393 0.6212458611 -0.2117850184 -0.6045756936 0.7633416653
-0.00236663036 -0.1212506592 0.6140210629 0.5081300139 -0.576576829 0.6392078996
0.000445119018 -0.1264918596 0.6074684858 0.5553033352 -0.5583357215 0.6141752601
0.0005550234928 -0.1306807697 0.6032361984 0.5531671047 -0.5720597506 0.6035046577
-0.004358395003 -0.1332987249 0.60578233 0.4802562892 -0.6045334339 0.6347318888
-0.003216248937 -0.1268202364 0.6111201644 0.5034652948 -0.5698043704 0.6421304345
-0.01098557562 -0.1291884333 0.6140916348 0.3709786236 -0.604108274 0.703371942
-0.009408181533 -0.13378115 0.6083186865 0.3951702416 -0.6119214892 0.6769078374
-0.03437184915 -0.1334027946 0.6152905822 -0.002694905968 -0.6115145087 0.7902702689
-0.03027746826 -0.1373087764 0.6125950813 0.04890513793 -0.6012096405 0.796528101
-0.02634526044 -0.1409445256 0.6095246077 0.1018358096 -0.6019577384 0.7900282145
-0.03475691378 -0.141595304 0.6092966795 -0.02820391953 -0.592864573 0.8035162091
-0.006507437676 -0.1195460185 0.6192764044 0.4694584012 -0.5808826685 0.6640832424
-0.007138220128 -0.1246800572 0.6154219508 0.4530257881 -0.5774652958 0.6758279204
-0.06303140521 -0.04207351431 0.5456595421 0.4915032685 -0.5864604712 0.6429763436
-0.05975201353 -0.05239532143 0.5350514054 0.4236118495 -0.564449966 0.7022762895
-0.06495843828 -0.05178657547 0.5394997597 0.5175711513 -0.560761869 0.6447802186
-0.05949615315 -0.04658337682 0.5396294594 0.4294992685 -0.5952957273 0.6747945547
-0.06536123902 -0.04712659866 0.5431013703 0.5279620886 -0.5616685152 0.6340129972
-0.03776114807 -0.04261351749 0.5357714891 0.05111590028 -0.6454803944 0.7591276169
-0.04351007938 -0.04021587595 0.5386703014 0.1593887806 -0.6588149667 0.7329751253
-0.0447463654 -0.04470439628 0.5347254276 0.1532807052 -0.6559786797 0.7387276292
-0.06958650798 -0.04285307974 0.5514373779 0.578122735 -0.5507307649 0.6005174518
-0.07974503934 -0.02880153432 0.5763245225 0.6500382423 -0.5107405782 0.5624520183
-0.07398099452 -0.02760415711 0.5704185963 0.6301122308 -0.5277942419 0.5692241788
-0.07123251259 -0.01932923868 0.5748720169 0.6058793664 -0.5336353183 0.5899227858
-0.08254857361 -0.02732952125 0.5837321877 0.6554737091 -0.5074763298 0.5592994094
-0.07638442516 -0.02327632159 0.5771380663 0.6243610978 -0.5232548118 0.579916656
-0.06209187955 -0.01937860437 0.5668132305 0.4939720333 -0.590280354 0.6371960044
-0.07590736449 -0.04026876763 0.5618695021 0.6483089328 -0.5224419832 0.5531783104
-0.07108491659 -0.03634637222 0.5592808127 0.6057364941 -0.543531239 0.5807164311
-0.07216752321 -0.04155632481 0.5560019612 0.6002999544 -0.5463539362 0.5810614824
-0.06658519059 -0.03735395521 0.5538871288 0.5289318562 -0.5770869851 0.6203958988
-0.01927467063 -0.1336760074 0.612585187 0.2211212665 -0.6142038107 0.7521349192
-0.02023258433 -0.1401388645 0.6107040644 0.1956266314 -0.6219377518 0.7503212094
-0.02742950618 -0.1330972463 0.6151846647 0.06339956075 -0.6137188077 0.7862416506
-0.05308634415 -0.04667000473 0.5354240537 0.3223722875 -0.6075569987 0.7229231596
-0.05299625173 -0.03299113363 0.5486502647 0.3277481198 -0.6478149891 0.6869133115
-0.06081978232 -0.03393856809 0.5524746776 0.4393281341 -0.6148812771 0.6508229375
-0.05995999277 -0.03731363267 0.5478274822 0.4345166385 -0.6175903082 0.6527213454
-0.0549710393 -0.03804701939 0.5447430015 0.3462034762 -0.6388505101 0.6865987182
