# .PCD v0.7 - Point Cloud Data file format
VERSION 0.7
FIELDS x y z normal_x normal_y normal_z
SIZE 4 4 4 4 4 4
TYPE F F F F F F
COUNT 1 1 1 1 1 1
WIDTH 512
HEIGHT 1
VIEWPOINT 0 0 0 1 0 0 0
POINTS 512
DATA ascii
0.1234208643 -0.08274197578 0.6821020842 -0.1622243226 0.261613071 -0.8414022326
0.1197504327 -0.08015569299 0.6846876144 0.08361895382 0.3176220655 -0.9186117053
0.1434730887 -0.1005456299 0.6507714987 -0.7415270209 0.5145868063 -0.4284058511
0.1378995627 -0.09394070506 0.6518615484 -0.6379436255 0.5320596099 -0.5529581904
0.1282374263 -0.08329698443 0.6732053757 -0.4405879378 0.2658542395 -0.7792385221
0.1317923963 -0.08550428599 0.6675056815 -0.5582966208 0.3299700618 -0.6820726991
0.1373400986 -0.08890138566 0.6553078294 -0.6774260998 0.50191921 -0.5366895199
0.05586732179 -0.1617002785 0.7534701824 -0.2143344879 -0.5511013865 0.7991218567
0.04823853076 -0.1619227678 0.7518731356 -0.3153360784 -0.5361067653 0.782567203
0.1296214163 -0.08789855987 0.6781240702 -0.5739852786 0.1684236825 -0.7133252621
0.1381289363 -0.09665463865 0.6658063531 -0.7401050925 0.3057733476 -0.556987524
0.1414429843 -0.09783375263 0.6587802768 -0.7429907322 0.4069028199 -0.4957818985
0.1368652731 -0.08935174346 0.6641449332 -0.6916890144 0.340051502 -0.6095868349
0.1332024187 -0.08830206841 0.672021687 -0.7118960023 0.1987061501 -0.6591377854
0.1198240668 -0.08937480301 0.6883473992 0.3215171695 0.3235665858 -0.8861681819
0.1221551299 -0.1001978368 0.6852994561 0.4095659256 0.3127295375 -0.8536774516
0.119099237 -0.09377879649 0.6853328347 0.3558556139 0.3254859447 -0.8727757931
0.1237163544 -0.09114179015 0.6842477918 0.1504541039 0.3020130992 -0.8489442468
0.1180747226 -0.08330183476 0.6905943155 0.2694204152 0.3258586526 -0.9032435417
0.1137613952 -0.07946766168 0.6891331673 0.274167031 0.3917033672 -0.8735082746
0.1087945551 -0.08081180602 0.6840128303 0.2908554673 0.4732013643 -0.8271844387
0.1172792464 -0.07714214921 0.6795031428 0.02542758361 0.3836000264 -0.8946252465
0.1133000106 -0.07715050876 0.6839357018 0.1843012124 0.4227917194 -0.865064919
0.02878014743 -0.1324737519 0.6501990557 -0.6700541377 0.4849865437 -0.5609723926
0.0246538464 -0.1399746835 0.6510617733 -0.7117781043 0.4669960737 -0.5238695145
0.05359784886 -0.1611684412 0.7486883998 -0.2713425457 -0.5456027985 0.78794384
0.09180935472 -0.2030238509 0.7179535627 0.40689677 -0.5943011045 0.6887907982
0.1154886782 -0.08849783242 0.6837359667 0.3177140355 0.3444536924 -0.8829141855
0.07806317508 -0.1636655778 0.7539435029 0.08280526847 -0.5665266514 0.8109516501
0.1024012268 -0.1725577861 0.7392796874 0.4740109146 -0.5712903142 0.6672734618
0.01094434503 -0.17622374 0.693351686 -0.8693342209 -0.1367873847 0.4497283697
0.01213350426 -0.155878529 0.6898365617 -0.8349018693 0.1025672629 0.07184465975
0.0146449022 -0.1664731205 0.7026134133 -0.8065149188 -0.1831527203 0.3779292405
0.01222902909 -0.1699973494 0.6954953671 -0.8451741934 -0.110910885 0.3662297428
0.01487771887 -0.153054297 0.698366642 -0.7919642329 0.003090927145 0.1094383597
0.01420588326 -0.1501761228 0.6890892982 -0.8157161474 0.08514516801 -0.06947821379
0.01438868139 -0.1445107013 0.6930378675 -0.7932276726 0.1547964215 -0.09028284997
0.01360395364 -0.1374511868 0.6874254346 -0.7995662093 0.29963094 -0.2666011751
0.01623330638 -0.1619126946 0.7059391141 -0.7806489468 -0.1970806718 0.3310159445
0.01571000367 -0.1570667326 0.7022463679 -0.7844784856 -0.09854095429 0.2122661918
0.01379345637 -0.1430521756 0.6873730421 -0.8092349768 0.2095479369 -0.1910414994
0.01271838229 -0.1363667995 0.67860502 -0.8265022635 0.3657354116 -0.4073197246
0.01306893677 -0.1423441619 0.6800919771 -0.8317874074 0.2610964179 -0.3046521544
0.006852047052 -0.1750923097 0.6841990948 -0.9184749126 0.1709834039 0.3110782802
0.009910409339 -0.1584282815 0.6776556373 -0.8869015574 0.2198901623 -0.06873462349
0.01066802721 -0.1667314917 0.6852634549 -0.8761499524 0.03370996192 0.1762864739
0.01201290265 -0.1478101164 0.67377913 -0.8649988174 0.2401499897 -0.306990087
0.009345720522 -0.1728370935 0.689134419 -0.8849313259 0.02887115441 0.3408165574
0.0128282886 -0.1319412291 0.6832587719 -0.8048724532 0.4224300981 -0.3985368907
0.01087219361 -0.1465700716 0.6826691031 -0.8454492688 0.332914263 -0.1732476354
0.008815214038 -0.1610534787 0.6834887862 -0.882512033 0.2517435253 0.07349067181
0.00700342143 -0.182170108 0.6905642748 -0.8829676509 -0.06222594902 0.4584173262
0.0402995199 -0.1347302943 0.6336044669 -0.4690892696 0.5562551022 -0.6852260232
0.08640570194 -0.1273266226 0.6357135177 0.2755710185 0.6088694334 -0.7393978238
0.09513130039 -0.1255242229 0.6414119601 0.3768365681 0.5730564594 -0.7260356545
0.0975003317 -0.200200513 0.7164953351 0.4822123051 -0.5748093724 0.6599735618
0.1392331719 -0.1095508188 0.6442888975 -0.6788498759 0.5343289375 -0.5016220212
0.1414768249 -0.1042556167 0.6468216181 -0.6935687065 0.5642355084 -0.4476294219
0.1117224395 -0.07710056752 0.6782304645 0.06299902499 0.4373735785 -0.8615285754
0.1072146297 -0.0752954334 0.6822710633 0.1820172966 0.5090129375 -0.8106796145
0.1014388129 -0.07368385792 0.6817429662 0.1866956949 0.5355824232 -0.7961001992
0.1065508723 -0.1667662263 0.7389132977 0.5373193026 -0.531401217 0.6479030252
0.1075372621 -0.1727685481 0.7338052988 0.5910770893 -0.5379958153 0.5981155634
0.1172743961 -0.1749448478 0.7151716352 0.7784897685 -0.4391650856 0.447637856
0.1193013564 -0.1695783585 0.7173604369 0.777603209 -0.4338093102 0.4534628987
0.1213895902 -0.1701994836 0.7123232484 0.8164393902 -0.3955616653 0.4199946821
0.01836209558 -0.09683283418 0.706038177 -0.7666294575 0.462890774 -0.444955945
0.02605399862 -0.1679933369 0.728888154 -0.6437823176 -0.4440301359 0.6222503781
0.01917349175 -0.1710104346 0.7149050832 -0.7481049895 -0.3700687885 0.5472403765
0.02177330293 -0.1702583134 0.7202695608 -0.7083386779 -0.3953147233 0.5802553296
0.03758438304 -0.1786882281 0.7328742743 -0.5088970065 -0.5127971172 0.6906986833
0.02592618391 -0.1744507998 0.7238887548 -0.6619015336 -0.4317173064 0.6125996709
0.07647825778 -0.1686336249 0.7509471178 0.05541887879 -0.5898554325 0.8027578592
0.08475244045 -0.1760834903 0.7437727451 0.2299088687 -0.6083532572 0.7555999756
0.06316708773 -0.1796498597 0.7416867018 -0.1199688613 -0.5766339302 0.8007363677
0.07327114791 -0.1768038273 0.7452844381 0.02720575593 -0.5935711861 0.8012990952
0.07495135069 -0.1816692501 0.7419578433 0.07213894278 -0.6053106785 0.7918567061
0.06904345751 -0.1818898767 0.7418400645 -0.03350767866 -0.589753747 0.8021596074
0.08810114861 -0.2071435153 0.7194066644 0.3414171636 -0.6095509529 0.7115234137
0.01260371599 -0.1571930051 0.6833130121 -0.8478158712 0.06720238924 -0.0308727175
0.01412937604 -0.1735132784 0.7018287778 -0.8066136241 -0.2562347651 0.4654739499
0.01291293185 -0.1646926403 0.6904545426 -0.836920023 -0.06164340302 0.1851733029
0.01482173149 -0.1639472991 0.6974026561 -0.804705441 -0.1490122378 0.2442993224
0.01663666032 -0.1676063836 0.7087678313 -0.7803496122 -0.3011427522 0.4497252107
0.01370760798 -0.1514775604 0.6835423708 -0.8359066844 0.09523917735 -0.1308356524
0.1037166044 -0.08183587343 0.6741934419 0.1732629687 0.4906100333 -0.8178394437
0.09675046802 -0.07777067274 0.6772238016 0.2709949613 0.5769869685 -0.7657016516
0.09251315892 -0.0820428133 0.6729513407 0.286970377 0.5861138105 -0.7569614053
0.07345364988 -0.1978904307 0.7287624478 0.09807447344 -0.6035872698 0.7867968082
0.127605781 -0.1850485653 0.6827087402 0.8985440731 -0.2648786902 0.2992421687
0.09204682708 -0.1277188212 0.636975944 0.3622812927 0.5489932895 -0.7500419021
0.08683482558 -0.1228457391 0.639865458 0.2812519372 0.6253838539 -0.7264787555
0.1051635295 -0.1222097501 0.6418554187 0.1318008006 0.4837941229 -0.7768892646
0.1008626968 -0.1256133318 0.63853544 0.2254777253 0.4823328257 -0.7794107795
0.02933094464 -0.1388151199 0.6467407346 -0.6655631661 0.4822901189 -0.5623442531
0.03619083017 -0.136008963 0.6380646229 -0.5376785398 0.5290214419 -0.6455360651
0.03349335492 -0.138033092 0.6427187324 -0.5974719524 0.5100049376 -0.6039962769
0.0402225554 -0.1302568614 0.638669312 -0.5079519153 0.5668498278 -0.6440458894
0.09707113355 -0.2069517672 0.7149965763 0.4779385924 -0.5894739032 0.64260149
0.02944654971 -0.1279278547 0.6544231176 -0.6683457494 0.4914490283 -0.5561166406
0.03323940188 -0.1338710934 0.646047771 -0.6177713275 0.5214276314 -0.5865897536
0.0344938226 -0.1278676093 0.6475894451 -0.6043869257 0.5302761197 -0.5928918719
0.03063979186 -0.1210699752 0.6571455002 -0.6540870667 0.5126994252 -0.5545513034
0.02364286408 -0.1319963485 0.6576240063 -0.7272233963 0.4699629545 -0.4986561537
0.01892910153 -0.1418020129 0.6607505083 -0.7518604398 0.4506302774 -0.4790487587
0.02295259014 -0.1412841976 0.6557974815 -0.7287979126 0.460188657 -0.5041217208
0.02000413463 -0.1361792833 0.6593195796 -0.7520394325 0.4565080404 -0.4753175378
0.02577401325 -0.1253367811 0.6603280306 -0.7161379457 0.4821678102 -0.5030237436
0.02858544886 -0.1186925843 0.6622830033 -0.6893380284 0.5083193779 -0.5152044296
0.01819003932 -0.1017206758 0.6992995739 -0.7862812281 0.4372721612 -0.43628636
0.02385185845 -0.09586947411 0.6939940453 -0.7668260336 0.4606033266 -0.4468967319
0.1032831669 -0.181716606 0.7292509079 0.5573101044 -0.567961514 0.6047033668
0.1116320118 -0.17268987 0.7289385796 0.6681317687 -0.5106911063 0.5406750441
0.1123307273 -0.1673392206 0.7310212255 0.6562445164 -0.4966507256 0.5669790506
0.03061372042 -0.1690061837 0.7333009839 -0.5929558277 -0.4775071442 0.6463255882
0.03282373026 -0.1780971438 0.7287373543 -0.5866354704 -0.4798567295 0.6511756182
0.03464318812 -0.1733222008 0.7344932556 -0.5325157046 -0.5019334555 0.6809501052
0.02938904054 -0.1729424745 0.7301694751 -0.6255512238 -0.4530519247 0.6340631843
0.04266919941 -0.1648014039 0.7467132211 -0.3876558542 -0.519659996 0.7585521936
0.04142252356 -0.1717245281 0.7394601703 -0.4508155584 -0.5277420282 0.7162715197
0.03497780487 -0.1677943766 0.7379471064 -0.5138969421 -0.5067815781 0.6889936924
0.04823158309 -0.1746100783 0.7406692505 -0.3433707356 -0.5426117182 0.7609722614
0.05115803704 -0.1680520922 0.7483569384 -0.2673969865 -0.5560765862 0.7867939472
0.0435269773 -0.1698370278 0.743825078 -0.3956799805 -0.5265295506 0.7509247065
0.04693207145 -0.2084175497 0.7188602686 -0.3164258897 -0.5357640982 0.7794315815
0.05849571899 -0.2110548466 0.7190926075 -0.1298868656 -0.5854178667 0.7896669507
0.06437033415 -0.21145913 0.7182962894 -0.04002315551 -0.6060875058 0.782923758
0.1013466716 -0.1682146043 0.7422820926 0.4556953609 -0.5587187409 0.6917327046
0.09492679685 -0.1739983261 0.7416206002 0.4045597911 -0.5870364308 0.7007408738
0.1035368517 -0.1770502627 0.7332489491 0.5426853299 -0.5637637377 0.6212435365
0.09763743728 -0.1773137301 0.7363876104 0.4530607462 -0.5832083225 0.6694141626
0.09567737579 -0.1828918457 0.7329804897 0.4476522505 -0.5952361226 0.6640582085
0.05760836229 -0.1714327037 0.7490060329 -0.1998187751 -0.5729644299 0.794752717
0.05712818354 -0.178948313 0.7430810928 -0.2207449079 -0.5719859004 0.789601028
0.05727878958 -0.1665070206 0.7468473315 -0.2179655731 -0.561825037 0.7972015142
0.05345444754 -0.1705313176 0.7437801361 -0.2633373737 -0.55214113 0.7883313894
0.0610739328 -0.162944451 0.7493382692 -0.1658720672 -0.5657405853 0.7996938825
0.06670632213 -0.1646267176 0.7506962419 -0.08547049016 -0.5780313611 0.8019163013
0.06438753754 -0.1740665436 0.7475303411 -0.1227672398 -0.5789479017 0.8056024909
0.01999376714 -0.1763856262 0.7128399611 -0.7603892684 -0.3428086936 0.5506554842
0.1031051502 -0.08085355908 0.6802211404 0.3125957251 0.5181176066 -0.7935198545
0.09840188175 -0.08355347812 0.6754603386 0.3226135671 0.5453888178 -0.7717903256
0.1105815843 -0.09036210179 0.6787504554 0.3574435115 0.4071296453 -0.8360418081
0.09023170173 -0.07469115406 0.6791743636 0.2241309583 0.6161276102 -0.7533071637
0.08709281683 -0.07799686491 0.6747347116 0.2044704556 0.6200897098 -0.7556450963
0.0949947387 -0.07317254692 0.6822382212 0.2687280178 0.5984243751 -0.7543860078
0.08615019917 -0.07136029005 0.6802288294 0.1625190973 0.665843308 -0.7276967764
0.07721541822 -0.06994684041 0.6793038845 0.04471315816 0.6763097048 -0.7338321805
0.08198563755 -0.07431086153 0.6764381528 0.1288337111 0.6500013471 -0.7456678748
0.05661306158 -0.1952045113 0.7301807404 -0.1811579764 -0.5428042412 0.8165892363
0.04400545731 -0.179060474 0.7365009189 -0.4225151241 -0.5514308214 0.7188865542
0.0517112352 -0.1788381338 0.738692522 -0.2812550664 -0.5595992208 0.7752224803
0.1097264215 -0.1247611493 0.6396799088 0.07632570714 0.4195805192 -0.8107241392
0.1156555414 -0.121070534 0.6408522129 -0.1023625955 0.3729749024 -0.8381875157
0.1008902118 -0.1294453591 0.6429024339 0.3957118988 0.502391398 -0.7633507252
0.09697525203 -0.1321855336 0.6364491582 0.4116548598 0.4984846413 -0.7627405524
0.07755032182 -0.100714758 0.6548384428 0.0676093623 0.6178594828 -0.7782331109
0.08345141262 -0.1014545411 0.6555566192 0.1741337329 0.6062164903 -0.7725719213
0.03397922963 -0.1240227371 0.6527530551 -0.6114845276 0.5057722926 -0.6078734994
0.1021096334 -0.135396257 0.6397237778 0.4373991191 0.377836287 -0.8024130464
0.1126767471 -0.1306563616 0.6419293284 0.07353102416 0.3689463735 -0.818338573
0.0639417246 -0.1316112876 0.6292142868 -0.1021509767 0.7017717361 -0.7032328248
0.05917001143 -0.126207605 0.6345821619 -0.1934646666 0.6744379401 -0.708501339
0.05068169534 -0.126231119 0.6387169361 -0.3331408203 0.629173398 -0.6923220754
0.04988507554 -0.1310517192 0.6299090385 -0.3586559892 0.6107301712 -0.7046362758
0.05381530523 -0.1286782622 0.6346135736 -0.2688424587 0.6519679427 -0.7023595572
0.05676713586 -0.1299690604 0.6293541193 -0.2267372757 0.668910563 -0.7003960013
0.04589377716 -0.131057322 0.6367074847 -0.400873214 0.5948751569 -0.681293726
0.06875999272 -0.1977574527 0.7311648726 0.03664968908 -0.5893395543 0.803627491
0.0741090551 -0.1912615746 0.7351386547 0.09577276558 -0.5965847969 0.7967226505
0.06874118745 -0.1873650998 0.7376263738 -0.0208451394 -0.5880985856 0.8032901287
0.07842735201 -0.2091276646 0.7186096907 0.196169585 -0.6098498106 0.7622089386
0.07325958461 -0.2114150226 0.7178272605 0.1273637116 -0.6232316494 0.7697445154
0.07854412496 -0.2049364597 0.7224302292 0.2000372708 -0.605677247 0.7669141889
0.06522683054 -0.2005872279 0.7268579602 0.008936483413 -0.6000768542 0.7971274257
0.07119149715 -0.2031849027 0.727068603 0.09852503985 -0.6044771671 0.7893106937
0.06672721356 -0.2098170817 0.7231131196 0.03875986114 -0.6032280326 0.7948563695
0.0730060637 -0.2072651386 0.7221035957 0.1195625216 -0.6066613793 0.7840647101
0.04767346382 -0.1965356618 0.7261473536 -0.3279193044 -0.5070745945 0.791505754
0.04461644962 -0.2017547786 0.7225983143 -0.3589991927 -0.5050247312 0.7826589346
0.1113971472 -0.1929844469 0.7094605565 0.701883316 -0.4607591331 0.5426574349
0.105897963 -0.1964995414 0.7128164172 0.6339815259 -0.4941003025 0.5942567587
0.1059926227 -0.2029040903 0.7079479098 0.6381300092 -0.510756433 0.5748620629
0.1096524671 -0.1987266988 0.7064620256 0.6919264197 -0.4727480412 0.5436974168
0.112347059 -0.2015890032 0.7018095255 0.719080925 -0.4609082043 0.5137996674
0.1010414138 -0.204710871 0.7103816271 0.5565680861 -0.5542941093 0.6063714623
0.09161052108 -0.2091477811 0.7138866186 0.4186698198 -0.5765040517 0.6812449098
0.110620968 -0.1192643866 0.6443784833 0.04559760168 0.4575839937 -0.7857115269
0.1166842356 -0.1172433496 0.6451715231 -0.07908823341 0.4083050787 -0.8101785779
0.1238701269 -0.1118492559 0.6442474723 -0.3073321283 0.4351624548 -0.7774885893
0.01342130359 -0.1419932395 0.6702050567 -0.8346227407 0.3379778862 -0.4269090593
0.01485705376 -0.1360910237 0.6716878414 -0.8096196055 0.3858492672 -0.4353454113
0.01655514166 -0.1378647536 0.6648984551 -0.7738161683 0.436917007 -0.457373172
0.02695514262 -0.1164441705 0.6685218215 -0.7208185196 0.489394933 -0.4896242619
0.02351389267 -0.1233850121 0.6672415137 -0.7527726889 0.4643180072 -0.4659453034
0.02299334481 -0.1198565662 0.6735767722 -0.7674949765 0.4557881355 -0.4502792656
0.1148984134 -0.1896393597 0.7065074444 0.7623522878 -0.4169467986 0.4892175794
0.116336979 -0.1928218603 0.701426208 0.7783396244 -0.4080285728 0.4744023681
0.08473105729 -0.1954862326 0.7284153104 0.2927344739 -0.6049146652 0.7403421402
0.08351353556 -0.2016099542 0.7239425778 0.2708999813 -0.6021686792 0.7490070462
0.07976495475 -0.1974999309 0.7280852795 0.2066966742 -0.6105610132 0.7611482143
0.1159187704 -0.1681815833 0.7233867645 0.7109410167 -0.4796011448 0.5123770237
0.1193610653 -0.196414277 0.6945034266 0.7994323373 -0.4009513557 0.4450210929
0.1260688752 -0.1855706573 0.6890813708 0.8774172664 -0.3146874905 0.3390337229
0.1232131794 -0.1913655102 0.6902059913 0.8295394182 -0.376888752 0.4120238721
0.0205086153 -0.09017913789 0.7099708915 -0.7501074076 0.4806765914 -0.4541840255
0.02297831886 -0.1150052175 0.6775057912 -0.7685844302 0.4531523287 -0.4506343603
0.05555598065 -0.2048976123 0.7231746316 -0.1648573279 -0.5750003457 0.7994003892
0.06153998151 -0.205910638 0.7221488953 -0.06842867285 -0.6023358703 0.78623873
0.058987014 -0.2001182586 0.7269508243 -0.1001003757 -0.5809793472 0.803141892
0.05339265615 -0.1997967958 0.7262839675 -0.211123243 -0.5552220345 0.8023791313
0.0495987162 -0.2039373219 0.7220776081 -0.2659854293 -0.5351682305 0.7971786261
0.05279576033 -0.2106535882 0.7208064795 -0.1904767603 -0.5679470897 0.7995004058
0.08659095317 -0.1702098846 0.7479823232 0.2384910882 -0.5810218453 0.7731153369
0.08018890768 -0.1734731048 0.7475906014 0.1240279526 -0.5879010558 0.7971739173
0.08402036875 -0.1668205112 0.7522106171 0.1647717059 -0.5683252811 0.805893898
0.06372453272 -0.1618246883 0.7559527755 -0.1206287369 -0.5693976879 0.8088172078
0.07292688638 -0.1619071066 0.7595200539 -0.01532517932 -0.5878362656 0.8083745241
0.07008884847 -0.169053629 0.7511709332 -0.02522221766 -0.5833281875 0.8093912005
0.01548845693 -0.1905706525 0.7021343112 -0.7820404172 -0.3228330612 0.5219256878
0.009481040761 -0.1859072745 0.6952210069 -0.8324969411 -0.225990355 0.4919055402
0.01412043907 -0.1789900362 0.7036756277 -0.7982220054 -0.2988193333 0.517185986
0.02632426471 -0.1846181303 0.7159447074 -0.7009355426 -0.3781552315 0.6034983993
0.0241684895 -0.1786728799 0.7179611921 -0.7126734257 -0.3688651919 0.5958694816
0.1161271557 -0.09756615013 0.679366827 0.3916927874 0.3267897367 -0.8590800762
0.1068209782 -0.09354699403 0.6730622649 0.443236202 0.4343385696 -0.780938983
0.1058259681 -0.08805476129 0.6762233377 0.3680582941 0.460157156 -0.8046241403
0.108898662 -0.0962164849 0.6646888256 0.2575800717 0.5098618865 -0.69488132
0.1319511384 -0.08986487985 0.6574001908 -0.5051721334 0.5003854632 -0.5629325509
0.1134686768 -0.09607905895 0.6623293161 0.1138753593 0.5169312358 -0.6770604253
0.04275180399 -0.1862269491 0.7303144932 -0.4545250833 -0.5076172948 0.7269074321
0.03716746345 -0.1843952835 0.7272282839 -0.5686165094 -0.4663279653 0.6681547165
0.05527154729 -0.1885648221 0.734477818 -0.2436570078 -0.5584657788 0.7914834619
0.06262155622 -0.1869986653 0.7373984456 -0.1283925772 -0.5825735331 0.799507618
0.06484894454 -0.1923241317 0.7341032624 -0.06697974354 -0.5740656257 0.8153993487
0.04825205728 -0.1841917187 0.7348613739 -0.3565744758 -0.5647830963 0.7408726811
0.0577596277 -0.1831480116 0.7381101847 -0.1950316727 -0.5726022124 0.7927160263
0.1088458747 -0.1395078748 0.6435762048 0.4745663404 0.221918866 -0.8458697796
0.06678814441 -0.09832867235 0.6573783159 -0.1140512303 0.6332529783 -0.7643660307
0.07277810574 -0.1030438319 0.6529117823 -0.0006918641157 0.621142745 -0.7807831764
0.1222779229 -0.1448202729 0.6547228098 0.6546802521 0.2645844221 -0.6512858868
0.08640723675 -0.1328998506 0.6275045872 0.274931103 0.5672498941 -0.768606782
0.09158825129 -0.1320793927 0.6324689984 0.3550576866 0.527353704 -0.7651493549
0.03987354785 -0.1229269728 0.6488243341 -0.5291463137 0.5781494379 -0.6196588874
0.05060516298 -0.1207143143 0.6432561278 -0.3306351304 0.6405549645 -0.6904058456
0.04576239735 -0.1229919717 0.6443560719 -0.4115275443 0.6231415868 -0.6591004729
0.04412835836 -0.1192553192 0.6485291719 -0.4540483654 0.6032550335 -0.6507229805
0.04117735103 -0.1266337186 0.6427862644 -0.4928745329 0.587603569 -0.6362034678
0.09875661135 -0.1860340834 0.7287955284 0.5067703128 -0.57997787 0.6368541121
0.08398329467 -0.1902328283 0.732991755 0.2728582621 -0.6111329198 0.7418515682
0.0838252902 -0.185683623 0.7372297645 0.2470756918 -0.6140241623 0.748593688
0.08026499301 -0.1819059104 0.7401720881 0.1732096672 -0.6089918613 0.7646248341
0.08727993071 -0.1803191453 0.7389284372 0.3017880023 -0.6105381846 0.728638649
0.07807634026 -0.1869507134 0.7371336818 0.1453214735 -0.5981296301 0.7828124166
0.1076355949 -0.1312257946 0.648117125 0.4445513785 0.4419746995 -0.7677299976
0.1106196195 -0.1358811259 0.6485142708 0.4649708569 0.3719705045 -0.7903009057
0.1091196984 -0.1258292645 0.653429687 0.4739795029 0.5216454268 -0.6916202903
0.04962441698 -0.1092919335 0.6531383991 -0.3559194803 0.6202077866 -0.6975902915
0.05298053473 -0.1130943522 0.6484717727 -0.3051698804 0.6445801854 -0.7000624537
0.04546681792 -0.1135246381 0.6524228454 -0.407294333 0.6064492464 -0.6811485887
0.09772741795 -0.1211858988 0.6459854245 0.3879150152 0.5913394094 -0.7066536546
0.102707848 -0.1255728304 0.6469330788 0.411878705 0.5262393355 -0.7430917621
0.1047977656 -0.1224212125 0.6505556107 0.4170560539 0.5573112369 -0.7173676491
0.1081777364 -0.1200891659 0.6563925147 0.474175483 0.599463284 -0.6409704685
0.08156047761 -0.08015416563 0.6721887589 0.1265829355 0.6285140514 -0.7634358406
0.07703109831 -0.07792048156 0.6737253666 0.05671045557 0.6404738426 -0.7627173662
0.07663130015 -0.08255209029 0.6693475842 0.04725433886 0.6319330931 -0.771571517
0.08373834938 -0.08528707176 0.6687183976 0.1683763713 0.6095025539 -0.7731020451
0.03697431833 -0.07921627909 0.6904488802 -0.6299063563 0.5713915825 -0.5208106637
0.03336827084 -0.07976476103 0.6957504153 -0.6688884497 0.5415578485 -0.5024049282
0.03388187289 -0.09940551966 0.6747227311 -0.6524447799 0.5102590322 -0.5576684475
0.01898167841 -0.1304249465 0.6673551798 -0.779265821 0.4371868372 -0.4489573538
0.01822056249 -0.11691802 0.6831241846 -0.7873369455 0.4390047193 -0.4327700138
0.01906965487 -0.1216858774 0.678083539 -0.7866076231 0.4383207858 -0.4348069429
0.01977230795 -0.1248957813 0.6739468575 -0.7851815224 0.4408022165 -0.4347725213
0.01559089124 -0.1311357021 0.6754404902 -0.7905578613 0.4280528128 -0.4378693104
0.01494619157 -0.1275040358 0.6813800931 -0.7993702888 0.4316248298 -0.4179171622
0.01380592864 -0.1829873323 0.6979234219 -0.7975846529 -0.2960776389 0.5173197389
0.01726179756 -0.1842325479 0.7022826076 -0.7938486934 -0.2972297072 0.5232697725
0.01774081402 -0.1794702262 0.708342135 -0.7777792811 -0.3363136947 0.5309122205
0.02115090378 -0.1838352382 0.7093957067 -0.7637681961 -0.3399628401 0.5477198362
0.04012931883 -0.1897015274 0.726126492 -0.5022451878 -0.4601257741 0.7310884595
0.03456912562 -0.1893169582 0.7224993706 -0.6064124107 -0.4310777783 0.666013658
0.0290651042 -0.1915819943 0.7184333205 -0.6358111501 -0.4067204595 0.65372473
0.03132374957 -0.1848269999 0.7215807438 -0.6589246988 -0.401212275 0.6358329058
0.03939479589 -0.197371915 0.7216553688 -0.4868113101 -0.4571614265 0.739546597
0.04148858041 -0.2057759613 0.7191272378 -0.3985326588 -0.5012277365 0.766055584
0.09051327407 -0.08678448945 0.6702917218 0.2748132348 0.5807415843 -0.7602415085
0.1162510961 -0.08040430397 0.6750473976 0.00354570616 0.3731852174 -0.8954133391
0.09959059954 -0.08817931265 0.6716670394 0.323410809 0.5289260745 -0.7671353817
0.1168655753 -0.09074754268 0.6633104086 -0.09031561762 0.5151556134 -0.6444063783
0.1227538735 -0.09129295498 0.6608165503 -0.2243100256 0.5042687654 -0.6123632193
0.1229368821 -0.07811273634 0.6754364371 -0.1333981603 0.3232505918 -0.9255561829
0.1223325282 -0.08493941277 0.6670256853 -0.212159723 0.440061897 -0.7358825803
0.1272627711 -0.08616376668 0.6631468534 -0.3699890077 0.4615094066 -0.6635860801
0.1125930995 -0.08453858644 0.6721180081 0.07124820352 0.4322379827 -0.8212797642
0.1050606295 -0.08916169405 0.6697731614 0.2210657448 0.510640502 -0.7469459772
0.1118252203 -0.08950569481 0.6661526561 0.02330009826 0.5171977282 -0.6857658625
0.1247092336 -0.1060442254 0.6824327707 0.3689887822 0.305069387 -0.8003528118
0.1269986033 -0.09971746057 0.6812211275 -0.04196795076 0.2396085709 -0.7719141841
0.1309295297 -0.09530907869 0.6783011556 -0.5390037894 0.1693182141 -0.6948189735
0.1064353511 -0.09940104187 0.6692484021 0.5192565322 0.4544391036 -0.7193850279
0.1022241563 -0.09535790235 0.6695052385 0.4519077837 0.5014551878 -0.7324535847
0.1015256569 -0.1031477302 0.6633556485 0.4726175964 0.5296860933 -0.7004519105
0.1112975553 -0.09765920788 0.6739146113 0.4409361482 0.3645004928 -0.8117796183
0.118705295 -0.1266131103 0.6432247162 -0.1927585751 0.3775342405 -0.8298103213
0.1066943109 -0.1306574345 0.6395395994 0.2180960923 0.4571880996 -0.7844934464
0.1199578717 -0.1328908503 0.6467394233 -0.02965718135 0.03446243703 -0.9489144683
0.1225176752 -0.1394814253 0.651945889 0.3480235934 0.1764443815 -0.8305757642
0.1105349585 -0.1808955222 0.7201637626 0.7079706192 -0.491853267 0.506788075
0.1089599803 -0.1775542051 0.7278079391 0.6398410201 -0.5261065364 0.5574223995
0.1052262038 -0.1842702478 0.7241694331 0.5887997746 -0.5484312773 0.5911428332
0.1302771121 -0.1722452343 0.6911042929 0.9434979558 -0.1448448002 0.2792373896
0.1209465414 -0.1891766191 0.6970601082 0.8267844915 -0.3715208471 0.4221560657
0.1188793406 -0.1853548288 0.7030741572 0.8158840537 -0.3776670098 0.437350899
0.1252428442 -0.1767566651 0.6942455769 0.8429033756 -0.3536492288 0.40543589
0.1218838915 -0.182633847 0.6989815235 0.8345943093 -0.3609110713 0.4160937369
0.1206196174 -0.1786214262 0.7053444982 0.8288905025 -0.3664601743 0.4226154387
0.12343546 -0.1760604382 0.6994720697 0.8370739818 -0.3591192663 0.412391156
0.07671638578 -0.1290200353 0.632774055 0.101969555 0.6672517657 -0.7255982161
0.08329790086 -0.1312469244 0.6319586039 0.2208341807 0.6157887578 -0.7484394908
0.06280472875 -0.1211140007 0.6389744878 -0.1342739463 0.6752169728 -0.7213631868
0.05974416807 -0.1172094196 0.6433858275 -0.1872083396 0.6593934894 -0.7224016786
0.05606577545 -0.1209558547 0.6405162215 -0.2539651692 0.6602270603 -0.7054736018
0.105039686 -0.1909811795 0.7181759477 0.6189033985 -0.5033503771 0.6001628637
0.08987209201 -0.1956967413 0.7254516482 0.3754557669 -0.5804538131 0.7182486057
0.09280698746 -0.1987262666 0.7207650542 0.4154272974 -0.5854912996 0.6915876865
0.09551904351 -0.1942887902 0.7235052586 0.472014159 -0.5552380085 0.6837598085
0.1005991623 -0.1948199868 0.7202210426 0.5432086587 -0.5438942909 0.6361499429
0.06016964093 -0.1016198546 0.6563133001 -0.1988653988 0.629280448 -0.7486086488
0.05459292606 -0.1002907678 0.6604366899 -0.29521209 0.6270002127 -0.7184764743
0.05028440431 -0.1046150103 0.6572567821 -0.3544937074 0.6109882593 -0.703725636
0.09528515488 -0.1142701879 0.6502324343 0.3818825781 0.5764530897 -0.7210333943
0.1125798449 -0.1107818484 0.6467705369 -0.05862557516 0.5225604773 -0.7315243483
0.1026353687 -0.1164767072 0.6477287412 0.2572171688 0.5728731751 -0.7104907036
0.1078902036 -0.1141794994 0.6466680169 0.08609335124 0.5492853522 -0.7202855945
0.1033262387 -0.1178823411 0.6545417309 0.4462770224 0.6004300117 -0.6580024958
0.08961699903 -0.1030896232 0.6563224792 0.2958176732 0.5846936107 -0.7524096966
0.09106778353 -0.09839586169 0.6613456607 0.3131899238 0.5803621411 -0.7441232204
0.1190331653 -0.1038213223 0.6798443198 0.4565684199 0.3134341836 -0.8319559097
0.04668279737 -0.0781686604 0.6820203662 -0.4384639263 0.6433389187 -0.6250915527
0.05134552345 -0.07399761677 0.6834192872 -0.3979806006 0.6511443257 -0.6431182027
0.04001183435 -0.1129254997 0.6574164629 -0.5113915205 0.5760063529 -0.623893857
0.02707725763 -0.1098872796 0.6753132939 -0.7335863113 0.4686818421 -0.4916817248
0.03169777244 -0.1107807085 0.6671692133 -0.6712678671 0.5163272023 -0.5308347344
0.04694255069 -0.09854406863 0.664516747 -0.4067194462 0.6009661555 -0.6863365173
0.04301350191 -0.1053644195 0.6608716846 -0.4576535821 0.5887237191 -0.6646323204
0.06509654224 -0.0834447816 0.669919312 -0.1580660045 0.6332107782 -0.7558720708
0.02365939505 -0.09269546717 0.7003415823 -0.7551927567 0.4737479091 -0.4527480304
0.02513690665 -0.09017893672 0.6961797476 -0.7496550679 0.4776870906 -0.4575841129
0.02592956088 -0.08629055321 0.7023178935 -0.7353451252 0.4931161404 -0.4639923573
0.02884604782 -0.08248123527 0.6992567182 -0.7228683233 0.5052180886 -0.4711114168
0.03611054271 -0.1074757278 0.6653879285 -0.5945138335 0.5483754277 -0.5863955617
0.03878175467 -0.09950753301 0.6702188849 -0.5585302114 0.54534477 -0.6090867519
0.03314563259 -0.1060374826 0.6704660654 -0.6479534507 0.5144240856 -0.555680573
0.03836240247 -0.09493481368 0.6736199856 -0.5591653585 0.5465903282 -0.619294703
0.04309801757 -0.09611609578 0.6685476899 -0.467543602 0.5819457769 -0.6644897461
0.04124900326 -0.1022396982 0.6653419137 -0.4928955734 0.5756950378 -0.6477156281
0.06418310106 -0.0717150718 0.6800692677 -0.2214325815 0.6743614674 -0.7019955516
0.06572429836 -0.07582914829 0.6760857105 -0.1779450774 0.6756164432 -0.7138332725
0.07098042965 -0.07881762087 0.6730571389 -0.05078619719 0.6437782645 -0.7573845983
0.09577389061 -0.1046174392 0.6582959294 0.3934527636 0.5634555221 -0.7259628177
0.115929164 -0.1060667038 0.6494635344 -0.1365291923 0.5063206553 -0.7365341783
0.09725750238 -0.1079617888 0.6539299488 0.3195098341 0.5593884587 -0.7323724031
0.1023977399 -0.1099961177 0.6509881616 0.2071114033 0.5479568839 -0.729585588
0.1086518392 -0.1074359789 0.6504254341 0.03312393278 0.5271388292 -0.7362325191
0.03028042987 -0.2021382451 0.7142785192 -0.5922381878 -0.4189783931 0.6837028861
0.02838006057 -0.1958995163 0.7135319114 -0.6511794329 -0.3900448978 0.6485480666
0.03318104148 -0.1968281716 0.7167238593 -0.5794283748 -0.4263679981 0.6931871176
0.02353645489 -0.1959211677 0.7098349929 -0.6857991815 -0.3907108009 0.6062543988
0.01975017041 -0.1924319863 0.7065157294 -0.7414545417 -0.3753412664 0.5543208718
0.02703808434 -0.1902662516 0.7128459811 -0.6950412393 -0.3735197783 0.6116676927
0.07794260234 -0.09296816587 0.6619008183 0.07770052552 0.6184962392 -0.777167201
0.07678364962 -0.08841197193 0.6651342511 0.05660839006 0.6221538782 -0.7785954475
0.08356595784 -0.08983240277 0.664668262 0.1744886786 0.6065999866 -0.773393929
0.07268193364 -0.0978808701 0.6580975652 -0.01178524736 0.6257094145 -0.7658672333
0.08127520233 -0.09662233293 0.6592952609 0.1347367167 0.6159277558 -0.7712179422
0.07144249976 -0.09303233773 0.6620784998 -0.03618886694 0.6278191209 -0.7730327249
0.06499952078 -0.0942498669 0.661598444 -0.1451366842 0.632106483 -0.7611069083
0.07086583227 -0.0874215886 0.6660190225 -0.0485782139 0.6252343655 -0.7741429806
0.06580655277 -0.08913502842 0.6652318835 -0.1400075257 0.6270157099 -0.7658213377
0.1345946193 -0.09757487476 0.6495400071 -0.5844530463 0.5272749662 -0.6079927087
0.1258495599 -0.1325078309 0.648542285 0.01208536886 0.148157075 -0.8814485073
0.1164769083 -0.1435441375 0.6506874561 0.5734638572 0.2377117872 -0.7383613586
0.1299906224 -0.1350441277 0.6514841914 0.2169833481 0.1968664825 -0.5987855792
0.1286209673 -0.1411781311 0.6553046703 0.5045657754 0.1654826105 -0.4634469748
0.1278687567 -0.166331619 0.6777994633 0.9584909081 -0.0665128231 0.06455273926
0.1288232654 -0.1729090512 0.6794575453 0.9628790617 -0.1186718196 0.1304932386
0.1285220534 -0.1638379097 0.6716479659 0.9663900137 -0.007070745807 -0.009957918897
0.1277274638 -0.1589847058 0.6663725972 0.9662644863 0.04844613373 -0.116591312
0.1297509372 -0.1704280227 0.6854679585 0.9614546895 -0.1104125902 0.2301275134
0.1294922233 -0.1705088466 0.6734808683 0.9707184434 -0.06062529981 0.05905046687
0.1269169003 -0.1535037011 0.6642695069 0.9631661773 0.09495560825 -0.1818380952
0.1263966411 -0.1797037572 0.6891551614 0.9085046053 -0.2585436702 0.2986661196
0.1310055703 -0.177570805 0.6851732731 0.9532061815 -0.1996355206 0.2263445258
0.1257578582 -0.1713571697 0.7033547163 0.8585748672 -0.3126636147 0.3871428967
0.1281505823 -0.1716716737 0.6970166564 0.9038529992 -0.2226848453 0.3298163116
0.07897353917 -0.1327876747 0.6241425276 0.1371228248 0.6367663145 -0.7533772588
0.07320913672 -0.1315673441 0.626023531 0.02780578844 0.6781674623 -0.7319166064
0.06554664671 -0.126098156 0.632915318 -0.08301632851 0.6930806041 -0.7131970525
0.06962338835 -0.1311903149 0.6305335164 -0.02937866934 0.6962947249 -0.7167105079
0.07156003267 -0.1258865595 0.6338021159 0.01973508485 0.683069706 -0.725405395
0.08369643241 -0.1057006791 0.6524710655 0.1868260056 0.6009650826 -0.7743819356
0.07732066512 -0.1068293974 0.6502836347 0.08224371076 0.6183562279 -0.7783921957
0.05606633797 -0.1055674627 0.6541246772 -0.2800655961 0.6182243824 -0.7314897776
0.06520215422 -0.106709756 0.6506892443 -0.1115558222 0.6344993711 -0.7642817497
0.0598975569 -0.1095376462 0.6490567327 -0.2078308016 0.6371055245 -0.74020046
0.1263577491 -0.1196686253 0.6436461806 -0.3819967806 0.3083084822 -0.8707207441
0.1182041019 -0.1319560707 0.6592513919 0.6552618742 0.420755744 -0.5706936717
0.1198714823 -0.1376556754 0.6581044793 0.7013219595 0.3190099001 -0.5582067966
0.1320472062 -0.1114060283 0.6431278586 -0.5202465653 0.4183879793 -0.7408853173
0.0588615872 -0.0946142152 0.6626278162 -0.2324706614 0.623570323 -0.7431284785
0.05155291036 -0.09620030224 0.6637846828 -0.3400000632 0.6099775434 -0.7121043205
0.08662804216 -0.09396144748 0.6622834802 0.2372111976 0.5939772129 -0.7662312388
0.09672377259 -0.09425991774 0.6665386558 0.3863465786 0.5452040434 -0.7432326674
0.1112868562 -0.09935911745 0.6557840705 -0.03124284744 0.522890687 -0.7271314263
0.103870362 -0.09688352793 0.660189867 0.1517042071 0.5404251218 -0.7291149497
0.1223966107 -0.1042405888 0.6482627392 -0.3083715737 0.4899657965 -0.7363892794
0.1296746433 -0.09567930549 0.6525730491 -0.4590672553 0.5351423621 -0.6198692918
0.1172138378 -0.09938013554 0.6538007855 -0.172311753 0.5199880004 -0.7051413059
0.1227097139 -0.09997451305 0.6515101194 -0.304628104 0.5140333176 -0.690743804
0.1286337376 -0.1013347134 0.6484757662 -0.4491401613 0.5035307407 -0.6827252507
0.1247712523 -0.09526077658 0.6545289755 -0.3413085043 0.5398206711 -0.6338799
0.1183531731 -0.09548267722 0.6592382789 -0.07734977454 0.5293792486 -0.655356288
0.09689996392 -0.100429751 0.6618774533 0.3824676275 0.5565603971 -0.7263303399
0.1279675812 -0.1068097278 0.6444148421 -0.4470041394 0.473056674 -0.7417179942
0.1064630151 -0.1028189361 0.6563702822 0.1329766065 0.5315304995 -0.7293351293
0.1031346247 -0.1089217886 0.6594105363 0.4686443508 0.5761591196 -0.6678626537
0.1131181121 -0.1057697237 0.671020627 0.5283519626 0.393889606 -0.7428396344
0.107645072 -0.1045028418 0.6664289236 0.5438934565 0.4800342023 -0.684541285
0.1111933142 -0.1151091158 0.6625598073 0.5365621448 0.6006997824 -0.5912047625
0.105690442 -0.1133065373 0.6591207385 0.5024095774 0.5752985477 -0.6408387423
0.02784004807 -0.09168677777 0.6896008253 -0.7451202273 0.4781691432 -0.4644661546
0.023986727 -0.1045954973 0.6850088239 -0.7668715715 0.4496385753 -0.457437098
0.02235179581 -0.1027591228 0.6905634999 -0.7746122479 0.4453955889 -0.4484987557
0.02920690365 -0.1004370973 0.6803154945 -0.7156431675 0.4807580709 -0.5047892928
0.02991466597 -0.1047287956 0.6756677628 -0.7058093548 0.4818419814 -0.517739594
0.02802264877 -0.09633983672 0.6856359839 -0.7359634042 0.473608315 -0.4835307598
0.03325736895 -0.1152423918 0.6598795652 -0.621914506 0.5394944549 -0.5617399216
0.03804685548 -0.1184965372 0.6533181071 -0.5528814197 0.5716384649 -0.6054874659
0.05946078524 -0.08770855516 0.6677482724 -0.2338690609 0.6249371767 -0.7422792912
0.03252096474 -0.08889161795 0.6859302521 -0.7028504014 0.5030611157 -0.5005228519
0.03273259103 -0.08419012278 0.6909291744 -0.7085924745 0.513658762 -0.482946068
0.113199003 -0.1325504631 0.6535587311 0.5104339719 0.4196971357 -0.7199090123
0.1150438562 -0.1276246458 0.6584089398 0.5730242729 0.4892119765 -0.6241336465
0.114413999 -0.122120373 0.6612724066 0.5827735662 0.5708374977 -0.5662286282
0.07835225761 -0.1195430756 0.6398363113 0.1362885535 0.6443824768 -0.7479705215
0.08453793079 -0.117281206 0.6434975863 0.2385339588 0.620952189 -0.744782567
0.07507020235 -0.1159057468 0.6426711082 0.07491859794 0.6338990927 -0.7694813609
0.08494722843 -0.1110085845 0.6483588815 0.2448330522 0.6062104702 -0.7534177303
0.07992326468 -0.1140581071 0.6449065804 0.1552203745 0.6220375299 -0.7635487914
0.08052673191 -0.1252160668 0.6354978681 0.1786513478 0.6493880153 -0.7344923019
0.129852891 -0.1180728301 0.662114501 0.1417568177 0.5129612684 -0.5562064648
0.1409486383 -0.1080857068 0.6519773602 -0.5586832762 0.5003706217 -0.4669214189
0.1349665523 -0.1116835475 0.6606196165 -0.1348689198 0.5036014915 -0.4993945062
0.1373932958 -0.1107739806 0.6561357379 -0.3210138083 0.5033858418 -0.4910429716
0.1319866776 -0.1190929413 0.6536525488 -0.1274032146 0.4269810319 -0.668253541
0.1260219365 -0.1205935255 0.6669475436 0.3931630254 0.4934203029 -0.6043992639
0.1345908493 -0.118683517 0.647261858 -0.367828697 0.3880630732 -0.7103173137
0.1376063824 -0.1142288372 0.6493579149 -0.4332158864 0.5035502911 -0.5292294025
0.1369007826 -0.1145149171 0.6430958509 -0.5961622596 0.415478617 -0.666059196
0.1250303686 -0.1403760612 0.6688126326 0.8048861623 0.184254989 -0.3681947291
0.1250325739 -0.1387521476 0.6792258024 0.7111010551 0.2087084055 -0.244267717
0.1277038306 -0.1642301679 0.6906583309 0.827088058 -0.2453423291 0.2864122987
0.1238399744 -0.1277515143 0.6717549562 0.6806743741 0.4057743847 -0.5092853904
0.1242316142 -0.1309779286 0.6766503453 0.668630302 0.3468872011 -0.3932700157
0.1245632842 -0.135271728 0.6709201932 0.7475477457 0.2734495699 -0.4122439027
0.1262039095 -0.151184693 0.6762664914 0.8339021206 -0.009417153895 -0.1061962992
0.1265960634 -0.1514600217 0.6847691536 0.7809033394 0.01694689132 0.008124353364
0.1256686598 -0.14412269 0.6821979284 0.7341407537 0.1223092675 -0.1272101998
0.1273714304 -0.159248963 0.688302815 0.8141411543 -0.1280883998 0.1727077216
0.1276109368 -0.1635617912 0.6837062836 0.8793025017 -0.2188645899 0.1748592257
0.1267725676 -0.1561717838 0.671857059 0.9149693251 -0.07356570661 -0.1028316319
0.13075459 -0.1291661412 0.6491625309 -0.007005655207 0.2263059169 -0.7232854962
0.1259872913 -0.125649929 0.6638415456 0.4214451015 0.3891945779 -0.6220823526
0.1262657046 -0.1330102533 0.6618911624 0.5462273955 0.2695989907 -0.5480877161
0.1285149902 -0.126816377 0.656165123 0.1796628982 0.3135662377 -0.6835355163
0.1281871796 -0.1327500194 0.6562310457 0.3384184539 0.2297546715 -0.6076111794
0.1255872548 -0.1382369101 0.6631051898 0.7271084785 0.2046660632 -0.4697269797
0.1323853582 -0.1243993938 0.6450532675 -0.2785514295 0.2624307573 -0.8245707154
0.1211496592 -0.1290878952 0.6657563448 0.7092611194 0.4072438478 -0.5000373125
0.1209670007 -0.1226867586 0.6689955592 0.6368695498 0.5155922174 -0.5576390624
0.1254275739 -0.1455666572 0.6624074578 0.8961164951 0.09536714107 -0.3834203184
0.1277324259 -0.1554564238 0.6816294193 0.8728114963 0.06937398016 -0.003284262726
0.1262354404 -0.1466265917 0.6694578528 0.8711324334 0.1838317662 -0.2377200425
0.1280961931 -0.1595002562 0.6775916219 0.9352750182 0.01540145557 0.02339858375
0.1262334883 -0.1448338926 0.6760059595 0.8129018545 0.2085276395 -0.2096098214
0.1254533827 -0.1255091876 0.6453102827 -0.3537326157 0.268448323 -0.8766177297
0.03495271504 -0.09142628312 0.6809633374 -0.6641699672 0.5084908605 -0.5400622487
0.03709678724 -0.08519910276 0.6846650243 -0.6339381933 0.5409439206 -0.5481781363
0.0425963439 -0.08325825632 0.6813206673 -0.5035535097 0.592594564 -0.6262559295
0.04139950126 -0.08803994209 0.677296102 -0.5333558917 0.558737576 -0.6314216852
0.05146651715 -0.08985719085 0.6692710519 -0.3512267768 0.6071308255 -0.7056809068
0.04525627941 -0.09042434394 0.6721327901 -0.4485754669 0.5864799023 -0.6718682647
0.05484604463 -0.07647012919 0.6791824102 -0.3473054767 0.636742115 -0.6866894364
0.04695145786 -0.08510188013 0.6763076186 -0.441648066 0.5927850604 -0.6721066236
0.05421937257 -0.08167935163 0.6748261452 -0.3356899321 0.6283797026 -0.7011194825
0.1181809381 -0.115337573 0.6697773933 0.5802665949 0.5041923523 -0.6291978955
0.134736523 -0.1051648483 0.645103991 -0.6309089065 0.5722329021 -0.5191557407
0.1127696931 -0.1111140922 0.6670187712 0.5471599102 0.4803363085 -0.6747816205
0.1179582924 -0.1090017483 0.6741418839 0.5406603813 0.3661083579 -0.7542340159
0.1303579062 -0.1105536371 0.6718110442 0.1833409816 0.4119785726 -0.6390216351
0.1292157471 -0.1156420708 0.6677657366 0.247236982 0.4978922009 -0.5519027114
0.1404621005 -0.105163075 0.6579123139 -0.4631368518 0.4767974317 -0.4714217186
0.1326871067 -0.1107660905 0.6667826176 0.03133378923 0.4572105706 -0.565930903
0.1274308264 -0.1119699329 0.676019609 0.3709171712 0.3901765645 -0.6910142899
0.1366786659 -0.1054759324 0.6648336649 -0.2443863153 0.4193014801 -0.563837111
0.1327245384 -0.1005680263 0.6733047962 -0.3438071609 0.2790439129 -0.6488277912
0.1338721067 -0.09463980794 0.6738622785 -0.6944285035 0.2002404481 -0.6403967142
0.1293945312 -0.1039698422 0.6773480177 -0.03864148632 0.2833992243 -0.7037661076
0.1235994846 -0.1192903966 0.6746269464 0.6042979956 0.4757810235 -0.6291358471
0.1216280311 -0.1129805669 0.6766453385 0.5457245708 0.3830820918 -0.7330171466
