# .PCD v0.7 - Point Cloud Data file format
VERSION 0.7
FIELDS x y z normal_x normal_y normal_z
SIZE 4 4 4 4 4 4
TYPE F F F F F F
COUNT 1 1 1 1 1 1
WIDTH 512
HEIGHT 1
VIEWPOINT 0 0 0 1 0 0 0
POINTS 512
DATA ascii
-0.06123275682 -0.1098963395 0.5718021989 0.4264706075 -0.6452823877 0.6277657151
-0.05147978663 -0.1055586934 0.5689234734 0.3044266701 -0.6622610092 0.6841744781
-0.0539191626 -0.09857156873 0.5761665106 0.3418299854 -0.6853743196 0.6429083347
-0.03058315627 -0.146570012 0.6968378425 -0.02350587025 -0.6824311614 0.7245647907
-0.04128062353 -0.1416303515 0.6972798705 -0.1720049828 -0.6772183776 0.7067993879
-0.03089736402 -0.1417413056 0.7006512284 -0.04715197533 -0.6813915968 0.7198560834
-0.05731455982 -0.1047154069 0.5730184913 0.3922888339 -0.6622504592 0.6365085244
-0.06651353836 -0.1091571897 0.5753419399 0.4928222299 -0.6333266497 0.5964163542
-0.1005035043 -0.1563826352 0.6016486287 -0.9308411479 -0.02971570753 0.3549003005
-0.04627654329 -0.1507931501 0.6887831688 -0.2782432735 -0.6774635911 0.6753598452
-0.04724385217 -0.1548873633 0.6840558052 -0.2909902632 -0.6860172749 0.664498806
0.04363324121 -0.08122993261 0.6197749376 0.4634877145 -0.5887201428 0.6487947106
-0.04565178975 -0.1052690744 0.5684725046 0.2266641557 -0.681150496 0.6896669865
-0.05354424194 -0.1531161964 0.6827438474 -0.3757077456 -0.6707718968 0.6378652453
-0.05241943523 -0.1383743882 0.6962321401 -0.3309429288 -0.6628043056 0.6656684875
-0.05689391121 -0.1426275373 0.6899908185 -0.4155530334 -0.6420321465 0.6390496492
-0.08162128925 -0.1535554081 0.6496504545 -0.7927040458 -0.4525254965 0.4067458808
-0.08156336099 -0.1116335839 0.5959265232 0.6405849457 -0.5037613511 0.5074691772
-0.0824445188 -0.1179393902 0.6024619937 0.3156009018 -0.4514980912 0.4661058486
-0.08221279085 -0.1184286177 0.6095748544 0.07993166894 -0.4449241757 0.4204114079
-0.08350719512 -0.1248744056 0.6075894237 0.02382438071 -0.3948055506 0.4338651001
-0.08676817268 -0.1427386552 0.6218650937 -0.723657608 -0.2576854527 0.3536432087
-0.08604055643 -0.1296853572 0.6213005781 -0.3516113162 -0.3883982897 0.3844500184
-0.08749976754 -0.1490800679 0.6234412193 -0.9167303443 -0.2008142471 0.3377143145
-0.08942855895 -0.1405986249 0.6313430071 -0.7533011436 -0.3278571665 0.3516167402
-0.08117633313 -0.1120711118 0.6071716547 0.2770272791 -0.4967055619 0.435905695
-0.08568222821 -0.1359504461 0.6191353798 -0.5071074367 -0.313253969 0.371465385
-0.08638685942 -0.1308118999 0.6138291955 -0.1480104178 -0.3790379763 0.4291717708
-0.09346031398 -0.1468862146 0.6266363859 -0.8985327482 -0.2334911525 0.3442288041
-0.09779154509 -0.1517634541 0.6121649742 -0.9198767543 -0.1000561491 0.3496953547
-0.09560205042 -0.1492821127 0.6200476289 -0.9077405334 -0.1745680124 0.3468368053
-0.09878724068 -0.1524863392 0.5974955559 -0.9224079847 0.149721235 0.3205579817
-0.09299416095 -0.150108248 0.6083167791 -0.9174612761 0.04355941713 0.3167063892
0.05056490377 -0.08719182014 0.603996098 0.5161842108 -0.6590407491 0.5467302799
0.04552747309 -0.1045033112 0.6051900983 0.1091195419 -0.5058417916 0.5821394324
0.04261834174 -0.1028618887 0.6109650135 0.01049279701 -0.4041998088 0.5993975401
0.05064965039 -0.1034138948 0.597592175 0.4136826992 -0.6878053546 0.5771746039
0.04398307577 -0.09107898176 0.6163631678 0.4696986377 -0.4613455236 0.6714925766
0.0362767987 -0.101852648 0.6218945384 -0.2890054584 -0.1806962937 0.6206077337
0.04181886837 -0.08894826472 0.6212467551 0.4262487888 -0.386416167 0.6901422739
0.04672794417 -0.09752621502 0.6077506542 0.4016168416 -0.5535554886 0.6239161491
0.0443427451 -0.09594533592 0.612637341 0.3284857273 -0.4703963399 0.6395677924
0.03868835047 -0.1050572172 0.6159164906 -0.2679042816 -0.2635633647 0.5945221186
0.039240174 -0.09639507532 0.6206165552 0.04599372298 -0.2896084189 0.648573339
0.04794282466 -0.0912675634 0.6072901487 0.5032439232 -0.6082831025 0.5957638621
0.02339852974 -0.1706175655 0.6180936694 0.7706896067 -0.4566969573 0.4442018569
0.05075106397 -0.09568960965 0.5980155468 0.456340909 -0.688621819 0.5593432784
-0.05036939308 -0.1425062567 0.692918539 -0.3163565993 -0.66377455 0.6712568402
-0.04474056512 -0.1462862641 0.6939778328 -0.2498591393 -0.6758213639 0.6931824088
-0.0460620746 -0.1375357658 0.6998420358 -0.2476378977 -0.6744455099 0.6954133511
-0.03733989224 -0.1416767836 0.7014160156 -0.1132204831 -0.6780709624 0.7225487828
-0.03577374294 -0.1494488865 0.6938303709 -0.1160027534 -0.6921473145 0.7116995454
-0.06303476542 -0.1407010704 0.6896737814 -0.4870327711 -0.6132677794 0.6209833026
-0.08230568469 -0.08054321259 0.6300104856 0.6536588073 -0.5834879279 0.4818146229
-0.08617617935 -0.113870874 0.6256198883 0.07071571052 -0.4732655585 0.4166284502
-0.08807782084 -0.12082766 0.6311483979 -0.1768819988 -0.4292125106 0.3963294327
-0.08517482132 -0.09610418975 0.6264961362 0.5827841759 -0.5486205816 0.4557233155
-0.08936097473 -0.1326594949 0.6329619884 -0.5371225476 -0.373090446 0.3682563603
-0.0862505734 -0.1066866741 0.627838552 0.2628254592 -0.4991175234 0.430852294
-0.08296629041 -0.1051739082 0.6154701114 0.4062201381 -0.5363612771 0.4447578192
-0.08110054582 -0.1064412668 0.6078726649 0.43012321 -0.5496536493 0.4483738542
-0.08152800053 -0.09929103404 0.6114555001 0.6102998257 -0.571977675 0.4613619447
-0.08451250941 -0.09935022146 0.6191151142 0.6313028336 -0.537168622 0.4739292264
-0.08682516217 -0.1215362921 0.62118572 -0.01283465046 -0.4314002991 0.4271416962
-0.08885394037 -0.136014834 0.626350522 -0.5021408796 -0.3600268364 0.3846108317
-0.08542867005 -0.1064086482 0.6210980415 0.4024330676 -0.5027028918 0.454878062
-0.08624301851 -0.1233107746 0.6157206297 0.03744282201 -0.4264098704 0.4411137998
-0.08579925448 -0.1127901524 0.6195310354 0.2562527657 -0.4736125469 0.4482237399
-0.08791982383 -0.1259581 0.6262500882 -0.2253125459 -0.4074541926 0.4031822979
-0.08481173962 -0.1126127541 0.6124017835 0.3899932206 -0.4788404107 0.4709745646
-0.08126731217 -0.1040470302 0.6002095342 0.6185683608 -0.5939930081 0.5116020441
-0.07918083668 -0.1137642413 0.5880568027 0.6182507873 -0.5509139299 0.5509188175
-0.06070110947 -0.059043549 0.6280814409 0.4828172624 -0.6869312525 0.5407986045
-0.05434810743 -0.0567384325 0.6260813475 0.3639624417 -0.7521070242 0.5490815043
-0.06766530126 -0.1052684858 0.5804008842 0.5185219646 -0.6270450354 0.5811164975
-0.06114850938 -0.1048201397 0.5786377192 0.4587322176 -0.6506613493 0.6010997891
-0.06263682991 -0.09847597033 0.5849512219 0.4976342618 -0.6450563669 0.5788283944
-0.07902470976 -0.1415732503 0.6653707027 -0.7163282037 -0.5107842088 0.4727545381
-0.08250188082 -0.1597066522 0.6368867159 -0.8476707339 -0.3427538276 0.3991432488
-0.08172252029 -0.1559500247 0.6424484849 -0.821488142 -0.3938049078 0.4034867585
-0.08385655284 -0.1495077312 0.6448607445 -0.8283653855 -0.4115254283 0.3776866794
-0.08496946096 -0.1523656696 0.6379323602 -0.8587575555 -0.3381484449 0.3785185218
-0.08621924371 -0.1500024199 0.6316225529 -0.8863469958 -0.2782121599 0.3559668958
-0.08749378473 -0.1464981437 0.6390856504 -0.8599138856 -0.3637548089 0.3564641178
-0.08532658219 -0.1560602635 0.6297168732 -0.8846425414 -0.2638230622 0.3810021877
-0.08236316592 -0.1461091191 0.6528724432 -0.7842918038 -0.4541830122 0.4202557802
-0.08103258908 -0.1443160027 0.6592267752 -0.7671508193 -0.4743158519 0.4318124056
-0.07535358518 -0.1397262812 0.6699743271 -0.6917713881 -0.5228970647 0.4972185791
-0.07577396184 -0.1501753628 0.6606461406 -0.7255299091 -0.5101014972 0.4577246606
-0.06530149281 -0.0908864513 0.5958710313 0.510209024 -0.6547076106 0.5569118261
-0.06080682203 -0.0908343792 0.5918622017 0.4797760844 -0.6690208316 0.5674234629
-0.04320983216 -0.1783494651 0.659178555 -0.193283394 -0.7086589932 0.6759487391
-0.04924239591 -0.174750194 0.6611710787 -0.3008988202 -0.6924618483 0.6488189101
-0.0491457507 -0.169694826 0.6660382152 -0.3175990582 -0.6890623569 0.650930047
0.02144047245 -0.1789152473 0.6206630468 0.7517508864 -0.4617646039 0.4704138339
-0.04237405583 -0.2017180473 0.6401410103 -0.1310393959 -0.6301217079 0.7489188313
-0.05549442023 -0.177370429 0.6554954648 -0.4085356891 -0.6350601912 0.6532681584
-0.04111642018 -0.1628788412 0.6776909828 -0.2220139802 -0.7223221064 0.6543381214
0.02006486244 -0.1656352431 0.6280335784 0.7846862674 -0.440364778 0.4362596869
0.02190296352 -0.1401619315 0.5997540951 0.05312485248 -0.6722780466 0.4814451635
0.02285691909 -0.156386584 0.620752275 0.6329515576 -0.4868423939 0.4434460998
0.02152342349 -0.1343669742 0.5952624679 -0.1083379686 -0.722069025 0.4912582636
0.02247340977 -0.1500878781 0.6136208177 0.4233311415 -0.5532551408 0.4569229782
0.0211871583 -0.1294455081 0.5925276279 -0.2290842831 -0.7584539056 0.4982430339
0.02195862867 -0.1422675401 0.6077596545 0.2084745616 -0.619353652 0.469915539
0.02111827768 -0.1239100918 0.6009992361 -0.3226759732 -0.70498842 0.4266230762
0.02168620937 -0.1365038604 0.6053625941 0.04106026888 -0.6485674977 0.4583856761
0.02128810994 -0.1241670698 0.6093354225 -0.2669215798 -0.6407031417 0.3794058263
0.0209171176 -0.1221079379 0.5941265225 -0.4113446176 -0.760894835 0.4583424926
0.02138676494 -0.1295866668 0.6036171913 -0.154907614 -0.6745720506 0.4371605217
0.02171023749 -0.134275049 0.6110809445 0.01472511329 -0.6088657379 0.4150939286
0.02096445672 -0.1181640923 0.604496479 -0.4564706981 -0.6887183785 0.3802791536
-0.02725234255 -0.1029947773 0.5681981444 -0.1128305197 -0.696179986 0.7057617307
0.04499704391 -0.1077473238 0.593755424 0.3254101574 -0.6652618647 0.6706335545
0.03360319883 -0.1077994406 0.6215956211 -0.5808837414 -0.1008548737 0.5997930169
0.0405703336 -0.1078898013 0.6082696915 -0.1084479019 -0.3950932324 0.6103389859
0.04157666862 -0.1103003174 0.6013876796 0.07050728798 -0.5184553862 0.6437180042
0.03799333051 -0.07973577082 0.6256407499 0.2490378171 -0.5646376014 0.70356071
0.03104578331 -0.08350466192 0.6309990883 0.1012161151 -0.3243688941 0.8509395123
-0.05864167213 -0.148061052 0.6856427193 -0.4486627579 -0.6464599371 0.6134982705
-0.0722932145 -0.07053382695 0.6272078156 0.6072675586 -0.6043551564 0.5153392553
-0.02185886912 -0.1517146826 0.6905593276 0.1121546626 -0.7078588009 0.6905728579
-0.01514369529 -0.1496241391 0.6893844008 0.2133183926 -0.7017495632 0.670629859
-0.06663853675 -0.09607103467 0.591432631 0.5293317437 -0.6418659687 0.5531796813
-0.0719782263 -0.09786642343 0.5947377086 0.5790510178 -0.6183465123 0.5308894515
-0.07145617902 -0.1023168117 0.5892609954 0.5469945669 -0.6216990948 0.5594594479
-0.07514929771 -0.1126953214 0.5824483037 0.5378537178 -0.6167604327 0.5746572018
-0.07737978548 -0.1080488041 0.5909475088 0.5702736378 -0.6117732525 0.5481206179
-0.07289273292 -0.106705375 0.5855559111 0.5492628217 -0.6101207733 0.5709651709
-0.02936112508 -0.09515139461 0.5756659508 -0.06416233629 -0.738516748 0.6672171354
-0.03487968445 -0.09314255416 0.5780287981 0.02639947087 -0.7554626465 0.6544601321
-0.07116569579 -0.1422445178 0.6824251413 -0.5569800138 -0.5814778805 0.5899917483
-0.07368928194 -0.1437069625 0.6756424904 -0.6153734326 -0.5570831299 0.5486100316
0.02107796818 -0.1686909795 0.6230967045 0.7783461213 -0.4471600652 0.4405856431
-0.04206171259 -0.1842213273 0.6543178558 -0.1617012471 -0.6712570786 0.7199907303
-0.03572754189 -0.1804201454 0.6581575871 -0.08626100421 -0.7197783589 0.6882818341
-0.0291380994 -0.1797060221 0.658885777 0.01888520457 -0.724743247 0.6814397573
-0.01550081465 -0.200835079 0.6379439235 0.2985060513 -0.6702524424 0.6755715013
0.002223737305 -0.08818153292 0.5999356508 -0.5484473109 -0.6089552045 0.5727372766
-0.07755887508 -0.158867985 0.6488417983 -0.7702190876 -0.4660878778 0.4335907102
-0.07813838124 -0.1542383134 0.6546381712 -0.7569059134 -0.4847316742 0.4352484643
-0.07224199921 -0.1566873789 0.6596021652 -0.7044583559 -0.5206548572 0.4751070142
-0.07337211072 -0.1605852991 0.6545047164 -0.7084428072 -0.5164964199 0.4781734645
-0.06803751737 -0.1733624488 0.6480976939 -0.6520836353 -0.523686707 0.5461266637
-0.09144701809 -0.1716738045 0.6170652509 -0.8778541684 -0.1988834292 0.4324947
-0.09125434607 -0.1643858254 0.6191889644 -0.8927122355 -0.2158900201 0.3914223313
-0.06094417721 -0.1849567741 0.6475270391 -0.512142539 -0.5362710357 0.6696278453
-0.06374695897 -0.1787710935 0.6473751664 -0.5829554796 -0.519167006 0.6084287763
-0.0560875088 -0.1922096759 0.6455603242 -0.383987397 -0.5824813843 0.7146242857
-0.06027472019 -0.1999312937 0.6402697563 -0.4708350301 -0.545376718 0.6926740408
-0.07559420168 -0.1666799784 0.6434877515 -0.7414286733 -0.4579391778 0.4841776788
-0.07342728972 -0.1654980928 0.6494579315 -0.7029970288 -0.5057733655 0.4982186556
-0.06895592064 -0.167570889 0.6539690495 -0.6547013521 -0.5398717523 0.5273695588
-0.07284359634 -0.1720365137 0.6445434093 -0.688226223 -0.4838994741 0.5395570397
-0.03867447004 -0.1747662723 0.6643316746 -0.1517946571 -0.7335860133 0.6599510312
-0.03369731456 -0.1638274193 0.678168714 -0.1077167541 -0.7371937037 0.6637247801
-0.04770326242 -0.1653068215 0.6722388268 -0.2900990844 -0.7066991925 0.6425093412
-0.0559001863 -0.164705649 0.6683264971 -0.4138864875 -0.6669991016 0.6147671938
-0.05649488047 -0.1600915194 0.6730779409 -0.426410228 -0.6692441106 0.60138309
0.02312340401 -0.1608434618 0.6262287498 0.7878295183 -0.4374944866 0.4333814085
0.02677398361 -0.152580291 0.6097556949 0.5580106378 -0.5439232588 0.5148242712
0.02753188834 -0.1457832754 0.6095190048 0.4927588105 -0.5687090158 0.5371758938
0.02380754612 -0.1592070758 0.6115547419 0.5621959567 -0.5218358636 0.461256057
0.02887134627 -0.1345564276 0.5989069343 0.2282670736 -0.6657214761 0.5862680078
0.02930849977 -0.1394663155 0.6022408009 0.362041831 -0.6255850792 0.5800222158
0.02357875183 -0.1647446603 0.6149080396 0.6794899702 -0.4822986722 0.4448982179
0.02784330957 -0.1275233626 0.5939050317 0.01794864051 -0.7264041901 0.5900298953
0.03310822695 -0.1110844389 0.6153303385 -0.4423693717 -0.2270847857 0.6244344115
0.04168630391 -0.1139969304 0.5931990743 0.2653079629 -0.6777969003 0.6777072549
0.03575894237 -0.1162777245 0.5987978578 0.01491732802 -0.5837339759 0.6610888839
0.03497915342 -0.1137170792 0.6059935093 -0.1770116836 -0.4265186787 0.6454479098
0.0304225143 -0.1165312231 0.609601438 -0.294242382 -0.4488553107 0.6376428008
0.02695492283 -0.1143476889 0.6240577102 -0.6051652431 -0.2937408984 0.6113393307
0.02235809527 -0.1218898073 0.6180112958 -0.3771732748 -0.5040544271 0.4325675368
0.02171439119 -0.1157509983 0.6130083203 -0.5398983955 -0.5769702792 0.3979764581
0.0228888467 -0.1408142895 0.6242476106 0.1994513422 -0.4454842806 0.4457993805
0.02324356139 -0.1293942779 0.6247501969 -0.1833313704 -0.4036479592 0.4811868072
0.02462331951 -0.1349969059 0.6269837022 0.008441689424 -0.3613570035 0.5283676386
0.02796078101 -0.1305657774 0.6129846573 0.08935274929 -0.5177828074 0.5821917057
0.02501982264 -0.1232062578 0.6283399463 -0.3957303464 -0.3045926392 0.5699557066
0.02866908908 -0.137068972 0.6080184579 0.3799610138 -0.6007725596 0.5703581572
0.02615796402 -0.1361091435 0.6197023392 0.1613519639 -0.4543547332 0.5432761312
0.02686538361 -0.1272423416 0.6188600063 -0.1127127334 -0.434482336 0.5794535279
0.02729306743 -0.1407454014 0.6132944226 0.414542377 -0.5486505032 0.5423881412
0.03168459237 -0.1235580668 0.597918272 0.1038233265 -0.6785125136 0.6486940384
0.02808395587 -0.1227379441 0.6145224571 -0.189204812 -0.4722880721 0.6081242561
0.02463541552 -0.147988379 0.6234463453 0.4865598083 -0.4489337206 0.4879223108
0.02331960574 -0.1527331322 0.6281619668 0.564781487 -0.4073147476 0.4573358297
0.02600524761 -0.1433799416 0.6184483171 0.4172901213 -0.494476378 0.5187300444
0.03006631136 -0.1258871853 0.6046577692 0.07122278214 -0.6038718224 0.6220315695
0.01971764117 -0.1084103212 0.6101474166 -0.6721666455 -0.5794414878 0.4170019925
0.02077776566 -0.1092328802 0.6160266995 -0.7005116343 -0.4778859317 0.4721049964
-0.03618733212 -0.1009324566 0.5694099665 0.05243504792 -0.7171782255 0.6939246058
0.009329525754 -0.1017334238 0.5883977413 -0.4083564878 -0.6186613441 0.6094672084
-0.0118503077 -0.1461606026 0.6928496361 0.2461379319 -0.6879267693 0.6781842709
-0.01967039518 -0.1483597457 0.6953347325 0.1328997612 -0.7054473162 0.6912541986
-0.02450057678 -0.1435502023 0.7004542351 0.03916966543 -0.6823450923 0.7289432287
-0.01656025089 -0.1553723514 0.6861382723 0.2043498755 -0.7231768966 0.6575174332
-0.04186610505 -0.1006729528 0.5709745884 0.1430493444 -0.7089398503 0.6876795292
-0.01581998542 -0.0995324105 0.575959146 -0.2896579802 -0.6907199025 0.6615711451
-0.02266942896 -0.1003854796 0.5731264353 -0.1830475777 -0.6977841258 0.688932538
-0.02263954841 -0.09556291252 0.5783227086 -0.1822559983 -0.7271258235 0.6586020589
-0.01869377121 -0.09296456724 0.5822994113 -0.2473628223 -0.7107875943 0.6535006166
-0.07604739815 -0.09854133427 0.5997992754 0.6241805553 -0.6033673286 0.4936269522
-0.07621961832 -0.1031751856 0.5934924483 0.5801857114 -0.6105514169 0.5380703807
-0.01402587537 -0.05740684271 0.6226997375 -0.2896745801 -0.7543731332 0.5873885155
-0.0770585686 -0.07535011321 0.628282547 0.633800149 -0.5879548788 0.5024393201
-0.01563321613 -0.07478776574 0.6025643945 -0.2747714818 -0.7119165659 0.6447847486
-0.02183026448 -0.07487136871 0.6009842157 -0.1895034313 -0.7256641388 0.6577280164
-0.0408442542 -0.06115172431 0.6149195433 0.1369279772 -0.7671474218 0.6241723895
-0.02702402323 -0.07698791474 0.5973722935 -0.1041383445 -0.737616539 0.6640245318
-0.03108865209 -0.07233516872 0.6017733812 -0.03042533807 -0.7421976924 0.6621946692
-0.01053057611 -0.1526542753 0.6844586134 0.296084702 -0.7014131546 0.6478860378
-0.004942764528 -0.1529346108 0.6815703511 0.4165931046 -0.6687178612 0.6155818701
-0.00310718012 -0.1477651596 0.6847531199 0.3817413747 -0.6834336519 0.6179427505
0.01809846424 -0.06939648092 0.6326839924 -0.347406745 -0.5288099647 0.6589260101
0.02552643605 -0.07577760518 0.6306667328 -0.1418407559 -0.4240425229 0.7773095369
0.03101110458 -0.07759200782 0.6274595261 0.1110122353 -0.3965677619 0.8165191412
-0.05740440637 -0.06401011348 0.6190063357 0.4237002134 -0.7054135203 0.5657844543
-0.06387684494 -0.07092725486 0.615690887 0.5334125757 -0.6432136893 0.5478971601
-0.06418023258 -0.06729076803 0.6219626665 0.5449396372 -0.6369388103 0.5376737118
-0.04746314511 -0.06748784333 0.6096229553 0.2658869922 -0.7298605442 0.6250746846
-0.06230287626 -0.07633816451 0.6090964079 0.5092471838 -0.648099184 0.5659429431
-0.05748068169 -0.07127887756 0.611283958 0.4267754555 -0.6814162731 0.5938284993
-0.05145749077 -0.06529854238 0.6147437096 0.3293938339 -0.727966845 0.5966128707
-0.06915907562 -0.1577562988 0.6645252109 -0.6476016045 -0.5626981258 0.5136851668
-0.07223155349 -0.1478830129 0.6706914306 -0.6603018641 -0.5480956435 0.5130815506
-0.0881921798 -0.1518756747 0.6118791699 -0.7255958319 -0.2466957867 0.3648893833
-0.08619780838 -0.1408727318 0.6136382818 -0.4811862409 -0.2757104635 0.3903625906
-0.08284876496 -0.1182661206 0.5946179628 0.550452292 -0.457231909 0.5130559802
-0.08741677552 -0.1484547704 0.6171228886 -0.7594760656 -0.2304201126 0.358209908
-0.08776806295 -0.1463994086 0.6066555977 -0.490060389 -0.2648501992 0.3902844787
-0.0861299932 -0.1266799122 0.5950409174 0.1798075289 -0.281378001 0.4572037756
-0.08813669533 -0.1345376968 0.5975214243 -0.1375484467 -0.1844501942 0.4153835773
-0.09346144646 -0.1481660455 0.6026618481 -0.8544701934 0.1368827373 0.3083907664
-0.08780156821 -0.1384882629 0.6072240472 -0.4113788307 -0.1747253835 0.3861863911
-0.09473163635 -0.1462859213 0.5962448716 -0.7645435929 0.2060636282 0.3099923134
-0.08579599857 -0.1289307922 0.6006842852 0.03202105314 -0.2862773836 0.442579627
-0.08482762426 -0.1310445666 0.606482029 -0.068334952 -0.3388940692 0.4381580949
-0.09185005724 -0.1384044737 0.5946356058 -0.4008919895 0.04686973989 0.3634965718
-0.09103003144 -0.1593296975 0.6102911234 -0.9106939435 -0.2231710851 0.3474816978
-0.09417843074 -0.1548426002 0.6024205089 -0.9115614295 -0.02380466089 0.3219881952
0.01808155328 -0.1829240769 0.6247630119 0.7345796824 -0.4711789787 0.4871516228
-0.08486236632 -0.1617221385 0.6268386841 -0.8670743108 -0.2842418253 0.4015290141
-0.08723907173 -0.1574155539 0.6231796145 -0.8946435452 -0.2502551675 0.369877249
-0.0781211853 -0.1717072427 0.6341327429 -0.7776173353 -0.3784138262 0.4972948134
-0.08009061217 -0.1747157276 0.6288505197 -0.8057752252 -0.3302022815 0.4840969443
-0.08840014786 -0.1575985849 0.6174501777 -0.905164063 -0.2328295112 0.3549333811
-0.08042912185 -0.1653675884 0.6368274093 -0.8198376894 -0.3596209586 0.4424043596
-0.03428596258 -0.1869947463 0.6521992683 -0.03736405075 -0.6866036654 0.7244790792
-0.02600564249 -0.1874360442 0.651157558 0.09442584962 -0.6788752675 0.7153303623
0.01057205256 -0.1874717921 0.6279472709 0.6996245384 -0.4930318594 0.5146237612
0.02017442323 -0.1116767228 0.6036505699 -0.6008874774 -0.6968192458 0.3744107783
0.03295760974 -0.1205190942 0.5925748944 0.1099978983 -0.7322402 0.6717470884
0.02827441692 -0.115325518 0.5887986422 -0.06161713973 -0.7415531278 0.6368826032
0.02605186962 -0.1218572706 0.5899407268 -0.1490297467 -0.7655175924 0.5823304653
0.03322705254 -0.1104029566 0.5898324251 0.1225086972 -0.706720829 0.6871388555
-0.007136546075 -0.09306012839 0.5887954831 -0.4161807597 -0.6617150307 0.6183109283
0.003901388729 -0.09638955444 0.5937414169 -0.5677083731 -0.6086621284 0.5504724383
-0.001586152357 -0.09467954189 0.5907690525 -0.4953575432 -0.6345165372 0.5914549232
-0.002586519811 -0.09848482162 0.5846271515 -0.4696328342 -0.6305469275 0.6146321893
-0.06492326409 -0.1677159518 0.6580171585 -0.5947877765 -0.5777917504 0.5493253469
-0.06789600849 -0.1629371345 0.6609264612 -0.6256257296 -0.5729122162 0.5276424289
-0.06185590103 -0.1642130613 0.6643727422 -0.5292708874 -0.6212846637 0.5687437057
-0.06140491366 -0.1755910963 0.6547113061 -0.5259485841 -0.5719140172 0.6259505153
-0.05767053738 -0.1708509624 0.6607394814 -0.4529749751 -0.6336416006 0.6183350086
-0.0966526866 -0.160307005 0.6051963568 -0.9145157337 -0.1420160681 0.360352397
-0.04794373736 -0.1992889345 0.6399167776 -0.2298051417 -0.6163937449 0.7405542731
-0.05099159107 -0.1828666329 0.6527770758 -0.3154385388 -0.612741828 0.7184669375
-0.0546224229 -0.18493855 0.6486061215 -0.3892602324 -0.5689595938 0.7228650451
-0.03825374693 -0.1894217879 0.6487013698 -0.09272753447 -0.6654754877 0.7373766899
-0.04902451858 -0.1885121465 0.6465657353 -0.2763610482 -0.5973028541 0.7420465946
-0.05878675357 -0.1880765855 0.6404995322 -0.4498037398 -0.5344064236 0.6819220781
-0.04955966398 -0.1958436221 0.6450338364 -0.2481842488 -0.6299030781 0.730150938
0.02236382104 -0.1579844505 0.6327707767 0.7763436437 -0.4477755725 0.4296019971
0.02132219821 -0.1548385024 0.6411429048 0.7326776385 -0.4667207599 0.4271585643
0.02385907061 -0.1298064291 0.6325473785 -0.2011759877 -0.308455199 0.5354807377
0.02351454087 -0.1427465975 0.6302728653 0.2291958779 -0.3626686633 0.490896225
0.02264981158 -0.1400575936 0.6372510791 0.190485701 -0.3781313598 0.4891098142
0.02227380686 -0.1505466849 0.6360794902 0.5445781946 -0.4248372316 0.451828599
0.0245866552 -0.1155748814 0.6321007013 -0.69927001 -0.2372711003 0.5897884369
0.02274355106 -0.1362595856 0.6325700879 0.004106409382 -0.3459178805 0.5140113831
0.01779617555 -0.1444393992 0.6493753195 0.3536193371 -0.4563391209 0.4964713454
0.02387185208 -0.121365048 0.6346476674 -0.4806731939 -0.2759166658 0.5654152036
0.02230102755 -0.1338563263 0.63906914 -0.02188763581 -0.356118083 0.5155383348
0.02023064345 -0.1491465122 0.6447864175 0.5390843749 -0.4557907879 0.4555638731
0.0193350669 -0.1306028515 0.6448932886 -0.1554117501 -0.3695450127 0.5531891584
0.01710320637 -0.1379729062 0.6501993537 0.1098540053 -0.4301341176 0.5332962871
0.01998484507 -0.1398080587 0.6435391307 0.1624533832 -0.4042117 0.5003314018
0.01728369109 -0.153048262 0.6498183012 0.6270718575 -0.4959628284 0.4532212317
0.0144807063 -0.1551317871 0.6560896039 0.7019578218 -0.5371248722 0.464399159
0.02164447866 -0.1252126098 0.6391759515 -0.3604353666 -0.3153264225 0.5613470674
0.01487591397 -0.1454566568 0.655071497 0.3656086922 -0.4882542789 0.5113741159
0.001597200753 -0.1543729156 0.6749564409 0.4816201329 -0.6553948522 0.5809855461
0.0006668368005 -0.1499154419 0.6796049476 0.4499924481 -0.6666499972 0.5941974521
-0.02965963632 -0.1610130072 0.6821038723 -0.01610895805 -0.7336581945 0.6730686426
-0.02867935784 -0.1522452384 0.6914489865 -0.003640795359 -0.7055975199 0.7036098242
-0.02793366648 -0.1562391073 0.6867036819 0.02722790651 -0.7206386328 0.6858866215
-0.03396782652 -0.1540720165 0.6888068914 -0.09635392576 -0.7065549493 0.6978178024
0.03381907567 -0.09935498983 0.6271275878 -0.3055329919 -0.1154245138 0.6557461619
0.03891508281 -0.08719479293 0.626219511 0.4036912024 -0.3321485221 0.7401893139
0.03328090906 -0.08987997472 0.6302990317 0.2960340381 -0.311342299 0.8590871096
0.01587852463 -0.1011429504 0.6059840322 -0.6936639547 -0.5753584504 0.4235806465
0.01676279306 -0.09691601247 0.6123315096 -0.7266515493 -0.4768583775 0.4695399106
0.03733997047 -0.1060239077 0.5920038819 0.2269440144 -0.6760141253 0.6901966929
0.01094891317 -0.09871439636 0.6011046171 -0.6478978395 -0.5790635347 0.4906097353
0.0107743144 -0.1027507558 0.5958018899 -0.6415418386 -0.590406239 0.4873016179
0.04301009327 -0.09614358842 0.5970230699 0.2551380396 -0.6902347207 0.6231426001
0.02747367695 -0.102880992 0.5924348831 -0.03695370257 -0.6592244506 0.6636945009
0.01216067746 -0.09687595069 0.5944132209 -0.4027120471 -0.6235226393 0.5767134428
0.03825618327 -0.09989432991 0.5947508216 0.1761638969 -0.6814323068 0.6525089145
0.03284911066 -0.09737835079 0.5956527591 0.04457749426 -0.6686651707 0.617824316
0.02146361396 -0.1007618234 0.5930891633 -0.1790433228 -0.645308733 0.6319423318
0.02712303214 -0.1086852029 0.5895962119 -0.03277457133 -0.6559097767 0.7071055174
0.02099336684 -0.1064605638 0.5906547308 -0.2286369652 -0.6313604116 0.6441164017
-0.01750997454 -0.1596167684 0.681658864 0.2264919877 -0.7187336683 0.653588593
-0.01098523289 -0.1586703658 0.6791495085 0.3130094111 -0.7005230188 0.6408808827
-0.01476335246 -0.1638285965 0.6758418083 0.2639876306 -0.716612041 0.6420742869
-0.02358366176 -0.1608444601 0.680721879 0.1124160737 -0.7221853733 0.6578623056
0.02705197781 -0.08963724226 0.6340526938 -0.368778348 -0.2684356868 0.8427225351
0.02536758035 -0.08344762772 0.6340827942 -0.2924628556 -0.3126427531 0.8440339565
-0.06282973289 -0.08636061847 0.5989460945 0.4889716804 -0.655174017 0.5731369853
0.01504671574 -0.07414396852 0.6234762073 -0.3373111784 -0.5291392207 0.6306685805
0.01640881039 -0.07826747 0.6190780997 -0.4079347551 -0.5175859332 0.6112338305
0.02091567591 -0.07454946637 0.62508744 -0.156249091 -0.4910233915 0.6900706291
-0.02399839275 -0.054762844 0.6232596636 -0.1133272871 -0.7854195833 0.6058131456
-0.01876092143 -0.06023626029 0.618463397 -0.2337995619 -0.7393350601 0.6247986555
0.01849734224 -0.07463724166 0.6346874833 -0.4727261961 -0.4680423737 0.7317080498
0.01458400488 -0.07646328956 0.6290399432 -0.52631706 -0.5720030069 0.6250469685
0.01120275445 -0.06561473012 0.6342748404 -0.5596382022 -0.5818946362 0.5898445249
-0.04845454916 -0.1011109427 0.5741607547 0.2591655552 -0.7050263286 0.6538228393
-0.05457771569 -0.09682113677 0.581633687 0.3573974371 -0.6914818883 0.6253304482
-0.04613249004 -0.09526477009 0.5780259967 0.2226041853 -0.7242539525 0.6502642035
-0.05691068992 -0.09280762076 0.5867726803 0.407448262 -0.6848266125 0.6016812921
-0.05121849105 -0.08966676146 0.5876027346 0.3167191744 -0.7142463326 0.6208340526
-0.04213831574 -0.09039020538 0.5828841925 0.1495917588 -0.7494677305 0.638669014
-0.02983198874 -0.09079874307 0.5819565654 -0.05445793271 -0.7526387572 0.6494804621
-0.03611616418 -0.08918564767 0.5849311948 0.04278518632 -0.7462175488 0.6484533548
-0.04470322654 -0.07088935375 0.6047310829 0.2018248737 -0.7307676077 0.6518695951
-0.05228756368 -0.07472169399 0.603961587 0.351916641 -0.6932021379 0.6227956414
-0.0381530337 -0.06886712462 0.6056746244 0.09254864603 -0.7391890287 0.6628016829
-0.03947837278 -0.07338479161 0.6007089615 0.1174634919 -0.7381333113 0.6595301628
-0.06746158749 -0.1529498994 0.6696637273 -0.6194454432 -0.5793884993 0.5263077617
-0.06354789436 -0.1587108225 0.6689816713 -0.5537062883 -0.6132361889 0.5571032763
-0.06144784391 -0.1548539847 0.6761346459 -0.5024044514 -0.636459887 0.5845026374
0.01924343593 -0.1743164808 0.6280106902 0.767078042 -0.4501892328 0.4559809566
0.0150624821 -0.1777612716 0.6313714385 0.7530764937 -0.4546284676 0.4747308493
0.015080004 -0.1709127128 0.6353967786 0.7733481526 -0.4470174313 0.4489187598
-0.08643941581 -0.1671673059 0.6207912564 -0.8825494647 -0.2558325827 0.3889856637
-0.09088405967 -0.177128002 0.6213821769 -0.8541268706 -0.2413144857 0.4604631364
-0.0858887136 -0.1793829948 0.6248543859 -0.8276198506 -0.2835878432 0.481793195
-0.08568638563 -0.1691284478 0.6291297078 -0.8536114097 -0.2763395309 0.4405499399
-0.03195500001 -0.1910606921 0.6479320526 0.01264148112 -0.6776205897 0.7268881798
-0.01361414976 -0.1886762679 0.6477122903 0.2985859811 -0.6584022045 0.6908797026
-0.03085245192 -0.2016323358 0.6415923834 0.03695612773 -0.6752220392 0.7343901396
-0.02265566401 -0.1958650351 0.6445270777 0.1779823005 -0.677913785 0.7090204954
-0.01651342399 -0.1817845851 0.6557124853 0.2352874875 -0.6840006709 0.6864290237
-0.02281560004 -0.1813130081 0.6574653983 0.125602901 -0.7108944654 0.6898499131
-0.01827381179 -0.1922831982 0.6464357376 0.254337877 -0.6597444415 0.6994886398
0.009610683657 -0.1818121821 0.6319691539 0.6916059852 -0.4996986985 0.5144116879
0.005022807047 -0.191719532 0.6312004924 0.6083168983 -0.5759977102 0.5427033305
0.01623360068 -0.1065274477 0.6005733013 -0.6225789785 -0.6460975409 0.4346073568
0.01793993823 -0.1125864759 0.5961079001 -0.479886651 -0.7120821476 0.4944235682
-0.01113331132 -0.07913651317 0.5987074971 -0.3728591204 -0.6841912866 0.6244726777
-0.0129674878 -0.08822596818 0.5887541175 -0.3312338591 -0.691542089 0.6385618448
-0.02237589471 -0.08163719624 0.5933842659 -0.1833214462 -0.726100266 0.6595565081
-0.01745155826 -0.07893081009 0.5968933702 -0.2488197088 -0.7140387893 0.6522923112
-0.02017109096 -0.08599268645 0.5887861848 -0.2147295177 -0.7201787233 0.6571182013
-0.01551182102 -0.08383927494 0.5930059552 -0.2788560092 -0.7103043199 0.6448046565
-0.06633818895 -0.1887176037 0.6363236308 -0.5958675742 -0.4811129272 0.6421212554
-0.0548822321 -0.1959643066 0.6401275992 -0.3794089258 -0.5608448982 0.7326937318
-0.07155232131 -0.1902120113 0.6320269704 -0.6684892178 -0.4471831024 0.5941231847
-0.06549733877 -0.1964121312 0.6358990073 -0.5613553524 -0.4998960495 0.648325026
-0.06225955114 -0.1928845942 0.6411176324 -0.5228324533 -0.5175195932 0.6740525961
-0.06636123359 -0.1830699891 0.6408686638 -0.6073125005 -0.4758608043 0.6335139871
-0.07571004331 -0.1841487586 0.6306928992 -0.7078469396 -0.4159553349 0.5674909949
-0.07150094956 -0.1837620288 0.6358909011 -0.6714676023 -0.4495131671 0.5890784264
-0.07540660352 -0.177697897 0.6337029338 -0.7288334966 -0.4126667976 0.544228971
-0.07145619392 -0.1788921952 0.6390416622 -0.683629632 -0.4464531541 0.575753212
-0.03705262765 -0.1997340173 0.6426779032 -0.04445384443 -0.65749681 0.7506861091
-0.04267669097 -0.19367823 0.6450904608 -0.1413789093 -0.6584442258 0.737788558
-0.02227565832 -0.200393796 0.6379711628 0.2083735317 -0.6748158932 0.704559207
-0.02949620411 -0.1954445094 0.6449192166 0.05663891882 -0.6761627793 0.7286508679
0.0108119892 -0.1535405666 0.6638823748 0.6439740658 -0.5721697807 0.5058460236
0.007472509518 -0.1520164609 0.6697483659 0.5557520986 -0.6172268987 0.545286119
-0.01842211001 -0.1782974601 0.6604026556 0.2112634927 -0.716923058 0.6565283537
-0.02144961059 -0.1711986214 0.6697826982 0.1424586922 -0.7391582131 0.6505125761
-0.02296823263 -0.1666925102 0.6750000715 0.1212186515 -0.7427991629 0.6539951563
-0.03578297421 -0.1719194204 0.66903615 -0.1215933189 -0.7384343743 0.6622740626
-0.04365771636 -0.1712630093 0.6660151482 -0.2379134595 -0.7091916203 0.6548315287
-0.03073841333 -0.1691963226 0.6726403236 -0.04283587262 -0.7419800758 0.6619481444
-0.04192999378 -0.1664854735 0.6726616025 -0.222875908 -0.7202333212 0.6526104808
-0.03223082051 -0.1760924309 0.6633342505 -0.0541781038 -0.7396165729 0.6646718383
-0.02377885208 -0.1765136272 0.6637337804 0.1118880734 -0.7399123907 0.6618056297
-0.02737994678 -0.1729406267 0.6685145497 0.03478644416 -0.7448836565 0.6623934507
0.0435644649 -0.09192434698 0.6011548042 0.3108970821 -0.6760514975 0.5649998784
0.03793058917 -0.09397272766 0.5999770164 0.09493659437 -0.6596795917 0.5947285891
0.01443693787 -0.09179509431 0.6020449996 -0.4833791852 -0.5849954486 0.5373430848
0.02401476167 -0.09530720115 0.5964967012 -0.1663320512 -0.6450620294 0.5822920203
0.03410940245 -0.08924217522 0.6047208309 0.05413775891 -0.623239696 0.5411143303
0.04044632986 -0.08731166273 0.6063295007 0.2654895186 -0.6257832646 0.5461611748
0.02795372531 -0.09023533016 0.6041189432 -0.1424666941 -0.6125871539 0.5344153047
0.04666599631 -0.08492878079 0.6085526943 0.470438242 -0.6271301508 0.5713614821
0.007333946414 -0.09146589786 0.6036555171 -0.63341856 -0.5513134003 0.5418691635
-0.005080944858 -0.1080029383 0.5738276243 -0.4428398907 -0.6091469526 0.6533972621
-0.0108110467 -0.1064500138 0.5723786354 -0.3653614223 -0.6365112066 0.6707968116
-0.017174704 -0.1055209786 0.5694304705 -0.266418308 -0.6631145477 0.6971942186
0.001314022345 -0.110462904 0.5766717196 -0.4704136252 -0.5493631959 0.6868638992
0.01147207338 -0.1103568748 0.5816692114 -0.3765490055 -0.602380991 0.6517205834
0.004903298337 -0.1071215048 0.5804564357 -0.4942275584 -0.5755602121 0.6307685971
0.01470086537 -0.1071897447 0.5856455564 -0.3051316142 -0.6213488579 0.6487781405
-0.001308288309 -0.1035928503 0.5800452232 -0.4759232998 -0.6060256362 0.6352551579
0.002601259854 -0.1009710953 0.5860154033 -0.5503063798 -0.5968788862 0.5829364061
0.02582874335 -0.09803324193 0.6336318851 -0.5782819986 -0.2590791583 0.7545333505
0.01979052275 -0.09208387882 0.6267507672 -0.6267923117 -0.3716056049 0.6795199513
0.02760606445 -0.110200502 0.6297470927 -0.7822471857 -0.09158408642 0.6021729708
0.02983105741 -0.1034956425 0.6292265058 -0.5108125806 -0.09119799733 0.6839625239
0.02015233226 -0.1019109562 0.6164380312 -0.7748361826 -0.4215707183 0.436531961
0.02033224329 -0.09891714156 0.6231355667 -0.7100754976 -0.3752582669 0.5671991706
0.02232514881 -0.1071398184 0.6241521835 -0.7681484222 -0.3273985982 0.5200130343
-0.0700808838 -0.07326310128 0.6209368706 0.620624423 -0.593816936 0.5118336678
-0.08122599125 -0.08844870329 0.625366509 0.667421937 -0.5739756227 0.4740322232
-0.08286766708 -0.09278892726 0.619961977 0.6729857326 -0.5724462867 0.4680640399
-0.08022468537 -0.09227853268 0.6122097373 0.6589311361 -0.5833421946 0.4747990072
-0.07772603631 -0.09555654973 0.6060792804 0.6490406394 -0.5885260701 0.4805260599
-0.005765075795 -0.07961962372 0.6030833721 -0.4335713983 -0.6629340649 0.6099077463
-0.01035817154 -0.07229074836 0.6082055569 -0.3621346653 -0.6863165498 0.6290066838
-0.01740163937 -0.06732922792 0.6110081077 -0.2435609102 -0.7208980918 0.6425052881
-0.02356927283 -0.07015255094 0.6058017612 -0.1625287235 -0.7325036526 0.6594478488
-0.02431078069 -0.05991277471 0.6165144444 -0.1524103433 -0.7485002875 0.6448816061
-0.02465745062 -0.06435940415 0.6117833853 -0.1351428777 -0.7478580475 0.6493792534
-0.03310174122 -0.06301742047 0.6121236086 0.002796870889 -0.765674293 0.6407110095
-0.03151121363 -0.06726689637 0.6075797081 -0.02136442065 -0.7436034083 0.6629090905
0.01050824113 -0.08013472706 0.619893074 -0.6038088799 -0.5607356429 0.5617970824
0.01466156635 -0.0842795372 0.6236844659 -0.609336555 -0.4877770543 0.6146717072
0.0181441959 -0.08408617228 0.6285342574 -0.5405877233 -0.4825438857 0.679521203
0.01061051898 -0.07210670412 0.6283607483 -0.5297213197 -0.5978411436 0.5980311632
0.003740566317 -0.0662106052 0.6257535219 -0.5442761183 -0.631502986 0.5521972775
-0.04886913672 -0.07857701182 0.5981709361 0.290933311 -0.7001051903 0.645583868
-0.06648973376 -0.1501763016 0.6751688123 -0.5822048187 -0.6029664278 0.5449207425
-0.06175152957 -0.1509949714 0.680452168 -0.5003591776 -0.6334090233 0.5897323489
-0.06411474198 -0.1430385709 0.6815005541 -0.5259130597 -0.5998386145 0.5870986581
-0.06769752502 -0.1384257376 0.6853163838 -0.5381728411 -0.5913898945 0.5979434252
0.007153236773 -0.1833994538 0.6371235847 0.6582741141 -0.5202320814 0.5405031443
0.009878183715 -0.1778341234 0.6379134059 0.7112191319 -0.4865378737 0.505297482
0.01786388829 -0.1589652896 0.6455965638 0.7500813007 -0.5047951341 0.427206248
0.01527088415 -0.1644297093 0.6433643103 0.7599321008 -0.4858418107 0.4312008023
0.0179363545 -0.1613828093 0.6385458708 0.7647573948 -0.4785934687 0.4311112761
0.007347818464 -0.1735703945 0.6453272104 0.6886367202 -0.5257737637 0.4974976182
0.0120952446 -0.1693148762 0.6440490484 0.7381500006 -0.4986896217 0.4526026547
-0.08075943589 -0.1833073348 0.626578629 -0.7667614818 -0.3513688445 0.5300076604
-0.09100458026 -0.1659383923 0.6129817963 -0.9004557729 -0.2304604053 0.3675827682
0.002635353245 -0.1836530864 0.6413173079 0.592861414 -0.5593506694 0.57899791
0.0004428184475 -0.1887899339 0.6375332475 0.5643467903 -0.5914267898 0.5737722516
-0.0024376933 -0.1853461564 0.6441457868 0.5097635388 -0.6056576371 0.6077056527
0.01347911824 -0.1096208319 0.590991199 -0.5328224301 -0.6555201411 0.5279759765
-0.001478464808 -0.09021341056 0.595407486 -0.4976756275 -0.634890914 0.5888944268
-0.003644811455 -0.0843892619 0.5996858478 -0.4594808519 -0.6529881358 0.6009379029
-0.009219713509 -0.08453989029 0.5957912803 -0.3775920272 -0.6801656485 0.6233910918
-0.03110281564 -0.08038921654 0.5935671329 -0.02841802314 -0.7343860865 0.6705815792
-0.03541294485 -0.08396007866 0.589300096 0.05019758642 -0.7495954633 0.6591444016
-0.04289351404 -0.08573034406 0.5887368917 0.1697209775 -0.7390890718 0.6473066211
-0.02803458087 -0.08526176214 0.588147819 -0.09675458819 -0.7448190451 0.6548842192
-0.03664295003 -0.07849191129 0.5954746008 0.07489859313 -0.7327700853 0.6730368733
-0.04370193928 -0.08105701208 0.5936764479 0.1950091273 -0.7257524729 0.656801343
-0.01161544956 -0.09728928655 0.5796698332 -0.3596022129 -0.6673074365 0.6499333978
-0.006393977441 -0.1002229974 0.5797154307 -0.4230263531 -0.6413301826 0.639591217
-0.01272987295 -0.09245025367 0.5844731927 -0.345957309 -0.681612432 0.6430384517
-0.0763297677 -0.08692772686 0.6157914996 0.6552363038 -0.5794442296 0.4846450388
0.006525453646 -0.07532428205 0.6194282174 -0.5974286795 -0.5846626759 0.546159327
-0.002912240336 -0.07315269113 0.6123255491 -0.4434374571 -0.6637949347 0.6011930108
0.0001745059417 -0.07885368168 0.6093960404 -0.5117598772 -0.630173564 0.582886219
0.003990320954 -0.07617498934 0.6138408184 -0.5530333519 -0.6189450622 0.5576332808
0.006249316968 -0.08184047788 0.6101844907 -0.5831480026 -0.5860341787 0.5611985922
0.01213727333 -0.08585641533 0.6180174947 -0.635163784 -0.494348526 0.5830136538
0.01655507274 -0.09027128667 0.6206676364 -0.6431307197 -0.4414230585 0.6178684831
0.01316991914 -0.09198709577 0.6110510826 -0.6708697081 -0.5151588321 0.5284502506
0.04377837479 -0.08213971555 0.6136049628 0.4351046383 -0.5641341805 0.6421516538
0.02607356757 -0.0800043419 0.6162084341 -0.1292929351 -0.5475267768 0.6036993861
0.03038430214 -0.07897381485 0.6219590902 0.1259043515 -0.4287694693 0.7640995383
0.03589104116 -0.08044473827 0.617827177 0.2401643991 -0.4978329837 0.6974684596
0.03722497448 -0.08288638294 0.6113633513 0.184259817 -0.5994369984 0.5721204281
0.02362798527 -0.08525492996 0.6098022461 -0.2436231822 -0.5714655519 0.5413452983
0.01118668169 -0.08701431006 0.6087793708 -0.6346672177 -0.5463071465 0.5146144032
0.01654391177 -0.08341073245 0.6120499372 -0.4629980028 -0.56017977 0.5360925198
0.03107946366 -0.08474606276 0.6098730564 -0.01004397124 -0.5859518051 0.5554468632
0.00306262821 -0.1634701043 0.6627735496 0.5623443127 -0.6253768206 0.5394820571
0.002348609269 -0.1714964509 0.6537816525 0.5730028152 -0.608725369 0.5485748649
-0.01332644932 -0.194595173 0.6421590447 0.353759706 -0.6475972533 0.671397388
-0.007466332056 -0.1965820789 0.6377336979 0.4356311858 -0.6426120996 0.6277516484
-0.00200877036 -0.1940151453 0.6350471377 0.5174518824 -0.6178544164 0.5893573165
0.01196532417 -0.1160866767 0.5835707784 -0.4949047267 -0.6475664377 0.5759999752
0.02089535445 -0.1148899123 0.5871301293 -0.3864894807 -0.7238053679 0.5643706322
0.01646223851 -0.1210147589 0.586207211 -0.4503726661 -0.7065457702 0.5444096327
-0.00960348174 -0.1653194726 0.6720101833 0.3601849079 -0.6969255805 0.6151271462
-0.006629767828 -0.1668172181 0.6673932672 0.4198901057 -0.6779507399 0.5960886478
-0.01478598826 -0.1693332493 0.6699312925 0.2708465755 -0.7240300775 0.6335411668
-0.01123335212 -0.1718144417 0.6648819447 0.3438574076 -0.7061101198 0.612780869
-0.004503277596 -0.1708548665 0.6613067389 0.463080138 -0.6645757556 0.586117208
-0.004293971695 -0.1755509675 0.6556872129 0.4673665166 -0.6572937369 0.5909678936
0.004741979297 -0.1665682048 0.6561847329 0.606476903 -0.6050240397 0.5114759207
-0.07350802422 -0.09222534299 0.602873385 0.6171317697 -0.6074686646 0.4984690249
-0.07523578405 -0.08951514214 0.6078895926 0.6363773346 -0.5973988175 0.4876486659
-0.05902592465 -0.08067700267 0.601968348 0.454444468 -0.66242522 0.5945682526
-0.07543777674 -0.08367358148 0.6207427979 0.6431683898 -0.5878920555 0.489898622
-0.06835708767 -0.0857964009 0.6042567492 0.553899467 -0.624317348 0.5467888713
-0.06717713177 -0.07995568961 0.611743927 0.5790600777 -0.6216694117 0.5235348344
-0.07143933326 -0.07865897566 0.6172395349 0.639190793 -0.5838978887 0.5003863573
-0.005228492431 -0.06691048294 0.6173413992 -0.4120013118 -0.6863458753 0.5982832909
0.002088251524 -0.07018569857 0.6193950176 -0.5463209748 -0.6261901259 0.5550341606
-0.004328500014 -0.1602229923 0.6743209958 0.4336833656 -0.6781502962 0.5930921435
0.003841021331 -0.1588631421 0.6682168841 0.5320461988 -0.6319112778 0.5598996282
