# .PCD v0.7 - Point Cloud Data file format
VERSION 0.7
FIELDS x y z normal_x normal_y normal_z
SIZE 4 4 4 4 4 4
TYPE F F F F F F
COUNT 1 1 1 1 1 1
WIDTH 512
HEIGHT 1
VIEWPOINT 0 0 0 1 0 0 0
POINTS 512
DATA ascii
-0.06869152188 -0.06052271649 0.5407116413 0.4777191877 -0.6646453142 0.5743516088
-0.07164665312 -0.05799837038 0.5467914939 0.4694421887 -0.6715927124 0.5731917024
-0.06762925535 -0.1466460675 0.5302045345 -0.7554382086 -0.4767713249 0.4433016777
-0.07262101024 -0.1467482597 0.5194213986 -0.8422632217 -0.2999777794 0.3597652316
-0.07592927665 -0.14206025 0.5141969919 -0.954520762 -0.1121342406 0.2257934064
-0.04330069944 -0.1640708148 0.5381618738 -0.2513541281 -0.6788967848 0.6828070283
0.029623935 -0.070494771 0.5064028502 0.419433862 -0.4713576734 0.7461807132
0.02607961372 -0.06591494381 0.5142607689 0.3400479555 -0.4922534823 0.6706922054
0.01695493236 -0.06896205992 0.5230690241 -0.007320980076 -0.5390261412 0.5977740884
0.02246154472 -0.07196059078 0.5140296221 0.1556917727 -0.5085099936 0.6813659668
-0.06684924662 -0.05566648021 0.5445033312 0.4391416013 -0.6905091405 0.5743817687
0.02515785396 -0.06773595512 0.5028242469 0.4506089091 -0.4663206339 0.7597463131
-0.06344904751 -0.05020463839 0.5451942682 0.4073644578 -0.7082173824 0.5757662654
-0.05854128674 -0.05218436569 0.5404344797 0.3910253644 -0.7096027732 0.584887743
-0.06872945279 -0.1510721445 0.5253564715 -0.777489543 -0.4750624895 0.4108581245
-0.06231087074 -0.1374224871 0.5498200655 -0.6365661025 -0.6157351732 0.4539966285
-0.06936408579 -0.1446908414 0.5251589417 -0.8147284985 -0.3935442865 0.37751472
-0.07190702111 -0.1394584626 0.5239698291 -0.8454463482 -0.3205026388 0.358892113
-0.0683958903 -0.1396493614 0.5302312374 -0.8123089671 -0.4382162094 0.3821611702
0.008750895038 -0.1240743324 0.516610384 0.6823809743 -0.02083201148 0.2248812765
0.004466372076 -0.1353765875 0.5172626972 0.9132761359 -0.01410764549 0.2414676696
-0.0137183601 -0.1039898694 0.4868001342 -0.3677354753 -0.3897533715 0.7978194952
-0.0218847394 -0.1011295319 0.483841151 -0.3097053468 -0.5580899119 0.7609678507
0.001152569195 -0.1015400812 0.5257502794 0.1596708 -0.5422903895 0.4050228894
0.0002950726484 -0.08581589907 0.5293955803 -0.290489167 -0.6457844973 0.4384809434
0.004575475119 -0.1214734465 0.5326151252 0.6870143414 -0.2296749204 0.3887789845
0.0003277133801 -0.09261000156 0.5261591673 -0.08971834928 -0.627307415 0.4202390313
0.001579894335 -0.09782840312 0.5297073126 0.04173232242 -0.51781106 0.4199760556
0.0008028493612 -0.1120397151 0.5411691666 0.3381919861 -0.5373331308 0.4853664935
-2.940982631e-05 -0.09054508805 0.5335013866 -0.1944392323 -0.6571934819 0.4626107216
0.0001380231261 -0.1005461439 0.5356676579 0.05945374817 -0.6186028719 0.4691173732
0.0009621060453 -0.09831227362 0.5406765342 -0.02104497142 -0.559894979 0.4836596549
0.0005613316316 -0.08451052755 0.5366049409 -0.3667383492 -0.6264146566 0.4715291262
-0.00145301607 -0.08170867711 0.5234538317 -0.3835404515 -0.7909879684 0.433175683
0.000819182198 -0.09213019907 0.5390861034 -0.1768981516 -0.5868307352 0.4789055586
0.001305449056 -0.1235664785 0.5450750589 0.6257798672 -0.4688460529 0.4957627654
0.00184826029 -0.1045971885 0.5399414897 0.1609276831 -0.4769755602 0.4665304422
0.00398394186 -0.1139787734 0.5341462493 0.4715375602 -0.2929712534 0.4061745107
0.003255338408 -0.1229425669 0.5382086635 0.6753510237 -0.3244732022 0.4346791506
-0.007151600905 -0.106129244 0.4907603264 -0.4295967221 -0.1651239097 0.8542279005
-0.001472872333 -0.1538659185 0.5314390063 0.7346156836 -0.436234504 0.4889998138
-0.007973501459 -0.09917841852 0.498495996 -0.4286350906 -0.4321555495 0.7225214243
-0.0572350584 -0.04779793322 0.5452446342 0.3369426727 -0.7535898089 0.562081039
-0.06747476012 -0.05165956914 0.5491713285 0.4124655724 -0.7094846964 0.5709266663
0.01907735877 -0.04801371321 0.5167999268 0.5911538005 -0.5376970172 0.598066628
-0.05987034738 -0.1603169143 0.5317935348 -0.6249123216 -0.5358374715 0.5557166934
-0.06444145739 -0.1522411555 0.530803144 -0.723218441 -0.4975289404 0.4771374464
-0.07685998827 -0.1346677989 0.5091733932 -0.9718104005 0.05154837668 0.1755356938
-0.07433708757 -0.1348522902 0.5194667578 -0.896250546 -0.2106665075 0.271825701
-0.07162147015 -0.1327911466 0.5252165794 -0.8903896809 -0.2041872889 0.3216846287
-0.07012879103 -0.1335512549 0.5314285159 -0.8325641751 -0.4099239707 0.3711512089
-0.06540828943 -0.1428872794 0.5360661149 -0.7392346263 -0.4819352329 0.4629565179
-0.06358207017 -0.1403893977 0.5418810248 -0.7050390244 -0.5280804038 0.467766434
0.02148286253 -0.0651730299 0.526707232 0.1205283105 -0.4568208158 0.6793162823
0.02766566537 -0.06064927951 0.5171358585 0.3843702376 -0.4790990949 0.6933147311
0.01583645307 -0.06557914615 0.5360048413 -0.1459058076 -0.4604846239 0.6780020595
0.005205746274 -0.05299320072 0.5498581529 0.0793305859 -0.1946868598 0.9035807848
0.008299962617 -0.05841844156 0.5465860963 -0.09391904622 -0.3699828088 0.6749716997
0.005804068875 -0.06257110834 0.550500989 -0.2644507885 -0.3369504809 0.744967401
0.00901737716 -0.05173096433 0.5446391702 0.154965058 -0.3096731007 0.7285479307
0.01471505035 -0.04216353223 0.535369277 0.5525900126 -0.379126668 0.5900282264
0.01254727412 -0.05258285999 0.5393313169 0.1639838517 -0.4300814569 0.588146925
0.006652494427 -0.0721431151 0.538736701 -0.4479366243 -0.5389227271 0.5638836026
0.01303093601 -0.06964591891 0.5279189944 -0.1560106277 -0.5538692474 0.5665969849
0.01126284245 -0.07011932135 0.5346418619 -0.2676004171 -0.5156838298 0.596607089
0.007195041981 -0.07150886953 0.5449961424 -0.4822278917 -0.4745675623 0.6234176755
0.01273497194 -0.06905602664 0.54043293 -0.2684728205 -0.4433771372 0.6656904817
0.02217900008 -0.0656382367 0.5196572542 0.2029452622 -0.5090059042 0.6304004788
0.008480287157 -0.1327512413 0.5256434083 0.9276194572 -0.1552973241 0.3253748417
0.003243837506 -0.1496987045 0.5268107653 0.8478845954 -0.3306533396 0.3740635514
0.008610246703 -0.141071558 0.5209959745 0.9118096232 -0.1550109088 0.3118210137
0.007439430337 -0.1451780349 0.5248203874 0.8889285922 -0.2969510257 0.3361687958
0.01161783654 -0.136267215 0.5184625983 0.9492248297 -0.1182789057 0.2574260533
0.01090198196 -0.1271287799 0.5109338164 0.9599043727 0.118640013 0.1253715456
0.01144419983 -0.130934 0.5148837566 0.9761403203 0.03596195951 0.1981621832
0.02200686745 -0.07434466481 0.4994286597 0.4053283036 -0.4592378736 0.790019691
0.02743446082 -0.0735706687 0.5017389655 0.4113762379 -0.4623652697 0.7853213549
0.02654372156 -0.06161756814 0.5071598887 0.4724838436 -0.4855596721 0.7336909175
0.03061465919 -0.06114296988 0.5112962127 0.5469279885 -0.4715084136 0.6914919019
0.008110111579 -0.1005960032 0.5141547918 0.311175853 -0.3130526841 0.6977122426
0.007020574529 -0.1165718809 0.5234163404 0.654198885 -0.2092881054 0.5381173491
0.006661850493 -0.09480278194 0.5135742426 0.1420292556 -0.4148010015 0.6806464195
0.003873267444 -0.08616794646 0.5136581659 -0.1253803372 -0.5883699059 0.6296004057
0.004598559812 -0.1086246222 0.5232757926 0.4115916789 -0.3640089631 0.4970112145
0.004750236869 -0.09864562005 0.5182877779 0.1844875664 -0.4472204447 0.5751981139
-0.0006035680417 -0.08795519918 0.5212570429 -0.1927481294 -0.7282479405 0.4347025156
0.002647457877 -0.08993282169 0.5173010826 -0.06807294488 -0.5976250172 0.5525950193
0.008698517457 -0.1098052934 0.517660439 0.5384483337 -0.210922882 0.6551675797
0.009180170484 -0.1163970679 0.5129445195 0.1036461741 0.07334246486 0.7001700401
0.01014143415 -0.1139385402 0.5076200962 -0.1568275243 0.1641967893 0.7846522927
0.007260464132 -0.1230501384 0.5224621892 0.5006847382 -0.03558662906 0.5387935638
0.01015980821 -0.1063525006 0.512342751 0.370765388 -0.1476680487 0.7545220256
-0.00749287894 -0.1546882093 0.5369551778 0.6061137319 -0.4996545911 0.6133668423
-0.01421847381 -0.1616113186 0.5382963419 0.4087434411 -0.62758708 0.6558784842
-0.004562130664 -0.1045221835 0.5021026134 -0.1357640177 -0.2852679789 0.5943844318
-0.001409752644 -0.1109615937 0.5051555037 0.227275461 -0.1427067816 0.4417789876
0.001528925844 -0.1170659363 0.5076414347 0.5457313061 -0.002880729968 0.3110492826
0.0001732918463 -0.1156488284 0.5015319586 0.1234363839 0.02815432847 0.5303394794
-0.04788594693 -0.09729681909 0.48619169 0.2049113661 -0.6260419488 0.7244250178
-0.04118274152 -0.09517390281 0.4860932827 0.07952774316 -0.6490393281 0.7304103971
-0.06236037239 -0.1477654874 0.5383803844 -0.6899242401 -0.5155568123 0.5066165328
-0.04759849235 -0.159509629 0.5389299393 -0.3721652925 -0.6569553018 0.6498658061
-0.06804115325 -0.1057941169 0.4912846088 0.7213413119 -0.4177919626 0.5506193638
-0.07329829037 -0.113703832 0.4954878688 0.398229152 -0.264965564 0.4049130976
-0.07569453865 -0.1228147298 0.5000280142 -0.3758150637 -0.1292917877 0.1469163597
-0.07361742854 -0.1254411787 0.50895226 -0.5747916698 -0.1855236888 0.1764114052
-0.0694264248 -0.1170529127 0.5021411777 0.2877706587 -0.3511272669 0.4678156376
-0.07350261509 -0.1290130615 0.5176229477 -0.8926603198 -0.1911132336 0.1415014267
-0.07688636333 -0.1273917705 0.5035657883 -0.8350746036 -0.05508299917 0.0009310605237
-0.06742743403 -0.1075910404 0.5144636035 0.06968068331 -0.4991922677 0.4827100337
-0.06824354827 -0.1080038995 0.5010303259 0.4830558598 -0.4368783534 0.5179465413
-0.06714759022 -0.1020342633 0.5096776485 0.2867336571 -0.5271041393 0.5105618238
-0.06840265542 -0.1234688461 0.5250943899 -0.4556881487 -0.4061365724 0.4113640487
-0.06762756407 -0.1122912243 0.5191459656 -0.1336648762 -0.4783533812 0.4574360549
-0.06878500432 -0.1106803119 0.4962847829 0.5981314778 -0.3926318884 0.5236075521
-0.06861370057 -0.1216014698 0.5181966424 -0.2179904133 -0.3924084902 0.4350342453
-0.06852128357 -0.1177352741 0.5130932331 -0.01173091866 -0.4040805101 0.4592107236
-0.06804448366 -0.1118762195 0.511197865 0.1189826876 -0.447276324 0.4800527096
-0.06754313409 -0.1018465608 0.5024943352 0.5127789378 -0.4973711669 0.5304997563
-0.06796955317 -0.1084816009 0.506609261 0.3034368157 -0.4570543766 0.5015715361
-0.06847967952 -0.1005078778 0.4968622029 0.6696695089 -0.4641642272 0.553365469
-0.06605401635 -0.09527737647 0.4995812476 0.5992977023 -0.5622189045 0.5632454753
-0.06733765453 -0.09033056349 0.5068738461 0.597282052 -0.5914836526 0.5396928191
-0.06132367253 -0.132942766 0.5538489223 -0.6075901389 -0.6331035495 0.4546576738
-0.06182698533 -0.1265585423 0.5683140755 -0.3966290057 -0.7702091932 0.4885529578
-0.02835343219 -0.1422346979 0.5586982965 0.1635594368 -0.7253953815 0.6353573203
-0.03627268225 -0.1429630667 0.5601283908 -0.04219952598 -0.7559067011 0.645350337
-0.04248278961 -0.1431744844 0.5597174168 -0.2054309994 -0.7485392094 0.6174921393
-0.04011039063 -0.1522495747 0.5510736704 -0.1519417614 -0.6987415552 0.6866493225
-0.04228996485 -0.1567111164 0.5466998816 -0.2247095555 -0.6863070726 0.6879582405
-0.04268126935 -0.1603510827 0.5429095626 -0.2421558499 -0.6768411398 0.694647789
-0.07787406445 -0.1076354161 0.5160295367 -0.01487083454 -0.334276855 0.3291314244
-0.07754652202 -0.1204887778 0.513446331 -0.4942078888 -0.1501782835 0.263462007
-0.07678734511 -0.1139598116 0.5177794695 -0.2331666946 -0.2823850513 0.3377093971
-0.07079810649 -0.1229979545 0.5310401917 -0.5750929713 -0.3995665014 0.3810649514
-0.07419288903 -0.1154700816 0.5243549347 -0.28590253 -0.3699207008 0.3780347109
-0.07335614413 -0.1250377297 0.5233374834 -0.6630545855 -0.2592999935 0.3096932471
-0.07692105323 -0.1291724592 0.5121563673 -0.836884439 -0.04406537861 0.1986537874
-0.07526773214 -0.1189601347 0.520208478 -0.4272890091 -0.2707218528 0.3244583905
-0.07632321864 -0.1051082611 0.5221081376 0.1191757023 -0.4375256002 0.4266387522
-0.07183007896 -0.06537053734 0.5403083563 0.5120076537 -0.6403301358 0.5689237714
-0.01144960523 -0.04570438713 0.5496842861 -0.2872371674 -0.286174804 0.8366287351
-0.01740513742 -0.04457243159 0.5489133596 -0.2416650057 -0.4286941886 0.7582871318
-0.02713026293 -0.04168235511 0.5486854911 -0.1079982966 -0.6122776866 0.6585375667
-0.02072234266 -0.1406995058 0.5582326055 0.3684542477 -0.7000522614 0.6089524627
-0.02226922661 -0.1456685215 0.5536420941 0.315865159 -0.6757299304 0.6617844105
-0.01393856481 -0.1433442086 0.5483721495 0.4710458815 -0.5912067294 0.6216187477
-0.01447139867 -0.1385953128 0.5545639992 0.4824357629 -0.6375466585 0.5766502619
-0.009246531874 -0.1402865499 0.5472437739 0.5590952039 -0.5545958281 0.5843275785
-0.003168878611 -0.1369397491 0.5454010963 0.6748339534 -0.5023961067 0.53987813
-0.003851802088 -0.141582936 0.540453434 0.7085971236 -0.4030384421 0.5500016212
0.01325027831 -0.08400122076 0.4987263083 0.3748491704 -0.4432044029 0.8126764894
0.01819007844 -0.07981173694 0.4989758134 0.4140466154 -0.4510438144 0.7897625566
0.01160242129 -0.1093689874 0.5026099086 -0.2802298367 0.1616225541 0.8285462856
0.006384852342 -0.1042576507 0.4986678362 -0.3063079417 0.01716417074 0.8588288426
-0.01360228751 -0.0950223282 0.4883915484 -0.2475007623 -0.5530663729 0.7604795694
-0.01077004429 -0.08973591775 0.4916380048 -0.09931832552 -0.615370214 0.7182168365
-0.01191901602 -0.1012904346 0.4910024703 -0.413212806 -0.4788026512 0.7654312253
-0.03103869036 -0.09393240511 0.4857338071 -0.1094225273 -0.6558076143 0.7383806109
-0.0255995933 -0.09661626071 0.4866923988 -0.2000346482 -0.599789083 0.7506971955
-0.01110430527 -0.09234620631 0.5012384653 -0.3764669895 -0.6507895589 0.6512456536
-0.0122794956 -0.09678677469 0.4948661625 -0.3929802477 -0.561716795 0.7111123204
-0.01493154187 -0.09232388437 0.4957095683 -0.3573818207 -0.6379371285 0.6664623618
-0.03669485822 -0.08960337937 0.4885683358 0.02804167382 -0.6932073832 0.7163438201
0.005970252212 -0.1168045476 0.5015991926 -0.003291674191 0.06955916435 0.4424824119
0.009575542063 -0.1212178767 0.5058067441 0.7618066072 -0.03029185161 -0.0494431816
-0.05366290361 -0.1556016654 0.5405554771 -0.5217055678 -0.6013435721 0.6041247249
-0.05350470915 -0.1614782512 0.5356559157 -0.5128108263 -0.5861350298 0.6182928681
-0.05715961754 -0.1555979997 0.5357003808 -0.5921678543 -0.557127893 0.5779473782
-0.06345656514 -0.1066507325 0.4871003032 0.5801280141 -0.4834477603 0.6392844915
-0.06448929757 -0.09991096705 0.4925211668 0.5796685219 -0.5342457294 0.5948497653
-0.06716982275 -0.1299755573 0.5400047302 -0.7841005325 -0.4537929296 0.3865765333
-0.06241869181 -0.1280485541 0.5629329085 -0.4941218197 -0.7411664128 0.4512254894
-0.06631429493 -0.1301738471 0.5485393405 -0.6864824891 -0.5618398786 0.4174005091
-0.06908798218 -0.1359302849 0.5368261337 -0.7940678596 -0.4571209252 0.3821672797
-0.06454650313 -0.1297892481 0.556494236 -0.5946736336 -0.6590415239 0.4502828717
-0.06657098979 -0.1355929673 0.5423861742 -0.7232761383 -0.5293946266 0.417737335
-0.05099487677 -0.1414514035 0.550948143 -0.4384888709 -0.6382351518 0.5484739542
-0.04872539639 -0.1406933069 0.5575597882 -0.3720846474 -0.7110343575 0.5646362901
-0.04750355333 -0.1469975263 0.5554285049 -0.3367984295 -0.7114484906 0.6070489883
-0.05791418627 -0.1393113881 0.5526171923 -0.571075201 -0.6620975137 0.4755646884
-0.05435765162 -0.1451842785 0.5491864085 -0.5422695279 -0.6338402629 0.5389617085
-0.05003884435 -0.1488380134 0.5497784615 -0.4095901549 -0.6719732285 0.6043910384
-0.0590868406 -0.140678376 0.5466339588 -0.6646627784 -0.5717187524 0.4791241288
-0.04308732226 -0.1474565268 0.5505555272 -0.2603737414 -0.6533668041 0.6254059076
-0.04983742535 -0.1492446661 0.5441468358 -0.4141723216 -0.5975773931 0.595887661
-0.05682894588 -0.1486099809 0.5402035117 -0.5950395465 -0.5453857183 0.5550301075
-0.04715133458 -0.1538862139 0.5439440012 -0.333484143 -0.6371774673 0.6616373658
-0.06965373456 -0.07741267979 0.5239083171 0.5931630135 -0.5930734873 0.5425220728
-0.07304370403 -0.0816835314 0.5239636898 0.6277382374 -0.5782320499 0.5207847357
-0.0709246099 -0.101880528 0.5190603733 0.2299006581 -0.519223392 0.4751732051
-0.06944661587 -0.1162515804 0.5270531774 -0.3249648511 -0.4557740986 0.4206692576
-0.06995389611 -0.1082380116 0.5223442316 -0.02246682346 -0.4931076467 0.4522050023
-0.06981360167 -0.097507976 0.5153872371 0.3647146225 -0.5481478572 0.4973878264
-0.06855455041 -0.128233403 0.5339877009 -0.7801686525 -0.4007766247 0.3739992678
-0.07454323769 -0.09988865256 0.5228657126 0.328663975 -0.5312401056 0.4814228714
-0.07274396718 -0.111054197 0.5281743407 -0.1074533761 -0.4817208052 0.4395028651
-0.07376606762 -0.0917269513 0.5153334141 0.6493616104 -0.5583934784 0.5096565485
-0.07664771378 -0.09455045313 0.5224993229 0.5360351205 -0.560293138 0.5028969646
-0.07095000893 -0.09724947065 0.5044965744 0.6797915101 -0.4896813631 0.5303808451
-0.07272323221 -0.102939032 0.500505507 0.7407939434 -0.4000592232 0.5258719325
-0.0737567842 -0.09601984918 0.5102657676 0.6857643723 -0.4990863204 0.5165037513
-0.07411495596 -0.1090839505 0.5009149909 0.395255059 -0.3124151528 0.4090957046
-0.07779441774 -0.1144315824 0.5112715364 -0.3514281809 -0.2357265353 0.1656875461
-0.07619868964 -0.1129477695 0.5063630342 -0.06443943828 -0.2563763857 0.258289665
-0.0745722875 -0.1008255556 0.5066573024 0.6959188581 -0.4375649393 0.517278254
-0.07625772059 -0.1027336493 0.5116716027 0.3777655959 -0.4106093645 0.4141819775
-0.07679911703 -0.09794960171 0.5159768462 0.5135526657 -0.4834105968 0.4647963047
-0.07592340559 -0.1178337857 0.5029489398 -0.2416708022 -0.1823273152 0.1944896877
0.01277253963 -0.03726138175 0.5389977694 0.70335567 -0.451351583 0.5428733826
0.01051093172 -0.0420961082 0.5420261025 0.5131866336 -0.3447564244 0.6795404553
0.007038031705 -0.04600239545 0.5474393368 0.3422163427 -0.2909419835 0.7745968699
-9.238844359e-05 -0.04441830888 0.5499994755 -0.001857868978 0.02250883728 0.9465206265
-0.005550837144 -0.04392146319 0.5477285385 -0.08206050098 -0.1527484804 0.8672536612
0.0225195419 -0.04026434943 0.5244250298 0.7472316027 -0.4311622679 0.5033085346
0.01873436198 -0.03927645087 0.528162837 0.7127922177 -0.4579083025 0.5191704631
0.01781100407 -0.04656198621 0.5304628611 0.4728254378 -0.4429460168 0.5475459099
0.009284573607 -0.06471097469 0.5455965996 -0.2869158685 -0.4316283464 0.6251539588
0.0164403934 -0.05544994399 0.5336799026 0.172476694 -0.4371818602 0.5936478376
0.02690262347 -0.05033439398 0.5174754858 0.5893569589 -0.4700153172 0.624633491
0.02088790573 -0.0528341271 0.5267280936 0.3630211055 -0.4499786496 0.6029154062
0.02915264852 -0.05490267649 0.5148040652 0.5077729821 -0.4919903874 0.6814632416
0.01262301672 -0.06160124391 0.540207386 -0.1090709344 -0.4364752471 0.620262444
0.02462684549 -0.05435708165 0.5214179754 0.4107689261 -0.4705294073 0.6436464787
0.01827306859 -0.06141200662 0.5318256617 0.03832259029 -0.4609773755 0.6597705483
0.02153670415 -0.04626161233 0.5248254538 0.5778401494 -0.4355568886 0.549477458
0.02181185037 -0.05911857635 0.5262637734 0.1963413209 -0.4706014395 0.6652675271
0.001191095915 -0.07324964553 0.5426530242 -0.6246697903 -0.5514023304 0.5427449346
-0.02843859233 -0.1473585367 0.553248167 0.144235462 -0.6890456676 0.6908244491
-0.03386888281 -0.1544951499 0.5484916568 0.003206714988 -0.708871305 0.7006319165
-0.006895808037 -0.1464118361 0.5419279933 0.6426389217 -0.4731682539 0.6005851626
-0.01165715139 -0.1481526345 0.5437906981 0.5400176644 -0.5275377631 0.631864965
-0.007617844269 -0.1307139248 0.5591554046 0.5349225402 -0.6485903859 0.5361236334
0.001611438231 -0.1375939697 0.5297064781 0.8102638721 -0.241190508 0.4174807668
0.002987300744 -0.1340148896 0.5259484649 0.8580582142 -0.1333117187 0.3528483808
0.004118592944 -0.1307122558 0.5201221704 0.9026973844 -0.0007310073706 0.2711953521
-0.001620152849 -0.1112339348 0.4936391711 -0.5119828582 0.03668448329 0.8566635847
0.006505383644 -0.1112170592 0.5003324151 -0.4643788934 0.1913145036 0.8559066653
0.003783158492 -0.1212997884 0.505112052 0.5562742352 0.1674978584 0.3468004465
-0.01940329 -0.09533886611 0.4865136743 -0.3215562403 -0.6036585569 0.7262967825
0.02007695101 -0.05686040595 0.5069909096 0.5053460598 -0.4955481291 0.7045573592
0.0186508242 -0.06409973651 0.5024675727 0.4329580963 -0.4682458341 0.7685018778
-0.01015417557 -0.0799080804 0.5147219896 -0.380484879 -0.779083252 0.4963387847
-0.01033605728 -0.08455920964 0.5094690919 -0.3630713224 -0.7541911602 0.5405992866
0.0001156739963 -0.1189656779 0.5404220223 0.5187735558 -0.5287955403 0.4899955094
-0.0005203881883 -0.1090991795 0.5349955559 0.2830396295 -0.6081218719 0.4733310938
0.0007086711121 -0.1122386307 0.5271687508 0.430754602 -0.4111016691 0.4176026583
0.004506647587 -0.1291291565 0.5347800255 0.8758605719 -0.2137857974 0.399014622
-0.002512134146 -0.1047613323 0.5299187303 0.1771025509 -0.6194124222 0.4776161015
-0.00373827992 -0.09725438803 0.5247000456 -0.003740878077 -0.6708196998 0.4703416824
-0.003476934507 -0.09874134511 0.5188942552 0.02887309343 -0.5771781206 0.4684494138
-0.008780811913 -0.09008683264 0.5078455806 -0.334436506 -0.6936920881 0.5827098489
-0.002461017808 -0.1063008979 0.5192182064 0.1996055245 -0.472291559 0.4808104932
-0.005661031697 -0.08758231252 0.516651094 -0.250897646 -0.7314170003 0.4714283943
-0.005134981126 -0.1017743424 0.5136976242 0.01364248153 -0.5333178639 0.5374672413
-0.004799244925 -0.09317229688 0.517175734 -0.1201664805 -0.653952837 0.4771403968
-0.006215817761 -0.09652774781 0.5125038028 -0.120083034 -0.6057893038 0.540540874
0.0007015506271 -0.1176054552 0.5239403844 0.5215326548 -0.3168589473 0.4483323395
0.0001072749728 -0.1149208918 0.5146170855 0.4882304072 -0.2044501603 0.3791506886
0.0028743695 -0.1206963807 0.5143118501 0.7236847281 -0.02727393061 0.2792550325
-0.008203376085 -0.09573747218 0.5067830682 -0.2106199861 -0.6006249785 0.5905987024
-0.005795606412 -0.1007617563 0.5065116286 -0.00573538756 -0.4463658929 0.5036162734
-0.002320179483 -0.1095313802 0.5133469701 0.283136785 -0.3359857202 0.4512176216
0.003361378331 -0.1242157221 0.5261783004 0.7538056374 -0.1812829971 0.3823306262
-0.06992728263 -0.0828371793 0.51911515 0.5966334343 -0.5986199379 0.5312430859
-0.06629564613 -0.07703813165 0.5196455121 0.5544507504 -0.6188581586 0.5561335683
-0.0485159494 -0.08089942485 0.5011821985 0.2428762317 -0.7309134603 0.6239439249
-0.06337893754 -0.08586467057 0.5051260591 0.5444070697 -0.6364337802 0.5459307432
-0.04944794998 -0.07757442445 0.5065614581 0.2540649772 -0.732074976 0.624571085
-0.06285717338 -0.07913731784 0.5138141513 0.5201123357 -0.6403631568 0.5613028407
-0.05616145954 -0.07779303938 0.5087743402 0.4208116829 -0.6813998818 0.5945114493
-0.05759841576 -0.08444027603 0.5066620111 0.3973073065 -0.6728141308 0.5857464671
-0.06514455378 -0.08511573821 0.5109452605 0.5252565145 -0.6365371346 0.5480868816
-0.06212805957 -0.09008440375 0.4980683923 0.5089991689 -0.628230691 0.5863385201
-0.05765429512 -0.09089081734 0.4939211607 0.4287906885 -0.6350215673 0.6401377916
-0.05539458245 -0.08590187132 0.497869581 0.3861635625 -0.6850531101 0.6160644293
-0.04679051787 -0.08608599007 0.4937644303 0.2133138031 -0.7074884176 0.6689563394
-0.04774782434 -0.09067007899 0.4891254008 0.2316724658 -0.6416535974 0.7274936438
-0.05308002234 -0.09176211804 0.4911201298 0.3392883837 -0.6321040988 0.6873891354
0.0002679751196 -0.05559144914 0.522295475 -0.00837178342 -0.596467793 0.5630068183
0.01383363362 -0.05206106603 0.5159731507 0.4540264904 -0.5151259899 0.6060205698
-0.009700304829 -0.05775367841 0.5274578333 -0.348587513 -0.6620080471 0.5269992948
0.01239769161 -0.04926297441 0.5202938318 0.3798754513 -0.5827713013 0.574742198
-0.002337079262 -0.05145736411 0.5298384428 -0.03114741296 -0.5749092698 0.5396904349
0.004461359233 -0.04782950133 0.5289525986 0.2075745612 -0.551378727 0.5409979224
0.01052634418 -0.04398238286 0.5290512443 0.4382563829 -0.5080319047 0.5493866205
0.01534955017 -0.0434993282 0.5253794789 0.5469679236 -0.5678775907 0.5255865455
-0.05492157862 -0.09714860469 0.4874987006 0.3740902245 -0.6091228724 0.6988068819
-0.05961426347 -0.1010544449 0.4868349731 0.41306898 -0.5964334607 0.6820809841
-0.06104642898 -0.09664818645 0.4902701974 0.4676038623 -0.6199011803 0.6295737624
-0.0052296957 -0.1325279623 0.5528610349 0.6233660579 -0.5855350494 0.5167378783
0.002063816646 -0.1139610782 0.5471590757 0.3942190111 -0.4594500959 0.5327247977
0.002909214236 -0.09463879466 0.547932148 -0.08315273374 -0.4708608985 0.5675540566
0.003259306075 -0.08144465834 0.5475979447 -0.4135323465 -0.4897765219 0.5810770392
-0.002276305575 -0.1253920943 0.5528013706 0.5648454428 -0.556907475 0.5248724222
0.001326423953 -0.09855882078 0.5530015826 -0.0323856771 -0.4944283962 0.5918818712
-0.0001305699552 -0.1053806692 0.553874433 0.1071305797 -0.5218327045 0.5756186247
0.004626023117 -0.07498946786 0.5529467463 -0.5538955927 -0.4366727173 0.6505476236
0.003662950825 -0.08163423091 0.5530182719 -0.4076171815 -0.4536545575 0.6340552568
-0.0008152878145 -0.1055087224 0.545830667 0.1009680033 -0.5820593834 0.49823457
-0.001411598874 -0.1206724495 0.5492642522 0.4671999812 -0.5568207502 0.5093280077
-0.002072436502 -0.1110810861 0.5503771305 0.2108998895 -0.5873557925 0.516643703
0.0005856237258 -0.082410492 0.5416430235 -0.4469510317 -0.6006397605 0.4966353178
0.0004609977186 -0.08816144615 0.54510957 -0.307317853 -0.577267468 0.5205597281
-0.0009915436385 -0.09901254624 0.5465411544 -0.06672826409 -0.5948728323 0.5063701272
-0.002215008019 -0.1175119355 0.5542400479 0.3669804931 -0.5613831878 0.5432400107
0.002396479715 -0.08692841232 0.5523771644 -0.3013902903 -0.4855308235 0.6084557176
-0.03317014128 -0.1470006406 0.5563829541 0.04469006509 -0.7360906601 0.6687634587
-0.03192131594 -0.1403972507 0.5626142025 0.09126962721 -0.7628880143 0.6212608814
-0.0567250587 -0.1350556463 0.5588154793 -0.4817050099 -0.7290880084 0.4801710248
-0.05396903679 -0.1329546571 0.5632773638 -0.4068991542 -0.7551739812 0.5040572286
-0.01172276121 -0.05920555443 0.5452429652 -0.536585629 -0.4806511104 0.6818398833
-0.0198502671 -0.05385909602 0.5428789258 -0.4327136278 -0.6498355865 0.6059120297
-0.01795855723 -0.05014205351 0.5483838916 -0.4060817659 -0.5226598978 0.7153432369
-0.0235977862 -0.04920287803 0.5437073112 -0.3667577505 -0.7128818631 0.5903519392
-0.004884023219 -0.04863332212 0.5516082048 -0.2648045421 -0.1378014982 0.9337587357
-0.0008608415956 -0.0535460934 0.5521387458 -0.09902153909 -0.1906348914 0.9460694194
-0.01033021137 -0.05170554668 0.5509067774 -0.3917716444 -0.2956741452 0.8480346203
-0.001032946282 -0.06500296295 0.5502995253 -0.5112666488 -0.3714954257 0.7557083368
-0.005281874444 -0.06227028742 0.5477240086 -0.5002019405 -0.3974310756 0.7468544841
-0.003671209328 -0.06749394536 0.5456193686 -0.6018323302 -0.5045058131 0.6143551469
-0.008346314542 -0.06452086568 0.5426701903 -0.5894446373 -0.5336568952 0.6038582325
0.001174157602 -0.07114682347 0.5474367142 -0.6189483404 -0.4872949123 0.609750092
-0.01166182663 -0.07456050068 0.520424962 -0.4704998136 -0.7305701375 0.4893989265
0.0007381620817 -0.07548236847 0.5367416143 -0.604991734 -0.6356059909 0.4717482626
-0.00134879048 -0.07836342603 0.5283702016 -0.4846082032 -0.7332149148 0.4481064677
-0.007780500688 -0.0745607093 0.5289230943 -0.5117981434 -0.7170488834 0.4558204114
-0.006265217438 -0.07808870077 0.5237962008 -0.4427348971 -0.7651125193 0.4503050447
-0.005921722855 -0.08157455921 0.518060565 -0.3853623569 -0.7972245216 0.4597648382
-0.004814039916 -0.07267038524 0.5360115767 -0.6041885614 -0.6307196021 0.4841332138
-0.06410417706 -0.0586887449 0.536736846 0.4718927741 -0.6695253849 0.5735338926
0.004061305895 -0.1427463591 0.5305207968 0.8565568924 -0.3524782658 0.3723951578
0.005232645199 -0.1274255216 0.5125080347 0.950389266 0.1559242159 0.1705231816
-0.000434303598 -0.1480702609 0.5334026814 0.7317035794 -0.4468957484 0.5112377405
0.01746881381 -0.09536097944 0.501701355 0.04697018117 -0.1442192346 0.8257881403
0.01331228297 -0.1029413939 0.5018244982 -0.1029523909 0.008372266777 0.8242659569
0.01876816899 -0.090116404 0.5015549064 0.1835218072 -0.260881573 0.8413159251
0.0182794854 -0.07851944119 0.5111859441 0.1091565862 -0.4925000072 0.7202242017
0.00431668479 -0.07597093284 0.5323590636 -0.4726664722 -0.5932969451 0.5274841785
0.007364097983 -0.0762648806 0.5281162262 -0.3530092537 -0.5735456347 0.5655816793
0.02293664031 -0.07927014679 0.5042671561 0.3004430532 -0.4597315192 0.7830078602
0.01228235941 -0.07702615112 0.52085495 -0.1518788636 -0.5392101407 0.6314083338
0.01654537395 -0.0745672062 0.5190591812 -0.06467473507 -0.5361801982 0.6412739158
0.02596604265 -0.07389295846 0.508226037 0.2610060275 -0.4886893034 0.7350952625
0.01050937921 -0.0842115134 0.5147506595 -0.04274991155 -0.4051737487 0.7591355443
0.007526165806 -0.08231292665 0.5209240317 -0.2009024918 -0.4505951107 0.6917224526
0.01717960648 -0.08442708105 0.5053902864 0.2162822634 -0.3935734034 0.8229689002
0.01445529889 -0.0831604898 0.5105127692 0.0828224346 -0.4246220887 0.77148211
0.0110874502 -0.09070255607 0.5054798126 0.1511242986 -0.2936746478 0.8877231479
0.00805229973 -0.08839996904 0.5095378757 0.02029287629 -0.4157825112 0.7782822251
0.003789569251 -0.08084378392 0.5254580379 -0.3452962339 -0.5436213017 0.599467814
0.001847748179 -0.08358101547 0.5180981755 -0.2518662512 -0.6642687321 0.5539092422
-0.005939522292 -0.09984269738 0.4913796484 -0.2720938921 -0.3316206336 0.8726295233
0.002436229726 -0.09276174009 0.4960342646 -0.005857806653 -0.4075301886 0.880415976
-0.002300106222 -0.09406733513 0.4937631488 -0.1112192273 -0.4363062382 0.8569970131
0.006683520973 -0.0890115127 0.4978887141 0.2238183767 -0.4409069717 0.8477530479
0.002342187567 -0.1062226668 0.4962496161 -0.3979759514 0.003683015471 0.8842899203
0.002178987954 -0.09944462031 0.4958933294 -0.2290401012 -0.2147120535 0.9136663675
0.00845067203 -0.09661930054 0.4979681671 -0.05866898596 -0.1806851178 0.8532482386
0.01258468721 -0.09008971602 0.4984762371 0.2174657583 -0.3353904486 0.8316556811
0.0188726373 -0.06908053905 0.4993342161 0.401322186 -0.4535637498 0.7956985235
0.01191766281 -0.07507745177 0.498195678 0.3409690559 -0.4728567898 0.7926131487
0.002235071268 -0.08049923182 0.4954809844 0.1556212008 -0.5416890979 0.7539227605
0.006619842257 -0.07768620551 0.496656388 0.237079531 -0.5119261146 0.7694528103
0.007620760705 -0.08339455724 0.4978820682 0.2996348441 -0.4801431 0.8083369732
-0.005107016768 -0.08813314885 0.4939535558 0.03946176171 -0.5800213218 0.7441877723
-0.043350555 -0.08331323415 0.4975274503 0.135176897 -0.739890635 0.6520450115
-0.0538517721 -0.07351590693 0.5125960708 0.342389524 -0.7137006521 0.6067661643
-0.04807411134 -0.07282202691 0.5106107593 0.2181613594 -0.7445130944 0.6242486835
-0.01456172299 -0.07059937716 0.5251654983 -0.5022233725 -0.6935291886 0.5098850727
0.007598341443 -0.05467957258 0.5177682042 0.2553425133 -0.5318489075 0.5929970145
-0.005038707051 -0.05883279443 0.5227148533 -0.1530419886 -0.6181451082 0.5540893674
0.001699104672 -0.05902515724 0.5170608759 0.1232906654 -0.5752801895 0.5868550539
-0.004490327556 -0.06211289391 0.5178752542 -0.04716508463 -0.6173252463 0.5767737031
-0.009679577313 -0.06288148463 0.5216543078 -0.2454728782 -0.6547215581 0.5487216711
0.01313930191 -0.05874462053 0.5086815953 0.3675248921 -0.5281999111 0.6786555648
0.003833054565 -0.0617938526 0.5118517876 0.13930583 -0.5812810659 0.6415597796
0.01845907047 -0.05280248076 0.5116338134 0.6083092093 -0.4654407799 0.6397790313
-0.0583862178 -0.07360821962 0.5160399079 0.4463266432 -0.6705942154 0.5862624049
-0.06178077683 -0.07132490724 0.5209222436 0.5095872879 -0.644995153 0.5687980056
0.0006268924917 -0.1413635314 0.5363299847 0.7773066163 -0.3979380727 0.4734024405
-0.0007785307826 -0.1299300939 0.5481669903 0.6870518923 -0.5109263659 0.5157018304
0.0007320381701 -0.1323741376 0.5410924554 0.7688257098 -0.3768769503 0.4744270742
0.003070814768 -0.1361470073 0.5355945826 0.854583919 -0.3090106547 0.4074495137
-0.02019971795 -0.1362272501 0.5648619533 0.3268599808 -0.7295532823 0.5940188169
-0.01748626493 -0.1317911595 0.5678817034 0.3491604328 -0.717851162 0.5927592516
-0.01168442611 -0.1303356439 0.5648300052 0.4543462396 -0.6850724816 0.5652168989
-0.01685228944 -0.144028917 0.5543106794 0.4043342173 -0.6503031254 0.6381428242
-0.01645675488 -0.137674585 0.5612776279 0.4007656574 -0.6927175522 0.5949493647
-0.01154194493 -0.1344075501 0.5598093271 0.4862481356 -0.6722196937 0.5573145151
-0.02294749022 -0.1498439014 0.5497018099 0.2832519114 -0.659794867 0.6940788031
-0.01919000596 -0.1586071551 0.5426818132 0.3058339953 -0.6619467139 0.6784570813
-0.01588370092 -0.1487516463 0.5492432117 0.4163467586 -0.6311443448 0.6518415213
-0.01812469773 -0.1528746337 0.544527173 0.3759657741 -0.604483068 0.6715272665
-0.02758619562 -0.1527358145 0.5480103493 0.1607468277 -0.6751016378 0.6973568797
-0.02529302426 -0.1621266901 0.541343689 0.1558279097 -0.684094131 0.7114338279
-0.01352511626 -0.1547420025 0.5409372449 0.4691286087 -0.566752255 0.649818182
-0.03128469363 -0.1612695307 0.5423495173 0.03531701118 -0.6951164603 0.7089856267
-0.02615077794 -0.1575210541 0.5447217226 0.1553923041 -0.6856379509 0.7062101364
-0.03734181076 -0.157255426 0.542550087 -0.1184891537 -0.6691097617 0.6743468642
-0.05347454175 -0.1253751665 0.5774437189 -0.225981757 -0.7882165909 0.5688548088
-0.04968324676 -0.1243367419 0.5819664001 -0.1603605896 -0.7962332368 0.5832287073
-0.05144187808 -0.1386747211 0.5628467798 -0.380330205 -0.7458720207 0.5429062247
-0.05021819845 -0.1290876865 0.5689275265 -0.2851282358 -0.7655611038 0.5261518955
-0.04773628339 -0.1348888278 0.5653018355 -0.2919737101 -0.7709385157 0.5447660089
-0.05536805466 -0.127953887 0.5696098208 -0.3371475339 -0.7684063911 0.5236401558
-0.04774249718 -0.1272334307 0.5762856603 -0.1575686336 -0.7859131098 0.5809702277
-0.03981031477 -0.12743783 0.5782868266 -0.0478948243 -0.7895133495 0.5990989804
-0.03534340858 -0.1194822118 0.5858509541 0.002971621696 -0.8064292073 0.5892236829
-0.04023417458 -0.1223815978 0.5822039843 -0.06056615338 -0.7986282706 0.5855748653
-0.0245739948 -0.1348666996 0.568795681 0.2274381816 -0.7551704049 0.6137868166
-0.03226223215 -0.1368626803 0.567191422 0.09280687571 -0.7717068791 0.6229018569
-0.02530767769 -0.13993451 0.5637633801 0.2391973138 -0.7434883118 0.6243514419
-0.03464523703 -0.1325202882 0.5735573769 0.03725316003 -0.783602953 0.6193964481
-0.02638527751 -0.1317848712 0.5738018751 0.1724498272 -0.7632204294 0.6218885183
0.004514295608 -0.06761860847 0.552913487 -0.4599142373 -0.3589727581 0.7404292822
0.0001126035859 -0.05860115215 0.5520197153 -0.366885066 -0.3140206039 0.8615706563
-0.006280584261 -0.05689028651 0.5514041781 -0.4351878166 -0.3641749918 0.8223611116
-0.02965294756 -0.04539583251 0.5428874493 -0.2390465587 -0.7831263542 0.565220058
-0.03033080325 -0.04754374549 0.5372487903 -0.2166555822 -0.7884206176 0.5726422668
-0.04226878658 -0.04476245493 0.5420912504 0.08861774951 -0.8095232844 0.5635483861
-0.03745077178 -0.04096582532 0.5459757447 -0.02690582722 -0.8405463696 0.5361605883
-0.03740340099 -0.04637949541 0.5385052562 -0.06605856866 -0.809661448 0.5682777762
-0.01915233769 -0.04650384933 0.5424379706 -0.275034517 -0.5976415277 0.7153029442
-0.006206414662 -0.04312948138 0.5383441448 0.1283025891 -0.5141251683 0.6561551094
-0.01338538062 -0.04498943314 0.5376471281 -0.001929896069 -0.5895624161 0.6435863376
0.0013985486 -0.04115243629 0.5373088717 0.3221119642 -0.4516206384 0.6423508525
-0.01088491827 -0.04436032474 0.5428254604 -0.1119822189 -0.5148422122 0.7234287858
-0.01777865551 -0.05440950766 0.53113693 -0.3249964118 -0.690801084 0.5464589
-0.0151807433 -0.04914304614 0.5327292085 -0.07923999429 -0.65291816 0.5695125461
-0.0005156152765 -0.04468270019 0.5329674482 0.2585050762 -0.510819912 0.5767765641
-0.008102921769 -0.04985906929 0.5318508148 -0.03538741916 -0.5924829841 0.5590687394
-0.0121920472 -0.05406497791 0.5307586193 -0.2525984943 -0.6405158043 0.5426390767
0.005026596133 -0.03934821486 0.5436903834 0.410280019 0.02657110617 0.8170635104
-0.0165279638 -0.05840497091 0.5406141877 -0.5048162937 -0.6093184352 0.5982610583
-0.02140806057 -0.05868323147 0.5331870317 -0.4657004774 -0.6893029809 0.5522013307
-0.07206356525 -0.06958446652 0.5356892943 0.5836106539 -0.5926105976 0.5543684363
-0.06906305254 -0.07067801058 0.5301986933 0.5574811697 -0.6099612117 0.563128531
-0.06637936831 -0.0719800368 0.5257389545 0.5474547744 -0.6152712703 0.5666304231
-0.04557618499 -0.1341813505 0.5714355111 -0.2463248372 -0.7703858018 0.5838415623
-0.04145025462 -0.1321348846 0.5751235485 -0.1255823672 -0.7799516916 0.6041678786
-0.04231436178 -0.1370242685 0.5664951801 -0.1898934245 -0.7779944539 0.5805657506
-0.03731011227 -0.1360609531 0.569126606 -0.01559973136 -0.7769086957 0.6198750138
-0.03094255924 -0.06008011848 0.5246708989 -0.1803081334 -0.7469978929 0.6222398877
-0.02388957329 -0.06271871179 0.5298057199 -0.3226504326 -0.7143689394 0.564697206
-0.03005315736 -0.05158379674 0.5318397284 -0.2114441544 -0.7724181414 0.5936096907
-0.02453383245 -0.05431083217 0.5313314199 -0.3364910185 -0.7402593493 0.5662415028
-0.01757150702 -0.06378071755 0.5318351388 -0.515329361 -0.6810169816 0.5168552399
-0.01286075171 -0.06886869669 0.5324867964 -0.560354352 -0.6717498899 0.4824574292
-0.009999473579 -0.0676625967 0.5373031497 -0.5825351477 -0.604190886 0.5346443653
0.01114355866 -0.06843871623 0.5019459724 0.2991113067 -0.5129016638 0.7368836999
-0.00446016388 -0.07297160476 0.5054523349 -0.04067916051 -0.6439550519 0.6369214058
0.002214764711 -0.06872751564 0.5054892302 0.1113413051 -0.6017599702 0.6594597101
-0.01442424674 -0.07727684826 0.5127146244 -0.3847476244 -0.7558072805 0.5288063884
-0.03419126198 -0.0813061446 0.501408577 -0.06260854006 -0.7794075608 0.6156622171
-0.02065866999 -0.08573081344 0.5033648014 -0.2473004907 -0.727345705 0.6170528531
-0.01400548127 -0.08712162822 0.5046993494 -0.3449046016 -0.7049213052 0.6123141646
-0.02191858925 -0.08841508627 0.4905842543 -0.2641448975 -0.7169139981 0.6448364854
-0.0412995629 -0.07192532718 0.5103644133 0.06808628887 -0.7602784038 0.6326423883
-0.03810779005 -0.07496182621 0.5064733028 -0.007935401052 -0.7736359835 0.6251881123
-0.0355194062 -0.07063542306 0.5116637945 -0.06594321877 -0.7656154037 0.6352737546
-0.02227690443 -0.06883265823 0.5244874358 -0.3367634118 -0.7157025337 0.5504199862
-0.02872897871 -0.06761654466 0.5199550986 -0.1966855228 -0.7422737479 0.5968304873
-0.03283732757 -0.0634919703 0.5197150707 -0.1063739583 -0.7568199039 0.6351808906
-0.01872341335 -0.06802687049 0.5206240416 -0.4286156595 -0.7139399648 0.5506570935
-0.02385840937 -0.06540056318 0.5201629996 -0.3292989135 -0.7384422421 0.5794174075
-0.01923587546 -0.06139876693 0.5266461372 -0.4336982071 -0.7065548897 0.5498251915
-0.03280324861 -0.1272377223 0.579706192 0.04920990765 -0.7846135497 0.615745306
-0.02869112045 -0.1248673722 0.5819923282 0.1103288978 -0.7730539441 0.6211693287
-0.02951699123 -0.05711654946 0.5307076573 -0.2186445296 -0.737503171 0.5995694995
-0.0263326671 -0.05322381109 0.5376963019 -0.3037648797 -0.7322221994 0.5854151249
-0.03815824911 -0.05090845749 0.536064446 0.001814720919 -0.7765594125 0.6122293472
-0.05881364271 -0.05602486059 0.5356797576 0.4169642627 -0.6924896836 0.5860039592
-0.06603968143 -0.06356947124 0.5348938704 0.4949303865 -0.6475464702 0.5784210563
-0.03771237656 -0.05833523348 0.5267455578 0.00954255648 -0.7568769455 0.6472179294
-0.04279521108 -0.06010872498 0.5240471959 0.1112422347 -0.7474616766 0.6494680047
-0.03772839531 -0.06278052181 0.522588253 -0.003620017786 -0.7407109141 0.6231725812
-0.04067029804 -0.06640584767 0.5165713429 0.06810209155 -0.7598345876 0.6383523345
0.001180254272 -0.07392867655 0.4997547865 0.1562525034 -0.5706942081 0.7174981833
-0.01021848246 -0.07709468901 0.5012336373 -0.05588881299 -0.6628160477 0.6526678205
-0.005229621194 -0.07996486127 0.4950225353 0.00956475269 -0.6105040908 0.7010902166
-0.004827208351 -0.07645205408 0.4990777671 0.0502797626 -0.6152788997 0.690515101
-0.01148905605 -0.08102628589 0.4962110221 -0.0855537951 -0.6606613994 0.6670407057
-0.01741280034 -0.07933115214 0.5005738735 -0.1484540403 -0.7143981457 0.6248135567
-0.01522111893 -0.08549745381 0.4923157394 -0.1808213294 -0.6816529036 0.6609625816
-0.02041419782 -0.08405858278 0.4960838556 -0.2364370078 -0.7286519408 0.6241187453
-0.0295193363 -0.07723765075 0.5046015978 -0.1644562334 -0.7711681128 0.6091165543
-0.011611389 -0.06747768819 0.5152618289 -0.2092333734 -0.6725299358 0.5984070301
-0.003689314704 -0.06523102522 0.5096420646 0.07871003449 -0.6263830662 0.6559305787
-0.0218725428 -0.07147591561 0.5126469731 -0.2581158876 -0.7281676531 0.6113176346
0.006447077729 -0.06288153678 0.5071892142 0.2515829504 -0.5750227571 0.6748572588
-0.01647032052 -0.07706031203 0.5075947642 -0.2912152708 -0.7342652678 0.5757983327
-0.01062896103 -0.07017080486 0.5088608265 -0.07714330405 -0.6772078276 0.6272239685
-0.02736911178 -0.07312547415 0.5102219582 -0.2100883126 -0.7531653643 0.6189273
-0.04986140877 -0.05543253571 0.5319975019 0.2544049919 -0.7327494621 0.6204546094
-0.04442528635 -0.05023021251 0.5361689329 0.1350165904 -0.7807023525 0.6094204783
-0.03550858796 -0.05405571312 0.5317413807 -0.03421893343 -0.7723715305 0.6327922344
-0.04295767844 -0.05591256544 0.5293184519 0.1075315475 -0.7569587231 0.6398143768
-0.06510985643 -0.06674536318 0.5290857553 0.5104392171 -0.6457809806 0.5667828918
-0.06086829305 -0.0628349781 0.5285502076 0.4742745459 -0.6654046178 0.5760799646
-0.06030300632 -0.06682113558 0.5242804289 0.4679076076 -0.6717559099 0.5718019009
-0.04864927009 -0.06440626085 0.5209177732 0.2462152839 -0.7338176966 0.6283578277
-0.05498116836 -0.06486866623 0.5232386589 0.3816469014 -0.7092410922 0.5875738263
-0.05414869264 -0.06888100505 0.518153429 0.3519314528 -0.7107952833 0.6054946184
-0.03055860475 -0.08336047083 0.4966895282 -0.1108687297 -0.7530633807 0.6376918554
-0.02562601119 -0.08082722127 0.5009807944 -0.2228330672 -0.7652432919 0.599180758
-0.04012353346 -0.08544835448 0.4934217632 0.08441598713 -0.7273605466 0.6733913422
-0.03403528407 -0.08592057228 0.4926997125 -0.03696145862 -0.736949861 0.6709190607
-0.02601623908 -0.08594921976 0.4998379946 -0.1563802361 -0.7333223224 0.6381995678
-0.0439321734 -0.07660191506 0.5045927167 0.1238042191 -0.7687048912 0.6256206036
-0.04027735814 -0.0797220394 0.5005492568 0.0655118674 -0.760042727 0.6409547925
-0.02933971211 -0.08892075717 0.4913397133 -0.1203425452 -0.706564784 0.6838005185
