# .PCD v0.7 - Point Cloud Data file format
VERSION 0.7
FIELDS x y z normal_x normal_y normal_z
SIZE 4 4 4 4 4 4
TYPE F F F F F F
COUNT 1 1 1 1 1 1
WIDTH 512
HEIGHT 1
VIEWPOINT 0 0 0 1 0 0 0
POINTS 512
DATA ascii
0.006110507995 -0.177245453 0.7606083751 -0.1110012159 -0.6101336479 0.7819778323
0.01129806507 -0.08533449471 0.684091568 0.07473428547 -0.7042673826 0.7014645934
-0.04347624257 -0.1875022501 0.6984162927 -0.8809438348 -0.1734141707 0.4223106802
-0.04234150425 -0.1949834675 0.697293818 -0.8356667161 -0.2498088926 0.4776858091
-0.03083658218 -0.1790866852 0.7320474386 -0.6895976663 -0.4277127683 0.5806440115
-0.0408305414 -0.191494599 0.7042213678 -0.8400130272 -0.2588853538 0.4706601799
0.01096149255 -0.09156354517 0.6791074276 0.09171354771 -0.6781974435 0.7252976894
0.00469921669 -0.09103960544 0.6812680364 0.1991550773 -0.6693726778 0.7149176598
0.05708312243 -0.2138687372 0.7071964741 0.7113583088 -0.4837686121 0.5074867606
-0.03440889716 -0.209337309 0.7059665918 -0.757252574 -0.3434678316 0.5540044904
0.01715223677 -0.2264913619 0.7190000415 0.08391587436 -0.589612484 0.7710106373
0.008043003269 -0.2301388383 0.7212287188 -0.0804964304 -0.5793382525 0.8000625968
0.01898383349 -0.2297700495 0.7266185284 0.1174886525 -0.5735189319 0.7954105735
0.05588234589 -0.2074540704 0.7119648457 0.7014052272 -0.4518812001 0.5426509976
0.05088439584 -0.2097613066 0.7156162262 0.6082950234 -0.4952116311 0.6155350208
0.04852164537 -0.2160604298 0.7137120962 0.5729026794 -0.5184519291 0.6328384876
0.07181821764 -0.1014519855 0.6937028766 -0.2152329087 -0.6922101378 0.6221575737
0.06702957302 -0.1002413854 0.7001776695 -0.3566101789 -0.6552027464 0.6440796852
0.07206163555 -0.1023690552 0.7033507228 -0.2780292332 -0.7211239338 0.6195386052
-0.04145641252 -0.1098071039 0.712167263 0.7214311361 -0.4891425967 0.4901455343
-0.02573823743 -0.09744128585 0.6944562793 0.6731734276 -0.5373401642 0.5079430342
-0.02867714502 -0.09533177316 0.7002754211 0.6705679893 -0.5451499224 0.5029280186
-0.04340047762 -0.1728336364 0.691599369 -0.4693782032 -0.05511671677 0.278978169
-0.04455323517 -0.1770589054 0.6976987123 -0.7750370502 -0.1245606691 0.3790695369
-0.04196439311 -0.1575609446 0.6725139022 0.7168866992 -0.2429340035 0.3698095679
-0.04301283881 -0.163084507 0.6812030673 0.2913060486 -0.1354706138 0.295573771
-0.04196553677 -0.151575163 0.6720164418 0.8301507831 -0.3374118507 0.4174173474
-0.03898683935 -0.1250602454 0.6921577454 0.7399631739 -0.4610477984 0.489120096
-0.03848757967 -0.1207703501 0.6969802976 0.7321215272 -0.4722286761 0.4901435673
-0.04079401121 -0.1176135316 0.700924933 0.7323996425 -0.4720250368 0.4905943871
-0.03673131391 -0.1261853725 0.6853002906 0.7327392101 -0.4652177393 0.4962278008
-0.03729178756 -0.1309759468 0.6818630695 0.7429459691 -0.4528798163 0.4924426973
-0.04195598885 -0.156727463 0.6830201149 0.1719714999 -0.2906384468 0.4070257246
-0.04041717201 -0.149297446 0.6843560338 0.2713628113 -0.3173380196 0.4225797057
-0.04210344329 -0.1628831178 0.6886558533 -0.2067009211 -0.1922345161 0.3575918972
-0.04271341488 -0.166983366 0.6942789555 -0.4680078924 -0.1712374538 0.379750818
-0.03911682963 -0.1386097074 0.6814829111 0.6349349022 -0.4188723266 0.4797599614
-0.04114094004 -0.153297618 0.6880959272 0.07869314402 -0.3035952449 0.4407449961
-0.04161665589 -0.1489959508 0.6778705716 0.5777354836 -0.4058330357 0.4719846845
-0.03450211883 -0.2048219591 0.7102501988 -0.7558069825 -0.3518544436 0.5505661368
-0.03933829814 -0.2051960379 0.7034259439 -0.7916485667 -0.3218272924 0.5179396272
-0.01589526981 -0.128710255 0.6560992599 0.4801855683 -0.5909113288 0.6429161429
0.03166820854 -0.2197785228 0.7202991843 0.3440265059 -0.5659568906 0.7399770021
0.03971582651 -0.2204339504 0.7167737484 0.4556128979 -0.5537727475 0.6874806881
-0.04270467535 -0.1799635887 0.6920015812 -0.6368042827 -0.1717293411 0.3870580494
-0.03992857412 -0.1626156569 0.6756572723 0.2544359565 -0.3503993154 0.4542207122
-0.04104853049 -0.1705280095 0.6830357313 -0.1565444469 -0.2796669006 0.4295659661
-0.0386787504 -0.1544357985 0.667767942 0.7185376287 -0.4535778463 0.5019018054
-0.005470749456 -0.1432245672 0.6366836429 0.3411975205 -0.6322941184 0.694108367
0.004717480391 -0.1434041709 0.6305229068 0.1548259258 -0.712718904 0.6714403629
0.01294835471 -0.1428199708 0.6274152994 0.03368249163 -0.7264020443 0.6734952927
0.0171606224 -0.1436551213 0.6236845851 -0.02808873355 -0.7147868872 0.6828472018
0.0008595723193 -0.1397203654 0.6361056566 0.224679023 -0.7113851309 0.6624799371
-0.001818196382 -0.1439354867 0.6312870979 0.2778948545 -0.669572711 0.6829477549
0.02931841277 -0.1388007253 0.6357693076 -0.2536982596 -0.6814688444 0.6821277738
0.03396197781 -0.1426124573 0.6364720464 -0.3783328831 -0.6469749212 0.659740746
0.07787977904 -0.1050372645 0.6960485578 -0.0520301275 -0.7413461208 0.627274394
0.07474924624 -0.1847022474 0.6902163625 0.9127007723 -0.2012463957 0.293538183
0.07388793677 -0.1909776777 0.6861364245 0.8952589631 -0.2551512122 0.3126955926
0.07741771638 -0.1881259382 0.6787237525 0.9738996625 -0.06380375475 0.1393316537
0.07393217087 -0.1942886561 0.6819803119 0.9164145589 -0.1883883327 0.2914084494
0.06283908337 -0.2107640654 0.7035741806 0.7921019793 -0.4057025313 0.4545308352
-0.04255878553 -0.1143044978 0.707303524 0.7336263657 -0.4736222625 0.4872574806
-0.03666577861 -0.1195871234 0.6910245419 0.7286377549 -0.4736304879 0.4946351349
-0.03528375924 -0.1050799564 0.7033239007 0.7026774287 -0.5082268715 0.4978195429
-0.03240872175 -0.1066742688 0.6982170343 0.6988262534 -0.5120940804 0.4988140166
-0.03022449464 -0.1016266942 0.6975169182 0.6845431328 -0.5298987031 0.4997883141
-0.03184353933 -0.09878566861 0.7041971684 0.680123508 -0.5400862098 0.4935611188
-0.03675652668 -0.1030290499 0.7087077498 0.7054992318 -0.5084658265 0.4919466674
-0.03449124843 -0.1119194701 0.6934646964 0.7290287018 -0.4784881473 0.4892031848
-0.03680602834 -0.1107014716 0.6994090676 0.723628819 -0.4851588905 0.490509361
0.02367780171 -0.0898251906 0.6807223558 -0.1079121977 -0.6835125089 0.719557941
0.02500739321 -0.0852014944 0.6853390932 -0.132579729 -0.7219139338 0.6788864732
0.0183016099 -0.08828160912 0.6809184551 -0.02842319943 -0.6927663088 0.7184631228
-0.01952928118 -0.09420172125 0.6911436915 0.5725938082 -0.5724269748 0.5790922642
-0.01512749679 -0.09552612901 0.6862121224 0.5095273256 -0.5921951532 0.6236509681
-0.02203857712 -0.09826467186 0.6887959242 0.607655704 -0.5584952235 0.5627484322
-0.004989359062 -0.2190122902 0.7227931023 -0.3084216714 -0.5589807034 0.7645421028
-0.03179054707 -0.1334094405 0.6714469194 0.7355571389 -0.4581772089 0.4990057647
-0.03535943851 -0.1400752813 0.6712508202 0.7415885925 -0.4542135894 0.4936208725
-0.03659497201 -0.1349259466 0.67724967 0.7442427874 -0.4493469 0.4940081537
-0.03967145085 -0.1436254829 0.6742397547 0.749740839 -0.4462551773 0.4884059131
-0.03848236799 -0.1472236216 0.6691554189 0.7557034492 -0.4341432154 0.4863696694
-0.02083124407 -0.1328805685 0.6550321579 0.5565738678 -0.5696445107 0.6046687961
-0.02044089511 -0.1378049701 0.6501565576 0.5406118631 -0.5714949965 0.6166593432
-0.02489767037 -0.131902054 0.6615347862 0.6456255913 -0.5239883065 0.5499163866
0.0360927619 -0.2120738328 0.7258128524 0.430196166 -0.536000669 0.7248485088
0.04299663007 -0.2145399302 0.7186385393 0.5087546706 -0.5243420005 0.6795629859
0.04740455747 -0.2088683546 0.7206330299 0.5564898849 -0.5227524042 0.6445515752
0.04230398312 -0.2092304975 0.7232031226 0.4794888496 -0.5449041724 0.680034399
0.03812354431 -0.2166586965 0.7221821547 0.468580842 -0.5405137539 0.6976497173
0.04546438903 -0.2215878665 0.7148661017 0.5334700942 -0.5433400869 0.646817565
-0.03451099247 -0.1474543214 0.6636657119 0.7248651981 -0.4593570232 0.5127208233
-0.03271244094 -0.1402893364 0.6644290686 0.73608464 -0.4573790729 0.4988345802
-0.03023252264 -0.1420812458 0.6580234766 0.6927956939 -0.4753262699 0.5386981964
-0.02590024099 -0.1368587911 0.6578886509 0.644508183 -0.5102207065 0.5646812916
-0.02554205805 -0.1414337158 0.6539661288 0.6570382714 -0.4901155829 0.5687041879
0.05990408733 -0.2033215463 0.7106273174 0.7696765065 -0.4073609114 0.4882502556
0.02219434455 -0.2111570686 0.7383453846 0.1577505767 -0.6015978456 0.7818408608
0.02017815411 -0.2059479207 0.7397824526 0.1193299964 -0.6117626429 0.7786285877
0.01869989559 -0.2192168981 0.7362155914 0.1018535346 -0.5870747566 0.8006121516
0.02083594538 -0.09350611269 0.6771268845 -0.07771205902 -0.6692432165 0.7326774001
0.08514986932 -0.1083320156 0.6860445142 0.2068419904 -0.7550827265 0.6073263884
0.08119215816 -0.1086116284 0.6917712092 0.1692406386 -0.7067433 0.6769611835
0.09161674231 -0.1330550015 0.6592473388 0.3941180408 -0.5599223375 0.7284047604
0.09107615799 -0.1210356355 0.6655545831 0.4326536655 -0.5892969966 0.6800186634
0.08328135312 -0.168065533 0.6676544547 0.7059161663 -0.2616630495 0.3685160577
0.08169811219 -0.1616978347 0.6640487909 0.5563452244 -0.4108799398 0.4510146976
0.08813557029 -0.1453101784 0.6599276066 0.378616184 -0.5462841392 0.6783240438
0.08517544717 -0.1497807354 0.6616044044 0.3769483864 -0.5303755403 0.6327984929
0.08082699776 -0.177342087 0.6707421541 0.8260201812 -0.1557640284 0.244263351
0.0792869702 -0.1714397222 0.6684736013 0.6603190303 -0.2885681093 0.3382879496
0.07653682679 -0.1654287726 0.6660142541 0.4583191276 -0.4489595592 0.4392156899
0.08564441651 -0.15617612 0.6639111042 0.5227358937 -0.4120038748 0.5361720324
0.07942802459 -0.1513145268 0.6595933437 0.2639325857 -0.6100536585 0.6400081515
0.07351829857 -0.159410581 0.6629943252 0.2405434698 -0.5958468914 0.5600563288
0.07784996927 -0.1861023307 0.6734157801 0.923425734 -0.06953758001 0.1288034767
-0.01974128187 -0.1285171956 0.6600605845 0.5529533625 -0.5649421215 0.5972796082
-0.02622042038 -0.1150864661 0.6794111133 0.6435735822 -0.5167050362 0.5618088245
0.04329869896 -0.09061066806 0.6887898445 -0.4299536943 -0.6184580922 0.650342226
0.03514393419 -0.08834508806 0.6852557659 -0.3010191917 -0.6741995215 0.6723846197
-0.00760728959 -0.09439524263 0.6822288632 0.3753031492 -0.6398505569 0.6697884798
-0.01079331432 -0.09012289345 0.687300086 0.4216996133 -0.6430339217 0.6370985508
-0.0256868694 -0.2006209344 0.7203705311 -0.674085021 -0.4000939429 0.6123401523
-0.0305576548 -0.1948869973 0.7213348746 -0.734736681 -0.3741609454 0.5646994114
-0.02741920017 -0.2153621167 0.7130632997 -0.6449620724 -0.4365106225 0.6201599836
-0.02407974191 -0.220195353 0.7155578136 -0.5652320385 -0.4957089722 0.6575568914
0.06006842852 -0.186910525 0.7242551446 0.7668300867 -0.375554502 0.5118491054
0.05752256885 -0.1924798489 0.7226297855 0.728713274 -0.4172350168 0.5389498472
-0.000478944421 -0.2254712135 0.7231220603 -0.2791945338 -0.5284262896 0.7817034125
0.005008309614 -0.2273471504 0.7257490754 -0.1684623808 -0.5377211571 0.7915703654
0.01029371843 -0.2294743955 0.7275716066 -0.05802424625 -0.5516449213 0.8021047115
0.01518873591 -0.2308657616 0.730538547 0.03742833436 -0.5555588007 0.8099993467
0.005336650182 -0.2214309573 0.7286728621 -0.1487229913 -0.5709996223 0.7902742624
1.497628728e-05 -0.2176403552 0.7274821997 -0.2506411374 -0.5700005293 0.7789812684
0.02280857973 -0.2232055515 0.7205036879 0.1926472187 -0.5834956169 0.7669489384
0.02495230734 -0.2178296298 0.7244408727 0.2456701696 -0.562077105 0.7856867909
0.02880146354 -0.2256465852 0.7217308879 0.302207619 -0.5773463249 0.7502481341
0.02443519235 -0.2293324918 0.7284739017 0.2242683321 -0.559325695 0.782808125
0.01711798832 -0.2191508412 0.7243592143 0.07144369185 -0.5648487806 0.7899130583
0.01206462365 -0.2239171863 0.72151196 -0.0167657733 -0.5784626603 0.7937117815
0.03195610642 -0.2178545147 0.7265550494 0.3866348267 -0.5208989978 0.749217689
0.02874365449 -0.2234868109 0.7269290686 0.320628494 -0.5374884009 0.760958612
-0.01866574399 -0.1812054217 0.7429199219 -0.5508289337 -0.5002785325 0.6637822986
-0.02125288546 -0.1952397525 0.7305003405 -0.6118987203 -0.47557199 0.6304787993
-0.0181217771 -0.2002836168 0.7289478779 -0.5681381822 -0.4946119487 0.6554256678
-0.02510918491 -0.1953752488 0.7259646058 -0.6525627375 -0.4497386515 0.6081244349
-0.02979122475 -0.1863216013 0.7287298441 -0.7022712231 -0.4213360846 0.5713686943
-0.02668516152 -0.1789382845 0.7365069985 -0.6309655309 -0.4601845145 0.6226248741
-0.03554524481 -0.1533053666 0.661706388 0.7126733065 -0.4564523399 0.5304011106
-0.03057320789 -0.1511959881 0.6531354189 0.6803798676 -0.4550080001 0.5730447769
0.08402705938 -0.1323428601 0.6583255529 0.3026489317 -0.5899758339 0.7335866094
0.07452071458 -0.1344925761 0.6586328149 0.07687134296 -0.6403487921 0.6803806424
0.06364309043 -0.1308508962 0.6618984342 -0.2597850263 -0.5935198665 0.6441551447
0.0714609921 -0.12843813 0.6619537473 -0.08238492161 -0.5410525203 0.6905168891
0.07386926562 -0.1504883915 0.6622041464 0.0968484655 -0.7363478541 0.6589878798
0.07538484037 -0.1408414841 0.6726441383 0.1185952425 -0.6942289472 0.6964553595
0.0811484158 -0.1413884461 0.6666285992 0.2010311037 -0.6504811645 0.7132446766
0.07203861326 -0.1472180784 0.6679170728 0.07068690658 -0.7405602932 0.6641089916
0.07906828076 -0.1464099288 0.6623915434 0.1712419391 -0.6825894117 0.6895667315
0.08677659929 -0.1389721036 0.6638702154 0.2834493816 -0.602225244 0.7338752151
0.08419976383 -0.1359131038 0.6683343649 0.2529072165 -0.6252200603 0.71688658
0.07832980156 -0.1357208937 0.6744719744 0.1672285497 -0.6675748825 0.7037393451
0.08983397484 -0.1308455169 0.6654046178 0.3611072898 -0.5997267365 0.6961812377
0.06417209655 -0.1075616628 0.6953433156 -0.4506388307 -0.5546618104 0.6921409965
0.06588028371 -0.1134461388 0.6934605837 -0.4416968822 -0.5014328957 0.7418705225
0.05987708643 -0.1042699218 0.6923987269 -0.511687994 -0.5499895811 0.6560682058
0.07015942782 -0.1053391472 0.6842285991 -0.2143648863 -0.6781811118 0.5933979154
0.06088956818 -0.1041067094 0.6848462224 -0.4107210934 -0.5976769924 0.6139906645
0.01521872636 -0.2115799189 0.7383198142 0.03909902647 -0.6024643183 0.793266058
0.02013056166 -0.1770797372 0.7607954144 0.1179201528 -0.6016520858 0.7890910506
0.01300390065 -0.1822564602 0.7551716566 -0.01098500565 -0.6144471765 0.7782308459
0.01751491986 -0.200517118 0.741174221 0.07168158144 -0.6183720231 0.7764101028
0.01050158963 -0.1398542076 0.6325244308 0.08638514578 -0.7359911203 0.6605376005
0.01861592755 -0.1382053196 0.6325770617 -0.05014171824 -0.7219804525 0.6878079772
0.0561590232 -0.14028202 0.6581921577 -0.5264888406 -0.5744644403 0.6231451035
0.05944880098 -0.1475993842 0.6572728753 -0.4224355519 -0.6635988951 0.6001036763
0.06028836966 -0.1422805637 0.6616230607 -0.4347268641 -0.6541310549 0.6040201783
0.008101312444 -0.1147588938 0.6586818695 0.1171904802 -0.6615635753 0.7369351983
0.02463270724 -0.11695344 0.6575231552 -0.1543853432 -0.6515440345 0.7426560521
0.02113828063 -0.1130409092 0.6611886621 -0.1114958599 -0.6519770622 0.7470046282
0.01587333903 -0.1167216003 0.6564982533 -0.006056267768 -0.6591610909 0.7498834133
0.005107673351 -0.1207680479 0.6537776589 0.1645429283 -0.6569187641 0.7353226542
0.01359720528 -0.1212794408 0.6527287364 0.01221175864 -0.662089467 0.7460222244
0.0214083679 -0.1202326789 0.6537409425 -0.1093691662 -0.6582098603 0.7390068173
0.04759759828 -0.1005966365 0.6817498207 -0.4964937568 -0.5738034844 0.6509112716
0.04203533009 -0.09833434224 0.6797894835 -0.4333846867 -0.6068003178 0.6661632061
0.03668705001 -0.09271682054 0.6818770766 -0.3540926278 -0.6292592287 0.690512836
0.07824868709 -0.1108917743 0.6976537704 0.09954530001 -0.6546392441 0.6960517168
0.06876055896 -0.1080110967 0.7000978589 -0.2956326008 -0.6033176184 0.7112218738
0.07361543179 -0.1125738844 0.7015300989 -0.06611983478 -0.6185126901 0.7564362884
0.06994427741 -0.1941540688 0.6995236278 0.8600255251 -0.3323507607 0.3862164617
0.02299933881 -0.1456317157 0.6248357892 -0.1453654319 -0.7068353295 0.6765610576
0.0330577977 -0.1477510184 0.6300768852 -0.2947986424 -0.6575222611 0.6637908816
0.03774499893 -0.1465979666 0.6353731155 -0.4011051357 -0.6322541237 0.6540428996
0.02826861292 -0.1439741552 0.6285569072 -0.2329438031 -0.6843960881 0.6684851646
-0.02497538365 -0.1056996882 0.6861026287 0.6320431232 -0.5317374468 0.5623263717
-0.02878786065 -0.104415074 0.691850841 0.686211884 -0.5169646144 0.5099982619
-0.02868502215 -0.1114336252 0.6859437227 0.6760521531 -0.5070991516 0.5333707333
-0.04158850014 -0.1799424142 0.7029466033 -0.9332293868 -0.06199908629 0.3078162074
-0.03718380257 -0.1858867407 0.7134183049 -0.8450021148 -0.2607586086 0.4644337893
-0.03958199918 -0.1809740663 0.7110344172 -0.865385294 -0.2068028897 0.4348173141
-0.03639725223 -0.1798143983 0.7185168862 -0.8313299417 -0.2634625435 0.4642319977
-0.03484745696 -0.1918551624 0.7160125375 -0.7863492966 -0.3249378204 0.5197609663
-0.03768724576 -0.1921839267 0.7104343772 -0.8153688312 -0.2946902812 0.4949127734
-0.04034155607 -0.1852918267 0.7056267262 -0.8408392668 -0.2703517079 0.4689158499
-0.03289314732 -0.1874906719 0.7218025923 -0.7753788829 -0.350322336 0.5230605006
-0.01865023002 -0.2153981924 0.716873765 -0.5467903614 -0.4981071353 0.6659942269
-0.02161849476 -0.2040930837 0.7222216129 -0.6146119237 -0.4342865348 0.6566567421
-0.02022770792 -0.2090134472 0.7192735672 -0.5968223214 -0.4519178867 0.6442993879
-0.01732672937 -0.2106053382 0.7251890302 -0.5172435045 -0.5145456195 0.6828235984
0.00380279473 -0.2132957429 0.7295348048 -0.2023700923 -0.5676321387 0.7965256572
0.05880356207 -0.180334717 0.7251657248 0.7157657146 -0.4058949351 0.5564052463
0.06420817971 -0.1854902506 0.7175106406 0.8218916059 -0.3230947256 0.4673980772
0.06813134253 -0.1815567911 0.7076627016 0.8516339064 -0.2995473742 0.4255792797
0.06458386034 -0.1803180277 0.7137529254 0.7938717008 -0.343886286 0.4789310694
0.0705806911 -0.1816670895 0.7016395926 0.8703486919 -0.2827980518 0.4022223949
0.01749089547 -0.09725793451 0.6738031507 -0.02418826148 -0.6658132076 0.7403026223
0.07051576674 -0.1160099655 0.6963602304 -0.2016562968 -0.5383535624 0.7798728347
0.06812985986 -0.1191982627 0.6912674904 -0.2144203186 -0.6239349246 0.7360620499
0.08011229336 -0.119123891 0.6885326505 0.2627899945 -0.6652181745 0.6874794364
0.07155635953 -0.1335620284 0.6842916012 0.04717274755 -0.6949751973 0.7134411931
0.0730079934 -0.1235325038 0.6931793094 0.02498317324 -0.6340847611 0.7654003501
0.07481453568 -0.1277939826 0.6869123578 0.1283890456 -0.6784195304 0.7108465433
0.07555671781 -0.1192385629 0.696588099 0.08686305583 -0.6091553569 0.7798418999
0.08066758513 -0.1149233654 0.693659544 0.2558366656 -0.6354426146 0.7177118063
-0.01733922772 -0.221895203 0.7174441814 -0.4813151658 -0.5191991925 0.7009480596
-0.005896587856 -0.2245653421 0.7192231417 -0.33900249 -0.5384331346 0.7606028914
0.003054950153 -0.2295392305 0.7188524008 -0.1688369215 -0.5782453418 0.7935839891
-0.01183748804 -0.2237301022 0.7169615626 -0.4141270816 -0.5411290526 0.7208808661
0.05287871137 -0.1961152703 0.7256769538 0.6287782788 -0.49346295 0.5995936394
0.05457590148 -0.186827451 0.7280406356 0.6776732802 -0.440882951 0.5811739564
-0.0153666269 -0.1965129524 0.73361063 -0.5387225151 -0.4918193817 0.6809193492
-0.009535217658 -0.1991025507 0.7356152534 -0.4506688118 -0.532487452 0.7139856219
-0.006051625125 -0.1133964732 0.6646777391 0.3305026889 -0.6354205608 0.6954495311
-0.01012931671 -0.1097754091 0.6716099381 0.4075722396 -0.6133910418 0.6755484343
-0.01201247983 -0.1059272811 0.6752517223 0.4296854436 -0.5940588713 0.6778665185
-0.0179136917 -0.1092269197 0.6768000722 0.5262511969 -0.5570985675 0.63729316
-0.02153311111 -0.1151601896 0.674307704 0.5789832473 -0.5430318117 0.6026805043
-0.006056443788 -0.09819438308 0.6783133745 0.3462941051 -0.6327375174 0.6917842627
-0.02370108478 -0.1885669082 0.7330826521 -0.6334644556 -0.465144515 0.6161051989
-0.02607414499 -0.183248952 0.7318506837 -0.6577064395 -0.4479863346 0.5973787308
-0.03269391134 -0.1810934544 0.7253672481 -0.7817019224 -0.3471071124 0.515525341
-0.01127913687 -0.1464734226 0.6355243921 0.4293219447 -0.5875062943 0.6623963118
-0.02618488297 -0.1494540721 0.6483469605 0.6503553987 -0.472053051 0.5919742584
-0.01624530926 -0.1474998146 0.6393619776 0.5050176382 -0.5499386191 0.6358152628
-0.02139993198 -0.148254618 0.644086659 0.5839691758 -0.5101833344 0.6101872921
-0.01895389706 -0.1430103779 0.6461182237 0.5452058911 -0.5546146035 0.6245794892
-0.01089980733 -0.1409230381 0.6399100423 0.4227111936 -0.608466804 0.6669933796
-0.01447063684 -0.132895276 0.6516624689 0.4544861317 -0.5892035365 0.6663541198
-0.01412044931 -0.1395877898 0.6462141871 0.4659167826 -0.5846457481 0.6617699265
0.06179853529 -0.1180577055 0.6829927564 -0.5482781529 -0.4730198681 0.6866446733
0.07011788338 -0.1618669629 0.6921081543 0.3936858773 -0.4331611991 0.5042372942
0.06909227371 -0.1428199559 0.6837142706 -0.1035261378 -0.603059411 0.6208511591
0.07115387172 -0.1708245426 0.6950368881 0.6283435225 -0.3491223454 0.4466697574
0.07259164751 -0.1765259802 0.6960753798 0.8262137771 -0.302749306 0.4142090082
0.07113627344 -0.1507642716 0.6869322062 0.3162862062 -0.5774857402 0.5997935534
0.08095199615 -0.137450844 0.6566936374 0.2390601784 -0.6489030123 0.7158426642
0.09056553245 -0.139015168 0.6587377191 0.3461747766 -0.5709405541 0.7437099218
0.08392307907 -0.1182140857 0.6828998327 0.3350528777 -0.6561523676 0.6639471054
0.07564975321 -0.1326615512 0.679635644 0.1483221352 -0.6947529316 0.6836455464
0.08516704291 -0.1256083697 0.6744127274 0.3288148642 -0.6469814181 0.6617825627
0.08401624858 -0.1137332916 0.6869890094 0.3526444137 -0.6572374701 0.6633654237
0.0819106251 -0.124238126 0.6797505021 0.2806291878 -0.6646584272 0.6689478159
0.08819757402 -0.1265051514 0.6698003411 0.3750154674 -0.6306637526 0.6550827622
0.08989626169 -0.1194742694 0.6742708683 0.4277211428 -0.624281764 0.6506059766
0.08950026333 -0.1134032235 0.6788484454 0.4186046422 -0.6414594054 0.640261054
0.09324046969 -0.1156213656 0.6698489785 0.460229069 -0.6201649904 0.6344987154
0.09250348806 -0.1111310497 0.6743860245 0.4063712955 -0.6589581966 0.6291654706
0.06425686926 -0.1235202327 0.6821556091 -0.4993501604 -0.5019692779 0.6971282363
0.0681951493 -0.1255891621 0.6869412065 -0.2362422794 -0.6600563526 0.7025564313
0.05058042705 -0.09383939952 0.6917018294 -0.5088298917 -0.5787322521 0.6363587976
0.05511033908 -0.09854748845 0.6918328404 -0.53137362 -0.5524689555 0.6414260864
0.05893591419 -0.09887190163 0.6869372725 -0.4050753415 -0.6063518524 0.6167041063
0.06568910182 -0.09932945669 0.6889619231 -0.2992504835 -0.6444726586 0.6082797647
0.07609844953 -0.1024091616 0.6867924333 -0.08026461303 -0.7341324091 0.5833513141
0.05872367695 -0.09658574313 0.6961322427 -0.4951109886 -0.5618785024 0.6599290967
0.06502205878 -0.09906001389 0.695086062 -0.3611322343 -0.6187618971 0.6539999843
0.06231851876 -0.1105576456 0.6894367337 -0.5149819851 -0.5208416581 0.6774043441
0.05670848116 -0.1084445417 0.6848235726 -0.5789506435 -0.5175440311 0.6289857626
0.05347486958 -0.1025820971 0.6854533553 -0.5607007742 -0.5370883346 0.6300317049
-0.006999753416 -0.186716944 0.7468652725 -0.3948548436 -0.582518518 0.7095143795
-0.01405141596 -0.1841884404 0.7442894578 -0.5119743347 -0.5234786868 0.6804844737
0.01365511026 -0.178365469 0.759462595 0.012908848 -0.6065184474 0.792619586
0.005377446301 -0.1830643862 0.7560623884 -0.1451570839 -0.6162996888 0.7731856704
0.001027881284 -0.1798956394 0.7587689757 -0.1941971034 -0.6027083397 0.7693295479
0.02278966643 -0.1887383163 0.7502062321 0.1582762003 -0.6093979478 0.7737051249
0.0243420545 -0.1788942069 0.7573842406 0.1825885773 -0.6071370244 0.7716857791
0.04531463236 -0.1893023103 0.7341564298 0.5123464465 -0.5150367618 0.6613630056
0.04767953604 -0.1979759932 0.7285155654 0.5679594874 -0.5120866299 0.6401554346
0.02014838532 -0.2285403758 0.7333725691 0.1329032779 -0.567882061 0.8116859794
0.02462778986 -0.222641632 0.7317102551 0.2285863012 -0.5573894382 0.7887558937
0.02628145739 -0.2159988284 0.7324525714 0.2552781701 -0.5642226934 0.7772583365
0.03329244256 -0.2081041932 0.729495585 0.343533814 -0.573009789 0.7353988886
0.02969865501 -0.2126093209 0.7269747853 0.3055357337 -0.565672338 0.7589731216
0.01822289079 -0.2082553208 0.7340235114 0.1184747964 -0.5730896592 0.803657949
0.02876777202 -0.2055171281 0.7350517511 0.2681682408 -0.5923655629 0.7552258968
0.0249448251 -0.1340667009 0.6412982345 -0.1953924745 -0.7057001591 0.6805027127
0.009571779519 -0.1351667643 0.6413401365 0.07772436738 -0.6995944977 0.7056415677
0.0139917843 -0.1407109052 0.6365147829 -0.002747084945 -0.729573667 0.6831637025
0.005837030709 -0.1414978206 0.6380341053 0.135913685 -0.6838152409 0.6911335588
0.06898031384 -0.1347199231 0.6592462063 -0.06696403027 -0.6515812874 0.6540708542
0.05598276854 -0.1318089813 0.6584298015 -0.3844510615 -0.579133749 0.6452935934
0.04836842418 -0.1335708946 0.6531404257 -0.4740502238 -0.5638397932 0.657710731
0.05503000319 -0.1352192909 0.6533417106 -0.306979686 -0.602196157 0.6630017757
0.02580823749 -0.1431094557 0.6349406242 -0.2087547481 -0.6945614219 0.6689888835
0.02114474028 -0.1404930502 0.6378769279 -0.1282279044 -0.7062221766 0.6752014756
0.03964397684 -0.139308989 0.6425964236 -0.4207089543 -0.6118659377 0.6636744142
0.04212347046 -0.1449251771 0.6391981244 -0.4594936669 -0.5933766961 0.6584097743
0.06948856264 -0.1885593534 0.6980380416 0.8708062768 -0.2998646796 0.3881430626
0.07238252461 -0.1904070973 0.6926057339 0.8673846126 -0.3187298775 0.3815237284
0.06566304713 -0.2015867531 0.6981750131 0.8358618617 -0.3639850914 0.4045818448
0.06075989082 -0.2055160254 0.7055655718 0.791765213 -0.4006816149 0.4566939771
0.07184384763 -0.1982230395 0.6871657968 0.8575898409 -0.3537237644 0.3731584549
0.06963079423 -0.2000664622 0.6932262182 0.8605115414 -0.3445109129 0.3749903738
0.06827068329 -0.1653253436 0.6758073568 0.2701584697 -0.5329673886 0.5172294974
0.07193166763 -0.1776400954 0.6888526082 0.7388944626 -0.2969614863 0.3900046349
0.06832396239 -0.1691236496 0.6710399389 0.2787293196 -0.4581415653 0.4415947199
0.06578475982 -0.1622125506 0.6672088504 0.03009539098 -0.6001543999 0.5132077932
0.07036476582 -0.174689889 0.6740082502 0.4776024818 -0.3436397314 0.3835886419
0.07267931849 -0.1810810268 0.6766318679 0.696732223 -0.2113406062 0.314789176
0.0688733533 -0.1698187441 0.679466188 0.3981862962 -0.4523469508 0.4569074214
0.07575900853 -0.1834397763 0.6831872463 0.9094154239 -0.1505637616 0.2342704386
0.07209409773 -0.1617561877 0.67102772 0.3196446002 -0.5996571779 0.5493580103
0.07389134169 -0.1754095405 0.6822962761 0.7100970745 -0.3244865537 0.372680217
0.07340672612 -0.1692800969 0.6749570966 0.5227549672 -0.4432175159 0.4382840991
0.07139347494 -0.1491814703 0.6743559241 0.156894654 -0.6847655773 0.6358776689
0.07176093757 -0.1570816189 0.6819682121 0.3663002849 -0.5631819963 0.5686404705
0.07225532085 -0.1684825867 0.6897519231 0.6305640936 -0.4142814577 0.4791442156
0.07221040875 -0.1690454632 0.6839529276 0.5703511834 -0.4582220316 0.4892786741
0.07163245231 -0.1554912925 0.6755735278 0.2665368021 -0.6279916763 0.593619585
0.0689836517 -0.1628123969 0.6623477936 0.1130529046 -0.5696276426 0.4699088633
0.06381043792 -0.1564491242 0.6578067541 -0.2367203236 -0.7098424435 0.548841536
0.0718697831 -0.1736546457 0.6668460965 0.4332138598 -0.3396878839 0.3043528199
0.0744478181 -0.1810455173 0.6705984473 0.6867740154 -0.18511796 0.2112645656
0.06844119728 -0.1686525941 0.6643920541 0.2029784322 -0.455685854 0.4058079123
0.07037251443 -0.1629422754 0.6845730543 0.3557821512 -0.4707694352 0.5225673914
0.06784632802 -0.1441755891 0.6722145081 -0.2325745821 -0.6786596179 0.6594493389
0.06815421581 -0.1414248347 0.6775044799 -0.2590942383 -0.6454780698 0.6446525455
0.06794756651 -0.1533089429 0.6664150357 -0.04558422416 -0.6833786368 0.6508262157
0.06916678697 -0.1524052471 0.6798608899 0.04416147247 -0.5675339699 0.5884914994
0.06605114043 -0.1489182711 0.6623269916 -0.1809243411 -0.7054086924 0.6667353511
0.06493537873 -0.1423349828 0.6660165191 -0.2980443239 -0.6698843837 0.6585506797
0.06793007255 -0.1354422867 0.680326581 -0.3887816966 -0.6489607096 0.6539496779
0.06022619829 -0.1535442173 0.6537596583 -0.3668221831 -0.6951826215 0.6065092683
0.08149009943 -0.1446231753 0.656902194 0.2192364335 -0.6714773178 0.6916590929
0.07300931215 -0.1477569193 0.6546174288 -0.01967722178 -0.6258760691 0.7043735385
-0.02541746199 -0.1231577173 0.6715757847 0.6223938465 -0.5287855268 0.5766872764
-0.02264231816 -0.1250615865 0.6660280228 0.5944455862 -0.5558193922 0.579131484
-0.01501052175 -0.1140032113 0.6716592908 0.4797380567 -0.5860856771 0.6411744952
-0.01701770723 -0.1192012504 0.6680896878 0.5049718022 -0.5821867585 0.6279855967
-0.02715233341 -0.12907888 0.668590188 0.6781215668 -0.4999279082 0.5319165587
-0.02957108058 -0.1248017177 0.6759981513 0.665024519 -0.5024874806 0.5499805212
-0.03039305657 -0.1177025884 0.6830648184 0.6849298477 -0.498180598 0.529976964
-0.03271592036 -0.1232980117 0.6815676689 0.7004653215 -0.4866244197 0.519533813
0.0007823798223 -0.1167833507 0.6585301757 0.2178866565 -0.6520121098 0.724064827
-0.0122244833 -0.1183010042 0.6632681489 0.4285274744 -0.6036347151 0.6668248773
-0.01165514998 -0.1236940101 0.6577769518 0.4090979695 -0.6157045364 0.6679555178
-0.01611770131 -0.1225728318 0.662273109 0.4959708452 -0.5968573689 0.6304821372
-0.005918718409 -0.118747592 0.6596657038 0.313459307 -0.6362822652 0.6989025474
0.06676784903 -0.1460134387 0.6528878212 -0.1319882572 -0.6311163902 0.6949647069
0.06039900333 -0.1489259601 0.6494944692 -0.30210042 -0.5998473167 0.6839068532
0.05340540782 -0.1508705467 0.6462808251 -0.4742986262 -0.5658149719 0.6741517186
0.04604703933 -0.1503921747 0.6371581554 -0.4755199254 -0.5879496336 0.6542011499
0.04834242538 -0.1460252255 0.6441649795 -0.5082941055 -0.5614661574 0.6526596546
-0.02930885181 -0.2073942125 0.7113662362 -0.7387146354 -0.3667438328 0.5614194274
-0.03453805298 -0.2012568563 0.7058368921 -0.7861630917 -0.3230665028 0.5256053805
-0.03384074941 -0.1974501014 0.7106535435 -0.8076537848 -0.3028468788 0.5043234229
-0.03739279509 -0.1971053928 0.7020072341 -0.8063634038 -0.3117513657 0.5014032722
-0.02908263355 -0.2036922574 0.716101408 -0.7263026834 -0.3817542195 0.5712621212
0.01630309969 -0.2142746001 0.7295773625 0.06971136481 -0.5592507124 0.8152409792
0.02196913026 -0.2138480246 0.7285974622 0.1910852194 -0.5648866296 0.7967731953
-0.004192866385 -0.2127715647 0.7275425792 -0.3126245141 -0.5529700518 0.7669558525
-0.01145508606 -0.2082891464 0.7275868654 -0.4428858459 -0.5184322596 0.7262538075
-0.008904463612 -0.2056372166 0.7325685024 -0.4090518355 -0.548116982 0.723819375
-0.009488320909 -0.216110453 0.7240598798 -0.3895267844 -0.5427273512 0.743298173
0.01178515423 -0.2164048404 0.7360650897 -0.0211305134 -0.5925443769 0.7936176062
0.01055045985 -0.2071345448 0.7354893684 -0.04459812865 -0.5843455195 0.801035583
0.01031126734 -0.211883679 0.7316871881 -0.0601750575 -0.5663149357 0.8131058812
0.01230116747 -0.2227859199 0.7332040071 -0.01621746458 -0.5739824176 0.7988188863
0.004113750532 -0.2090195417 0.7346792221 -0.1833250821 -0.5956354737 0.7758606672
0.00111243187 -0.2048022002 0.7372089624 -0.235971272 -0.597134769 0.7643894553
-0.003683675081 -0.20831424 0.7337220907 -0.3075060844 -0.5759931803 0.7571285963
-0.004219172522 -0.2012530267 0.7368549109 -0.3490554392 -0.56630373 0.7391054034
0.06266853213 -0.1916695237 0.7167743444 0.8096410036 -0.3393179178 0.4776182771
0.06502795219 -0.1967385709 0.7058602571 0.8326023817 -0.3441328108 0.4298826456
0.05886539072 -0.1980820745 0.7173426151 0.7468801737 -0.4001448154 0.5304371715
0.06328348815 -0.1970817298 0.7117841244 0.8172144294 -0.3447066545 0.4615728557
0.0679050982 -0.1868374199 0.7043433189 0.8661907315 -0.2847300172 0.4088163972
0.06583064795 -0.1911703944 0.7109503746 0.834094882 -0.3225997686 0.4453825951
0.0557593219 -0.1132235974 0.6797308326 -0.5972949266 -0.5024467111 0.6243609786
0.05122062564 -0.1100902036 0.6773559451 -0.564042747 -0.5289553404 0.6329308152
0.08462275565 -0.1106367111 0.6757204533 0.1784411669 -0.7031780481 0.5985844731
0.06035801768 -0.1149117872 0.6739247441 -0.4095098972 -0.5474976301 0.6226659417
0.06819043308 -0.1137852222 0.6743087769 -0.212966457 -0.5932344198 0.6169582009
0.07511734962 -0.1112405881 0.6758437157 -0.08044405282 -0.6612743139 0.599289
0.085510768 -0.1063630432 0.6800578237 0.1305909753 -0.7813987732 0.5692865252
0.05903239921 -0.1076913401 0.6786420941 -0.4015706182 -0.5959821343 0.6116855145
0.07536760718 -0.1068121269 0.6798104048 -0.07344917208 -0.7134244442 0.5847057104
0.06822410971 -0.1073818356 0.6783853769 -0.2163709551 -0.65260005 0.5990545154
0.0368803665 -0.1039280519 0.6728320122 -0.3302657604 -0.6026113033 0.7235892415
-0.005865090992 -0.1047365069 0.6728439927 0.3395554721 -0.6290199757 0.6989152431
0.003269048641 -0.1014854386 0.6723681688 0.2021958083 -0.6388887167 0.7396712303
-0.002146986313 -0.1058404595 0.6686738729 0.293836087 -0.6457918882 0.7043311
0.01884382032 -0.10671179 0.6656492352 -0.05057457834 -0.6584518552 0.7452533245
0.02255524695 -0.10185159 0.6705151796 -0.1214497387 -0.6492068172 0.7461087108
0.02729257941 -0.1052822098 0.6676331162 -0.1961445212 -0.633915484 0.7457666397
0.03383740038 -0.09772659093 0.6759359241 -0.3024093211 -0.6312955022 0.7133235931
0.0293232128 -0.09959940612 0.6733763814 -0.2350724041 -0.6391907334 0.7286202312
-0.01718270406 -0.186711967 0.7392048836 -0.5657425523 -0.4857205451 0.6654755473
-0.02112131193 -0.1828266829 0.7377960682 -0.5906270742 -0.4798946977 0.6480925679
-0.007459960878 -0.1914690286 0.7424225807 -0.4012040794 -0.5440707803 0.728974402
-0.01785282046 -0.1914788634 0.7349536419 -0.5780533552 -0.4717965126 0.6623866558
-0.01267123222 -0.1932763904 0.7376340032 -0.5006855726 -0.5113427043 0.6930123568
0.05976095051 -0.1337927133 0.6688358188 -0.5386028886 -0.5824571252 0.6026355624
0.06478731334 -0.1354257762 0.6737180948 -0.4209679663 -0.6338916421 0.6460573673
-0.005901997909 -0.1781562716 0.7597866058 -0.2943302393 -0.5839195251 0.7564390302
0.000662131526 -0.1864281595 0.7521221638 -0.2374468744 -0.6058264971 0.7581837177
-0.004601533059 -0.1817714274 0.7526045442 -0.3421422541 -0.5848031044 0.7351393104
-0.01003454253 -0.1804343164 0.7491172552 -0.4328128695 -0.5585957766 0.7019145489
0.01206167694 -0.1961662322 0.7455090284 -0.01284014992 -0.6242856383 0.7784045935
-0.001218966558 -0.1930705011 0.7452464104 -0.2885085642 -0.5861009955 0.7552198172
0.004765727557 -0.198893398 0.7428764105 -0.1454845369 -0.6153004766 0.7727507949
0.01061305031 -0.2010684162 0.7415846586 -0.03870175779 -0.6228928566 0.7784876823
-0.0007621344412 -0.1980229169 0.7406321168 -0.2804310024 -0.5742800236 0.7641613483
0.02443335019 -0.1941669136 0.743809998 0.1872821748 -0.6153824329 0.7570694089
0.01793289371 -0.191920802 0.7481361628 0.07805106044 -0.6184450984 0.7763882279
0.004578877706 -0.1924595684 0.7454769611 -0.1777200103 -0.5923820138 0.766268611
0.01839981228 -0.1854519546 0.752635777 0.08431069553 -0.6234094501 0.7727523446
0.01283575781 -0.1885277927 0.7512260675 -0.008920595981 -0.6303953528 0.7748664618
0.02535560727 -0.2002133429 0.7407439947 0.2056845278 -0.616209805 0.7581549883
0.03177980334 -0.1954004169 0.741558969 0.306009084 -0.6046559811 0.7333140969
0.04469391331 -0.2036585063 0.7264823914 0.5239649415 -0.5263023973 0.6644297242
0.03970878944 -0.2067164034 0.7296618223 0.4549571574 -0.5568766594 0.6919130683
0.04603929073 -0.1961227953 0.7334791422 0.535449028 -0.5419923067 0.6458188295
0.03585238382 -0.2024579048 0.7342683077 0.3766506016 -0.5863618255 0.7154191136
0.0195192676 -0.1295301914 0.6459771991 -0.06422296911 -0.6856434345 0.7194952369
0.01597613283 -0.1329317838 0.6425867677 -0.0108395163 -0.7127242088 0.6995529532
-0.01000893023 -0.1342418492 0.6478675008 0.3938045502 -0.6160014868 0.6783075929
-0.006961841602 -0.1373717934 0.6442933679 0.3486990929 -0.6245678663 0.6975028515
-0.003278318327 -0.1325276792 0.645819962 0.2870907784 -0.6537473798 0.6995413303
0.001166337403 -0.1357851177 0.6410529017 0.203889817 -0.6906692386 0.6913660765
0.01121553499 -0.1300484091 0.6453995109 0.06797264516 -0.690859139 0.7159938812
0.008888698183 -0.1254065186 0.6497739553 0.1107324213 -0.6691994667 0.7311389446
0.05048168823 -0.1347665191 0.6587467194 -0.537535429 -0.5534844995 0.6359181404
0.04773223773 -0.1394192576 0.6495491266 -0.5338850021 -0.558010757 0.6338015795
0.05223722383 -0.1443386972 0.6497493982 -0.5252221227 -0.5526847243 0.6463749409
0.07401196659 -0.1397752166 0.6552147865 0.1169179231 -0.6968223453 0.6707351804
0.06764380634 -0.1383489668 0.6545988917 -0.03289267793 -0.6638706923 0.6636229753
0.06068343297 -0.139327839 0.6528058648 -0.2360364795 -0.618060112 0.6487443447
0.06914361566 -0.1522478014 0.6575999856 -0.1016872749 -0.6997338533 0.6741372347
-0.002449874766 -0.1257167906 0.6519584656 0.2709088326 -0.6421739459 0.7153787613
0.002637386555 -0.1275849342 0.6486023664 0.2012395263 -0.658921659 0.7221494317
0.05115760118 -0.1281417161 0.6615049243 -0.5562815666 -0.5370301008 0.6320163608
0.0808576718 -0.1262187511 0.6619228721 0.1984453797 -0.553286612 0.722391963
0.07325388491 -0.1213437989 0.6656939387 0.008405674249 -0.5651410222 0.6767903566
0.08665491641 -0.1256297976 0.6622797847 0.3445617259 -0.5674969554 0.7233884335
0.06113558263 -0.1214357316 0.6658030748 -0.2967047691 -0.5415873528 0.6657723188
0.05600786582 -0.1259646118 0.665211916 -0.5153867602 -0.5272477269 0.6286279559
0.0661072433 -0.1243526787 0.6638285518 -0.1816809624 -0.5373918414 0.686329782
0.03104996867 -0.1141582802 0.6605985165 -0.2665545642 -0.6286531687 0.7280200124
0.03236789256 -0.109002836 0.6654363275 -0.2730734944 -0.6191122532 0.7346711159
0.003472155891 -0.106429249 0.6668786407 0.1954490691 -0.6531770229 0.7292765379
-7.928362174e-05 -0.1108680516 0.6651896238 0.2470564395 -0.6501190662 0.7100423574
0.005574852694 -0.1107726172 0.6626360416 0.1527920514 -0.6630046368 0.7302230597
0.009300672449 -0.1069114432 0.6654168963 0.1048329473 -0.6622720361 0.7384848595
0.01352929231 -0.1105689779 0.6628451943 0.01196655631 -0.6531602144 0.7523475885
0.01416366082 -0.1036834642 0.668074131 0.03484119847 -0.6641782522 0.7459198236
0.009206772782 -0.1023626626 0.6702871323 0.1101600453 -0.6490880847 0.7490791082
0.06337278336 -0.1282546371 0.6782559156 -0.5099601746 -0.5535777807 0.6406322718
0.05878865346 -0.1227017567 0.6751276851 -0.627624929 -0.4788398445 0.6103113294
0.04490442201 -0.1197727993 0.6660235524 -0.4956445694 -0.5530560613 0.6615152955
0.04782069474 -0.1154211536 0.6705682278 -0.5341638923 -0.5314190388 0.6531768441
0.04957510903 -0.1225256696 0.6678184867 -0.5517542958 -0.5299425721 0.630633533
0.05621289462 -0.1332587302 0.6646600366 -0.5678660274 -0.564009428 0.5989541411
0.05320907012 -0.1154659763 0.6736914515 -0.5851284266 -0.5137445331 0.6272020936
0.07607206702 -0.1163372919 0.6716371775 0.06701023132 -0.5787238479 0.6418832541
0.08432483673 -0.1185395047 0.6682677865 0.2767346799 -0.5945439339 0.6668947339
0.05699868873 -0.1182171404 0.6693515778 -0.430944562 -0.5371281505 0.6403598785
0.06497702003 -0.1171380356 0.6710379124 -0.2585279644 -0.5451860428 0.6431843638
0.05155673623 -0.1861216277 0.7353553772 0.5896394253 -0.5064861178 0.6271656156
0.05200942978 -0.1914688349 0.7309938669 0.6048781276 -0.5058037639 0.6148469448
0.05510419235 -0.1808900237 0.7309064269 0.6609306335 -0.4475741088 0.5975267291
0.02877108753 -0.1802891791 0.7531465888 0.200310111 -0.608533144 0.7588295341
0.02905367129 -0.1855185926 0.7499914765 0.2374176532 -0.605094552 0.7594166398
0.0385200642 -0.1958244294 0.7382930517 0.4207798243 -0.5739406347 0.699090898
0.0375450775 -0.1901386231 0.7432888746 0.3970719576 -0.5818688273 0.7040809393
0.0432994552 -0.1903555244 0.7403131723 0.5019338727 -0.5553327799 0.6625407338
0.03122698702 -0.1341545582 0.6418939233 -0.2849251926 -0.6634505391 0.6907956004
0.04110374674 -0.128912732 0.653372407 -0.4401259422 -0.5915279984 0.6749762297
0.04229333624 -0.1345841736 0.6506865025 -0.4520732164 -0.594612956 0.6583322287
0.0296977479 -0.1308001578 0.6469770074 -0.2407325059 -0.6547387242 0.7101168036
0.03735828772 -0.1339104921 0.645834446 -0.3909271359 -0.6238050461 0.6731244326
0.04495085776 -0.1796583533 0.7478516102 0.4443343878 -0.5542938113 0.7004787326
0.04885258153 -0.1807691306 0.74293679 0.5267848969 -0.5325625539 0.660844028
0.05153129995 -0.180240646 0.7366565466 0.6061740518 -0.4812300503 0.6241992116
0.0394176133 -0.179865554 0.7515726686 0.3610163629 -0.5751132369 0.7316454053
0.0460646376 -0.1304684728 0.6585707664 -0.5092454553 -0.5646848083 0.6452211142
0.03542849422 -0.1244267076 0.6538226008 -0.3387795091 -0.623247683 0.7045563459
0.03553530946 -0.1287388951 0.6495578289 -0.3522357643 -0.6291396022 0.690033257
0.02539411932 -0.1236117929 0.6512460709 -0.1813071966 -0.6576733589 0.7301891446
0.02897048928 -0.1199632436 0.6551275849 -0.2398537397 -0.642167449 0.7253278494
0.03730527312 -0.112736173 0.6652823687 -0.3548477292 -0.5950626135 0.7152543664
0.0429627113 -0.1145852506 0.6663964391 -0.4495945871 -0.5747728944 0.6809434891
0.0400974825 -0.1091482639 0.6694934964 -0.3983187079 -0.5856174827 0.6993874311
0.0445234105 -0.1074344888 0.6737205386 -0.4729766548 -0.5646801591 0.6762849689
0.03397006914 -0.1189738289 0.6576275826 -0.3181189299 -0.6230756044 0.713019371
0.03942809626 -0.117863223 0.6616262197 -0.3996721804 -0.5950810313 0.6918218732
0.0435828194 -0.1248077303 0.6588212252 -0.462474823 -0.5740289092 0.6756958961
0.04339806363 -0.1845739484 0.744674921 0.4953673184 -0.5455063581 0.6731468439
0.03735562414 -0.1846932471 0.7485134602 0.3411939144 -0.5823414326 0.7375259995
0.03317068145 -0.1884341985 0.7471717596 0.2988711894 -0.590255022 0.7478365898
