# .PCD v0.7 - Point Cloud Data file format
VERSION 0.7
FIELDS x y z normal_x normal_y normal_z
SIZE 4 4 4 4 4 4
TYPE F F F F F F
COUNT 1 1 1 1 1 1
WIDTH 512
HEIGHT 1
VIEWPOINT 0 0 0 1 0 0 0
POINTS 512
DATA ascii
0.01646383479 -0.2055209875 0.7119855881 -0.4704118669 -0.2963294983 0.8287801743
0.04547976702 -0.1594063044 0.7522596121 -0.07018569857 -0.5969092846 0.798892796
0.05290450528 -0.1587888896 0.7528890371 -0.008631585166 -0.5851642489 0.8099965453
0.1249094382 -0.09807857871 0.6470450163 0.741952002 -0.493330121 0.4507867992
0.001880589174 -0.09431581199 0.6915723681 0.7333929539 -0.4466349483 0.512314558
0.005168610252 -0.09447219968 0.6860571504 0.7280307412 -0.450492233 0.5162863135
0.08586542308 -0.2026952356 0.7073692083 0.5397601128 -0.533778429 0.6452363133
0.07048269361 -0.2071947753 0.7111502886 0.3139939606 -0.6144260764 0.7144767642
0.1198469698 -0.09604290873 0.6478477716 0.656270206 -0.5194992423 0.5379316211
0.1296648681 -0.0990376547 0.6520460844 0.691429615 -0.4271083474 0.3941443563
0.1211000308 -0.1086919308 0.6692954898 -0.1401741356 -0.2305106968 0.6055241823
0.1265111119 -0.1044987589 0.6560231447 0.4292930961 -0.3871883452 0.4668679535
0.1222396865 -0.1010149196 0.6656734347 0.1688097566 -0.3476203382 0.5610386133
0.1211446822 -0.09202111512 0.6651676893 0.4017393291 -0.4806614518 0.5597674847
0.1252851933 -0.09863819182 0.6601001024 0.4190386832 -0.3951641619 0.4898082316
0.1242490038 -0.09142831713 0.6599529982 0.5968060493 -0.5012282133 0.4921561182
0.1174194515 -0.09870635718 0.6735919714 0.1287047416 -0.2459658086 0.6474773288
0.1179972067 -0.09326458722 0.6714828014 0.3934015334 -0.2904478312 0.6170179844
0.1169284359 -0.1053586379 0.6757132411 -0.2084888369 -0.2119414359 0.6817356944
0.1065645069 -0.09580709785 0.6803601384 -0.4183384776 -0.3233007789 0.8462355137
0.04761696234 -0.0953745842 0.652002573 0.1357060075 -0.6191645861 0.7677795291
0.1125225723 -0.1241944209 0.6788817048 -0.5841786265 -0.3355115652 0.6062313914
0.106666483 -0.1258542091 0.6716282368 -0.6332836151 -0.5301063657 0.4951726198
0.1115024239 -0.1359878182 0.6845123768 -0.1974431276 -0.3678590953 0.5384011865
0.1113385633 -0.1527350545 0.6930778027 0.3734027445 -0.3732488453 0.460776329
0.1115102321 -0.1471851319 0.6909450293 0.1870630682 -0.3666008115 0.4903879464
0.1109263003 -0.1595089585 0.6974161863 0.5998098254 -0.3845273256 0.4277681708
0.1118707582 -0.143194899 0.6873822212 0.05429227278 -0.3581203818 0.5080125928
0.1117485017 -0.1578834504 0.690184772 0.5491476059 -0.3705325127 0.4245086908
0.1106097177 -0.1661460847 0.7005253434 0.8215723634 -0.3949126899 0.3927628398
0.1090201065 -0.1465258896 0.6827149391 0.1136125624 -0.4571983218 0.4344888628
0.1078914106 -0.1394352317 0.6812694073 -0.1447271258 -0.4879190028 0.4589612782
0.1110316366 -0.1682685018 0.6942634583 0.840569973 -0.3862974942 0.3795515597
0.007463849615 -0.09796551615 0.6804409027 0.712674439 -0.4635723233 0.5260766745
-0.0045024422 -0.1786132604 0.690843761 -0.8601306081 -0.1609250754 0.4707550704
0.009943021461 -0.1957449317 0.7056794763 -0.6416003108 -0.2401100546 0.7258285284
-0.0007772162207 -0.18984586 0.6981804371 -0.7851160169 -0.2131235003 0.5810834765
0.02135122754 -0.1970510483 0.7135464549 -0.4699490964 -0.3324088156 0.8114034534
0.01647655107 -0.19694224 0.7098430395 -0.5465096235 -0.294350177 0.7754484415
0.02255978994 -0.2023775429 0.7128469348 -0.424195379 -0.3424080014 0.8306291699
0.01335389167 -0.192044422 0.708871305 -0.6251783371 -0.265714854 0.7308806181
0.0581048876 -0.2097692639 0.7128147483 0.1331871152 -0.6172947884 0.7735043764
-0.001778175239 -0.09538073093 0.6971405149 0.7394466996 -0.4422484934 0.5075002909
0.001675010892 -0.08478006721 0.702572763 0.7129051685 -0.4574234784 0.5314280391
0.001486539608 -0.08886888623 0.697132349 0.7186824083 -0.4541154802 0.5264252424
0.03805714473 -0.08260817826 0.6673157811 0.3190832734 -0.6221879721 0.7084615231
0.1301158071 -0.09299896657 0.648691237 0.7863641381 -0.4555945992 0.4098115265
0.1242722049 -0.09107866138 0.6503511071 0.6757521629 -0.5355736613 0.4874613881
0.1238844618 -0.08771059662 0.6549164057 0.6167982221 -0.6157839894 0.4895403981
0.1198608056 -0.08586012572 0.6654220819 0.6315909624 -0.4912386537 0.572403729
0.008252988569 -0.07886630297 0.6965767741 0.6682524681 -0.5015608668 0.5489155054
0.005359483883 -0.0837879777 0.6958463192 0.6994054914 -0.4704618454 0.5371620655
0.008025515825 -0.08674068004 0.6878021359 0.7002381682 -0.4739380479 0.5336732864
0.1114917099 -0.09878064692 0.6810334921 -0.3948474228 -0.2627248168 0.8659927845
0.112238571 -0.1042635962 0.6806021929 -0.4894274771 -0.2143196017 0.8236830831
0.1120695844 -0.1123646125 0.6785543561 -0.6380980611 -0.2123066336 0.7299467325
0.1167896092 -0.1152054295 0.6400176883 0.5469866991 -0.5423112512 0.619304359
0.1116324812 -0.1793320328 0.6861765385 0.8389243484 -0.3714570105 0.3968662918
0.08029348403 -0.1343301088 0.6244989038 -0.3765381277 -0.5424516797 0.7484917641
0.09188950062 -0.1365797371 0.6372421384 -0.3209498525 -0.4989415407 0.8046162128
0.09728737175 -0.1391192079 0.6413121819 -0.1765315384 -0.7509995103 0.6106402278
0.06873258948 -0.1581663787 0.7497940063 0.1963168234 -0.5970288515 0.774713099
0.0602591224 -0.1585911959 0.7521281242 0.07826556265 -0.5873681903 0.7975916266
0.02873554267 -0.2101331651 0.7162740827 -0.2900638282 -0.4275636673 0.8455631137
0.04015124589 -0.07554654032 0.6712445617 0.2770420313 -0.6375450492 0.7155523896
0.0351947248 -0.07790438831 0.6722503901 0.3680066764 -0.618889451 0.6912978888
0.06766267866 -0.2033391446 0.7153360248 0.2614470422 -0.6116968393 0.7443056703
0.03004269302 -0.2026519775 0.7155798078 -0.3137517571 -0.4373983145 0.8360170126
0.08557602763 -0.09887634218 0.6564045548 -0.3271859884 -0.5509971976 0.7022583485
0.09216667712 -0.09880678356 0.6525762677 -0.06439953297 -0.553006947 0.6813848615
0.07913768291 -0.1011359096 0.6523467302 -0.3183962703 -0.5708298683 0.7327896357
0.0916774869 -0.09588968754 0.6575129032 -0.2137872875 -0.5475061536 0.675481379
0.09826524556 -0.0969215855 0.6540604234 0.01237382926 -0.5448762178 0.6538307667
0.1054690704 -0.09395749122 0.6531060934 0.2127246857 -0.5577466488 0.6185529232
0.09832351655 -0.1045418531 0.6467304826 0.04580679908 -0.5546970963 0.6613299251
0.1108823791 -0.1112216413 0.638864696 0.4319196343 -0.5395668149 0.7099400163
0.1095103398 -0.106995143 0.6421360373 0.3843263686 -0.541460216 0.6774711013
0.1042232811 -0.1007275954 0.6478310227 0.2164327651 -0.5480674505 0.6301692128
0.09302140772 -0.1096398458 0.6445893645 -0.1049501076 -0.5605403781 0.7023054361
0.1141059473 -0.09727554023 0.6476484537 0.5067924857 -0.5367600918 0.6007845998
0.1028122529 -0.1072923169 0.6436687112 0.1843712479 -0.5492643714 0.6815233231
0.08849954605 -0.10484723 0.6486641765 -0.2073936164 -0.5655305982 0.6812515259
0.1010531113 -0.09304174036 0.6775121689 -0.4961656034 -0.3944666088 0.7715730667
0.1061295494 -0.1018214896 0.6780362725 -0.4987439811 -0.2790229619 0.8161677718
0.1017752662 -0.1027635932 0.6726074815 -0.5824763775 -0.3265669048 0.7419143915
0.09662821889 -0.09491702914 0.6726703048 -0.5168389082 -0.4387439191 0.7346664667
0.1118733957 -0.1729963571 0.6879605055 0.8424767256 -0.3804501593 0.3809146285
0.113590166 -0.1663542539 0.6866635084 0.802283287 -0.3780426681 0.3828709126
0.1135345772 -0.1591398567 0.6848877072 0.5633091331 -0.3701691329 0.4213615656
0.1136893257 -0.1532118767 0.6817601323 0.3528507054 -0.3650685847 0.4543857872
0.1109853163 -0.149105683 0.6753730774 0.150164634 -0.4563023448 0.4285252094
0.11209438 -0.1549697816 0.6764478087 0.3483650684 -0.4365751445 0.4125022292
0.1087575629 -0.1345293969 0.672875464 -0.3374214768 -0.4903214574 0.4766945839
0.1128745079 -0.1300404519 0.6770796776 -0.4106738269 -0.3490485251 0.5718022585
0.1107668802 -0.1432490051 0.6748928428 -0.03652056307 -0.4493974149 0.4589513838
0.1142098531 -0.1616625786 0.6783386469 0.5862214565 -0.3881937563 0.4081274867
0.1236309335 -0.115016453 0.6428184509 0.6497540474 -0.5449227691 0.4976894259
0.1200138777 -0.1179284304 0.6485987306 0.3710105121 -0.5916966796 0.4935203493
0.1137108952 -0.1176254451 0.6762923002 -0.637740016 -0.3178411126 0.6379771829
0.1175930202 -0.1165428534 0.6601669788 -0.04764412344 -0.4912060499 0.5426238179
0.1136593446 -0.1179681867 0.6686919332 -0.4251464307 -0.5260183215 0.5372776389
0.1204879507 -0.1154548824 0.6541710496 0.2225196213 -0.4584833086 0.5501068234
0.1282482296 -0.1046461239 0.6477342248 0.7192955613 -0.4819371402 0.4158663452
0.122734122 -0.1098811328 0.6601678133 0.1576479226 -0.3377262652 0.5547058582
0.1246500239 -0.1100382656 0.6509387493 0.4805133939 -0.4429562688 0.4983625114
0.1261334568 -0.1087587923 0.6444191933 0.7185001969 -0.5162326097 0.4582119882
0.1081557721 -0.1157781258 0.6730287075 -0.6929474473 -0.3145869374 0.6414106488
0.1103444323 -0.1218509749 0.6737548113 -0.6764579415 -0.4463778138 0.5605973601
0.1071511209 -0.1085230038 0.6749777794 -0.6347901225 -0.2610491514 0.7244744897
0.1041631773 -0.1173413992 0.6693259478 -0.6742559075 -0.4829831123 0.5509422421
0.100997366 -0.1130773798 0.665897131 -0.6629681587 -0.4967190623 0.5521497726
0.1096661538 -0.1259221435 0.6412588358 0.4082325697 -0.6084808707 0.5492643118
0.1038316041 -0.1239926666 0.639314115 0.2042246908 -0.5753679872 0.6957293749
0.1031547859 -0.1300696582 0.6400260329 0.1318273842 -0.5659461021 0.6471161246
0.09595914185 -0.1316917241 0.6382231116 -0.1507216841 -0.5215642452 0.7860842347
0.114669919 -0.1291147768 0.6437830925 0.4159724414 -0.673541069 0.506524682
0.1084346548 -0.135963425 0.6477947235 0.08583534509 -0.7949784994 0.4880561531
0.1165966541 -0.1250441372 0.6475939155 0.3216744959 -0.6387348175 0.5089620948
0.115780063 -0.121049352 0.6555992961 0.03601653129 -0.6476895809 0.4864422381
0.1102479994 -0.1247802675 0.6614960432 -0.31288445 -0.7487717271 0.4575355053
0.1203084961 -0.1232964918 0.6424512863 0.5947034955 -0.5719037652 0.5313920379
0.1094627529 -0.1316727102 0.6523454785 -0.03463574499 -0.7714713812 0.4789828658
0.1088064089 -0.1175736934 0.6392469406 0.400200367 -0.5820830464 0.6736992002
0.05115735158 -0.09987557679 0.6476491094 0.05960817263 -0.6263642907 0.774553895
0.1001832187 -0.1270580441 0.6554278135 -0.4647727907 -0.6017839313 0.6110824347
0.0965840593 -0.1312074959 0.6449204683 -0.2982957065 -0.6310719848 0.705221951
0.1044637561 -0.1270723939 0.6644400954 -0.5748722553 -0.568482101 0.5395370722
0.0996292755 -0.1350952536 0.6471859813 -0.240351364 -0.6800072193 0.6412405372
0.1020669267 -0.1330276132 0.6536940932 -0.3358433247 -0.6647136807 0.5808443427
0.07335828245 -0.1168159097 0.6380174756 -0.3090421855 -0.614294827 0.7243891358
0.08580057323 -0.1148446202 0.640596211 -0.1724485457 -0.5907632709 0.7366005182
0.06952958554 -0.1264209449 0.6287286282 -0.2709482908 -0.6335923076 0.7222658992
0.1079666615 -0.1838762015 0.6896404028 0.8362765312 -0.3618223667 0.4115946889
0.1057802811 -0.1908109486 0.6893376112 0.8134758472 -0.3734113276 0.444211334
0.1015468538 -0.1917066872 0.6963819861 0.7860081792 -0.3902973235 0.4791164994
0.1000433713 -0.1845184267 0.7033187151 0.7799387574 -0.406707406 0.4749575257
0.08755604178 -0.1358226389 0.6310864687 -0.3545230627 -0.502915442 0.7856790423
0.09164422005 -0.128810972 0.6316139102 -0.157836318 -0.5308423638 0.780769825
0.1014851704 -0.1184840649 0.6372320652 0.1747184992 -0.5701485872 0.7884232998
0.09675019234 -0.1252883524 0.6357471943 -0.02476707846 -0.5434144735 0.7901959419
0.08861736953 -0.1318832189 0.6372035146 -0.3925628662 -0.5119361281 0.760987699
0.09087213874 -0.1284514517 0.641484201 -0.3491593301 -0.5816187263 0.7284206748
0.05236070603 -0.120380871 0.6289941669 0.01105310675 -0.6515089273 0.7555932999
0.06502879411 -0.1214300469 0.6314848661 -0.2093866169 -0.6528667808 0.7271565199
0.05491700768 -0.117895864 0.6330606937 -0.03439251333 -0.6599221826 0.7498617768
0.06122874096 -0.1175134256 0.6341490149 -0.1323010176 -0.6503087878 0.7435114384
0.0599164702 -0.1235193387 0.628182888 -0.1234795451 -0.6649291515 0.7315502167
0.06269009411 -0.1308227628 0.6199771166 -0.165756166 -0.6707741618 0.722258091
0.0743970871 -0.1322221607 0.6253244281 -0.3195260167 -0.6088192463 0.7228248119
0.06913422793 -0.1316096783 0.6231293678 -0.2532649338 -0.638697505 0.7219975591
0.0615593642 -0.1295915544 0.6266013384 -0.1193730682 -0.6410657167 0.7437785268
0.001037473092 -0.104454726 0.6837337613 0.7506424785 -0.4333427548 0.4987242222
-0.004169819877 -0.1071700677 0.6903232336 0.756958425 -0.4308936298 0.4912407696
-0.004455617163 -0.1119478941 0.6869356036 0.7597808838 -0.4342923164 0.4838495255
0.0003609062405 -0.09923510253 0.6899043322 0.7436957359 -0.4387798607 0.5042075515
-0.003431571182 -0.1013242751 0.6938117146 0.7507655025 -0.4351623356 0.4968912899
-0.005918413401 -0.1668213904 0.6819249392 -0.4837033749 -0.1545796394 0.4104180932
-0.003605223261 -0.1489741802 0.6663879752 0.416020453 -0.2987841964 0.4663433135
-0.004327243194 -0.1611723304 0.6758226752 -0.2342498004 -0.2359593958 0.4433788657
-0.004004779737 -0.1543929428 0.6721895933 -0.03633704409 -0.2297012508 0.3953949809
-0.001797835575 -0.1452270001 0.6614427567 0.5350784063 -0.3805271387 0.4960519373
-0.00315012387 -0.137231946 0.6632455587 0.7862776518 -0.3813093901 0.4774836302
-0.005673784763 -0.143238008 0.6695612669 0.6241352558 -0.271222651 0.448011905
-0.005736973137 -0.1492058039 0.6791221499 0.1033534557 -0.2662193179 0.4518384635
-0.006406342611 -0.1374597251 0.6712847352 0.6399456859 -0.3699867725 0.456884414
-0.006003678776 -0.1480154395 0.6722047329 0.3369689286 -0.2212650329 0.3995499909
-0.006467553787 -0.1594931036 0.6834915876 -0.4729804695 -0.1467705518 0.3377012908
-0.006244259886 -0.1428550482 0.6757597327 0.3426271081 -0.329411 0.4497070909
-0.006511625368 -0.1691841036 0.6882300973 -0.9435455203 -0.04289789498 0.280082047
-0.005273091141 -0.1551036388 0.678765893 -0.001671046251 -0.1765301675 0.431368798
-0.004892676603 -0.1446301192 0.6823908091 0.2202196568 -0.3502399921 0.4871838093
-0.004875698127 -0.1621374935 0.6914298534 -0.6083359122 -0.1786768585 0.4468259811
-0.001094297273 -0.1594275683 0.7069681287 -0.6419459581 -0.2955626249 0.5340513587
-0.004415287636 -0.1384915411 0.6849734187 0.3301983476 -0.3762711585 0.4941778481
-0.002482751384 -0.1468264461 0.6983038783 -0.1649879962 -0.3352742195 0.5141323805
-0.004966837354 -0.1242914349 0.6828013062 0.6881612539 -0.4063073397 0.4785034955
-0.005165526178 -0.1365112811 0.6796249151 0.4994293153 -0.3902394474 0.4874910414
-0.005346762016 -0.1505554169 0.6864002943 -0.1745555699 -0.2429169267 0.4490128756
-0.006031202152 -0.1302757263 0.6741832495 0.7588923573 -0.4101409912 0.4755421579
-0.00504516298 -0.1673998982 0.6935964823 -0.8602082729 -0.1200016066 0.4298328757
-0.005155287683 -0.1554151028 0.6896315813 -0.4074669182 -0.2012001723 0.4423618019
-0.003411264857 -0.1418859959 0.6935799122 0.02095928788 -0.336679846 0.4961881638
-0.004037165549 -0.1516909301 0.6936138868 -0.3185875118 -0.253221482 0.4706399143
-0.003715811763 -0.1592465043 0.6968120933 -0.5956730247 -0.2135044485 0.4702247977
-0.005103846546 -0.1315491199 0.6842591763 0.4241061509 -0.3526730239 0.4667104781
-0.00229176553 -0.153626591 0.700997293 -0.4215138555 -0.2939422727 0.510414362
-0.00374526321 -0.1314371228 0.6673700809 0.7679284215 -0.4192714989 0.4841760695
0.09728033096 -0.07591771334 0.677649498 -0.09288103133 -0.5090418458 0.7016428709
0.09081023186 -0.07452373952 0.679662466 -0.3408364058 -0.5339434147 0.7212395668
0.05647015944 -0.1649604589 0.7480953932 0.03713811934 -0.5959386826 0.7993525863
0.02654903568 -0.1943962425 0.7172886133 -0.3857045472 -0.3983037174 0.8300427794
0.03151749447 -0.08334565163 0.6697902083 0.4275301695 -0.6021647453 0.6726166606
0.02563586459 -0.08100008219 0.6750793457 0.513523519 -0.5828056335 0.629224956
0.02413763106 -0.08641832322 0.6722632647 0.5307011604 -0.5660214424 0.6283926964
0.02810684033 -0.08858752251 0.6665844917 0.4819448888 -0.578753233 0.6564873457
0.02592238598 -0.09320618957 0.6635921597 0.4998324513 -0.5764423013 0.6453211308
0.04284289479 -0.07884925604 0.6667328477 0.2203997225 -0.6456711888 0.728351295
0.05078592896 -0.07420887053 0.6694769859 0.1001871452 -0.6720948815 0.7305055261
0.04548043758 -0.06650619954 0.6762862802 0.165696159 -0.698330164 0.6961799264
0.04555962607 -0.07291800529 0.671947062 0.1897882223 -0.6530413628 0.7307313085
0.05069637299 -0.2095013708 0.715079546 0.043658223 -0.591886878 0.8021775484
0.0404907465 -0.2099544406 0.7164050341 -0.1020538434 -0.5466507673 0.8252944946
0.08297929913 -0.09481903166 0.6609972715 -0.4373408556 -0.5400204659 0.7154197097
0.07934066653 -0.09740942717 0.6573525071 -0.3811823428 -0.5622992516 0.7296921015
0.1020280123 -0.07891107351 0.6810131073 -0.1027597338 -0.4933228791 0.7366814017
0.09507382661 -0.0759761408 0.6840692163 -0.3546547592 -0.550391376 0.7391709089
0.1090065911 -0.08162334561 0.6756503582 0.2120565623 -0.4490427077 0.7035840154
0.112757206 -0.08298169076 0.6717890501 0.4077108204 -0.430783689 0.6727463007
0.1143968105 -0.08821637928 0.6750684381 0.7334158421 0.005579072982 0.6552106142
0.08618565649 -0.0873086825 0.6684827805 -0.4462891817 -0.5215998292 0.7259959579
0.09027385712 -0.0863031745 0.6729384065 -0.4609503746 -0.5060834885 0.7273053527
0.0824238956 -0.07095488161 0.6795168519 -0.366221875 -0.58813411 0.7163881063
0.07574719191 -0.06922414154 0.6779475212 -0.2999940515 -0.6419478655 0.702835083
0.08577764779 -0.07628200203 0.6753886938 -0.3832972944 -0.5455679893 0.7178711295
0.08671767265 -0.08201379329 0.6718191504 -0.3931086361 -0.5367907286 0.7151994109
0.099434264 -0.08050081134 0.6747464538 -0.08271113038 -0.4901727736 0.6993748546
0.09134621173 -0.07770077139 0.6741419435 -0.2087790519 -0.5214177966 0.7044622898
0.09980367124 -0.08591472358 0.662645936 0.01540412381 -0.5742694736 0.6178519726
0.09147843719 -0.08648442477 0.6648597121 -0.2245168984 -0.5519678593 0.6756809354
0.1122649238 -0.08510389179 0.6654514074 0.4588219225 -0.4626715779 0.626409173
0.1148359552 -0.08667124063 0.6596133113 0.5150931478 -0.535751462 0.5630983114
0.09702116996 -0.08432738483 0.6674656272 -0.06257692724 -0.5269364119 0.665399313
0.1058527455 -0.0844206959 0.6676635146 0.2473603636 -0.4688723683 0.6568937898
0.1075715423 -0.08670046926 0.6590448618 0.2578175366 -0.5897037387 0.5659085512
0.1125704199 -0.08982925862 0.6541032195 0.411421448 -0.5996329188 0.5310156941
0.09833868593 -0.09231419861 0.6582246423 -0.04672791436 -0.5555461645 0.6322308779
0.1182227284 -0.09057688713 0.6506565809 0.588273108 -0.5748212934 0.5506913066
0.08978243917 -0.09174342453 0.6620356441 -0.3055282831 -0.5429778695 0.6783104539
0.08606657386 -0.1049619019 0.6553875804 -0.5089371204 -0.5330162644 0.6753011942
0.09738830477 -0.1101887301 0.6628014445 -0.6353474259 -0.5373969078 0.5496202111
0.09205508977 -0.1066350117 0.6593569517 -0.5744956732 -0.5261349678 0.6245764494
0.09699335694 -0.1016811058 0.6681808233 -0.5744327903 -0.4182317257 0.6998497248
0.09033872187 -0.1008295342 0.662320137 -0.5521580577 -0.5021612644 0.6647524238
0.100406453 -0.107010074 0.6673712134 -0.656075418 -0.4178419411 0.6273408532
0.07234601676 -0.1076672599 0.6457473636 -0.2900499403 -0.6087604761 0.7338353395
0.06624991447 -0.1120437682 0.640067637 -0.1919216663 -0.621211946 0.7587530017
0.1131143644 -0.1840402335 0.6816238761 0.8365552425 -0.3584340513 0.414298743
0.1139976233 -0.172603175 0.6824436188 0.8453547955 -0.3764814734 0.3786086142
0.1138241664 -0.1793188453 0.6786932945 0.8442859054 -0.3650786877 0.3918268681
0.1094555706 -0.1879141182 0.6845758557 0.8337547183 -0.3640497625 0.4150519669
0.1152350828 -0.1032791287 0.6435154676 0.5547219515 -0.5309218764 0.6313437223
0.09450264275 -0.1142701358 0.6557272673 -0.585437417 -0.6144047379 0.5258113146
0.1194922477 -0.1090558395 0.6414067745 0.5960769057 -0.5279110074 0.5853747129
0.1210591197 -0.1017825752 0.6448886395 0.6530911922 -0.5200821757 0.5483739376
0.09020397067 -0.1112462804 0.6534796357 -0.4921470582 -0.6071377397 0.6171222329
0.09748351574 -0.1146520898 0.6407883167 0.04828586429 -0.5727826357 0.760989964
0.090071477 -0.1168244928 0.6498198509 -0.4689838588 -0.6153630614 0.6321231723
0.08451772481 -0.1088606864 0.6512793303 -0.4308136404 -0.6040176153 0.6646873951
0.07812234759 -0.1076676548 0.6483962536 -0.3561953008 -0.6110638976 0.7032141685
0.07700777054 -0.1127313524 0.6442180872 -0.3662221134 -0.5977757573 0.7116215825
0.08313412964 -0.1140887663 0.6463811398 -0.3895455599 -0.6216132641 0.6773657799
0.02880784869 -0.1614708751 0.7424198985 -0.3705809116 -0.5445501208 0.7497270107
0.02270251699 -0.1599864364 0.7387799621 -0.4522286355 -0.5046922565 0.7254532576
0.0150094172 -0.1607201546 0.7332394123 -0.5600097775 -0.4596433938 0.6793287396
0.02230573446 -0.1650533527 0.7354095578 -0.4904514551 -0.5073243976 0.7045211792
0.04499961436 -0.1153522953 0.6365348697 0.1509712785 -0.6473184824 0.7464336753
0.04091563448 -0.1125249267 0.6406409144 0.2240144461 -0.6265300512 0.7409360409
0.03763074055 -0.116896376 0.6375563741 0.2846234143 -0.6361680627 0.7136554122
0.03947442397 -0.1066371575 0.6455274224 0.2587680519 -0.6063172817 0.7465536594
0.03576277941 -0.1119132638 0.642459929 0.3196642995 -0.6149265766 0.7185943127
0.04922259226 -0.1051909104 0.6443618536 0.08419992775 -0.6273630857 0.7692389488
0.04941277578 -0.1099043489 0.6402897239 0.0734507069 -0.6382824779 0.7601699233
0.05224863067 -0.1137599573 0.636649847 0.01852838323 -0.6484048367 0.7566077709
0.09435678273 -0.1200387999 0.6542738676 -0.5289991498 -0.5885099173 0.6011654139
0.09798455983 -0.1216072217 0.6590731144 -0.5713791847 -0.5729801655 0.5730510354
0.09785047174 -0.1155772805 0.6601738334 -0.6270431876 -0.5880602002 0.5078985691
0.08957656473 -0.1214275435 0.6458518505 -0.4415391982 -0.5913658738 0.6714466214
0.09420789033 -0.1246347949 0.6474640965 -0.3908017874 -0.626765132 0.6634283662
0.08387053758 -0.1304784864 0.6342277527 -0.4081558883 -0.5213024616 0.7472609282
0.07615160197 -0.128619045 0.6305276752 -0.3441368341 -0.5884621143 0.7285590172
0.08253336698 -0.1237728298 0.6379388571 -0.392849803 -0.5798106194 0.7128562927
0.07990422845 -0.1187428758 0.6409294009 -0.3810112476 -0.5838698149 0.7161679864
0.08436805755 -0.1298362613 0.6282340884 -0.2846200764 -0.537468791 0.7596187592
0.08842730522 -0.1221532822 0.63422364 -0.1003861502 -0.57692945 0.7573846579
0.08124877512 -0.1248336658 0.6321492791 -0.2620424628 -0.5765770674 0.7415999174
0.07650960237 -0.121847406 0.6341797113 -0.3007341623 -0.6012191176 0.7275826335
0.09463251382 -0.1185989082 0.6368733048 0.05673703179 -0.5832252502 0.7705395222
0.09207104892 -0.1917943358 0.708219707 0.6522526145 -0.4739002883 0.5881550312
0.09563565254 -0.1895324588 0.7042741776 0.7147510052 -0.4380786717 0.5343353152
0.09381635487 -0.1954797953 0.7038211823 0.6880185008 -0.4696493149 0.550850451
0.08702726662 -0.1971399188 0.7095640302 0.5619168282 -0.518886447 0.6424703002
0.09149077535 -0.2017218769 0.7040102482 0.6170245409 -0.5202327967 0.5886933208
0.1040078774 -0.1808496863 0.6995809078 0.8172461987 -0.3902821243 0.422352314
0.1068541706 -0.1764518321 0.6955577731 0.8363791704 -0.3899686337 0.3841530681
-0.0009628362022 -0.1120710149 0.6810612679 0.7570737004 -0.437183708 0.4854817688
-0.004328193143 -0.1848583668 0.6943864822 -0.7877610922 -0.21330975 0.5778679848
-0.002297782805 -0.1734217554 0.7021101117 -0.8010190725 -0.2569870651 0.5392069221
0.09335305542 -0.0800961107 0.6793886423 -0.4217686653 -0.5134285092 0.7463091612
0.09524011612 -0.08640497923 0.6767752767 -0.462351203 -0.4781731367 0.7455019355
-0.001619103015 -0.1753043234 0.6960916519 -0.8100999594 -0.229010582 0.5393036008
0.002105182735 -0.1846756786 0.6993912458 -0.7894233465 -0.2137741745 0.5752991438
0.0166206155 -0.08479201794 0.6803948879 0.6295231581 -0.5219224691 0.5751882792
0.01800781675 -0.07654412836 0.6850917935 0.610509634 -0.5461412668 0.5730937123
0.0240383707 -0.07731174678 0.679305017 0.5415623784 -0.5775614977 0.6084635258
0.0111325644 -0.08112406731 0.6907154918 0.6620457768 -0.4991723597 0.5589255691
0.01387306768 -0.08298560977 0.6851558089 0.6480220556 -0.5149921179 0.5607998371
0.07002201676 -0.07603501529 0.6691091061 -0.2198584974 -0.62368083 0.7465673685
0.071870327 -0.07232902199 0.673306644 -0.2666619718 -0.620334506 0.7312123775
0.06457618624 -0.07283294946 0.6716749072 -0.123433508 -0.6566082239 0.7430513501
0.06229114532 -0.06788065284 0.6748777032 -0.08755101264 -0.6798229218 0.7236260772
0.05567742139 -0.06787952036 0.6740460396 0.02765966766 -0.6986076236 0.7130501866
0.07020304352 -0.06774284691 0.6771577001 -0.2174285352 -0.6652024984 0.7104444504
0.04145237803 -0.08487387002 0.6613282561 0.2598780394 -0.6288592219 0.7283806801
0.05038866773 -0.08720787615 0.6588624716 0.07573783398 -0.6360329986 0.7609909177
0.04897619784 -0.08219548315 0.6623633504 0.1014388278 -0.6427029967 0.7548665404
0.03357736766 -0.09184679389 0.6602734327 0.3806840479 -0.601119101 0.6975969076
0.04497976974 -0.08953136206 0.6568870544 0.1749892086 -0.6312525272 0.7548373938
0.04086011276 -0.09473558515 0.6543095112 0.2615331113 -0.6118488312 0.7419433594
0.03575408831 -0.08731104434 0.663161993 0.3483208716 -0.6103707552 0.7076894045
-0.002456649207 -0.1256902963 0.6714609861 0.7723252177 -0.4189798534 0.4774347246
-0.003547567409 -0.1220913976 0.6768938899 0.7728331089 -0.4190479815 0.4764832854
0.001243779436 -0.1202158034 0.6711158156 0.7682623863 -0.4254310727 0.4782097042
-0.0008671649266 -0.1174780428 0.6770758629 0.7631437182 -0.4301850498 0.4819712937
0.04343472794 -0.1992583722 0.7187493443 -0.1229906231 -0.5432938933 0.8239237666
0.03906799108 -0.2035463899 0.7170085907 -0.1805340201 -0.5327051878 0.8220022321
0.06462713331 -0.1041451022 0.6459720731 -0.1564979106 -0.6342422962 0.7570331097
0.06604221463 -0.09914345294 0.6506058574 -0.1862409413 -0.6133579612 0.7660766244
0.06780341268 -0.09328942001 0.6558502316 -0.2142780721 -0.6004139185 0.7680244446
0.06136757508 -0.09281750768 0.6549965143 -0.1257606298 -0.61329633 0.7756498456
0.05530545488 -0.08984461427 0.6563104987 -0.02827754617 -0.6306260228 0.7751073241
0.07367252558 -0.1033897474 0.6494342685 -0.3079043329 -0.5958672166 0.7395731807
0.07166144252 -0.09910719097 0.6523576975 -0.273953706 -0.5882046223 0.7567041516
0.1122541502 -0.09009685367 0.6802572012 0.4645192325 -0.05667823181 0.7158742547
0.1059390828 -0.08891452104 0.683231473 -0.3338447511 -0.3771123588 0.85998559
0.1005312279 -0.07903908193 0.6877650023 -0.3259728253 -0.4696913064 0.8201700449
0.1031520069 -0.08386328816 0.6854115129 -0.3259708881 -0.4273754358 0.840539813
0.09819883853 -0.08354445547 0.6812425256 -0.400267899 -0.4710908532 0.7843050361
0.06188290939 -0.08825735003 0.6584339738 -0.1247731745 -0.6218003035 0.7705661654
0.05724345148 -0.08455533534 0.6610830426 -0.03927062079 -0.6258301139 0.775688529
0.05945870653 -0.07780552655 0.6658926606 -0.06761015207 -0.6349999309 0.7665121555
0.06388612092 -0.0832670331 0.6625831127 -0.1439447403 -0.6098868251 0.7771603465
0.07399810851 -0.09494556487 0.6561713219 -0.2932576835 -0.5816674232 0.7586553693
0.06898599863 -0.08803684264 0.6609030366 -0.2305601835 -0.5944774151 0.7644994259
0.07522363216 -0.08659221977 0.6628018022 -0.3055770099 -0.5744650364 0.7584095001
0.07554993778 -0.07842037082 0.6687995791 -0.3021575511 -0.5927014947 0.7446193099
0.08062112331 -0.07778990269 0.6726006866 -0.3675811589 -0.5710139871 0.7327083945
0.08057703823 -0.08924154192 0.6646788716 -0.3924040496 -0.5525932908 0.7340865135
0.07748701423 -0.0831778422 0.6669310331 -0.3247153163 -0.5767796636 0.7492334843
0.0711004138 -0.08305072784 0.664902091 -0.2416052967 -0.5924274325 0.7641467452
0.06572372466 -0.07889674604 0.6660876274 -0.153134793 -0.6178742051 0.7692387104
0.0426957272 -0.1012984365 0.6488823295 0.2245926261 -0.6104778647 0.7574644089
0.03574186936 -0.1007815078 0.6516097188 0.3385255933 -0.5909807682 0.7309643626
0.03116094135 -0.0978622213 0.6567641497 0.4108277857 -0.5886383057 0.6914713979
0.05411056429 -0.09590162337 0.6512826085 -0.01303141378 -0.6194866896 0.782189548
0.05575607345 -0.1101146936 0.6398649812 -0.0251113195 -0.6395804286 0.768168807
0.04155364633 -0.1263988465 0.6233745813 0.1873746067 -0.6174349189 0.7600113153
0.04560702667 -0.1208749861 0.6313799024 0.1538558006 -0.6414029598 0.7495337725
0.02413540147 -0.1302043349 0.6308988929 0.4664346278 -0.5348649621 0.6823672652
0.02982735448 -0.1278159022 0.63017416 0.3678408265 -0.5805226564 0.711438477
0.01884798519 -0.1316462457 0.6325656176 0.5558692813 -0.5046346188 0.652254045
0.1042975411 -0.1413240433 0.6481890082 -0.04206035659 -0.864353478 0.4791651666
0.1063882262 -0.1312769055 0.6596829295 -0.3498722315 -0.7325441241 0.4760316908
0.1046560109 -0.1737275273 0.7054015398 0.8034102321 -0.4207020402 0.4188035131
0.1060846075 -0.1705160737 0.7103623748 0.7737309933 -0.4431038201 0.4503104985
0.1101073176 -0.1648896486 0.7126951814 0.7750810981 -0.447368592 0.4424068034
0.01174671669 -0.0895415917 0.6817750335 0.6762449741 -0.4891292155 0.5503009558
0.0828249529 -0.1937231719 0.7137515545 0.5064951181 -0.5342443585 0.6726588011
0.08892673999 -0.1893838197 0.7128494382 0.6083573103 -0.4910472631 0.6222598553
0.08923581988 -0.174440518 0.7238348126 0.5856812 -0.5343874693 0.6046012044
0.09566298127 -0.1734952331 0.7194159031 0.6398993134 -0.5115383267 0.5702368617
0.08702941984 -0.1846441925 0.7169225216 0.604249537 -0.4854055643 0.6311627626
0.0877224803 -0.1796751022 0.7209125757 0.5869902968 -0.5155971646 0.6216973066
0.09929552674 -0.1668152064 0.7189264894 0.6926570535 -0.4864120185 0.5318348408
0.09419694543 -0.1695925593 0.7239103913 0.6062043905 -0.5297241807 0.5929841399
0.09200335294 -0.1663516015 0.7280106544 0.5609074235 -0.5512969494 0.6161825061
0.09940242767 -0.1641173214 0.7242314816 0.629250586 -0.5206139684 0.5615026951
0.1065667346 -0.1641165614 0.7185462713 0.711130321 -0.4889492393 0.4969808459
0.08439732343 -0.1748424768 0.7275803089 0.5129348636 -0.565502286 0.6442221999
0.08214709163 -0.1799511313 0.7263281941 0.5097839832 -0.5532079339 0.6581642628
0.03677603975 -0.1590741873 0.748091042 -0.2311896682 -0.5640152693 0.7918741703
0.03589930385 -0.1633959115 0.7446508408 -0.2831508219 -0.5593523383 0.7776124477
0.04264518991 -0.1595287025 0.7469531298 -0.165574953 -0.5656049848 0.7929996252
0.05650337785 -0.1586585045 0.747793138 0.0100672394 -0.5803778768 0.796653688
0.04965188354 -0.1581741273 0.7483386993 -0.06582756341 -0.5774677396 0.79204458
0.0002858833759 -0.1632959992 0.7111615539 -0.7799804211 -0.2985876203 0.546194911
0.009473339655 -0.1622014493 0.7277001739 -0.6321854591 -0.4397397339 0.6376008391
0.003731353907 -0.1629664302 0.7169858813 -0.7325032949 -0.3501603305 0.5735605955
0.007101766765 -0.1632971317 0.7223569155 -0.6726948619 -0.4079531133 0.6086826324
0.02810177393 -0.1669265777 0.7381805182 -0.4072357416 -0.5495223999 0.7278681397
0.004744557664 -0.1183951125 0.6647939682 0.7343759537 -0.4545128942 0.5032917857
0.06156880781 -0.2010776699 0.7179178596 0.1692810506 -0.6021768451 0.7718289495
0.05474606529 -0.2036321461 0.7170375586 0.0757002905 -0.5991178751 0.7923361063
0.0166434627 -0.09661315382 0.6709350944 0.6278668642 -0.518356204 0.5764923096
0.02094124444 -0.09510526806 0.6669357419 0.5729953051 -0.5480079055 0.60923177
0.02064236812 -0.09905446321 0.6629819274 0.5635219216 -0.5549975634 0.6114740372
0.02059580572 -0.09095450491 0.6713485718 0.5860735178 -0.5401400924 0.603618443
0.01664447039 -0.0903274864 0.6757864952 0.6373023987 -0.5096261501 0.5771961212
0.009926436469 -0.1090986282 0.6664896011 0.6972459555 -0.4908091724 0.5222921968
0.004380251281 -0.1142553613 0.6707189679 0.7419782877 -0.4510605335 0.4952270091
0.03803487867 -0.1218101457 0.6328850389 0.2784440219 -0.6243835688 0.7253715992
0.03450408578 -0.131149888 0.6306608915 0.3122810125 -0.5707173944 0.7263055444
0.05202789232 -0.130345732 0.6263253689 0.04793038219 -0.6419517994 0.7536945939
0.0398905836 -0.1301966161 0.6295149326 0.2328286767 -0.5964918733 0.7336813807
0.09902225435 -0.1711726487 0.7148262262 0.7127865553 -0.4780521393 0.5116013885
0.1013540253 -0.1757359505 0.709905386 0.7575437427 -0.4314679205 0.4893816411
0.1012844667 -0.1862706244 0.6973346472 0.7960125804 -0.3980001211 0.453590095
0.01250193547 -0.127448529 0.6476259232 0.6745098233 -0.4746522009 0.5645253062
0.01463851985 -0.1322371215 0.6378935575 0.6238442063 -0.4819680452 0.6119199991
0.01035482995 -0.1337284893 0.6440764666 0.681020081 -0.4516189396 0.5671740174
0.005348871462 -0.2002342492 0.7074087858 -0.6394277811 -0.2270559669 0.7259528637
0.003059437266 -0.1883186996 0.7043385506 -0.7436185479 -0.2530650198 0.6137782335
0.0009780892869 -0.1937400997 0.7021256685 -0.7383025289 -0.2154385 0.6320373416
0.009810650721 -0.1856479496 0.7149984241 -0.664593935 -0.36122334 0.6408317685
0.006368169095 -0.1870581359 0.7101163864 -0.7035428882 -0.3143187165 0.6227983236
0.03256326169 -0.1934359521 0.7204899788 -0.2912650406 -0.4695005417 0.8299008012
0.03918421641 -0.1952049136 0.7210639715 -0.1820702255 -0.5150603056 0.8337265849
0.03386729956 -0.2078748792 0.7174048424 -0.2168301344 -0.497726351 0.8367760777
0.03417216241 -0.1990698725 0.7200580239 -0.2382723689 -0.4780649245 0.8415095806
0.02842658944 -0.1981391013 0.7210462689 -0.3524959981 -0.4439961016 0.8138270974
0.03348677978 -0.1887280345 0.7249473929 -0.3193043172 -0.5348366499 0.7791773081
0.02484447323 -0.204676196 0.7182545662 -0.376326561 -0.3796434999 0.8384288549
0.07428276539 -0.1590916961 0.7465033531 0.2773063183 -0.5742568374 0.7612040043
0.07267342508 -0.1643132567 0.7429727316 0.2759899199 -0.5774000287 0.7592015862
0.0751330331 -0.1684823334 0.7394264936 0.3192213774 -0.5774884224 0.7468600273
0.06571444124 -0.1636703908 0.74508816 0.1571972817 -0.5924480557 0.787204504
0.0808827728 -0.1654221267 0.7396503091 0.4096468985 -0.5483044982 0.72691679
0.08856283128 -0.1645839661 0.7328525186 0.5013255477 -0.5561561584 0.6584390998
0.08398815244 -0.1679110229 0.7356658578 0.485994935 -0.5521371961 0.6746331453
0.08741540462 -0.1696812958 0.7294223309 0.52062428 -0.5645529032 0.6376934648
0.08319415152 -0.1595874876 0.742608726 0.4232749641 -0.5491638184 0.7198261619
0.04269582406 -0.1664584875 0.7464755177 -0.1615200341 -0.5869903564 0.7863281369
0.03897487745 -0.1811746806 0.7330223322 -0.2476991564 -0.5840225816 0.7701190114
0.04957651347 -0.1976919323 0.7241424322 -0.03012857214 -0.5949488282 0.7987175584
0.04603736848 -0.207080543 0.7183492184 -0.0254747048 -0.577912271 0.814553082
0.07279388607 -0.1940913647 0.7204680443 0.3428576589 -0.5811249018 0.7366948724
0.06855923682 -0.1981734335 0.7189736962 0.2704498172 -0.6014717221 0.7507401109
0.07483161986 -0.2021276951 0.7134408951 0.3756185174 -0.5942780375 0.7109404802
0.07972635329 -0.1861153841 0.7220205665 0.4669114351 -0.539278686 0.6899258494
0.08139037341 -0.1998759806 0.7129107118 0.4736362398 -0.5669432878 0.6719375253
0.07905203104 -0.1920350194 0.7192575336 0.4491076767 -0.5613666773 0.6892288923
0.0184353739 -0.1686694622 0.7303759456 -0.5436993837 -0.4774569571 0.688871026
0.0157980863 -0.1745352149 0.7242763638 -0.6156441569 -0.4627813697 0.6370616555
0.001107972814 -0.1705377102 0.7067742348 -0.8031486869 -0.2712195814 0.5288589001
0.02034596354 -0.1741073579 0.7284487486 -0.517087698 -0.4934033453 0.6983723044
0.04651338235 -0.1822045296 0.7335929275 -0.1127067655 -0.6015176773 0.7874463797
0.05430747196 -0.1780195981 0.7368692756 0.04293567687 -0.6028717756 0.7935484052
0.03999933228 -0.1691640466 0.7423703074 -0.2445698678 -0.5720985532 0.7792135477
0.03434188664 -0.1690455973 0.7399070859 -0.3243593276 -0.5704665184 0.7506173849
-0.0001737781422 -0.1262856722 0.6649942398 0.7601462603 -0.4248097241 0.4915742278
0.001685234369 -0.138213858 0.6545367241 0.7367174029 -0.4263540208 0.5247014761
0.007503661327 -0.1325418204 0.6497194767 0.6988523006 -0.4502799511 0.5535942316
0.01321790088 -0.1014498547 0.6699834466 0.6608201265 -0.5036409497 0.5539053082
0.01577127352 -0.1153536141 0.6537150145 0.6225203872 -0.5186966658 0.5819491744
0.02104652673 -0.1135665551 0.6507362723 0.5314445496 -0.5570726991 0.6364098191
0.03175171837 -0.1228821799 0.6345465183 0.3634189367 -0.6135859489 0.6990939975
0.05065609515 -0.1255662143 0.6220386028 0.04129346088 -0.6452038884 0.756208837
0.05653801933 -0.1278177351 0.6211763024 -0.06190604344 -0.6622282267 0.7374786735
0.09738435596 -0.1811446548 0.7085576653 0.7212216854 -0.4559639096 0.5162783265
0.09636250138 -0.1773610711 0.7141739726 0.6751714349 -0.4884948134 0.5509836078
0.09177067876 -0.1838821173 0.7132384181 0.635649085 -0.473090589 0.6095397472
0.01048563328 -0.1931044757 0.7145665884 -0.6139656305 -0.3217746615 0.7081807256
0.01518728025 -0.182485953 0.7195163369 -0.6187973022 -0.4211075306 0.6570922732
0.02009073272 -0.1810191721 0.722833395 -0.5536584854 -0.4724784791 0.6808710098
0.02723391354 -0.179890275 0.7282350063 -0.4206773937 -0.5393001437 0.7243596911
0.03333620355 -0.1822903454 0.7298161387 -0.3321345747 -0.5614792705 0.7542955279
0.01885703579 -0.1907619536 0.7134500742 -0.5248759389 -0.3258820474 0.7708117962
0.02496199124 -0.1863938123 0.7227430344 -0.4679940343 -0.4954785109 0.7281828523
0.02130984329 -0.1918933839 0.7202016711 -0.4937100708 -0.4231638908 0.7475574613
0.01536515635 -0.1885123104 0.7184743285 -0.5834602118 -0.3842035234 0.7077890038
0.01786101051 -0.201271221 0.716362834 -0.4875483513 -0.3383811116 0.792177856
0.01064328942 -0.2047068477 0.7120029926 -0.5491989851 -0.2559182346 0.7901989818
0.01567834429 -0.1950319111 0.7169330716 -0.5451185703 -0.3522374034 0.747897923
0.02040200494 -0.2094132602 0.7154710889 -0.4158287048 -0.3175679445 0.8489992619
0.07947020978 -0.1764336228 0.7305945158 0.4517410994 -0.5754276514 0.6784676909
0.07425924391 -0.180998683 0.7291573286 0.3793104291 -0.5820647478 0.7071647048
0.05149345845 -0.1918297112 0.7284724712 -0.007125745062 -0.6086533666 0.7912032008
0.06232306734 -0.1961874366 0.7222754955 0.1660537273 -0.5992195606 0.7781198025
0.05702958256 -0.1995958686 0.7213842273 0.09263969958 -0.5991960764 0.7940071225
0.03703838214 -0.1737836003 0.7375500202 -0.2821301222 -0.5850309134 0.7549170256
0.06270264834 -0.1715912372 0.7415941358 0.1623355746 -0.6011167169 0.7797913551
0.06107643247 -0.1665977538 0.7443399429 0.1014302 -0.5949099064 0.7950057387
0.04544014856 -0.1710969359 0.7429443598 -0.1497434676 -0.58962363 0.7927120924
0.0513597019 -0.1719789505 0.7426601052 -0.03724230453 -0.593860209 0.797694087
0.04970781878 -0.1673799604 0.7457607388 -0.04381164536 -0.5985531807 0.7958211303
0.04511620849 -0.1768341959 0.7378827333 -0.1558357626 -0.6014274955 0.7813677788
0.0522682704 -0.184323445 0.7339642048 0.006041743793 -0.6080594659 0.7928961515
0.07399026304 -0.1739108413 0.7358388305 0.316060245 -0.5920348763 0.7390540838
0.06926024705 -0.1725313216 0.7400289774 0.2738854587 -0.5901204348 0.7574309111
0.0615558885 -0.1759820729 0.737755239 0.1498701721 -0.6029874682 0.7812117338
0.06642419845 -0.1789299399 0.7343329787 0.2292158455 -0.5979659557 0.7625207901
0.01016161218 -0.1242642403 0.6527962089 0.7067967057 -0.4580211043 0.5387209058
0.00414275052 -0.1265934855 0.658670485 0.7408756018 -0.4312269092 0.5142538548
0.003462709486 -0.1324861348 0.655184865 0.7332506776 -0.4296047091 0.5266715884
0.001242959755 -0.1310039908 0.6613234878 0.7570349574 -0.4265358746 0.4948679805
0.01385190524 -0.1108879894 0.6597893834 0.6496261358 -0.5105240941 0.5610119104
0.0181653481 -0.1091329902 0.6567333937 0.583491385 -0.5403382182 0.6031008959
0.02180793881 -0.1040736735 0.6578471065 0.5467550755 -0.5532133579 0.6271695495
0.01694651134 -0.1053059325 0.6609858274 0.6087284088 -0.533826232 0.5858227611
0.0162935257 -0.1266360134 0.6423185468 0.6178928018 -0.4991739094 0.6065561175
0.02175090462 -0.1230785251 0.6410065293 0.5210216641 -0.548948288 0.6519959569
0.02191513963 -0.1291134506 0.6372452974 0.5082401037 -0.5285429358 0.6745395064
0.01683958061 -0.1232057139 0.6465204358 0.6168943048 -0.5086886883 0.5932744145
0.02059531771 -0.1186442301 0.647292912 0.5538632274 -0.5478295088 0.6120804548
0.02627450787 -0.1161385924 0.6441889405 0.4621742964 -0.5950552225 0.6566340327
0.02774468623 -0.1201419085 0.6394512653 0.4243512452 -0.6040611267 0.6717969179
0.01163282339 -0.1792312115 0.7152497768 -0.6750949621 -0.3767226636 0.6270411611
0.009608941153 -0.1685014814 0.7194794416 -0.6881414056 -0.4114294648 0.5904672146
0.01275208499 -0.1670994312 0.7251737118 -0.6376329064 -0.4371500313 0.632356286
0.005673985463 -0.1686157882 0.7143133879 -0.7427991033 -0.3735442162 0.5544614792
0.003340522526 -0.1755172908 0.7052122951 -0.7897381186 -0.2716632783 0.5498411655
0.005268519744 -0.1802640855 0.7095327973 -0.7402903438 -0.3160529137 0.5878099799
0.006528971717 -0.1751531661 0.712855041 -0.7389440536 -0.3572869003 0.5688591003
-0.0005180754233 -0.1799468547 0.7030041218 -0.7910952568 -0.2444076389 0.5572698116
0.06582127512 -0.1847979128 0.7305005193 0.221525535 -0.5962969065 0.7703491449
0.07160293311 -0.1867674291 0.7268236876 0.3139815927 -0.5863690376 0.7416803241
0.03908662871 -0.185725078 0.7297223806 -0.255785048 -0.5824602246 0.7699591517
0.03923338652 -0.189855516 0.7255626321 -0.2286292464 -0.5614349842 0.7889940739
0.05821821094 -0.1848380864 0.7319134474 0.09615860134 -0.6045590043 0.7858769894
0.05660333484 -0.1937409043 0.7250832319 0.06660327315 -0.5948022008 0.7993230224
0.04516023025 -0.1937409639 0.7247625589 -0.1126397029 -0.5648573637 0.8154706359
0.06341847777 -0.1902806312 0.7258915901 0.1574385464 -0.5933158994 0.7746806145
0.06815541536 -0.1923012435 0.7234601378 0.2535382807 -0.5871425867 0.7577729225
