# .PCD v0.7 - Point Cloud Data file format
VERSION 0.7
FIELDS x y z normal_x normal_y normal_z
SIZE 4 4 4 4 4 4
TYPE F F F F F F
COUNT 1 1 1 1 1 1
WIDTH 512
HEIGHT 1
VIEWPOINT 0 0 0 1 0 0 0
POINTS 512
DATA ascii
-0.04670038074 -0.187379241 0.6720452905 -0.6321175694 -0.4948976934 0.5522383451
-0.05799708515 -0.1794379056 0.6655792594 -0.7912049294 -0.4067023993 0.4564266503
0.004639591556 -0.1994778663 0.6841250658 0.1633919775 -0.6988777518 0.6898039579
-0.03724254295 -0.1925783604 0.677550137 -0.5082189441 -0.5578149557 0.6393610239
-0.05253495276 -0.1816211492 0.6712061763 -0.7541394234 -0.407553196 0.5136045218
-0.04292784631 -0.1921295971 0.6799973249 -0.5658703446 -0.5149719119 0.6332023144
0.07206530124 -0.09643691033 0.6314174533 0.5168666244 -0.5938647985 0.6154814363
-0.05993490294 -0.1535477191 0.678527832 -0.8251590729 -0.3638023138 0.4319719076
-0.002609974006 -0.1962270588 0.6868209243 0.05729981884 -0.7106621861 0.6986470819
-0.05960579589 -0.120021753 0.6343209147 0.6667989492 -0.5111446381 0.5029194355
-0.06046649069 -0.1243537515 0.6389141083 0.4729804695 -0.4905768633 0.4903561175
-0.06130606309 -0.1415024102 0.6428688169 -0.1991705596 -0.3101497591 0.3445672989
-0.05942967162 -0.1293047667 0.6367095113 0.3173485398 -0.4416468441 0.4545948505
-0.06306467205 -0.1523928493 0.6583375335 -0.6861701608 -0.3293150961 0.387118578
-0.06277281791 -0.1509943008 0.6484504938 -0.6031563878 -0.2186260521 0.2700842619
-0.06247042492 -0.1400272399 0.6490750909 -0.1864195317 -0.369063288 0.3989407122
-0.06372986734 -0.1551283449 0.652259171 -0.7899695635 -0.1856245846 0.2439637035
-0.06194550544 -0.1337197125 0.6476675272 0.06583368033 -0.4445509911 0.4625009894
-0.06290830672 -0.1454262435 0.6510621905 -0.4039390981 -0.3158696294 0.3563532233
-0.06098247692 -0.1342616528 0.6403746605 0.08587229252 -0.3735598326 0.3928647041
0.05244325474 -0.08580490947 0.6684961319 -0.02488382347 -0.5055443645 0.8420006633
0.04764667153 -0.0816982463 0.6671673656 -0.2650857866 -0.5670391917 0.7769388556
0.07814531028 -0.08781191707 0.6411848664 0.5675395131 -0.5756150484 0.5875605941
-0.04658916965 -0.07242678106 0.6625362635 0.6423618197 -0.5191414356 0.5604262948
-0.04284654558 -0.07410172373 0.6552516818 0.6069056392 -0.5538737774 0.5675538182
-0.02219321765 -0.1106875464 0.6081599593 0.270952791 -0.5908498764 0.7572341561
-0.05092525482 -0.07003481686 0.6666029692 0.6585822105 -0.5145933628 0.5488965511
-0.06191667914 -0.1749291867 0.6635870934 -0.8101695776 -0.3771270514 0.4484953284
-0.02319885418 -0.1937474012 0.6856512427 -0.2660207152 -0.6360732317 0.7224875689
0.06216259673 -0.09183803201 0.6333933473 0.2740473747 -0.5988228917 0.6263412833
0.04391739517 -0.09024169296 0.6355857253 -0.2385001481 -0.5669689178 0.6042330265
0.04924954474 -0.0909935981 0.634665966 -0.08732583374 -0.5743641257 0.611841321
0.06306859106 -0.0848287195 0.6402163506 0.2651557028 -0.6479486823 0.5989442468
0.05510831624 -0.08443742245 0.6408744454 0.0430127196 -0.6320040226 0.5905253291
0.05540789291 -0.09125783294 0.6341944337 0.08434525132 -0.5869575739 0.6181997657
0.03813761473 -0.08867166191 0.6373210549 -0.4060233235 -0.5640166998 0.5929510593
0.07273190469 -0.08325205743 0.6417063475 0.4952467382 -0.6154555678 0.6095628142
0.05604429543 -0.1146492809 0.6386096478 0.2274796367 -0.7390522957 0.5958527327
0.05332240462 -0.119130522 0.6349947453 0.1495694518 -0.8014771342 0.5614384413
0.05902604386 -0.1159988567 0.6338298917 0.2866698205 -0.7575072646 0.5380346179
0.06127395108 -0.1051068008 0.6276323795 0.4062621295 -0.7320839167 0.5251687169
-0.02862560377 -0.1432289034 0.728143692 -0.3606385291 -0.6346892118 0.6819401979
-0.0260856282 -0.1390753537 0.7314017415 -0.3061635494 -0.6355012655 0.7069919109
0.04489795491 -0.1017130613 0.6473857164 -0.6250046492 -0.5753587484 0.5264609456
0.07042162865 -0.089119941 0.6360323429 0.4857218564 -0.6143181324 0.617834568
-0.03006467223 -0.06168067828 0.6570875049 0.4230179489 -0.6553994417 0.6199821234
-0.03528817371 -0.06142604351 0.6609222293 0.5070037246 -0.6175103188 0.597540617
-0.01893388852 -0.1474977881 0.7307118773 -0.2446020097 -0.6460195184 0.7211064696
0.04835958779 -0.07303246111 0.6658514142 -0.2490356565 -0.6949400306 0.6326060295
0.04743503034 -0.07021991909 0.6600663066 -0.2546695471 -0.731082499 0.539185524
0.05452151969 -0.07256413996 0.6589239836 -0.1167614236 -0.7822703123 0.5214970112
0.04130099714 -0.06828565896 0.6654765606 -0.4304332733 -0.6258807182 0.6217716336
0.0703542009 -0.07872276753 0.6472152472 0.3799051344 -0.7000739574 0.6014473438
-0.04874050617 -0.07798660547 0.66022259 0.6645027995 -0.5131121278 0.5408947468
-0.0374625586 -0.067102395 0.6578303576 0.5171337724 -0.5961540341 0.6074703932
-0.0410925746 -0.06451630592 0.6636304855 0.583732307 -0.5737171769 0.5735410452
-0.01420279313 -0.05966192111 0.6522216797 0.1653915346 -0.7167409062 0.6742507219
-0.009784342721 -0.05638033897 0.6544510722 0.1030413955 -0.731764257 0.6703850031
0.007898054086 -0.1929365695 0.683575511 0.2308785915 -0.6519965529 0.7024551034
-0.007009503897 -0.1913881302 0.6871752143 0.005956726149 -0.6792823672 0.7281022668
0.0117572248 -0.1974103898 0.6817352772 0.2780050337 -0.664606154 0.6858540177
0.02361208946 -0.1922651231 0.6780815125 0.4806049168 -0.5917752385 0.6390242577
0.02278301492 -0.1867452115 0.6823167205 0.4785149097 -0.5893855691 0.6382673979
0.01787226088 -0.1872190386 0.6855721474 0.4117202461 -0.6125239134 0.6688814163
0.02896602638 -0.1863372624 0.679315567 0.5730193257 -0.5553468466 0.6022292972
0.01798630692 -0.1950725764 0.6793185472 0.386203289 -0.6263821125 0.6743457913
0.00289866142 -0.1837730557 0.6971675754 0.141822502 -0.6894780397 0.7099177241
0.001734487014 -0.1886120886 0.6929234266 0.1228789091 -0.6851120591 0.716516912
-0.003258123295 -0.1822753698 0.6989107728 0.03833787888 -0.6897236705 0.719648838
0.04556617886 -0.1065748185 0.6424230337 -0.5925012827 -0.6260923743 0.4900768399
0.05784072727 -0.09533820301 0.6588807106 0.2809305787 -0.5989073515 0.7373096347
0.05400230736 -0.1016070247 0.6562439799 0.2002083957 -0.6166869402 0.7510433197
0.05935334042 -0.0909813419 0.6620641351 0.293340832 -0.5716276169 0.7515980601
0.0476940684 -0.1002237424 0.6525988579 -0.4793179929 -0.5505337119 0.6390214562
0.05436081439 -0.1100266725 0.6464719176 0.2245434523 -0.6828396916 0.6769120097
0.06110129505 -0.1087741107 0.6411396861 0.3671326935 -0.6664879322 0.6174331307
0.06662092358 -0.1094567627 0.6348871589 0.470066309 -0.669357121 0.5482393503
0.04467582703 -0.1779405624 0.665578723 0.7543402314 -0.4519767463 0.4744946957
0.03757901117 -0.1864450574 0.6712421775 0.6992777586 -0.4886268079 0.517442286
0.04223527014 -0.1835507154 0.668576479 0.7403680086 -0.4592949748 0.4905269444
0.0318852216 -0.1884945929 0.6741720438 0.6300070286 -0.5354455113 0.560197413
0.05043726787 -0.115591757 0.6258075833 0.0589486286 -0.7677243352 0.502974391
-0.0008053426864 -0.09632766992 0.6164952517 -0.06349403411 -0.6735380888 0.7318995595
-0.002626735251 -0.1005410552 0.6126263738 -0.0183386784 -0.6811125875 0.7277265191
0.05796523765 -0.111835584 0.6274608374 0.3495688438 -0.7902675271 0.4945256114
0.06827020645 -0.111809127 0.6294366717 0.5145707726 -0.6951792836 0.4933488369
0.06331442297 -0.1139476821 0.6279639006 0.4227774441 -0.7169514894 0.5388917327
0.05145264417 -0.1216567531 0.6266043782 0.08707040548 -0.830539763 0.3855613172
0.05817199498 -0.1178964004 0.6276403069 0.3026204705 -0.7915820479 0.4505775869
-0.05704817548 -0.1140272319 0.6349945068 0.6974829435 -0.5149207711 0.4980563223
-0.06058195233 -0.1150167361 0.6393473148 0.7148395181 -0.5042227507 0.4843175709
-0.06091467291 -0.1172371805 0.6563455462 0.3433564007 -0.467133671 0.4614397287
-0.06107535586 -0.1122535318 0.6499981284 0.582134068 -0.485506773 0.4665299058
-0.06148174778 -0.1235429496 0.6529585123 0.2724640369 -0.4627851546 0.4643206894
-0.06221047416 -0.1353760362 0.6677814126 -0.290323168 -0.4157772362 0.4469693601
-0.06112479419 -0.1428602934 0.6742380261 -0.5934704542 -0.3955852389 0.4459847808
-0.06227972731 -0.1353381574 0.6540648937 -0.09198015183 -0.4273713231 0.4507216811
-0.06110428646 -0.1294869483 0.6588727236 0.01214623172 -0.4430209696 0.4597430527
-0.06252209097 -0.1427203417 0.6602627635 -0.3944256008 -0.4021975696 0.4425324798
-0.06199907139 -0.1437377483 0.6666172147 -0.5128353834 -0.3962930739 0.4428357184
-0.06204518303 -0.1484805942 0.6716825962 -0.7222617865 -0.3796399534 0.437856406
-0.06322900951 -0.1504692286 0.6640803814 -0.6720163822 -0.3767774403 0.4326989949
-0.06131095812 -0.1198241487 0.645842433 0.4769766331 -0.4781217575 0.4691033363
-0.06217485294 -0.1351791918 0.6613975763 -0.1809722036 -0.423933059 0.4508895278
-0.06076185405 -0.1109831259 0.6440833807 0.7257401943 -0.4987360239 0.4738380313
-0.05629425123 -0.1057354733 0.6439013481 0.7257661819 -0.5037062168 0.4685381353
-0.05571475625 -0.07834719867 0.6669296026 0.6927008033 -0.4970404208 0.5204662085
-0.04897090793 -0.1550435573 0.6954383254 -0.7158276439 -0.4608830512 0.5228667259
0.05218088999 -0.09345189482 0.6622478366 -0.1424189508 -0.4834580421 0.8401336074
0.05892929435 -0.08169448376 0.669757545 0.1544478536 -0.5833798051 0.7344330549
0.05471177027 -0.08118639141 0.673679173 -0.0232377518 -0.5787712932 0.768648684
0.04882697389 -0.07387875021 0.6746502519 -0.291010648 -0.6442824602 0.6987474561
0.0541520305 -0.07619823515 0.6700385213 -0.1225672364 -0.7352394462 0.6439625025
0.06315587461 -0.0833542496 0.6652194262 0.3501371443 -0.5712425113 0.7219942212
-0.04253382608 -0.1609818041 0.6976108551 -0.6406758428 -0.5074982643 0.5682901144
-0.03863301501 -0.1662563682 0.6969951391 -0.5719468594 -0.5419829488 0.6122992039
0.0252391398 -0.0663389042 0.6544737816 -0.4759696424 -0.6306842566 0.612763226
0.03035121039 -0.06827392429 0.6568403244 -0.5141173005 -0.6186801791 0.5931583047
-0.006602021866 -0.05983511731 0.6513499618 0.0469285138 -0.7195467949 0.6854389906
0.05315199494 -0.07445964962 0.6519411206 -0.03198760375 -0.6821408272 0.5866624117
0.03537266329 -0.07223496586 0.6557641029 -0.4900749922 -0.5999715924 0.5914119482
0.06039614603 -0.0760409683 0.6528973579 0.07922530174 -0.7593712211 0.5517247319
0.04795855284 -0.0726160109 0.654607594 -0.1752938181 -0.6897177696 0.5695416331
0.06579106301 -0.07729452103 0.6536278725 0.1598668098 -0.8170027137 0.5253839493
0.04110706225 -0.07647795975 0.6527993083 -0.378723979 -0.5882946849 0.6019359231
0.07359401137 -0.08289819211 0.6496780515 0.4366719127 -0.6490752101 0.6078008413
0.06434797496 -0.07871186733 0.6598249078 0.2189784199 -0.7404831648 0.6256346703
-0.03116765432 -0.07420057058 0.6458870769 0.4170451462 -0.6386711597 0.6415888667
-0.03665839136 -0.07262443751 0.6507555246 0.4872845113 -0.6129504442 0.6210802794
-0.02588421665 -0.06984546781 0.647400856 0.3295470774 -0.6619026661 0.6703329086
-0.05424002185 -0.1466841549 0.6953057647 -0.7442765236 -0.4251575768 0.5147268772
-0.05063335225 -0.1459782124 0.7004777193 -0.720533371 -0.4455371797 0.5304686427
-0.04785550758 -0.1508404166 0.7007012963 -0.6878111959 -0.4774505198 0.5427879095
-0.06050175056 -0.08891243488 0.6687753201 0.7263668776 -0.4799856544 0.4916066229
-0.06063067541 -0.1054384038 0.6607574224 0.5511019826 -0.4790757 0.4609131217
-0.06017786637 -0.1119400784 0.6678480506 0.2918554246 -0.4616965652 0.4719301462
-0.05975557864 -0.1203175709 0.6724048257 0.02392039262 -0.4464158714 0.4739141464
-0.05907242373 -0.130841285 0.675891459 -0.2738847733 -0.4334194958 0.4724855423
-0.0610669069 -0.1376146525 0.6776247025 -0.5257886648 -0.3974049091 0.4488488436
-0.06080599874 -0.1050720364 0.6682437658 0.4399223626 -0.462777406 0.4775433242
-0.06103906035 -0.09359508753 0.6639949083 0.7346552014 -0.4801646769 0.4791636169
-0.03516316786 -0.09159932286 0.6303204298 0.4643244743 -0.6291821003 0.6213465333
-0.003673302708 -0.1849159151 0.6926807761 0.0554295294 -0.6804997325 0.7252470851
0.003993069287 -0.1896684021 0.6878656745 0.1827271134 -0.6670808196 0.7100326419
0.06814146042 -0.104495503 0.6375998259 0.4489645064 -0.6091656685 0.6340053082
0.06786826253 -0.09817375988 0.6447629333 0.4423358142 -0.5965535045 0.6369912028
0.07327470928 -0.09687674791 0.6403221488 0.5238898396 -0.5756750703 0.6100817919
0.06108139455 -0.1041746065 0.6455873847 0.3416754007 -0.6321192384 0.6696581244
0.07730217278 -0.09819818288 0.6352126002 0.5714614987 -0.5775699019 0.5808237195
0.07728083432 -0.09165275097 0.6367712021 0.5810533166 -0.5735675693 0.5758275986
0.06461662054 -0.09387309849 0.6530339718 0.3997271955 -0.590270102 0.6802068949
0.05975465849 -0.1004745141 0.6510804296 0.3240483105 -0.6248999834 0.6893784404
0.05574160814 -0.1055787355 0.649846673 0.2619016767 -0.6523174644 0.698420763
0.07014541328 -0.09143230319 0.6496881843 0.4811030328 -0.5680330396 0.6481326818
0.07462937385 -0.09225781262 0.6438919902 0.5445076227 -0.559490025 0.6101351976
0.06384771317 -0.08773961663 0.660612762 0.3943931758 -0.5714595318 0.7123234272
0.06841117889 -0.08367215842 0.6580412984 0.4020516276 -0.6182908416 0.6621996164
0.0004187115119 -0.1048510075 0.6082982421 -0.07504633069 -0.6795126796 0.7241655588
0.002301146742 -0.1084135175 0.6038287282 -0.1082511693 -0.6717729568 0.729821384
0.004714384675 -0.1137331203 0.5982932448 -0.1021096632 -0.6743455529 0.7290140986
-0.001744833542 -0.1116832271 0.5980849862 -0.0189454481 -0.661344111 0.7492931485
-0.009831077419 -0.1083759144 0.6040990353 0.09477158636 -0.6479014158 0.7508026958
0.005650745705 -0.1133676246 0.6044862866 -0.1592342108 -0.6419749856 0.7179763317
0.01155740395 -0.1143707335 0.6039536595 -0.2488167733 -0.6400077343 0.7002190948
0.01332898065 -0.1163501516 0.597995162 -0.2768063843 -0.6634271145 0.6922130585
0.02720689029 -0.1821172535 0.6842253804 0.548522532 -0.5639426112 0.6156967282
0.001209741691 -0.09184443206 0.6206309795 -0.1142366603 -0.6775428057 0.7208470702
0.0403268598 -0.1012036502 0.6391502619 -0.6507310867 -0.5692434907 0.5008778572
0.06624717265 -0.09967520833 0.6286480427 0.4647678733 -0.6285881996 0.6132701039
-0.007706826087 -0.1048126817 0.6080064178 0.06880863011 -0.656911552 0.7475252748
-0.02356792428 -0.1041861251 0.6126286387 0.2564141452 -0.6261953115 0.7351710796
-0.01562542282 -0.10474471 0.6092602015 0.1779810935 -0.6400095224 0.7466500998
-0.01545011159 -0.1112576872 0.606241405 0.1859098524 -0.6280199885 0.755563736
-0.03065313026 -0.09240915626 0.6256429553 0.4155522585 -0.6366600394 0.6489939094
-0.05583153293 -0.1194426045 0.6289786696 0.6741294861 -0.5141031146 0.5296157598
-0.05049579218 -0.119387053 0.6224583983 0.6401304603 -0.4979480207 0.5843122602
-0.05784644932 -0.1699229479 0.6665536165 -0.8110511899 -0.3816738129 0.4430411756
-0.05598739162 -0.174102664 0.6707195044 -0.7980988026 -0.3888299465 0.4581593573
-0.0534288846 -0.1655300409 0.6790160537 -0.7867315412 -0.3988782465 0.4689635932
-0.06253585964 -0.1554841846 0.6679156423 -0.8298957944 -0.358689338 0.4273082018
-0.05861870199 -0.16055049 0.6744765639 -0.8277777433 -0.3561426401 0.4334614277
0.04585686326 -0.08741689473 0.6593666673 -0.3864853382 -0.4916947782 0.7664823532
0.04941923171 -0.09632822126 0.6569360495 -0.3248367012 -0.4775146544 0.8122462034
0.05815074965 -0.07716220617 0.6612488627 0.01851058565 -0.8045836091 0.5831421614
-0.05457431078 -0.07256063074 0.6731933355 0.6704165339 -0.5064666271 0.540427804
-0.05976512656 -0.08257991076 0.6734640598 0.712569356 -0.4849583805 0.506778717
-0.04854438826 -0.06505201757 0.6720087528 0.6361281276 -0.5240111947 0.5660704374
-0.05795273185 -0.1482366323 0.6881629825 -0.776494503 -0.4030111432 0.4803851247
-0.05308670178 -0.1610172689 0.6836696863 -0.7685245872 -0.4156942666 0.4858737886
-0.05332619697 -0.155744642 0.6871201992 -0.766933918 -0.4150404036 0.4871626794
-0.05098610744 -0.1592458934 0.6907852888 -0.7358326316 -0.4441654384 0.5111179352
-0.0129057616 -0.1560134888 0.7223662734 -0.1371839046 -0.6638029218 0.7320290208
-0.008066677488 -0.1586433947 0.7204318047 -0.0455943346 -0.6783748269 0.7268404365
0.001400658628 -0.1576305926 0.7203962207 0.1146079451 -0.6816079021 0.7131117582
-0.004295556806 -0.1547900438 0.7258368731 0.009313991293 -0.6750211716 0.7301424146
0.0416476354 -0.1558810174 0.690594852 0.7093370557 -0.5215294957 0.4730247259
0.05218172073 -0.1315371841 0.6531398892 0.3943853676 -0.6117968559 0.5697920322
0.05244076252 -0.1279650778 0.6442697644 0.2876521349 -0.7055249214 0.5484283566
0.0529079698 -0.1370023638 0.6466544867 0.4046553671 -0.6680599451 0.487203002
0.05189761147 -0.1253066957 0.6508170366 0.3085421622 -0.6443831921 0.6081006527
0.05259978771 -0.1376808733 0.6529663205 0.4602324963 -0.6041941643 0.517854929
0.0528181307 -0.1270328611 0.636420548 0.2175710052 -0.7850809097 0.5110439062
0.05232010037 -0.1225790009 0.6400294304 0.1964108497 -0.7559178472 0.5687148571
0.04885866493 -0.1170370132 0.6384145021 -0.1644995064 -0.7809544206 0.5564367771
-0.002821071073 -0.1494014412 0.7306483984 0.00994841475 -0.6709038615 0.7408521175
-0.003346233862 -0.1425044686 0.7377414107 -0.0319936499 -0.6676373482 0.7322329879
-0.01493173931 -0.1393211782 0.7355300188 -0.1689511687 -0.666692555 0.7258022428
-0.01111453958 -0.1862538159 0.6943975091 -0.0950261429 -0.6804737449 0.7188204527
-0.01906140707 -0.1530146301 0.7246368527 -0.2520440221 -0.6451708674 0.7168214917
-0.02269833162 -0.1475553811 0.7252265215 -0.2841722369 -0.6435729861 0.7033119798
-0.01809301041 -0.1586337537 0.7183794379 -0.2079948485 -0.666148901 0.7100526094
-0.02343336493 -0.1552122235 0.7200098634 -0.3274577856 -0.6402159929 0.6898138523
-0.02249010652 -0.1600576639 0.7154944539 -0.3113476634 -0.6527400017 0.6831554174
0.004096069839 -0.1627886742 0.7168351412 0.1641443819 -0.6769325137 0.7153997421
0.02969128639 -0.1556546539 0.7073463798 0.5255219936 -0.6039279699 0.5981972218
0.03957628831 -0.1515503377 0.7006210685 0.6303319335 -0.5592915416 0.5338230729
0.03532056138 -0.1522274613 0.7062122822 0.5692307949 -0.5831968188 0.5775138736
0.03202240542 -0.1499506831 0.7107855082 0.5265409946 -0.5984259248 0.6020904779
0.02985098958 -0.1474066824 0.7155003548 0.484908849 -0.6145142913 0.6214343309
0.0263898056 -0.1528329551 0.7131202817 0.4816177189 -0.6135604382 0.6252140403
0.02768178284 -0.07187453657 0.6517822146 -0.4877347946 -0.6051368117 0.6290783882
0.03582749516 -0.06613446027 0.6643778682 -0.5114377141 -0.6224046946 0.5907401443
0.02882874012 -0.06276194006 0.6620315313 -0.4792530239 -0.6270283461 0.6134209037
0.04444852099 -0.07297934592 0.6709485054 -0.3873907626 -0.5957694054 0.6980908513
0.04206639901 -0.07456058264 0.6649875045 -0.4709381759 -0.5581567287 0.6798389554
0.04127987474 -0.07899302244 0.6606864929 -0.4399287105 -0.5454223156 0.6924332976
0.03958857059 -0.08247818798 0.6548143029 -0.5461817384 -0.5192932487 0.636695087
0.03094851412 -0.07809123397 0.6489057541 -0.5763583779 -0.5563661456 0.5981568098
0.05009304732 -0.07937327027 0.6465386748 -0.08089655638 -0.6228803396 0.5931789875
0.05645451695 -0.07918453962 0.6471354961 0.06666680425 -0.6433306336 0.5932478905
-0.02043598145 -0.06699581444 0.6478805542 0.25717026 -0.6827631593 0.6804699302
-0.01932633668 -0.06226788089 0.6513179541 0.247479558 -0.6995956898 0.6664180756
-0.03543608263 -0.07814736664 0.6444979906 0.4881928861 -0.6204800606 0.6116394401
-0.04075396061 -0.07985131443 0.6476130486 0.5905554891 -0.564812541 0.5748928785
-0.03910720348 -0.08325867355 0.6423110962 0.5512111783 -0.5913025141 0.5857045054
-0.02605422772 -0.06423951685 0.6521311402 0.3605609536 -0.6758545041 0.6423916221
-0.03124358505 -0.06682801247 0.6516758204 0.4150407016 -0.6464061737 0.6396309733
-0.05365590751 -0.09805771708 0.6474960446 0.7180935144 -0.5124082565 0.4707096219
-0.05853797123 -0.1027145609 0.6508249044 0.7336319089 -0.4994164407 0.4608080089
-0.04332219809 -0.09582141042 0.6333919168 0.6108621955 -0.5664370656 0.5518099666
-0.04615598172 -0.1011808962 0.6315267682 0.6481199265 -0.5372944474 0.5379394293
-0.04425488785 -0.1056834832 0.6255259514 0.611219883 -0.529065907 0.5885321498
0.004315356258 -0.100907281 0.613099575 -0.1487812698 -0.6791065931 0.714117825
0.007171890698 -0.09742670506 0.617423296 -0.2050762326 -0.6617789865 0.7066429257
0.004925388377 -0.08760477602 0.6252222061 -0.1676668078 -0.6761648655 0.7168826461
0.007561213803 -0.09191795439 0.6217870712 -0.2175967246 -0.6698291898 0.7075015306
0.01647480391 -0.09201960266 0.6252393126 -0.3459561765 -0.6379627585 0.6870078444
0.0252610147 -0.09209351242 0.6308410764 -0.4657880664 -0.5983362794 0.6509050727
0.02133988962 -0.09461709857 0.6259816289 -0.4179982245 -0.6114183664 0.667992115
0.04618085548 -0.1699280888 0.6657134295 0.77876544 -0.4296567738 0.4570198357
-0.0053441911 -0.09045293182 0.6212382317 -0.003410679288 -0.6828916073 0.7297903299
-0.009567022324 -0.08738566935 0.6248940229 0.07225733995 -0.6887301207 0.7172756195
-0.01295866724 -0.09070132673 0.6222564578 0.1249943674 -0.6822344065 0.7169611454
0.04472989216 -0.1133675128 0.6351608634 -0.4652813077 -0.6977117062 0.4876025319
0.04687131569 -0.1191550568 0.633113265 -0.324714154 -0.7923068404 0.4794421792
-0.01439511031 -0.1002499759 0.6131106019 0.1524986327 -0.6502072811 0.7423530221
-0.008338317275 -0.1008885056 0.6122198105 0.0743669197 -0.6694919467 0.7351394892
-0.01012779493 -0.09549189359 0.6176921725 0.07854816318 -0.6692762971 0.7353407145
-0.01962093823 -0.09676597267 0.6180528402 0.2186773121 -0.6505698562 0.7235324979
-0.02507979423 -0.09403289855 0.6220087409 0.3029209673 -0.6525978446 0.6943352222
-0.06368917227 -0.1572060287 0.6615145802 -0.8557772636 -0.3174327314 0.3823694289
-0.06185382605 -0.1632017046 0.6585276723 -0.8953038454 -0.2515618801 0.3144181669
-0.06315004081 -0.1693935096 0.6613209248 -0.8163301945 -0.3721283674 0.4415921867
-0.05988518149 -0.1619676799 0.6681179404 -0.8249596953 -0.3605901897 0.4351875186
-0.0565594472 -0.1655341834 0.6731513143 -0.8225541711 -0.3633575439 0.4374117851
-0.03624027595 -0.1865284443 0.6820712686 -0.5051951408 -0.5382412672 0.6724982262
-0.0440601632 -0.0923685655 0.6407180429 0.6367738247 -0.5533212423 0.5232710838
-0.03510726616 -0.08769855648 0.6344159245 0.472360611 -0.6251437068 0.6194625497
-0.04012437165 -0.08822450787 0.6375278831 0.5764103532 -0.5861515403 0.5675752759
-0.04744277149 -0.09852801263 0.6369464397 0.6812624931 -0.5277213454 0.5068216324
0.03880727664 -0.1627106667 0.6884608865 0.7144966722 -0.4966823757 0.4904938638
0.04338471964 -0.1596833318 0.6847938895 0.7424998879 -0.4832257926 0.4627255201
0.05138478428 -0.1543357074 0.6654767394 0.6930192709 -0.4668317139 0.4404986203
0.05129700527 -0.1501147598 0.6600787044 0.5624688864 -0.5216917396 0.4428513944
0.05008721724 -0.119308494 0.6448094845 0.08575857431 -0.7171165943 0.6099075079
0.0483404845 -0.1304597706 0.6379979253 -0.03564311936 -0.7729538679 0.456122756
0.04938181862 -0.1315597296 0.6471149921 0.1749999523 -0.682608366 0.5114865303
0.04952509701 -0.1422508508 0.6552476287 0.3920738101 -0.5925601721 0.4697009027
0.05090979859 -0.1599698216 0.6705068946 0.7915356159 -0.4254330695 0.4387231767
0.04707972705 -0.1565664113 0.6803633571 0.7528194785 -0.4819819629 0.4458358288
0.05250529572 -0.1250625551 0.6566169858 0.411247462 -0.5860183835 0.6183692813
0.05183980241 -0.1378300041 0.6619617343 0.5609194636 -0.5228160024 0.547665
0.05053900927 -0.1484726667 0.6667495966 0.6758683324 -0.4734742939 0.4897862077
0.05118589848 -0.1324596107 0.659784615 0.4776521027 -0.5563346744 0.5796709657
0.05266884714 -0.1196802557 0.6544089317 0.3464485407 -0.6132423878 0.6483608484
0.05256081745 -0.1128490567 0.6519008279 0.2636239529 -0.647985816 0.6864556074
0.04661269858 -0.162668407 0.674259901 0.7889637947 -0.41914469 0.4491365254
0.04330813885 -0.1670815647 0.6764746308 0.7750694156 -0.4238424897 0.4679155648
0.04214007035 -0.1642870903 0.6816933155 0.7578641176 -0.4485758245 0.4732398689
0.05046284571 -0.1653099805 0.6683896184 0.7851431966 -0.4287105799 0.4465763569
0.04285699874 -0.1723401099 0.6730700135 0.7761214375 -0.4291560948 0.4618843496
0.04974213615 -0.1744495779 0.6639255285 0.7703630924 -0.4378369749 0.4632865191
0.03387759626 -0.1751033217 0.6827596426 0.6583220363 -0.4968341887 0.5613164306
0.03656734899 -0.1768454313 0.6771244407 0.7178875804 -0.4663667679 0.5130751729
0.03515481576 -0.1831200719 0.6748524904 0.6856027246 -0.5025641918 0.5249605775
0.03926325962 -0.1718920618 0.6780309081 0.7484065294 -0.4464835823 0.490265429
0.04045195505 -0.1777789593 0.6709378362 0.7360067964 -0.4627358019 0.4917318225
0.003908023238 -0.1475718915 0.7309359312 0.1123374179 -0.6659227014 0.7361232638
-0.03721932322 -0.1424397528 0.7200303078 -0.4852235615 -0.5939974189 0.63437289
-0.03335583955 -0.1397665739 0.7262629271 -0.4141964316 -0.6295311451 0.6556455493
-0.03837157413 -0.1464107335 0.7160084844 -0.5468309522 -0.561209619 0.6189782619
-0.02878473327 -0.1787452996 0.6951748133 -0.4002205729 -0.5920717716 0.6954700947
-0.02446282096 -0.1770490557 0.6998271942 -0.3380723596 -0.6143039465 0.7125133872
-0.04315326735 -0.1544589996 0.7038561106 -0.6425991058 -0.5185758471 0.563513577
-0.03279775009 -0.1654707789 0.7035189271 -0.5016000271 -0.5891863108 0.6299514174
-0.02442744188 -0.1652448922 0.7102420926 -0.3628973663 -0.6414183378 0.6756870151
-0.01574921608 -0.1675270498 0.7115599513 -0.2089869529 -0.6716027856 0.7043458819
-0.022409169 -0.171743691 0.7053436041 -0.3224440515 -0.6297704577 0.7021969557
-0.00247522234 -0.1615312397 0.7191675305 0.06399901211 -0.6853861809 0.7217727304
-0.006415317766 -0.1644892544 0.7151299715 -0.03001835942 -0.6843565702 0.7234656811
-0.01337761059 -0.1636152714 0.7150301337 -0.1527981311 -0.6775224805 0.7173852324
0.01415706612 -0.1556784958 0.7186962962 0.3223238885 -0.6518961787 0.682679534
0.007940245792 -0.1563652307 0.7208291292 0.2263384312 -0.6729710698 0.7018220425
0.01933461428 -0.1524655074 0.7181009054 0.3844700456 -0.637216568 0.6655954719
-0.009573698044 -0.1680718362 0.7096836567 -0.09370505065 -0.6688580513 0.7151286006
0.04108984023 -0.09182181954 0.649716258 -0.5768535733 -0.4889254868 0.6425688863
0.03030294366 -0.08287815005 0.6440402865 -0.5505580902 -0.5641575456 0.609844625
0.04282424599 -0.08773607761 0.6543231606 -0.5411310196 -0.4676387012 0.6959963441
0.03711058199 -0.09104415029 0.64325279 -0.6605796814 -0.5208727121 0.5382220745
0.04245105013 -0.08595617115 0.6410394311 -0.3249258697 -0.580193162 0.5855368376
0.04847474024 -0.08405177295 0.6438287497 -0.190991506 -0.5956845284 0.5828671455
0.03518015891 -0.08303060383 0.6487904787 -0.6139118075 -0.5253807306 0.5886209011
0.04316390306 -0.08051591367 0.6463544965 -0.2815124393 -0.591104269 0.59055686
0.0634535104 -0.08042071015 0.6446260214 0.2669892907 -0.6693215966 0.589279592
0.02388254739 -0.07294297218 0.6471374035 -0.450527817 -0.6222754717 0.6394479871
-0.04010295868 -0.09991400689 0.6256298423 0.5609121919 -0.5617535114 0.6057208776
-0.03910868615 -0.1066005155 0.6199977994 0.5246237516 -0.5342544317 0.658959806
-0.04520530999 -0.1111583561 0.6218907833 0.6020746827 -0.506261766 0.6166056991
-0.02577015571 -0.0989099741 0.6179633141 0.3143091798 -0.6306635141 0.7073154449
-0.03456436843 -0.1016481072 0.6199707985 0.464572072 -0.5725027919 0.6720578074
-0.03021312505 -0.1049799696 0.6145230532 0.3711777329 -0.5884674788 0.7121915817
-0.03188513592 -0.09727075696 0.6228477359 0.425321579 -0.6130254269 0.6586247087
-0.05846674368 -0.09690838307 0.6578477025 0.7340477705 -0.4902907312 0.4697421193
-0.04498739541 -0.0877398476 0.6463150978 0.659106493 -0.538643539 0.5233499408
-0.04658496752 -0.0846323669 0.6503320932 0.6874773502 -0.5060611963 0.5195348263
-0.05215520784 -0.08497343212 0.6584117413 0.7114441991 -0.4843600988 0.5090667009
-0.04595278576 -0.07916145772 0.6544183493 0.6591816545 -0.5206794143 0.5401715636
-0.05784453079 -0.08797523379 0.6627755761 0.7257260084 -0.4810704589 0.4917620718
-0.05559741333 -0.09167402238 0.6582120657 0.7291591763 -0.4829219282 0.4846102595
-0.05088846013 -0.08913250268 0.6527447104 0.7021605968 -0.5039227009 0.5004495382
-0.04876320809 -0.09318623692 0.6455421448 0.7018327117 -0.5190596581 0.4875024259
-0.03264857829 -0.08236888051 0.6380128264 0.4382969439 -0.6358926296 0.6317229271
-0.0255306717 -0.07877089828 0.6376696229 0.3196405768 -0.6696848869 0.6670372486
0.03169798106 -0.09140221775 0.6374152899 -0.5757463574 -0.5539966822 0.5899326801
0.0271501001 -0.08779835701 0.6357850432 -0.5163021088 -0.5761426687 0.6275781989
0.02311545983 -0.09922549129 0.6229531169 -0.4413140714 -0.5998233557 0.6635525823
0.01426842622 -0.09685020894 0.6196495295 -0.3219529688 -0.6481848359 0.6885788441
0.01506412122 -0.08631839603 0.6301048398 -0.3212519884 -0.6426924467 0.6947183013
0.007761365734 -0.1051207706 0.6101177335 -0.2045317143 -0.6700137854 0.7074789405
-0.003290358 -0.11203444 0.604219377 -0.01315755304 -0.652444005 0.7465868592
0.01913250238 -0.1138084903 0.6088246107 -0.4054671228 -0.6071200371 0.6726346016
0.01327520795 -0.1111333519 0.6087026 -0.2883378565 -0.6302214265 0.6985951662
0.01840822399 -0.1153947562 0.6028172374 -0.3597404361 -0.6307295561 0.679236412
0.02371231653 -0.1171030551 0.6047859192 -0.4296146929 -0.5940845609 0.6684359312
0.03646688163 -0.115522407 0.6139189601 -0.3350174725 -0.6071705222 0.6108373404
0.04191309586 -0.1158882231 0.6187951565 -0.2320928425 -0.6618071198 0.5679147243
0.05147629231 -0.1663725823 0.6571511626 0.7816078067 -0.4275864363 0.4540839493
0.04845771939 -0.12580809 0.6307077408 -0.1454334855 -0.853073597 0.4311994016
0.05165567994 -0.1340965331 0.6347984672 0.3191376328 -0.8180094957 0.3234138489
0.05002091452 -0.1478729248 0.6454110742 0.3527334332 -0.6087723374 0.4541443586
0.04907790571 -0.1379092485 0.6386912465 0.1019320339 -0.714586854 0.4556542635
0.05114502832 -0.1497917175 0.6536992192 0.4864848852 -0.5531290174 0.4477313459
0.05177964643 -0.1552644372 0.6495942473 0.6218571663 -0.5291230083 0.4697507322
0.05262265354 -0.1433453262 0.6488700509 0.4895996451 -0.6144377589 0.4786824882
0.05251388252 -0.1552057415 0.6586084962 0.6927860975 -0.4862321913 0.4552405775
0.05177226663 -0.1600662321 0.6539896727 0.7077128291 -0.4750433266 0.4595293403
0.05227712542 -0.1607450396 0.6633846164 0.7880304456 -0.4261419475 0.4442298114
0.03687778488 -0.159982875 0.6935960054 0.672499299 -0.5381321907 0.5070628524
0.03130319715 -0.1694721282 0.6912503242 0.6120320559 -0.5480628014 0.5571805835
0.03580750525 -0.1694120616 0.6860558391 0.6919779778 -0.4989039898 0.5178976059
0.02233554795 -0.1829154938 0.6888991594 0.4783371985 -0.5951259136 0.6453979611
-0.03595592082 -0.1085316464 0.6148241162 0.4851972759 -0.5372677445 0.6879759431
-0.04609135538 -0.1174737513 0.6187957525 0.5991727114 -0.4939537346 0.6270135641
-0.04040905088 -0.1128253788 0.6150829792 0.5463863015 -0.4920275509 0.6745892763
-0.03532361612 -0.1132779717 0.6117941737 0.4690300226 -0.520847261 0.70771873
-0.02997784875 -0.1115678921 0.6100124121 0.39694345 -0.5432030559 0.7350247502
-0.04500557482 -0.173132509 0.685916841 -0.6706875563 -0.4604131877 0.5793375373
-0.04742345586 -0.1643642932 0.6909617782 -0.6921056509 -0.4719174504 0.5415965915
-0.04322713986 -0.1679411829 0.692602694 -0.6371257305 -0.5064883232 0.5803167224
-0.02681670152 -0.1824575663 0.6910051703 -0.3543022871 -0.6025072336 0.7044207454
-0.04355735704 -0.1854390353 0.6811910272 -0.610891819 -0.4826099575 0.6209849715
-0.04199408367 -0.18031542 0.6872174144 -0.5869655609 -0.5190354586 0.6178885698
-0.02749690227 -0.1895816177 0.6858543754 -0.3337728381 -0.6120521426 0.7150905728
-0.03100914508 -0.1935043186 0.6813951731 -0.4000913501 -0.6000114679 0.6881898642
-0.03632634133 -0.1939919591 0.6836053133 -0.4557720721 -0.565312922 0.6762524843
-0.03335556388 -0.1803488135 0.6880363822 -0.4838111997 -0.5387820005 0.6747686267
-0.02165429667 -0.1855557412 0.6874975562 -0.2974487543 -0.6052808762 0.7015505433
-0.03090997599 -0.1853209883 0.6847035289 -0.4244606197 -0.564519763 0.6899747849
-0.01532802358 -0.1888044775 0.6875033975 -0.1873604506 -0.6482402682 0.7218315005
-0.01700521633 -0.08187805116 0.6313365102 0.2080211788 -0.6860841513 0.6952836514
-0.02375296317 -0.08322457969 0.6326019168 0.2926966846 -0.6783625484 0.6717531085
-0.01825889386 -0.08626324683 0.6274902821 0.2008313239 -0.6828187704 0.6985477805
-0.02961693332 -0.08760340512 0.6302401423 0.3992444575 -0.6521943212 0.6423538327
-0.05109392479 -0.1039509475 0.6366893649 0.6969584227 -0.5155022144 0.498342514
-0.05024862289 -0.1072884053 0.6313340068 0.6859094501 -0.5156481266 0.5133218169
-0.05115597695 -0.09939399362 0.6414917707 0.7025840878 -0.5181332231 0.487218082
0.04177545011 -0.1067216322 0.6367481947 -0.6449764967 -0.5800788999 0.4919473827
0.03942842036 -0.1212549582 0.621263206 -0.5179659724 -0.6183853149 0.58569628
-0.008132277988 -0.1395713538 0.7364829183 -0.09889619052 -0.6650617123 0.7378822565
-0.001143272384 -0.1443846077 0.7326503396 0.0128254462 -0.6567394137 0.7429697514
0.01082292572 -0.1450347304 0.73048985 0.2136156708 -0.6700858474 0.7090385556
0.006979051977 -0.1427281797 0.7375260592 0.1235556602 -0.6809643507 0.71865201
0.008546275087 -0.1500488669 0.7265815735 0.2087963223 -0.6617650986 0.7154779434
0.02158246934 -0.1470692903 0.721219182 0.3989022076 -0.6357773542 0.6573022008
0.01516034454 -0.1493674219 0.7246257663 0.3271581829 -0.6570071578 0.6791262031
0.002535213949 -0.1531746536 0.7246340513 0.1219286397 -0.6843678355 0.7125377655
-0.009983676486 -0.1474381983 0.7316445112 -0.1261149645 -0.6508790255 0.7447041869
-0.008968693204 -0.1512183398 0.7268325686 -0.09559486806 -0.6726911664 0.7309301496
-0.0140808979 -0.144102186 0.7302902341 -0.1604897827 -0.6676492095 0.7152746916
-0.02183383517 -0.1419158876 0.7286069989 -0.2671058178 -0.6513401866 0.6944178343
-0.02962450124 -0.1730307937 0.6990199089 -0.4393317997 -0.5956222415 0.6692399383
-0.03526355699 -0.1735857725 0.6941353083 -0.5260782242 -0.5451176167 0.652352035
-0.04075793549 -0.175403744 0.6901971698 -0.5871832967 -0.5224499106 0.6156083345
-0.0156145636 -0.1713033319 0.7058309913 -0.2003764659 -0.6635583043 0.7140204906
-0.01000418048 -0.179481253 0.6978218555 -0.06725253165 -0.680342555 0.7142884731
-0.01792587899 -0.1828242838 0.6939674616 -0.2180297822 -0.6602295637 0.7134494185
-0.02890346199 -0.1602061093 0.7113944888 -0.4327974916 -0.6197453737 0.647016108
-0.04237799346 -0.1458714455 0.711279273 -0.5834726691 -0.5436835885 0.6019436121
-0.03717885166 -0.1565090567 0.7081673741 -0.5570107698 -0.5670479536 0.6064055562
-0.03872020543 -0.1508106291 0.7119935155 -0.5647400618 -0.5566367507 0.6081829667
-0.02785568871 -0.1565404832 0.7157178521 -0.4094490409 -0.6299783587 0.6575175524
-0.03110959195 -0.1450000107 0.7220541835 -0.4238671362 -0.6201381087 0.6560676694
-0.03055872582 -0.1517326832 0.7207157612 -0.41102615 -0.6285873055 0.6595811844
-0.03292184323 -0.154208988 0.7139542699 -0.4919736087 -0.5986144543 0.6294950247
-0.00787873473 -0.1779417545 0.7033402324 -0.06160117313 -0.6854151487 0.7236900926
-0.0005170363002 -0.1720293909 0.7091278434 0.07255151868 -0.6857442856 0.7205385566
0.005624025594 -0.1675377637 0.7125384212 0.1783022135 -0.6769785285 0.7129091024
0.01121449657 -0.1606704295 0.7150093317 0.2728846371 -0.6596834064 0.6928879619
0.01108763739 -0.1648171246 0.7113642097 0.2965753675 -0.6524788737 0.6929034591
0.016651107 -0.1607237756 0.7125800252 0.3781578839 -0.6338005662 0.6722202301
0.02070593275 -0.1565229744 0.7135691643 0.4167620242 -0.6299148798 0.6511572599
0.01459678914 -0.1766135395 0.6981969476 0.3309096396 -0.6546020508 0.6792234778
0.002543915063 -0.1779681444 0.6987729669 0.1425904185 -0.6829410195 0.7076660991
0.003508079564 -0.1764125973 0.7046173215 0.144556269 -0.6885632277 0.7103281617
0.009226627648 -0.174016878 0.7037246227 0.2590363622 -0.6707540154 0.6928701401
0.01771070436 -0.07112768292 0.6451122165 -0.3496315181 -0.6518729925 0.6705619693
0.01681380719 -0.0630864799 0.6521043777 -0.3379536867 -0.6689056158 0.659213841
0.02085543983 -0.06889291853 0.6496539712 -0.3879846334 -0.6404626966 0.654302299
-0.06084184349 -0.1166303977 0.6640555263 0.2241395861 -0.4565485716 0.4557566643
-0.06094504148 -0.1241978481 0.6671050191 -0.01230223477 -0.4395646453 0.4523209035
-0.05830555409 -0.1436033994 0.681019485 -0.65062356 -0.4151646793 0.4723314345
-0.06043858826 -0.1113928854 0.6590220332 0.4590773582 -0.4806343913 0.4640232921
-0.06006225571 -0.129123807 0.6701485515 -0.1573162079 -0.4373945296 0.4601825774
-0.06279819459 -0.1473182887 0.6780965924 -0.7628136873 -0.3778195381 0.4356134832
-0.06106957421 -0.1076392531 0.6537467837 0.6247106194 -0.4879660606 0.4618273675
-0.06165887788 -0.1220096722 0.6611700654 0.1445642412 -0.4497346282 0.4538003504
-0.01484918036 -0.07239653915 0.6405130029 0.1815966517 -0.6836717725 0.7058380842
-0.01021326799 -0.07514728606 0.6365773678 0.09466888756 -0.6838803887 0.719542563
0.0346634835 -0.09927110374 0.6336134076 -0.5826494098 -0.5958631635 0.5460262895
0.03414993733 -0.1026937813 0.6288728118 -0.5596482158 -0.5829516053 0.5853462815
0.03814464435 -0.09836289287 0.6289260387 -0.364061594 -0.5690693259 0.6222634315
0.05334496498 -0.09733186662 0.6294009089 0.06078963727 -0.5842089653 0.6306455135
0.05884343013 -0.09978410602 0.6286146641 0.2254081517 -0.6062205434 0.6407002211
0.04363467544 -0.100569807 0.6284022927 -0.2087363303 -0.5964691043 0.6354508996
0.05052353069 -0.1042591631 0.627841413 -0.02872231603 -0.6517937779 0.6628177166
0.04259666055 -0.09510044754 0.6314359903 -0.2549082339 -0.5694228411 0.6177203655
0.0363743268 -0.09295246005 0.6335895658 -0.4364823997 -0.5581892729 0.6051668525
0.02970927581 -0.09668903053 0.6297543645 -0.5259120464 -0.5729779005 0.6274760962
0.0010954428 -0.0822642222 0.629991889 -0.1109575629 -0.6830437779 0.7168762684
-0.003316423157 -0.08588961512 0.6259564757 -0.02865215577 -0.6894014478 0.721345365
0.02189313807 -0.0769540593 0.6428496242 -0.4134260416 -0.6245764494 0.6578219533
0.02176298015 -0.08736907691 0.6321088672 -0.4223315716 -0.6136516333 0.6665027738
0.01137381047 -0.1017446965 0.6141069531 -0.2700031698 -0.6680512428 0.6891726851
0.02507100813 -0.1159120873 0.6100463867 -0.4709578156 -0.588491559 0.6553644538
0.0299101565 -0.117703937 0.6146427989 -0.4843127131 -0.6055325866 0.6289803386
0.03209812567 -0.1110344604 0.6188041568 -0.5248188376 -0.5563114882 0.6435770988
0.04746942222 -0.1090580672 0.6268336773 -0.1366462111 -0.7017478347 0.6860565543
0.04093437642 -0.1103871688 0.6231719255 -0.3166795969 -0.6344432831 0.6651423573
0.03454155102 -0.1069741026 0.6244957447 -0.5038362741 -0.5873519182 0.6241115928
0.04135457426 -0.1111229062 0.6313755512 -0.5511795878 -0.6245805025 0.5328314304
0.04170924425 -0.1161669269 0.6263703704 -0.4414929152 -0.691429913 0.5601037145
0.03827122599 -0.1059247181 0.6321657896 -0.6009379625 -0.5770902634 0.5457334518
0.02003225312 -0.173421517 0.6979247928 0.4317736328 -0.6243036985 0.6478989124
0.01741507091 -0.1803921312 0.6935685277 0.3857267499 -0.6263376474 0.6741309762
0.008295545354 -0.1787537038 0.6968582273 0.2331912816 -0.6651355624 0.6962855458
0.01070550829 -0.1826672405 0.6935792565 0.2785970867 -0.6439614296 0.7042866945
0.011912385 -0.187736541 0.6885408163 0.3103795648 -0.6469178796 0.6941962838
-0.04361088946 -0.1770443171 0.6809794903 -0.6559613347 -0.4587676823 0.5805989504
-0.04748247564 -0.1816170365 0.676040411 -0.6886704564 -0.4349704683 0.5757201314
-0.04872749001 -0.1744267792 0.6787053943 -0.7327216864 -0.4207110107 0.5277568102
-0.04886756837 -0.1676758826 0.685389936 -0.7254801393 -0.4423162937 0.5269377232
-0.01783382148 -0.1764780134 0.7025081515 -0.2318069488 -0.6517827511 0.7150004506
-0.0229497049 -0.1812160909 0.6966693401 -0.2940790951 -0.6228813529 0.7213281989
-0.003809181508 -0.06333583593 0.6472913027 0.006066549569 -0.7037798166 0.7093659043
-0.01254947484 -0.06492891908 0.646451056 0.1424127072 -0.7016558051 0.6957888007
-0.008765066974 -0.06905675679 0.6423692107 0.08328072727 -0.6919990778 0.7137678862
-0.003916387912 -0.07796134055 0.6335251331 -0.01570262201 -0.6847890019 0.72641325
0.03695289791 -0.1139476597 0.6231597066 -0.5109299421 -0.5817373395 0.6328491569
0.02593991719 -0.1093806699 0.6151650548 -0.4974424243 -0.580735147 0.6437044144
0.01771354862 -0.1075313091 0.6121290922 -0.3678628206 -0.6400868893 0.672986269
0.02550747991 -0.1042098925 0.6199384332 -0.4840188026 -0.5869024396 0.648427248
0.01956100203 -0.1016535386 0.618336916 -0.412161082 -0.6182798147 0.6626296043
0.009347550571 -0.1699197292 0.7082138658 0.2379870713 -0.6677629948 0.698350668
0.01415219717 -0.1705074161 0.704833746 0.3185809553 -0.656912744 0.6814946532
0.032574635 -0.1588282436 0.7023929954 0.5740605593 -0.5861469507 0.57164675
0.03679736704 -0.1571783572 0.6995757222 0.6107510328 -0.5710987449 0.547662735
0.005160061643 -0.06853859127 0.6437122822 -0.15163818 -0.6833035946 0.7138776183
-0.002022714121 -0.07004704326 0.6417047977 -0.02846505679 -0.6867970824 0.7206560969
0.0007993021864 -0.07342934608 0.6377683878 -0.08566505462 -0.6823499203 0.7200188637
0.01601734012 -0.07545526326 0.6405171752 -0.3266912401 -0.6486136913 0.6862447858
0.006721798796 -0.07317974418 0.6397387385 -0.1829966903 -0.6720640063 0.715539217
0.02196601592 -0.08210077137 0.6372154951 -0.4338943362 -0.6122943163 0.660613656
0.01590905339 -0.08031523228 0.6359559298 -0.3281027973 -0.640694201 0.6913737059
0.005727783777 -0.07801506668 0.6339968443 -0.1784868985 -0.6745119691 0.7150157094
0.02543096431 -0.1623479128 0.7046205997 0.5043375492 -0.6103897691 0.6105110645
0.0193044506 -0.1640302241 0.7070754766 0.4012170732 -0.6356680393 0.6548489332
0.0232023932 -0.1592816114 0.7093865871 0.4685999751 -0.6159132123 0.6313843727
0.02872082777 -0.164409861 0.7006229162 0.5543502569 -0.5937347412 0.5819800496
0.02665906958 -0.1748849601 0.6912329197 0.5425850749 -0.5685384274 0.6167346239
0.02727081813 -0.1695113629 0.6955089569 0.541228056 -0.5878251195 0.592692852
0.03297522292 -0.1645509303 0.6948743463 0.6176270247 -0.5684356093 0.5402880311
0.022968987 -0.168722868 0.7001481056 0.4799026549 -0.6156280041 0.6200639009
