# .PCD v0.7 - Point Cloud Data file format
VERSION 0.7
FIELDS x y z normal_x normal_y normal_z
SIZE 4 4 4 4 4 4
TYPE F F F F F F
COUNT 1 1 1 1 1 1
WIDTH 512
HEIGHT 1
VIEWPOINT 0 0 0 1 0 0 0
POINTS 512
DATA ascii
-0.08438842744 -0.1287014186 0.5537192225 -0.7125548124 -0.4541637599 0.531240046
-0.05101475492 -0.08431779593 0.6216751337 -0.2038180977 -0.6523306966 0.7232281566
0.01798905805 -0.1045442894 0.5592092276 0.7444790602 -0.4574546218 0.4857704937
0.01589491218 -0.1025164425 0.565495491 0.7245619297 -0.4767332077 0.4961502552
-0.09305030107 -0.1047111303 0.5499557257 -0.8296107054 -0.3668760955 0.4206339121
-0.09257230163 -0.1099467054 0.5484347939 -0.8209781647 -0.3770802915 0.4284121096
-0.08253134787 -0.1240670383 0.5564787984 -0.7276811004 -0.4439567626 0.5171144605
-0.07757309079 -0.03548482433 0.5282177329 0.5856610537 -0.5681425929 0.5775817037
-0.0432735309 -0.09108247608 0.6186034679 -0.1092730314 -0.6559138894 0.7461292148
-0.07965045422 -0.1285769492 0.5577866435 -0.6812080145 -0.4872772992 0.5461950302
-0.0494167693 -0.1407918036 0.5684527755 -0.2270364165 -0.6490772963 0.7246538997
-0.05493919179 -0.1450527608 0.5691159964 -0.3173922002 -0.6380739212 0.6977031827
-0.08368781209 -0.1201636568 0.5607552528 -0.7521841526 -0.4145005643 0.5096293092
-0.08686082065 -0.1234746948 0.5518077016 -0.7583730817 -0.4066624343 0.5085755587
-0.09178430587 -0.1134717986 0.5538421869 -0.8242984414 -0.3750441968 0.4231293201
-0.09128049761 -0.1167609021 0.5478075147 -0.8008549213 -0.3885988593 0.4542412162
-0.04302307963 -0.04421405867 0.4989723265 0.103611663 -0.6648949981 0.7356996536
-0.03733057529 -0.04511155188 0.4977046251 0.0004558996006 -0.6655777097 0.7420831323
-0.03869673237 -0.04158384353 0.501249373 0.01141205896 -0.6746558547 0.7293833494
-0.07788491249 -0.06178338826 0.5036760569 0.5037963986 -0.5856140256 0.6332750916
-0.08086001873 -0.06016388163 0.507445395 0.5351495743 -0.5816417336 0.61243397
-0.09398692846 -0.09773815423 0.5512171388 -0.8399406075 -0.359986186 0.4060162604
-0.0945802331 -0.09910368174 0.5465980768 -0.841789484 -0.357660383 0.4042489231
-0.09098666906 -0.1008597761 0.5579141974 -0.83307302 -0.3647997975 0.4158247411
-0.09041692317 -0.08952143043 0.5738276243 -0.8128043413 -0.4141047895 0.4092434049
-0.09243426472 -0.09358993918 0.5646775961 -0.8304755092 -0.3821083903 0.4048135579
-0.09154016525 -0.09337771684 0.569868505 -0.8284657598 -0.3914970458 0.4003405869
-0.08766009659 -0.1102902964 0.5588485599 -0.817861557 -0.3769326806 0.43448475
-0.08829253167 -0.1055620685 0.5630305409 -0.8236801028 -0.3804949522 0.4204142392
-0.09101673961 -0.1058835164 0.5587419868 -0.8277984858 -0.3752331436 0.4170670807
-0.08236347139 -0.03853867203 0.5310925245 0.6138978004 -0.5578332543 0.5584666729
-0.07536160946 -0.05567990616 0.5073840022 0.5278135538 -0.5815219283 0.6189296246
-0.04197952151 -0.08656805009 0.6216122508 -0.07990991324 -0.6495078206 0.752250731
-0.03374246508 -0.08779060841 0.6209567189 0.02589504607 -0.6277458072 0.7749945521
-0.05735108256 -0.08366601914 0.6199023128 -0.3054126501 -0.6366204023 0.7063812613
-0.06144696102 -0.08481316268 0.6161136031 -0.3631942868 -0.6205773354 0.6927053928
0.01903576218 -0.09796956927 0.534494102 0.3503636718 -0.5221900344 0.6024900079
0.01922632009 -0.1024780124 0.5421763062 0.5159111023 -0.4968890548 0.5534225106
0.01960463077 -0.107138589 0.5440195799 0.601282239 -0.4879835844 0.5287656188
0.01873565465 -0.09325879067 0.5298637748 0.2251565903 -0.539018631 0.6392405629
0.02048113383 -0.08210724592 0.5230913162 0.03910522163 -0.5376927257 0.7422600985
0.01977667771 -0.08680132776 0.5257711411 0.1155192554 -0.5384480357 0.6999573708
0.0189800486 -0.1014069393 0.5522685051 0.6472378969 -0.4674488306 0.5161560178
0.01984312385 -0.08155568689 0.5284708738 0.09921839088 -0.5277616978 0.7156398296
0.01879714616 -0.09350159019 0.5426399112 0.4162797928 -0.4979301095 0.5892620683
0.02000542171 -0.07474463433 0.5202672482 -0.09204226732 -0.5500977635 0.7824738622
0.02035114728 -0.08696901798 0.5317767859 0.2168191671 -0.5129498839 0.6833785176
0.02057351731 -0.1050612628 0.5376122594 0.5040391088 -0.4967166483 0.5764030218
0.02033653669 -0.113406904 0.5444623232 0.6907044053 -0.4799195826 0.506444335
0.01981393993 -0.1100410596 0.549269855 0.7140498757 -0.4697466493 0.497132808
0.01952010207 -0.09840334952 0.5473629832 0.55335778 -0.4760543406 0.5567896366
0.02012215182 -0.09746564925 0.5395466089 0.4405762255 -0.4937169254 0.5995813012
0.01938349195 -0.10754361 0.5533597469 0.7381821275 -0.4610281885 0.4876326323
0.04561783746 -0.0392983444 0.524268806 0.3089274168 -0.7250747681 0.5995302796
0.04116646573 -0.03548119962 0.5333811641 0.1593901366 -0.8048682809 0.5064210296
0.04321883991 -0.03884927928 0.519095242 0.2419393659 -0.7145901322 0.6505541205
-0.08578167111 -0.1164438576 0.5573569536 -0.7877020836 -0.3948619664 0.4672565758
-0.08330097795 -0.1143907979 0.5627557635 -0.7577462196 -0.4236421585 0.4864035845
0.0098881796 -0.1183835119 0.5613179207 0.7214735746 -0.4694685638 0.5079017282
0.03370164335 -0.04225527868 0.5370034575 -0.06138328835 -0.6437129974 0.6641332507
0.03646563739 -0.03576632962 0.5392169356 0.008239786141 -0.8222045302 0.490108341
0.02776543051 -0.04067284986 0.5462335348 -0.2522748411 -0.6464381218 0.6417623758
0.03219114989 -0.03366611153 0.5466042757 -0.1306629926 -0.8492242694 0.4482952654
0.03969154134 -0.04061305895 0.5307927728 0.1209566668 -0.7198331356 0.6057748795
0.03198872879 -0.03855970874 0.5425928831 -0.1251648962 -0.7250084281 0.5750722885
0.02071045525 -0.04156744853 0.5520358086 -0.4390427172 -0.5966086388 0.6717665195
-0.04843723029 -0.1462323517 0.5704714656 -0.2127113044 -0.6526116729 0.7141159773
-0.041511558 -0.1460965574 0.5698346496 -0.1073570475 -0.6616843939 0.7159451842
-0.07046940178 -0.1310631186 0.5642723441 -0.5659236312 -0.543436408 0.6122055054
-0.06560989469 -0.136159867 0.5655449629 -0.5022083521 -0.5735826492 0.6457865238
-0.06698862463 -0.06079971418 0.4949443936 0.4230930805 -0.5766156912 0.6986173987
-0.06196403876 -0.0595738627 0.4926377833 0.3603885174 -0.5847523808 0.7213482261
-0.05589096248 -0.05765539408 0.4902009368 0.290941298 -0.5953859091 0.7451269627
0.0456598103 -0.03443129733 0.5261536241 0.312798351 -0.7611070871 0.5467310548
0.04254734516 -0.03066074289 0.5293488503 0.2204178572 -0.8103375435 0.4982822835
0.0374019444 -0.02900784649 0.5380209684 0.0485958755 -0.8787894249 0.426830709
0.03578206897 -0.02401361614 0.537440002 0.01316076797 -0.9129724503 0.3958954215
0.03927788511 -0.03186460584 0.5243242383 0.1520785838 -0.7876934409 0.5639289618
0.03712542355 -0.02563754655 0.5318630934 0.07031859457 -0.8711845875 0.4535142183
0.03908306733 -0.03499539942 0.5194046497 0.1635901481 -0.7439860702 0.6338579655
-0.04383325949 -0.1074119583 0.6020440459 -0.1371271014 -0.6837434769 0.7113214731
-0.07333254814 -0.03459651768 0.5243237019 0.554777503 -0.5812452435 0.5950948
-0.06825885922 -0.0331495069 0.52127707 0.5349980593 -0.5779905915 0.6160668135
-0.07051718235 -0.02981195413 0.526827991 0.5539529324 -0.5691271424 0.6074761152
-0.08723064512 -0.09749630839 0.5697011352 -0.8049988151 -0.4063179493 0.4295183122
-0.08787097782 -0.09874238074 0.5645572543 -0.8211262822 -0.3767068684 0.4258721769
-0.08493900299 -0.1028963551 0.5687510371 -0.7954771519 -0.4036390781 0.4465977252
0.0248081293 -0.02338410355 0.5536548495 -0.2870343029 -0.7342270017 0.5283161998
0.02959428728 -0.02484204993 0.548160255 -0.1750169992 -0.8466042876 0.4399781525
0.02152235433 -0.02508522198 0.5573280454 -0.392260015 -0.6353365183 0.6110799313
0.02527307346 -0.03033680096 0.5532823801 -0.3484377265 -0.6812300682 0.5806627274
-0.03550780937 -0.0927901715 0.6172317266 0.008097402751 -0.6454963088 0.7589956522
-0.03111650795 -0.09445820749 0.614916265 0.07854749262 -0.6482883096 0.7529156208
0.01811724715 -0.1181823462 0.5469514728 0.7202715278 -0.4817572534 0.4988311827
0.0147276707 -0.1249565929 0.5498486757 0.7070769668 -0.4847357571 0.5142759681
0.008633648045 -0.1311417818 0.5555645823 0.6930103302 -0.4882182479 0.5304522514
-0.03557313606 -0.1380037963 0.5734442472 -0.002562823473 -0.6727520227 0.7361406088
-0.04115398228 -0.1381982863 0.5718950033 -0.09308677167 -0.6596421003 0.7360039949
-0.0185949225 -0.1440154761 0.5679880381 0.2771587372 -0.6656807661 0.6847584248
-0.02906081825 -0.145545736 0.5680139065 0.07735321671 -0.6793689132 0.7178794742
-0.02549667284 -0.05408882722 0.4913603365 -0.230448097 -0.5960023999 0.7662033439
-0.03104996681 -0.0558517091 0.4887581468 -0.1105344072 -0.6057140827 0.7838740349
-0.05608927459 -0.1373960823 0.5677800179 -0.3452370465 -0.6103717685 0.6978417635
-0.06740718335 -0.129864648 0.5686092973 -0.5187311172 -0.5683882833 0.6379867196
-0.07813812047 -0.1246683374 0.561853826 -0.6706897616 -0.4928597212 0.5532319546
-0.07206857949 -0.126115337 0.5673168302 -0.5809570551 -0.5382012725 0.60529387
-0.07524868101 -0.1305787265 0.5621066689 -0.615529418 -0.5342901945 0.5781157613
-0.07235380262 -0.123212792 0.5716018677 -0.5641689301 -0.5506411791 0.6151402593
-0.04131545126 -0.123710677 0.5873247385 -0.09956197441 -0.6812992692 0.7209801078
-0.0307006631 -0.1240110025 0.5870131254 0.08521053195 -0.6794974208 0.7224109769
0.03957640752 -0.0442718491 0.5148903131 0.1645316482 -0.5977717638 0.7741818428
0.02868975885 -0.03326283395 0.5504877567 -0.151043877 -0.8444462419 0.4631477892
0.0245750118 -0.03522659093 0.5527279377 -0.396037221 -0.6371957064 0.6252996922
-0.03736679256 -0.04893621057 0.494205296 -0.004352827556 -0.6509541273 0.7562987208
-0.04402130842 -0.04864716157 0.4947119653 0.1082661226 -0.6429552436 0.7567437887
-0.05233645812 -0.04899514839 0.496697396 0.2813031971 -0.6287281513 0.7222185135
-0.05444836989 -0.0536708273 0.4936100245 0.3162609041 -0.6127588749 0.7206549644
-0.04527555034 -0.05419874936 0.4900715649 0.1307107657 -0.6215948462 0.7717161775
-0.0390271917 -0.05431306735 0.4895829558 0.03419570625 -0.6271643639 0.773357749
-0.07203236967 -0.06225755438 0.4982018471 0.456703037 -0.5863876343 0.6678104401
-0.07440122962 -0.01486148406 0.5438399315 0.5794755816 -0.5793030262 0.5731814504
-0.07219704241 -0.008965541609 0.5474002361 0.5347131491 -0.6081630588 0.5859849453
-0.0251568649 -0.03860544786 0.5057801604 -0.2173184901 -0.6651668549 0.7140482664
0.01740832441 -0.03352341428 0.5533574224 -0.4713978469 -0.580037415 0.6632241011
0.01210067887 -0.02723503113 0.5498976111 -0.5491793156 -0.5388039351 0.6318771839
0.01479948405 -0.02575867064 0.5551476479 -0.5130801201 -0.5457611084 0.6579230428
-0.04711785167 -0.1113041714 0.5979661942 -0.1879638582 -0.6771383286 0.7106422186
-0.06219768524 -0.1014118046 0.5995820761 -0.4576652944 -0.6125776768 0.6415394545
-0.06739275157 -0.09959172457 0.5961364508 -0.5328559279 -0.5780457258 0.6040273309
-0.07419420779 -0.09745927155 0.5908879638 -0.6324724555 -0.5316182375 0.5522431135
-0.08728860319 -0.0942876488 0.5745346546 -0.7910972834 -0.4332897067 0.4305749834
-0.08576834947 -0.09132047743 0.5791918635 -0.7615476251 -0.457375288 0.454098314
-0.0848608315 -0.09037005156 0.5851029158 -0.7380213737 -0.4796111584 0.4730977118
-0.07683890313 -0.02384997532 0.5383042097 0.6028620005 -0.5597390532 0.5677831769
-0.0854223296 -0.1088742316 0.5657938123 -0.7993015051 -0.3947398365 0.4500910938
-0.08200139552 -0.1143353283 0.5684261918 -0.7455354333 -0.4313072562 0.5067683458
-0.07821347564 -0.1172550991 0.5704579949 -0.6740333438 -0.4812258482 0.5495808721
-0.08020178974 -0.1195572689 0.5653012395 -0.7101038098 -0.4406839609 0.5451624393
-0.05069710314 -0.08854653686 0.6180580854 -0.2221903652 -0.6485744715 0.7265265584
-0.05983446911 -0.09506884217 0.6084476709 -0.387246877 -0.6247993708 0.6752902865
-0.05610252172 -0.08916518092 0.6154149175 -0.31137833 -0.6453258395 0.6963996887
-0.0638776347 -0.09561106563 0.604608357 -0.4532563388 -0.6080527306 0.6501020193
-0.05912020802 -0.09900513291 0.6050688624 -0.3830345869 -0.6289652586 0.6729568243
-0.02515791915 -0.09180917591 0.6164520383 0.1576376855 -0.640258193 0.7513439059
-0.02999400347 -0.09009366482 0.6180807948 0.08346065879 -0.6331578493 0.7673761845
0.01839553192 -0.048923105 0.5138426423 -0.255374521 -0.4917999804 0.7466031313
0.02780250832 -0.05455703661 0.5117995739 -0.03483010456 -0.3785211742 0.9103451967
0.02387206443 -0.05036760867 0.5130727291 -0.1345045567 -0.4575424194 0.8123991489
0.01346191391 -0.04869556054 0.5142908096 -0.3598592281 -0.5041218996 0.7046057582
0.01304931566 -0.0507020168 0.5268289447 -0.5763843656 -0.5583196282 0.5803822279
0.0175265763 -0.06317898631 0.5255880952 -0.3109187484 -0.5916999578 0.7303053141
0.01663396694 -0.06665611267 0.5204268098 -0.3037708998 -0.5874977112 0.7315286994
0.01755968668 -0.04720786586 0.5401451588 -0.4707376361 -0.585341692 0.6476235986
0.01553069707 -0.0554786697 0.528080225 -0.450794369 -0.5759403706 0.652318418
0.01435637381 -0.05949012563 0.5218006372 -0.4470617473 -0.5701802969 0.6509907246
0.02606273629 -0.04888308048 0.5360475779 -0.2418090403 -0.5541526675 0.7422660589
0.03524726257 -0.05036068708 0.524844408 -0.0284045618 -0.557608664 0.7845237851
0.03464991227 -0.05815087259 0.5173709393 0.04871105775 -0.4860693514 0.8557000756
0.0283298362 -0.05123049766 0.5312201381 -0.1662554294 -0.5370765924 0.7712822556
0.03257535398 -0.05507975072 0.5227484703 -0.03107653745 -0.5100423098 0.8204955459
0.02242859825 -0.04550509155 0.5433856845 -0.3584795892 -0.5780448318 0.6993613243
0.04196802899 -0.05106566474 0.5169528127 0.1572276652 -0.5717742443 0.796161592
0.03007508814 -0.04532590136 0.5354257226 -0.157814309 -0.6032264829 0.70303756
0.04113388807 -0.04655845836 0.5223360062 0.1599936038 -0.6286844015 0.7174994946
0.02660267055 -0.04343761131 0.5410308242 -0.2485112846 -0.6152408719 0.6721147299
0.03436661139 -0.04431772232 0.5318263769 -0.02548054419 -0.6329168677 0.6825276017
0.0082757622 -0.05261770263 0.5182330012 -0.574398458 -0.5353682637 0.6190325618
0.008356588893 -0.06051182374 0.5114108324 -0.4633859992 -0.533408165 0.7058465481
0.002296513645 -0.05009797588 0.514402926 -0.5813233256 -0.5354135036 0.6126392484
0.007056419272 -0.04690621048 0.5214629173 -0.588540256 -0.5373731256 0.603297174
0.03280981258 -0.04004295543 0.515940547 0.04140565544 -0.6581609845 0.6851431727
0.03131434321 -0.04568266124 0.5136983991 0.006304266397 -0.5304440856 0.791046083
0.02312606387 -0.04568130523 0.5143893361 -0.1647363901 -0.5454128981 0.726570785
0.01220321935 -0.1272386461 0.5535640717 0.6961535215 -0.4876313806 0.526619792
0.01238933485 -0.1227667034 0.5563126802 0.7049950361 -0.4840197265 0.5176920891
0.006660128944 -0.121927917 0.5646957755 0.689196229 -0.4814847112 0.5401263833
0.008639124222 -0.1261861324 0.5594260097 0.6891468763 -0.4847326279 0.5379044414
0.01078910939 -0.1147179678 0.5649651289 0.7311626077 -0.4700858891 0.494374007
0.01333203167 -0.1173491701 0.5570249557 0.7249767184 -0.4721577764 0.5009192228
-0.02989389934 -0.05070447177 0.493375659 -0.1349901855 -0.6374005675 0.7523875833
-0.0310175959 -0.04572841525 0.4977192283 -0.1137954742 -0.6583798528 0.7384486198
-0.02844746783 -0.04260730371 0.5013872385 -0.1690747589 -0.6639580727 0.7235407233
-0.007863225415 -0.05251345783 0.5006986856 -0.4843516052 -0.560051322 0.6677726507
-0.01998184621 -0.04663165286 0.5009921193 -0.2937314808 -0.6326463819 0.7099383473
-0.007040118333 -0.05065636337 0.5057295561 -0.483161062 -0.5694702864 0.6584891677
-0.009821121581 -0.1336073726 0.5712792277 0.4434798062 -0.6169215441 0.6472606659
-0.01074105501 -0.1416306049 0.5672980547 0.4115250409 -0.6385504603 0.6480264664
-0.03269085661 -0.1423312128 0.5715959668 0.05530980602 -0.6826912761 0.7259199619
-0.03070074879 -0.1360868812 0.5754261017 0.06470929086 -0.678232789 0.7288458347
-0.02393088304 -0.1456928998 0.5685994029 0.1580843925 -0.6852274537 0.7100551724
-0.01580641605 -0.1397590488 0.5702132583 0.3493773043 -0.6526117921 0.6711087227
-0.02319694869 -0.1400618404 0.5699380636 0.2054616213 -0.6634452939 0.7017767429
-0.02196002379 -0.09949176013 0.6094325781 0.2390091121 -0.6485581994 0.720061779
-0.02907420881 -0.09900045395 0.6105049253 0.1138324589 -0.6641823053 0.7307973504
-0.03595782444 -0.1058172509 0.6043048501 -0.006540942006 -0.6847520471 0.7274414897
-0.03413841501 -0.108691141 0.6003784537 0.01021123398 -0.6846062541 0.7256572843
-0.04222967103 -0.1185153276 0.5918416977 -0.1153345332 -0.6813992262 0.7211021781
-0.0373570621 -0.1170653924 0.593988061 -0.03230818361 -0.6871773005 0.7246632576
-0.04196484387 -0.1117748022 0.5992290378 -0.1066935211 -0.6866918206 0.7185325623
-0.08112287521 -0.01624525338 0.5536354184 0.5858522654 -0.5801165104 0.5654101372
-0.07077754289 -0.05154060572 0.5067388415 0.5044428706 -0.5842888951 0.6345846057
-0.07158238441 -0.05667642877 0.5018811822 0.4833531678 -0.5887184143 0.6467045546
-0.06624443829 -0.03605126217 0.5167992115 0.4933973849 -0.5976514816 0.6308972239
-0.07121350616 -0.03915001452 0.5177622437 0.53033638 -0.5837291479 0.6145253778
-0.07555837184 -0.03994226083 0.5234727263 0.564673543 -0.5789592862 0.5876722336
-0.07147799432 -0.04395462573 0.5137487054 0.5289039016 -0.5912088752 0.6084412336
-0.03854389489 -0.003465245944 0.5372048616 0.02323621698 -0.7245578766 0.6818966866
-0.0436328873 -0.001325162593 0.5399232507 0.1214865223 -0.7431691289 0.6543172002
-0.06221265346 -0.05526348948 0.4960637689 0.4259864092 -0.5901930332 0.6840489507
-0.05872285366 -0.04950425774 0.4983227849 0.4000929296 -0.6031835079 0.6873286963
-0.07231350988 -0.02678937837 0.5312709212 0.572319448 -0.5643434525 0.594666183
-0.06837379932 -0.02341356501 0.5301947594 0.5385817885 -0.5779070258 0.6113913059
-0.03096258454 -0.006090427283 0.5349655747 -0.09446413815 -0.7033398747 0.7019942999
-0.03411622718 -0.001335191424 0.5394937396 -0.05699932203 -0.7368375659 0.6710508466
-0.02681015618 -0.002832888626 0.5391899347 -0.1657243669 -0.7334123254 0.6545677781
-0.01613522321 -0.007797494065 0.5373606086 -0.3302382827 -0.6829931736 0.6505887508
-0.02383687161 -0.006825460587 0.5358865857 -0.1899088919 -0.6959500909 0.689274013
-0.0207811147 -0.003363230731 0.5408040285 -0.2523908913 -0.7157786489 0.6449517012
-0.01544351783 -0.003821195103 0.5425601006 -0.3413213193 -0.6973085999 0.6286702752
0.01034395397 -0.02048805729 0.5526350737 -0.5587572455 -0.5183669925 0.643006444
0.01449469291 -0.01942935772 0.5597068667 -0.5071474314 -0.530936718 0.677646935
0.008280850947 -0.02233324759 0.5479180217 -0.5941271782 -0.5121501684 0.616713047
0.009903464466 -0.0158549957 0.554636538 -0.5099484324 -0.5183372498 0.6855702996
0.006557066459 -0.01793872938 0.5493726134 -0.5794166923 -0.5081321597 0.6349226832
0.01873622835 -0.01995997131 0.5471625924 -0.4082638323 -0.7007481456 0.5559604764
0.01314257644 -0.01917415112 0.5452363491 -0.4660929143 -0.6683170795 0.5539844632
0.01592836343 -0.01874259673 0.5508487821 -0.4353837073 -0.6175602078 0.6305124164
-0.04691363499 -0.1240016669 0.5858598351 -0.2010977119 -0.6676046848 0.71122998
-0.06277796626 -0.1198820248 0.5820648074 -0.4751395583 -0.6051642299 0.6375293136
-0.08419460058 -0.09747379273 0.5776973367 -0.7641777992 -0.4582223892 0.4505941272
-0.07672215253 -0.03000970557 0.5325770974 0.5993429422 -0.5627368093 0.5692476034
-0.08126170188 -0.03279083595 0.5350208282 0.6234973073 -0.5494042039 0.5561901927
-0.06179781258 -0.08938974142 0.612667799 -0.4079704285 -0.6158108711 0.672355473
-0.07198206335 -0.09582789987 0.5964997411 -0.5888044238 -0.5516446829 0.5853753686
-0.04107028246 -0.09453015029 0.6149353385 -0.07972177863 -0.6599075198 0.7431349754
-0.04623422772 -0.09539610147 0.612934351 -0.1657908559 -0.6682546139 0.724609077
-0.05182274804 -0.09225267917 0.6148258448 -0.2629570365 -0.6518810391 0.7075016499
-0.03578914702 -0.09720821679 0.6123462915 0.004742497113 -0.6653352976 0.7446473837
-0.04413192719 -0.1014284566 0.6086021662 -0.1320415884 -0.6758005619 0.7218337655
-0.04700368643 -0.10475225 0.6045416594 -0.1860773563 -0.6824822426 0.7044911385
-0.04904709756 -0.0991384536 0.609903872 -0.2088580877 -0.6619613171 0.7161732316
-0.05367094651 -0.09530769289 0.6108418107 -0.3000822365 -0.652692616 0.6888549328
-0.05417254567 -0.09813272208 0.6064510345 -0.2988943756 -0.6462929249 0.6835434437
-0.05439404026 -0.1025647596 0.6033950448 -0.2991494536 -0.6564421058 0.6889999509
-0.03920669481 -0.1012309343 0.6082666516 -0.05786077306 -0.6817830205 0.7247289419
-0.01929527894 -0.08875002712 0.6167532206 0.2196571529 -0.6434341073 0.7311441898
0.01657667942 -0.07205924392 0.5152820349 -0.2458080798 -0.5832951069 0.7711994648
0.03638147935 -0.06018035114 0.5127131343 0.04419310391 -0.4226720333 0.9014322162
0.03776487336 -0.05258644 0.5128123164 0.1053252667 -0.4759712517 0.8720286489
0.04068951681 -0.05665650591 0.5143383741 0.1047254577 -0.4970638156 0.8589392304
0.0322673507 -0.05152986571 0.5121954083 0.0445552282 -0.4281950593 0.8918130398
0.01046718098 -0.0577628538 0.5172075033 -0.4865189195 -0.5430498123 0.6688450575
0.01270675939 -0.06298781931 0.5166729093 -0.3955726027 -0.5600420237 0.7066970468
0.01851706207 -0.0434955433 0.5458109975 -0.474719286 -0.5889835954 0.6484699845
0.01067852601 -0.04512883723 0.528726697 -0.6540020108 -0.5280212164 0.537340045
0.01253503747 -0.04223172739 0.5360945463 -0.6116063595 -0.5351655483 0.5654215217
-0.004829062149 -0.1392418742 0.5651330352 0.5004076362 -0.6018409133 0.6146947145
0.002447818872 -0.06513528526 0.5020103455 -0.5067456365 -0.526847899 0.6808350682
-0.001864393824 -0.06310046464 0.4981589019 -0.5312873125 -0.5186764598 0.668843925
0.007573314942 -0.0688046664 0.5058854222 -0.4763050675 -0.5345674753 0.6970511079
-0.00423891237 -0.05821747333 0.5002330542 -0.5010449886 -0.5416257977 0.6717304587
-0.006435543764 -0.06012941152 0.4960174561 -0.5190897584 -0.5298007727 0.6678370237
-0.01448775455 -0.05469007418 0.4953014255 -0.4093403816 -0.5863812566 0.6973374486
-0.01694408432 -0.05041271448 0.4990606904 -0.3370656967 -0.6074914932 0.7120335102
-0.02465243265 -0.04894656315 0.4960524142 -0.2271923423 -0.6332717538 0.7373421192
-0.0114365397 -0.04782295972 0.5030449033 -0.4163712561 -0.5980223417 0.6793964505
-0.01568593644 -0.04461741447 0.5035774708 -0.3692723215 -0.6189594865 0.6925797462
-0.02047371119 -0.04193022102 0.504101932 -0.2920482755 -0.6444582939 0.7047086954
-0.03984892741 -0.1306499392 0.5811494589 -0.07953030616 -0.6638787985 0.7397507429
-0.03531486541 -0.1273160577 0.5840710998 0.009092016146 -0.6833350062 0.729118526
-0.04388184845 -0.1276949942 0.5836025476 -0.1505757719 -0.6675778627 0.7280509472
-0.03489001095 -0.1329306066 0.5790230036 0.009408898652 -0.6709329486 0.740565896
-0.07089503109 -0.1176426485 0.5754678249 -0.6033225656 -0.5446926951 0.577927053
-0.07717107981 -0.11282029 0.5737041235 -0.6932249069 -0.4826105833 0.5290665627
-0.07320325077 -0.1130703315 0.5778864026 -0.6466305256 -0.5197891593 0.546985507
-0.07794202119 -0.1084399223 0.5780608058 -0.7122499347 -0.4770481586 0.5099707842
-0.02985979244 -0.1318468153 0.5798099041 0.08937998861 -0.667992115 0.7345863581
-0.02491609566 -0.1342120171 0.5768921375 0.1520574689 -0.6756806374 0.7200021744
-0.01392411813 -0.1140421256 0.5917052627 0.3522706628 -0.6453765035 0.6724740267
-0.00865277648 -0.1124072298 0.5901111364 0.4726878107 -0.6043342352 0.6402905583
-0.007222638931 -0.1147469506 0.5861682296 0.4847828746 -0.5988215804 0.6314537525
0.004662875552 -0.1144134402 0.5741391182 0.655582428 -0.5204308629 0.5469549894
0.008419149555 -0.111909613 0.5704770684 0.7073363066 -0.4879682064 0.5096237063
0.01201995555 -0.1042992845 0.5714541078 0.7215998769 -0.4835438132 0.4949117303
0.01219050121 -0.1095492616 0.5673852563 0.7292538285 -0.4728839397 0.4933574796
-0.0314924866 -0.1152625456 0.595199585 0.0642132163 -0.6817086935 0.72329247
-0.02624267526 -0.1147292778 0.596711278 0.1338115931 -0.6748175621 0.7251778245
-0.0339788869 -0.1200111285 0.5914969444 0.01857022382 -0.6858776212 0.7239247561
-0.0279243812 -0.1199133694 0.5906740427 0.1283712387 -0.6754104495 0.7212269306
-0.08232598007 -0.03067206219 0.5414584279 0.6378615499 -0.5476455092 0.541426897
-0.08288965374 -0.02163427323 0.5505167246 0.6102707386 -0.5640842915 0.5561746955
-0.08299718052 -0.02664903924 0.5460044146 0.6271240711 -0.5541810393 0.5471803546
-0.06796814501 -0.1228504255 0.5750892758 -0.5341401696 -0.5756862164 0.6176748872
-0.05829578638 -0.1300560385 0.5750546455 -0.3868978322 -0.6109161377 0.6855321527
-0.06257656217 -0.1267211586 0.5763261318 -0.4414299726 -0.5987380147 0.6614688635
-0.06255080551 -0.1307852566 0.5717157125 -0.4710952342 -0.5848817229 0.65963763
-0.05943102017 -0.1244209185 0.5800810456 -0.4135120213 -0.6221618652 0.6613028646
-0.06150342524 -0.1358641237 0.5702044368 -0.4259621501 -0.5945307612 0.6786654592
-0.05593139678 -0.1364801079 0.5745193362 -0.3208777905 -0.6202017069 0.7133181095
-0.06248082593 -0.1408987641 0.5666279197 -0.4330647588 -0.5954948068 0.67493397
-0.04969712719 -0.1277335286 0.5817899108 -0.2525469959 -0.6486164331 0.7110808492
-0.05792646483 -0.1211145744 0.5849057436 -0.3643895388 -0.6348105669 0.678960979
-0.05450954661 -0.1247782856 0.5829837918 -0.3317919374 -0.642369628 0.690064013
-0.07884829491 -0.04589275643 0.5199139118 0.5695451498 -0.5745253563 0.5876485705
-0.07592322677 -0.04790427908 0.5149537325 0.5480129719 -0.5830706954 0.5995684862
-0.07975319028 -0.05275214836 0.5135874152 0.5539951921 -0.5756576657 0.6012145877
-0.08065693825 -0.04294826835 0.5254113078 0.5850077271 -0.568275094 0.5784941316
-0.07539094239 -0.04263518378 0.5181475282 0.5502389073 -0.5767742395 0.6032552123
-0.05248025432 -0.03665781766 0.5082406402 0.258911252 -0.6595652699 0.7017307878
-0.05339932442 -0.03293901309 0.5126920938 0.2725879252 -0.6667813063 0.6909444332
-0.04552384093 -0.03496223688 0.5079505444 0.1386831552 -0.6811541915 0.7174025178
-0.05769788101 -0.04204102978 0.5056875348 0.3632765114 -0.6338483095 0.6807180047
-0.06437668949 -0.05165650323 0.501591742 0.4206574857 -0.5942198038 0.6827872992
-0.06311740726 -0.04658637568 0.5048229098 0.4279673994 -0.6054518819 0.6691609621
-0.05086177215 -0.03999851644 0.5047022104 0.2393002957 -0.6601567864 0.7082331777
-0.04660346732 -0.04201975465 0.5019070506 0.1721385568 -0.6723203063 0.7178549767
-0.05122609437 -0.04451851919 0.5006073713 0.2609656155 -0.6470518708 0.7129299045
0.0120499162 -0.03225650266 0.5454918742 -0.548702538 -0.5429232717 0.6286652088
0.01480750646 -0.03525532782 0.5492147803 -0.4987602234 -0.567389071 0.6470311284
0.01116522588 -0.03413966671 0.5397838354 -0.5797911286 -0.5294406414 0.6166612506
0.008375744335 -0.02830540948 0.5419766903 -0.609059751 -0.5156885386 0.6008684635
0.01457594149 -0.04158576205 0.5416241288 -0.5525317788 -0.5551834702 0.6020870805
0.009777029976 -0.03680052236 0.5355173349 -0.6277147532 -0.5172781944 0.5759397149
0.03171535954 -0.02315959148 0.5410431027 -0.12299449 -0.8785939813 0.4275147021
0.03414746374 -0.02755089663 0.543261826 -0.05769687518 -0.9203742743 0.3832436204
0.02394830249 -0.02247224003 0.5479883552 -0.359998405 -0.7471222281 0.5415083766
-0.001549050678 -0.04880975187 0.5114777088 -0.5694030523 -0.5426454544 0.6171354651
-0.005342266057 -0.04447131231 0.5107948184 -0.5218288302 -0.5700419545 0.6335960627
0.007682904135 -0.04546961933 0.5159432292 -0.4869838655 -0.5707556009 0.6078568697
0.02118829452 -0.04122033715 0.5168250203 -0.2016844898 -0.6332108378 0.63599509
0.009601104073 -0.0413435176 0.5192312598 -0.4420517385 -0.5812811255 0.6132659912
0.02777563967 -0.03940608725 0.5170231462 -0.06285133213 -0.6635524035 0.6496161222
0.01415104605 -0.03814028949 0.5211189985 -0.343716681 -0.6031545401 0.6234561801
0.007457104977 -0.03947941586 0.5301636457 -0.6700851917 -0.5094971061 0.5356075764
0.005417638924 -0.03398095444 0.532417655 -0.6342838407 -0.5132994056 0.5753441453
0.005399723537 -0.04242619127 0.5233069658 -0.6042226553 -0.5380699039 0.5854446292
-0.03319893032 -0.03379175812 0.5081710815 -0.08129490912 -0.6869834661 0.7197486758
-0.02791923657 -0.03286486492 0.5104599595 -0.1734747291 -0.6781743169 0.7106000781
-0.002603615634 -0.02002449147 0.5365903974 -0.5413100719 -0.5782737136 0.6069557071
-0.006950880401 -0.01733056083 0.5344673395 -0.5011914372 -0.6105154157 0.611999929
-0.004455741495 -0.02207015269 0.5320975184 -0.5158908367 -0.5891941786 0.6215786338
-0.01040287316 -0.02318326011 0.5270097256 -0.4217951 -0.6158445477 0.6598760486
0.002315944294 -0.02364185266 0.5388153791 -0.5822755098 -0.5397598147 0.6044876575
0.02187370323 -0.02042441629 0.541641593 -0.2827304602 -0.7685206532 0.4893125594
0.00455307262 -0.02843991108 0.5360395908 -0.6035117507 -0.5336216092 0.5901837349
-0.04828769714 -0.1157412603 0.5931891799 -0.213938579 -0.6707088947 0.7057664394
-0.05254107341 -0.1198862717 0.5882207155 -0.2787070572 -0.6589650512 0.6935251951
-0.04750069603 -0.1200671792 0.5896962285 -0.202723518 -0.6714391708 0.7101199627
-0.05334392563 -0.1084574461 0.5982702971 -0.283726275 -0.6632554531 0.6893815398
-0.06794231385 -0.09468562901 0.6020432115 -0.5177873373 -0.5819258094 0.6242130995
-0.06867489964 -0.09010646492 0.6061855555 -0.5058612823 -0.5854533315 0.632869482
0.01150759496 -0.06464806944 0.5064728856 -0.35782969 -0.4940917492 0.7663531303
0.008680460043 -0.06096586585 0.5030835867 -0.3895362616 -0.4452207983 0.7601640224
0.02274940535 -0.06953401119 0.5153384805 -0.1265431792 -0.5263401866 0.828466475
0.01312386524 -0.0700205937 0.5084530711 -0.3393903971 -0.5402157903 0.755810678
0.0178719312 -0.06869673729 0.5104004741 -0.2409541607 -0.5235966444 0.7882226706
0.02602327615 -0.05959964544 0.5116062164 -0.0656195879 -0.369374305 0.9163075686
0.023584757 -0.0648388043 0.511128068 -0.1265883595 -0.4702014923 0.8390704393
0.01707142964 -0.06392154098 0.5091443658 -0.2515469491 -0.4518407583 0.8282755017
0.02664333023 -0.06579487026 0.5175743699 -0.06719222665 -0.5068013668 0.8434585929
0.02242867462 -0.05737476423 0.530821085 -0.2479863316 -0.554706037 0.7631036639
0.03073742986 -0.06439308077 0.51486516 0.02125164494 -0.4727307856 0.873669982
0.02322450094 -0.05345839635 0.5341579914 -0.2639503181 -0.5528236032 0.750779748
0.02153421752 -0.06750403345 0.5209978223 -0.1779286712 -0.5493709445 0.8055565953
0.02653560974 -0.05745173991 0.5265308022 -0.1457697153 -0.5185992718 0.8008162975
0.02842592821 -0.06131123006 0.520501554 -0.06392657757 -0.4970055223 0.8372707367
0.02188024297 -0.06109820306 0.5274351835 -0.2276627421 -0.5546705723 0.7767127156
0.004872531164 -0.05608887598 0.5115619302 -0.5300489664 -0.5371432304 0.6520888805
0.02095334977 -0.0583736077 0.5094202757 -0.1582125276 -0.3601519465 0.8926753998
0.003444934031 -0.06119005382 0.504883647 -0.5553096533 -0.5277760625 0.6425241232
0.003534839489 -0.05551940575 0.5059489608 -0.450873673 -0.4987522364 0.7031240463
0.01421640813 -0.05469523743 0.5102578998 -0.2774843276 -0.4194884002 0.8093934655
0.009123830125 -0.0548585318 0.5076438189 -0.3355627358 -0.448566556 0.7751978636
-0.002102140104 -0.05217425153 0.5060441494 -0.5319723487 -0.5382483602 0.6476465464
0.008602445945 -0.05114710331 0.5124741793 -0.4252543151 -0.4828734398 0.7078049183
-0.03978954256 -0.1349788159 0.5765292645 -0.06857062131 -0.6615684628 0.7423925996
-0.04738164693 -0.1397831291 0.5749007463 -0.2005828321 -0.649702251 0.7300035357
-0.05214507133 -0.1412087381 0.5735607147 -0.2694232464 -0.6403861046 0.7174839973
-0.04926296324 -0.1357748657 0.5770805478 -0.2272564173 -0.6430245042 0.7271921635
-0.04557608813 -0.1321951598 0.5788813233 -0.1761244535 -0.6492183805 0.7369653583
-0.08187895268 -0.09772855043 0.5831269622 -0.7320811749 -0.4882219136 0.4735850692
-0.08226640522 -0.09185247123 0.5891098976 -0.7039898038 -0.4978035092 0.5038793087
-0.08246026933 -0.08780901879 0.5925305486 -0.6747338772 -0.5115104318 0.5310652256
-0.07614579797 -0.09261675924 0.5973110795 -0.6113705635 -0.5410637259 0.5740903616
-0.0753858462 -0.08836054057 0.6006584167 -0.6033463478 -0.5341228843 0.5909288526
-0.02058208548 -0.1148431972 0.5940568447 0.2478652894 -0.667542994 0.6987698674
-0.02305327542 -0.1208793223 0.5912575722 0.1750211865 -0.67366606 0.716878593
-0.02054917812 -0.1234155372 0.5864546895 0.2536995411 -0.6559155583 0.7069320083
-0.01623288356 -0.1202659309 0.5869933367 0.3374127448 -0.639020443 0.6843011975
-0.02491355315 -0.1256786883 0.5850074887 0.1797378957 -0.6683859229 0.7215705514
-0.01555758156 -0.1250034571 0.5824584365 0.3567518294 -0.6271567345 0.691080153
-0.02248562127 -0.1301167458 0.5800533295 0.2196074426 -0.6552369595 0.7162610292
-0.01412508637 -0.1284244359 0.5777944922 0.3750956953 -0.6155735254 0.6928818822
-0.01556353271 -0.1335483938 0.5745303035 0.356870532 -0.6400570273 0.6803616881
-0.03070905805 -0.1059885919 0.6040672064 0.08069943637 -0.6723297238 0.7312689424
-0.03367413208 -0.1017899439 0.6082779765 0.03456292674 -0.6789774299 0.7314924002
-0.02523876354 -0.1046424434 0.6050878167 0.177737087 -0.6543935537 0.7337228656
-0.006601247005 -0.1012882963 0.5986287594 0.4693112373 -0.6058137417 0.6406043768
-0.005421096459 -0.09693891555 0.6023367047 0.4663001895 -0.6000340581 0.6489272714
-0.002132685622 -0.09776530415 0.5986690521 0.526165247 -0.5878947377 0.6125673652
-0.009417321533 -0.108613655 0.5942246914 0.4481314421 -0.61116606 0.6505896449
-0.01091835834 -0.1053210795 0.5980364084 0.400341332 -0.6222382188 0.6701805592
-0.05156322196 -0.02885453776 0.5154910684 0.2398206443 -0.6659789085 0.7012710571
-0.0466799587 -0.03073506057 0.5121447444 0.1648804694 -0.6791694164 0.7139706612
-0.04834109917 -0.002943268511 0.539290607 0.1945994347 -0.7243972421 0.657096684
-0.05425533652 -0.004122527316 0.539724946 0.3024892509 -0.7011212111 0.6415314078
-0.06011440605 -0.01084459107 0.5359731317 0.3822211921 -0.6511290073 0.6485349536
-0.06409171224 -0.01465748157 0.5345848799 0.4579783678 -0.6154453158 0.6404054761
0.005029400811 -0.01275578793 0.5523536205 -0.5398366451 -0.5238755345 0.6565734148
-0.0004800565657 -0.009664421901 0.5489818454 -0.5118068457 -0.5840126872 0.6242774129
0.002164001577 -0.01460319385 0.5460967422 -0.5543422699 -0.5686125755 0.6050428152
0.003901009914 -0.02026454918 0.5435165167 -0.5953554511 -0.5437853336 0.588522613
-0.006715332158 -0.006447771564 0.5451949239 -0.4750232697 -0.6490713358 0.592875421
-0.005881509278 -0.01058941055 0.5419806838 -0.4877617657 -0.6337809563 0.5945574045
-0.01087252703 -0.007078788709 0.5415944457 -0.411578238 -0.6641306877 0.6189121008
-0.003341702744 -0.01505227387 0.5393723249 -0.5271859765 -0.6077470183 0.5935429931
0.007023461163 -0.0154725071 0.5407329798 -0.4041038156 -0.6827766895 0.5377383828
0.007540138438 -0.02082139067 0.534883976 -0.3714451194 -0.6836614609 0.5503200293
0.002816503635 -0.01857277751 0.536608994 -0.4392023385 -0.6497157216 0.5700601339
0.0131980516 -0.0175826624 0.538402319 -0.2974081635 -0.741266191 0.5059642792
0.02542960458 -0.02091302536 0.5362817049 -0.124947235 -0.8362857699 0.4461469054
0.01490572002 -0.02296420373 0.5343695879 -0.2892120183 -0.7302852273 0.5154842138
0.0007475258899 -0.0238066949 0.5331849456 -0.502322495 -0.597923696 0.6017435789
-0.003469909076 -0.03606588766 0.5198944807 -0.5165755153 -0.5787358284 0.6293289065
-0.005056265742 -0.03949059919 0.5155053735 -0.5142877102 -0.5791016221 0.6312318444
0.0008110897033 -0.03782094643 0.5220253468 -0.5573942065 -0.5617034435 0.6098092198
0.001946726697 -0.0418398641 0.5192889571 -0.5695634484 -0.556001842 0.6043624282
-0.03453889862 -0.02122878283 0.5210153461 -0.05225173384 -0.685133934 0.7238375545
-0.02441830747 -0.02133410424 0.5226106048 -0.2156725228 -0.6677607894 0.7120429873
-0.03213731572 -0.01751423627 0.5244551301 -0.08708367497 -0.6799228191 0.7240861058
0.02164346166 -0.0366127789 0.5207830071 -0.1848588437 -0.6379431486 0.6389961839
0.006757555064 -0.03656699508 0.5241040587 -0.4943444729 -0.5710167289 0.6097252369
0.02418593317 -0.03231497854 0.5235815644 -0.116560325 -0.6830554008 0.6170488596
0.01555642672 -0.03211594746 0.5243649483 -0.2694443464 -0.6265335083 0.6326162219
0.02774729021 -0.02728908509 0.5297955871 -0.08678074181 -0.7843489647 0.5116675496
0.01429009717 -0.02865874954 0.5288670659 -0.3142367601 -0.670562923 0.5684909821
0.02003029734 -0.02964333259 0.5272553563 -0.2069828659 -0.6951527596 0.574645102
0.009837024845 -0.03036583774 0.5269551277 -0.3813256919 -0.613771975 0.6115848422
0.03209833801 -0.03331069276 0.5218225121 0.02892311662 -0.7224676609 0.6185295582
0.01896096021 -0.02615019307 0.531791389 -0.2485493422 -0.7410904169 0.5093801618
0.03308130428 -0.02831392549 0.5281572342 0.01360068284 -0.8055209517 0.519515872
0.03170605749 -0.0245540794 0.5330533385 -0.03507888317 -0.8534181118 0.4497725964
0.02415761538 -0.02482529543 0.5331686735 -0.1659059525 -0.7971798778 0.472016722
0.01020276546 -0.02589985356 0.5337011814 -0.4172791839 -0.6527296305 0.5526818037
-0.004198157229 -0.03090252168 0.5241231322 -0.5046303868 -0.5785445571 0.6404187083
-0.0005871730973 -0.03067610227 0.5288538933 -0.5568526387 -0.5538851619 0.6116812825
-0.00386417727 -0.02706293762 0.5284454226 -0.5103160739 -0.5822202563 0.6305944324
-0.05795872211 -0.1092427522 0.5959296823 -0.358438462 -0.6470474005 0.6708769202
-0.06357118487 -0.1094029397 0.5931027532 -0.4590345621 -0.6161876321 0.6393693686
-0.05639059097 -0.1141634211 0.5927510262 -0.3331571221 -0.6512342095 0.6794717312
-0.05926155299 -0.1167410761 0.5885590315 -0.3846124411 -0.6371009946 0.6659438014
-0.06705603004 -0.1102235466 0.5887845755 -0.5144135952 -0.5897231698 0.6190962791
-0.06964114308 -0.1130562201 0.5830928087 -0.5713064671 -0.5626620054 0.5924786329
-0.06501349062 -0.1140943095 0.5863744617 -0.5017487407 -0.5915539861 0.6285560131
-0.07011886686 -0.1057839617 0.5900143385 -0.5562675595 -0.5748152137 0.5988707542
-0.06644400954 -0.1051800922 0.5938376784 -0.5099984407 -0.6004095078 0.6141542792
-0.07652658224 -0.101634644 0.5871158838 -0.6392170787 -0.540437758 0.5467355847
-0.07994987071 -0.0970993042 0.5876688957 -0.6813328862 -0.5138700604 0.5176955462
-0.0770271942 -0.1042907164 0.5825906992 -0.6760790944 -0.5121629238 0.5253552198
-0.08220954984 -0.1030709893 0.5780742168 -0.7509548664 -0.4751831889 0.4566810131
-0.07292253524 -0.1070696563 0.5851487517 -0.6028031111 -0.5576841235 0.5680759549
-0.008364862762 -0.08946237713 0.6103523374 0.3569434285 -0.6314547658 0.6883355379
-0.006147026084 -0.09268626571 0.6065111756 0.4175260365 -0.6106910706 0.6710622311
-0.01703757979 -0.09843878448 0.6081167459 0.2950032055 -0.6474210024 0.7016993165
-0.01642709039 -0.09350579232 0.6122742891 0.2775115371 -0.6398538947 0.7161360979
-0.02167291939 -0.09525550902 0.6127644777 0.2187741846 -0.6435444355 0.731451869
-0.01202599425 -0.09388209134 0.6088824272 0.3329365551 -0.6417159438 0.6904347539
-0.001513253315 -0.1244848743 0.5719354153 0.5922685266 -0.5320172906 0.5995551348
-0.005816549994 -0.1358046383 0.5688086748 0.4882754982 -0.5992169976 0.6318945289
-0.005418929737 -0.1290635318 0.5726373196 0.5118684173 -0.5771414042 0.6350452304
-0.0001963898976 -0.135251686 0.5635767579 0.5669522285 -0.5780485868 0.5822658539
0.003448388074 -0.1267349571 0.5651028156 0.6516394019 -0.5032703876 0.5653310418
0.00312893698 -0.1300656199 0.5607363582 0.6320556998 -0.5282842517 0.5587844849
-0.00149500987 -0.1301196069 0.5676212907 0.5827202201 -0.5405712128 0.6054771543
-0.01868615672 -0.1039644703 0.602986455 0.302803874 -0.6355224848 0.7055879235
-0.0273515489 -0.1076945886 0.6004614234 0.1326980144 -0.6668317318 0.7207754254
-0.02032019943 -0.1084589362 0.5989463925 0.2325401306 -0.6575804353 0.7098335028
-0.07795723528 -0.01254413556 0.5538160205 0.5604900718 -0.6001393199 0.5705567002
-0.07168248296 -0.0168131981 0.5392745137 0.5722942948 -0.5820385218 0.5771623254
-0.06529147178 -0.01068383455 0.5399183035 0.4616248608 -0.6470384002 0.6041256189
-0.0590900667 -0.004590951838 0.5415278673 0.3898424208 -0.6905597448 0.6068191528
-0.06377768517 -0.005290795583 0.5436364412 0.4526035488 -0.6657166481 0.5917493105
-0.07625556737 -0.01449688151 0.5491706729 0.5581908226 -0.5969693065 0.5747337341
-0.07710410655 -0.0205002334 0.5430937409 0.5977592468 -0.5663480163 0.5671860576
-0.05996259674 -0.01564879715 0.5311617255 0.3815351129 -0.635207057 0.6667311788
-0.06066528335 -0.02033996955 0.5272690654 0.4050378799 -0.6215158701 0.6685144305
-0.05953028053 -0.02512364276 0.5229173899 0.3869540393 -0.6268972158 0.6708435416
-0.06438749284 -0.02534600161 0.52563411 0.4787532389 -0.5991318822 0.6414520741
-0.05615083501 -0.02141503431 0.5245065689 0.3212142289 -0.6470923424 0.6891775727
-0.04662290588 -0.01093574986 0.5306108594 0.1764226258 -0.689234972 0.6996804476
-0.05078846216 -0.009007242508 0.5335371494 0.2257947177 -0.6884232163 0.6851741076
-0.0551187098 -0.01167715434 0.5323779583 0.2851643264 -0.6708889604 0.6835532784
-0.0353760086 -0.01450648904 0.5265866518 -0.02770784125 -0.6893786192 0.7231470942
-0.05407882854 -0.01642205194 0.5280008912 0.2864615321 -0.6600263119 0.6936903596
-0.04879040271 -0.01586408541 0.5269392729 0.1846071631 -0.673600018 0.7101454139
-0.04128317535 -0.007823219523 0.5327020288 0.08175449073 -0.7027662992 0.7009416819
-0.03574139625 -0.00784814544 0.5327099562 -0.02281888388 -0.7080852389 0.704141736
-0.01087648328 -0.04095736519 0.511087358 -0.4568807781 -0.601601541 0.654779911
-0.01503123902 -0.03539601713 0.5134487748 -0.3716107905 -0.629686296 0.6795559525
-0.02173790522 -0.03483640403 0.5106118321 -0.2706627846 -0.6602569222 0.6979718804
-0.01760476641 -0.03120465018 0.5157503486 -0.3195362687 -0.6473973393 0.6901015043
-0.01699614711 -0.03769111633 0.5094901323 -0.34215343 -0.6383927464 0.6893544793
-0.0417156592 -0.02640314959 0.5153782964 0.06503556669 -0.6821121573 0.7243810296
-0.03590616956 -0.02635947615 0.515483439 -0.02459418029 -0.6813700795 0.7289871573
-0.0410418734 -0.0300406944 0.5119830966 0.05581617355 -0.6847023964 0.7178986073
-0.02721596882 -0.02909485996 0.5143667459 -0.1772761196 -0.6725128889 0.7146063447
0.001373859122 -0.09971093386 0.5925280452 0.5753715038 -0.5628465414 0.5930966139
-0.003577484516 -0.1033695191 0.5937292576 0.5303585529 -0.5846685767 0.6128268838
0.005034726579 -0.1041090861 0.5842129588 0.6293142438 -0.534271121 0.564242661
0.009402255528 -0.09922579676 0.5818772912 0.6571714878 -0.5233985782 0.5404674411
0.007890589535 -0.1057001799 0.5783961415 0.6784029007 -0.5159243345 0.5220348835
0.01162861474 -0.1006172076 0.5764618516 0.6963652372 -0.5046181083 0.5099244714
