# .PCD v0.7 - Point Cloud Data file format
VERSION 0.7
FIELDS x y z normal_x normal_y normal_z
SIZE 4 4 4 4 4 4
TYPE F F F F F F
COUNT 1 1 1 1 1 1
WIDTH 512
HEIGHT 1
VIEWPOINT 0 0 0 1 0 0 0
POINTS 512
DATA ascii
-0.03241638094 -0.1078969613 0.6487346888 -0.05192874745 0.6296445131 -0.7739886045
0.007590962108 -0.1201672629 0.6485226154 0.5393978953 0.4420256019 -0.6996073127
0.02127830312 -0.06926635653 0.661511004 -0.6937795281 0.3162033856 -0.391332835
0.02148656733 -0.08066556603 0.6745382547 -0.05424171686 0.3668599725 -0.4305230379
0.02092414722 -0.07622458786 0.6642687321 -0.4469282925 0.3151735067 -0.4381609559
0.02091273852 -0.08122891933 0.6688778996 -0.1968354881 0.3305849731 -0.4602600634
0.02108792774 -0.09151270241 0.6804934144 0.376336962 0.3754419684 -0.4962196648
0.02079741657 -0.0642092973 0.6564480066 -0.8751260042 0.2927997112 -0.3833958209
0.01631273329 -0.05643869936 0.6787059307 -0.2810752392 0.586913228 -0.03201854974
0.01226279698 -0.05315379053 0.682531476 -0.1603876799 0.6535272598 0.01454578619
0.01880780235 -0.05550774932 0.6674313545 -0.6945309043 0.4123699367 -0.2516695559
0.01385185681 -0.05186756328 0.6728358865 -0.5194760561 0.5053839087 -0.1783785373
0.02727650851 -0.07780670375 0.7120271921 0.6952738762 0.4793747663 -0.4341862798
0.01583413035 -0.0632776469 0.7016083002 0.4842368364 0.7417302132 0.06037725136
0.01204290427 -0.05903643742 0.6978908181 0.4182838202 0.8235793114 0.2160536796
0.02182720602 -0.07601572573 0.7046889067 0.6303206086 0.558852613 -0.2719751298
0.01907886565 -0.06870858371 0.7039553523 0.5531684756 0.6557115316 -0.09860892594
-0.0007437898312 -0.1169133633 0.6486013532 0.4295960069 0.4658870399 -0.7457260489
-0.01143133733 -0.1124287248 0.6477236748 0.2631002665 0.5346141458 -0.7960143685
-0.02245097607 -0.109228909 0.6472093463 0.08468520641 0.5823296309 -0.7996749282
0.0008848448633 -0.1143772528 0.6540874839 0.4334769547 0.4504065514 -0.764868021
0.0001485826069 -0.1052684709 0.6494902968 0.004015409388 0.2422289699 -0.8502204418
0.00819583144 -0.1042114869 0.6515362859 -0.02464801632 0.1308902651 -0.8105088472
-0.001079360605 -0.1109303832 0.6481536031 0.204304561 0.3661620319 -0.8172251582
0.01010670513 -0.1143857911 0.6500804424 0.3398620188 0.3071414232 -0.7270587087
0.004970364273 -0.1090734601 0.6498895884 0.1449197531 0.2618066967 -0.7949134707
0.01182821672 -0.1092672497 0.6528002024 0.1854330152 0.1842622608 -0.7498807907
0.01187459379 -0.1199688464 0.6520317793 0.5896273851 0.3883093596 -0.6705986857
-0.0002651658724 -0.1778271943 0.7379588485 0.4407657981 -0.5303135514 0.7201372385
0.002503809286 -0.1814335883 0.7338782549 0.5406607985 -0.4881131053 0.6783037782
0.01553076971 -0.09037357569 0.6583565474 -0.3355054855 0.03851626068 -0.7123510242
0.0159214586 -0.09481888264 0.6621432304 -0.1157801673 0.06520432979 -0.7078393698
0.01869808882 -0.09843421727 0.6684603095 0.1916947663 0.214271009 -0.5972838402
0.02037402801 -0.08747409284 0.6640096307 -0.1743376851 0.2906554639 -0.4966907203
0.02056610025 -0.08984360844 0.6702694297 0.05523322895 0.3206143081 -0.5040770173
0.02072259411 -0.09521633387 0.6753696799 0.3292310834 0.3401694894 -0.5143500566
0.02085310593 -0.1012414768 0.6796232462 0.5967525244 0.3543000221 -0.5248265862
0.02003996819 -0.07484859228 0.6531223059 -0.788444519 0.2505431473 -0.47333166
0.02027848735 -0.08114214987 0.660895884 -0.4187071621 0.283021003 -0.4866465032
0.002115723444 -0.09093806893 0.6496744752 -0.3068013489 0.1862722188 -0.857176125
-0.006437271833 -0.1016686037 0.6476356387 -0.01588145643 0.3970327675 -0.8369637728
0.003110647434 -0.08438868076 0.6487545371 -0.4595840871 0.2425848395 -0.8082019091
-0.007817304693 -0.108130984 0.6468803287 0.1432580948 0.4434858859 -0.845030725
-0.004097295459 -0.09509473294 0.648260057 -0.1806711853 0.3449462354 -0.8276083469
-0.005540632643 -0.1103171334 0.6544958353 0.3013182878 0.4746291935 -0.8245344162
0.01593306288 -0.05360104516 0.6619035602 -0.8614771962 0.3508594036 -0.3656585813
0.02137704194 -0.0594814755 0.660076797 -0.8796733022 0.3140318394 -0.3557633162
0.01450861152 -0.06004460156 0.6569446325 -0.8605598211 0.3278755844 -0.389660418
-0.006968717556 -0.06258123368 0.6910715699 0.1636422724 0.5861866474 -0.7931758761
0.03088527918 -0.07822468877 0.7189869285 0.7377284765 0.4285213053 -0.5213780999
0.01238025073 -0.05994434655 0.7106961012 0.5464332104 0.7370851636 -0.2679540813
0.02066748217 -0.0644222945 0.7155835629 0.593783617 0.629683435 -0.2639659941
0.02999332547 -0.07119297981 0.7262542248 0.7152378559 0.4579282105 -0.5034047365
0.02385937609 -0.06865428388 0.7129743695 0.6083490252 0.5877159834 -0.2377357632
0.01898696646 -0.06329641491 0.7081778646 0.5243563652 0.6919159293 -0.0392562747
0.02915526927 -0.07267340273 0.720962286 0.697171092 0.4770094454 -0.4489409328
-0.02988279983 -0.1376822591 0.775595367 -0.01313388813 -0.6041840911 0.7917739153
-0.05002642795 -0.1421477348 0.7705006599 -0.3391039371 -0.6516861916 0.6780230999
-0.05953940749 -0.1445720643 0.7619323134 -0.5115558505 -0.5838503242 0.6293809414
-0.04326172173 -0.1350645721 0.7800744176 -0.2045067102 -0.6510836482 0.7278030515
-0.04960686341 -0.1369814128 0.7723016739 -0.332606703 -0.6399599314 0.683916688
-0.03875434026 -0.1420085877 0.77197963 -0.1576721519 -0.6263225675 0.7560811043
-0.03608933464 -0.1364443153 0.7764511108 -0.1138391718 -0.637907207 0.7579259276
-0.0590470545 -0.1849983484 0.7341118455 -0.491643101 -0.4579410851 0.7220227718
-0.05359688401 -0.1859727055 0.735637784 -0.4172980487 -0.4967758656 0.7559236884
0.02690387331 -0.1655507535 0.7093781233 0.8728260994 -0.2699562907 0.3867082
-0.0326115489 -0.1516281962 0.7661045194 -0.07462707162 -0.6108835936 0.7834222317
0.01267056353 -0.1209550127 0.6587441564 0.6630527377 0.4311622977 -0.6032596827
0.01575064659 -0.1208740547 0.6660088897 0.7094822526 0.4424868226 -0.5408363938
-0.04227835312 -0.19180502 0.7394270301 -0.1962921917 -0.5575723052 0.8003135324
-0.03902257979 -0.1096380576 0.6492024064 -0.163792178 0.6232979894 -0.752191186
-0.0662323758 -0.1138430461 0.6612728238 -0.5661454201 0.5294184685 -0.621211648
-0.07994510233 -0.1524175107 0.7273139954 -0.7924971581 -0.3426837027 0.5022315383
-0.07837901264 -0.1603213549 0.7257066369 -0.7958993316 -0.3280207813 0.5081644058
0.01627339609 -0.06531319767 0.6931992173 0.2731401026 0.6618434191 -0.02140063047
0.02305779792 -0.07469981909 0.6852549314 0.01490155049 0.4033596516 -0.396261692
0.01999450475 -0.06469287723 0.677451551 -0.3056662977 0.4730392992 -0.216652751
0.02000205033 -0.06747786701 0.6829211116 -0.09569019824 0.4953721762 -0.2220484614
0.01429453027 -0.05840064213 0.6872733831 0.03209459782 0.7032024264 0.09542965889
0.01759600453 -0.0707115829 0.6986964941 0.4932263196 0.640545547 -0.1008826345
0.02082862705 -0.07595452666 0.6964324713 0.428565383 0.5236645341 -0.2808784246
0.01834545285 -0.05970731005 0.674043417 -0.4478144348 0.5138224363 -0.1206849515
-0.002340012696 -0.05680713803 0.6977552772 0.2247907668 0.6458669305 -0.6563879251
-0.0008859515074 -0.05320774764 0.7016422153 0.266941309 0.6978423595 -0.5461357832
-0.01054797042 -0.05902807415 0.693143487 0.1377673447 0.5979062319 -0.7895934582
-0.01773538254 -0.1038130969 0.6546651125 0.1327596605 0.5902997851 -0.7929713726
-0.02366102859 -0.1033255607 0.6537389755 0.06555257738 0.6297485232 -0.7709552646
-0.02905492857 -0.09265211225 0.662035346 -0.02034331672 0.6409009695 -0.756411612
-0.01867249794 -0.09801261127 0.661309123 0.1230304763 0.6104043126 -0.7629652619
-0.01040644571 -0.1062072143 0.6556847692 0.2271888256 0.5274394155 -0.81287992
-0.01088953484 -0.1013186574 0.6603608131 0.2407630831 0.5791832805 -0.7770197988
0.008945789188 -0.09712875634 0.6760712862 0.5883638263 0.47793293 -0.5946350098
0.006467201747 -0.09191571921 0.6791573167 0.4640975296 0.5436400175 -0.6205555201
0.001031876775 -0.08927039802 0.6755903363 0.3318745196 0.6045454741 -0.6625893116
0.01420649327 -0.09972862899 0.6794771552 0.7169702053 0.418609798 -0.5538850427
-0.0639956221 -0.1526372135 0.749168694 -0.5861015916 -0.5245588422 0.6104401946
-0.06257062405 -0.06127180904 0.7039042115 -0.5590435863 0.5792053938 -0.5909236073
-0.06546659023 -0.05939978734 0.70825243 -0.574965179 0.5759471059 -0.5778682232
0.02332073264 -0.07218754292 0.7175014615 0.6790306568 0.5202257037 -0.4562105536
-0.007099125534 -0.05163912475 0.6999797225 0.1260053366 0.5934382677 -0.7943480611
-0.01273501758 -0.05213559046 0.6972327232 0.1029424518 0.6050790548 -0.788400948
-0.03102649562 -0.04924107715 0.6975201964 -0.1055619121 0.6956793666 -0.7052969933
-0.02573490515 -0.04938384518 0.6961610913 -0.03944677114 0.6858233809 -0.7253554463
-0.01925172843 -0.04853021353 0.6974800825 0.03209416941 0.6489413381 -0.7581071258
-0.004910578951 -0.1386732161 0.7731117606 0.251929611 -0.5732108951 0.7787508965
-0.0551645048 -0.1479188949 0.7610989809 -0.4702589512 -0.5781260133 0.6639962792
-0.05009329692 -0.1500157565 0.7638245821 -0.3753283918 -0.6088186502 0.6918917298
-0.04160280898 -0.1549085677 0.761141777 -0.2251114249 -0.6054361463 0.7519928217
-0.04480092227 -0.140593797 0.7759597301 -0.242542401 -0.646710813 0.7204843163
-0.03987551481 -0.1475945562 0.7686159015 -0.1923120916 -0.6309455037 0.7461467981
-0.04592723027 -0.146457687 0.7684806585 -0.2934374511 -0.6531188488 0.6977285147
-0.04901783168 -0.134292081 0.783638835 -0.2456349134 -0.6555092931 0.7137575746
-0.06159136072 -0.1390095353 0.765807569 -0.490493089 -0.5898231864 0.6330344677
-0.05655253306 -0.1423632354 0.7674654126 -0.4447916746 -0.6110950708 0.6460801959
-0.05345240608 -0.1353044361 0.7784970403 -0.3211484849 -0.63901788 0.6879443526
-0.05757715181 -0.1362065673 0.7725225687 -0.4032484293 -0.6165363789 0.6609897614
0.007401258219 -0.1788022071 0.731328547 0.6110447645 -0.4686392546 0.6360380054
-0.03582958505 -0.1855513901 0.7422496676 -0.1054822728 -0.5455813408 0.8289000392
-0.03008796461 -0.1862284243 0.7406214476 -0.01298446395 -0.5517889261 0.8316953778
-0.03508337587 -0.1767408848 0.7461477518 -0.1272041351 -0.550306201 0.8194890618
-0.0427701436 -0.1753305197 0.7452007532 -0.2477505356 -0.5352870822 0.8006188869
-0.04271466285 -0.1798947752 0.7409663796 -0.2487339526 -0.5219416022 0.8077178001
0.01139176171 -0.180422157 0.7257957458 0.6836422682 -0.4381838739 0.5720459819
0.01667712629 -0.1774199605 0.7228504419 0.7532571554 -0.4145801067 0.5007026792
-0.02717103437 -0.1539017558 0.7653349042 0.009121518582 -0.6049978733 0.7935441136
-0.02905935049 -0.1478191167 0.7703860402 -0.008988530375 -0.5805585384 0.8099240065
-0.03285178542 -0.1440972835 0.7733038068 -0.06937574595 -0.6172232032 0.7806736231
-0.02438066527 -0.1418783218 0.7737298608 0.06595158577 -0.5653342605 0.8217238784
-0.01686683856 -0.1436188519 0.7733920217 0.1539192647 -0.5689005852 0.8064569831
-0.005103383213 -0.176473394 0.7425539494 0.3653531075 -0.5560569763 0.745832026
-0.01093224064 -0.1801476181 0.7427023053 0.2732417881 -0.5779206753 0.7673235536
-0.0180625692 -0.1777093261 0.7451756001 0.1600994617 -0.5878084898 0.7889119387
-0.02461578324 -0.1779516786 0.7445986867 0.04483158514 -0.5885064006 0.8067398667
-0.02373915166 -0.1725531667 0.7491889596 0.04490482062 -0.6144298911 0.7846019268
-0.01520318445 -0.1725641489 0.7489551902 0.20414792 -0.5905401111 0.7803595662
0.01419135183 -0.1744928211 0.7281270623 0.7329264283 -0.4192135334 0.5307002664
-0.02898388356 -0.1749414355 0.7477507591 -0.03261167929 -0.5975939035 0.7963020205
0.0292654559 -0.09011193365 0.6986697316 0.6474066973 0.4105650187 -0.5092349052
0.02211908996 -0.07447522134 0.6719819903 -0.2867960036 0.3630217016 -0.3947078288
0.02365274541 -0.08534968644 0.6831748486 0.2444024533 0.3854811192 -0.4614373744
0.02281951159 -0.06875244528 0.6693236232 -0.514361918 0.3558544815 -0.3652579486
0.02250673622 -0.09376128018 0.6868325472 0.5748715401 0.3956562877 -0.5042861104
0.02567782253 -0.09232158959 0.692584455 0.6208911538 0.4030954838 -0.5081358552
0.02478567883 -0.07984776795 0.6816043258 0.04146488011 0.3800086677 -0.4348515868
0.030712815 -0.08227956295 0.7149720788 0.7475297451 0.4180207551 -0.5159765482
0.03183538094 -0.1012394726 0.7022508979 0.7667447329 0.3886683285 -0.5103532076
0.03111176006 -0.09016978741 0.7110235691 0.7604682446 0.4009429514 -0.5104238987
0.02802797221 -0.09318626672 0.7051261663 0.7569572926 0.4015741646 -0.5149464011
0.01169480756 -0.1489133388 0.7519110441 0.6043026447 -0.523426652 0.6004315019
0.0148478793 -0.1478671283 0.7471398115 0.6581315398 -0.4910035729 0.5699960589
-0.03520568088 -0.1915725321 0.738713026 -0.06656063348 -0.5448957682 0.8338535428
-0.04951925948 -0.182013303 0.7378079891 -0.3639590144 -0.5091354847 0.7781284451
-0.04069812596 -0.1859712154 0.7387025356 -0.1892090887 -0.5368357301 0.8122155666
-0.0486837849 -0.1889980137 0.7393038273 -0.3255201578 -0.5371077657 0.7722836733
-0.05482652783 -0.1767466813 0.7374712825 -0.433657527 -0.484770149 0.7586452961
-0.04936190695 -0.1788596064 0.743150115 -0.3615565002 -0.532977283 0.7601220012
-0.05923230574 -0.1726343781 0.7376067638 -0.4997924566 -0.4661475122 0.7246693373
-0.06133868918 -0.1669436991 0.7405257225 -0.5477190018 -0.4710383713 0.6864672899
-0.003333056811 -0.08781450987 0.6723334193 0.2214410454 0.6472989321 -0.6988635659
0.004137303215 -0.09620377421 0.6713095903 0.4917706847 0.5184409618 -0.6299769878
-0.0004481381038 -0.09326484799 0.6700832248 0.3328990638 0.576931715 -0.6754311323
-0.01641450077 -0.1074315161 0.6489031315 0.1631618589 0.5092203617 -0.8406342864
-0.01538630482 -0.09916964918 0.6514356136 -0.001027604449 0.5007238984 -0.8087671399
-0.01124504488 -0.09401457757 0.6514311433 -0.1406034082 0.4430275857 -0.8010978699
-0.0119007295 -0.1035927013 0.6484502554 0.05319216102 0.4462541044 -0.8408660889
-0.01741174795 -0.09252920002 0.6545554399 -0.1122938097 0.5351206064 -0.7722049356
-0.02958491258 -0.0964011699 0.6573019028 -0.02677257173 0.6476309896 -0.7580222487
-0.04600542784 -0.1085066348 0.6515417695 -0.2849567831 0.6144017577 -0.7334849238
-0.04190201685 -0.1034996957 0.6534616351 -0.2133675218 0.6152253151 -0.7564942837
-0.0510697253 -0.1034328863 0.6568556428 -0.3619201481 0.6049644947 -0.7073218226
-0.08608176559 -0.1628508121 0.7105022073 -0.7839692831 -0.3376333416 0.5200811028
-0.08226501942 -0.1549206674 0.7212234735 -0.8101653457 -0.3185832202 0.4918425083
-0.08353199065 -0.1604497433 0.7158229947 -0.7891523838 -0.3426252902 0.5087715983
-0.08275992423 -0.1704200059 0.717695713 -0.7554458976 -0.3502164781 0.5535268784
-0.04786783084 -0.06181883067 0.6924495101 -0.3593658805 0.6270923615 -0.6890094876
-0.05275887251 -0.06067498028 0.6954953671 -0.4318205118 0.6153331399 -0.6591959596
-0.07421632111 -0.06679021567 0.7104800344 -0.6413982511 0.5103652477 -0.5725048184
-0.07036183774 -0.06206123903 0.7119856477 -0.6202527285 0.5263943672 -0.5812551379
-0.05093576387 -0.07664518803 0.6803480387 -0.3979508579 0.5839709044 -0.7070772648
-0.000914067612 -0.06329173595 0.6924431324 0.05869236961 0.5876951814 -0.7768431306
0.003539783414 -0.05849518254 0.6990096569 0.2202724218 0.7446687818 -0.4326749444
0.01524896547 -0.07290931046 0.704125762 0.3076544702 0.5000895262 -0.6611278057
0.008576062508 -0.06298142672 0.7024435997 0.2897522748 0.6720229983 -0.476031214
0.01778063178 -0.06912501156 0.7111018896 0.5725081563 0.5975114703 -0.4206467569
0.006739151664 -0.05643430725 0.7051190138 0.4864837527 0.8304693699 -0.1895464808
0.02113088965 -0.0744786039 0.7116735578 0.5271058679 0.4862735271 -0.5748069286
0.01664545387 -0.07833656669 0.7005999684 0.4009553194 0.4770520031 -0.6329974532
0.009660009295 -0.07033011317 0.6977597475 0.1152009442 0.5283984542 -0.7245219946
0.02488213405 -0.08595138043 0.7061342001 0.7157164812 0.4200285077 -0.5300059915
-0.0122438278 -0.06658411026 0.6859925985 0.1507940441 0.579698801 -0.8001739383
-0.005211972632 -0.10227561 0.6608857512 0.3619774878 0.4735459387 -0.7947722077
-0.006427881774 -0.09047999233 0.667755723 0.1354116797 0.6435880065 -0.7352753282
0.007623501588 -0.10257148 0.6692172885 0.644417882 0.4358744323 -0.5986014009
-0.003756052582 -0.09850705415 0.6655271053 0.347230047 0.5529276133 -0.7032654285
0.001041727955 -0.1035554558 0.6632398963 0.4940832853 0.4254283011 -0.7397664189
-0.03529532626 -0.1032026187 0.6534389257 -0.09606515616 0.6427889466 -0.7595280409
-0.03627629951 -0.09308432043 0.6618739367 -0.1512469202 0.6496691108 -0.7434476018
-0.03704569489 -0.0976049304 0.6574490666 -0.1354122907 0.6428279281 -0.7502428293
-0.03494529054 -0.0721334219 0.679469645 -0.1200037375 0.626840353 -0.7675799727
0.01626973785 -0.0818599537 0.6530405879 -0.6901281476 0.08594541997 -0.6326275468
0.0137755191 -0.07574141771 0.6509980559 -0.8022356033 0.2808732986 -0.5170064569
0.01083350647 -0.08577101678 0.6518955231 -0.6779105067 0.1287669092 -0.6362892389
0.01131233387 -0.09011616558 0.6841329932 0.635419488 0.4969656765 -0.5718739033
-0.06103183702 -0.1113696173 0.6563964486 -0.5094885826 0.540471971 -0.6668565273
-0.04420867935 -0.07845977694 0.6759582162 -0.2744779289 0.6149501801 -0.7382498384
-0.04114737362 -0.08238431066 0.6723999977 -0.2353803813 0.6250201464 -0.7397130728
-0.03865777701 -0.0772126466 0.6757119894 -0.1863325983 0.619805634 -0.7584452629
-0.0592096746 -0.1505834162 0.7563194633 -0.537745297 -0.5527744889 0.6355662942
-0.06504423171 -0.1460120976 0.7570482492 -0.5641623735 -0.5531947613 0.6124330163
-0.06498190761 -0.1418468058 0.7609484792 -0.5444060564 -0.5702117682 0.6146612763
-0.01976546831 -0.05741630122 0.6916555762 0.04233722389 0.6283358335 -0.7711198926
-0.02685064264 -0.05793460459 0.688788712 -0.01538793743 0.6368257403 -0.7693713307
-0.01656118408 -0.06252890825 0.6884256601 0.106851995 0.602617979 -0.7896159887
-0.03729065508 -0.06082736328 0.6894541383 -0.1933324635 0.6321943402 -0.7469526529
-0.01655125059 -0.06889139116 0.6832649112 0.1438196003 0.6044740081 -0.7814494967
-0.01138085593 -0.05898666009 0.6770551801 -0.2914332151 0.5534835458 -0.6332802773
-0.02009387687 -0.0609453246 0.6824874878 -0.08356172591 0.5969064832 -0.7279651761
-0.02627479471 -0.06994456798 0.6801213026 0.02717852406 0.6197254062 -0.7820573449
-0.03141710162 -0.06554058939 0.6841416359 -0.06533916295 0.6219184399 -0.7761238217
-0.0006776328664 -0.1871630251 0.7325087786 0.4534167051 -0.5305252075 0.6965293884
0.006976403762 -0.1847081333 0.7298566699 0.584102571 -0.4878321588 0.6364979744
-0.006352094468 -0.1711864471 0.7456683517 0.3564646542 -0.5531060696 0.7379282713
-0.0005329819396 -0.1718019396 0.7424401641 0.455362618 -0.5243057609 0.7148230672
-0.0529727675 -0.1544861943 0.7572481632 -0.4387927949 -0.5770516992 0.6879261732
-0.04709146544 -0.1557885706 0.757997036 -0.3223929107 -0.5914442539 0.7217661142
-0.05321542174 -0.1608753651 0.7516403198 -0.4429401159 -0.5769956708 0.6856573224
-0.0464582108 -0.162224412 0.7551422715 -0.3356844187 -0.5931069255 0.7292671204
-0.06079776213 -0.1581555307 0.7491583228 -0.5589889288 -0.5301926732 0.6367881298
-0.02209516801 -0.1508532912 0.7668395638 0.07929376513 -0.5940160751 0.7982991338
-0.003529749811 -0.1454088092 0.7681934237 0.3262142241 -0.5745671391 0.7445555329
0.02346988954 -0.167918399 0.7152794003 0.8289113045 -0.3663015366 0.4227259755
0.01865062118 -0.1676690131 0.7224302888 0.808562696 -0.371529907 0.4559049904
0.02024988085 -0.1729210764 0.7185582519 0.8100636601 -0.3819167912 0.4443297684
0.009757421911 -0.155902788 0.7463032603 0.6294914484 -0.5043193102 0.5897282362
0.02090616338 -0.1491416991 0.7370744944 0.7587555051 -0.434142381 0.4832214117
0.01550073549 -0.1020567194 0.6633119583 0.07527886331 0.08247378469 -0.7173618674
0.01948664524 -0.1146970019 0.6737672091 0.7515329719 0.3874002099 -0.5104824305
0.02035368048 -0.1092249751 0.6760805845 0.6645721197 0.3003697097 -0.5619728565
0.01845278405 -0.1060990617 0.6702851057 0.3862529397 0.1913042367 -0.6383630633
-0.02286112495 -0.1841012537 0.7404321432 0.08103211969 -0.5646310449 0.8178817034
-0.01759280823 -0.1866737753 0.7385726571 0.1727734208 -0.5745440125 0.7946532369
-0.004500733223 -0.1826717556 0.7373515964 0.3798539639 -0.5491676331 0.7426943779
-0.02397666126 -0.1909019798 0.7375842333 0.07426986843 -0.5649570227 0.8193446994
-0.01392511185 -0.1908145398 0.7369884849 0.2232306153 -0.5777951479 0.7769774199
-0.007882099599 -0.1900390834 0.7362231016 0.3135458231 -0.5832048059 0.7492081523
-0.05004354566 -0.1656758934 0.7500081062 -0.3919744194 -0.5629137158 0.7253364921
-0.02986769006 -0.1591809094 0.7620418668 -0.02796114422 -0.6200992465 0.7814654112
-0.03530838341 -0.1569708288 0.7628781796 -0.1187774241 -0.608748734 0.7831425667
-0.04002773017 -0.1602911502 0.7589322925 -0.2118399888 -0.614644587 0.7565408349
-0.04630149156 -0.1850716472 0.7435690165 -0.2918427289 -0.5578068495 0.7751328945
-0.03570495918 -0.172791481 0.7508323789 -0.146892339 -0.5992985368 0.7857757211
-0.04230935499 -0.1702131331 0.7508856058 -0.2511977553 -0.5617487431 0.7869830728
-0.04154914245 -0.1655311584 0.7540867329 -0.2421619445 -0.6038561463 0.755839467
-0.03000844643 -0.1700399369 0.7509043813 -0.06579367816 -0.6150633097 0.7743025422
-0.03484947607 -0.1670823693 0.7530740499 -0.1397418976 -0.6110226512 0.769677341
0.02741979249 -0.08151223511 0.6886578202 0.2096580118 0.3911153376 -0.4546009898
0.02488194592 -0.0831829235 0.6957764626 0.4356290102 0.4012944996 -0.4842399657
0.02237609029 -0.06294506043 0.6649366021 -0.7684816122 0.3460774124 -0.3330970705
0.02771799266 -0.09902990609 0.6982201934 0.7511517406 0.3984038234 -0.525570333
-0.07753539085 -0.1659778804 0.724347353 -0.7716328502 -0.3407815397 0.5369601846
-0.08059122413 -0.1650204062 0.7189561129 -0.7736787796 -0.3517059982 0.5268098116
-0.07798118144 -0.1729832888 0.7227110267 -0.7268804908 -0.3557687402 0.5841564536
-0.07329393923 -0.1772257984 0.726500392 -0.6554823518 -0.3804959655 0.6475104094
-0.06074241549 -0.1793197244 0.7330744863 -0.50625211 -0.4600487351 0.7235954404
-0.06412170082 -0.1741087735 0.7341636419 -0.5652829409 -0.4396156967 0.6964774132
-0.06801814586 -0.1798805594 0.7290376425 -0.6014539599 -0.4178701639 0.6806223989
-0.05402335152 -0.1720589697 0.7418072224 -0.4508134127 -0.5002020001 0.7382410765
-0.05681147426 -0.1665722728 0.7444567084 -0.467686981 -0.5221708417 0.7113494873
-0.07798881084 -0.1450998783 0.7395005822 -0.7238468528 -0.4267522395 0.5299429893
-0.07617215067 -0.1400143355 0.7447132468 -0.6851857901 -0.4737706184 0.5468071699
-0.07020646334 -0.1429497749 0.754334569 -0.6077895164 -0.5334390998 0.5860443711
-0.07077201456 -0.1460019946 0.7490098476 -0.6401717663 -0.5130835176 0.5705282688
-0.0717099905 -0.1387427151 0.7575743198 -0.59160918 -0.54467237 0.5921786427
-0.06894610822 -0.169411093 0.7326965332 -0.6481981277 -0.3976294696 0.6421143413
-0.07373218983 -0.1712657362 0.7279898524 -0.6976872683 -0.359880954 0.6171472669
-0.07119105756 -0.1574556828 0.7389047742 -0.6889410615 -0.430670172 0.5795757174
-0.07246161997 -0.1480030417 0.7424047589 -0.6927409768 -0.4583426416 0.5506731272
-0.069610551 -0.1517439336 0.7452852726 -0.6423608661 -0.4985563457 0.581186533
-0.04640262946 -0.09893031418 0.6584008336 -0.2931136489 0.623498261 -0.7235971093
-0.08514281362 -0.1498974264 0.7180745602 -0.8102936745 -0.3201206028 0.4907896817
-0.08336470276 -0.1484106034 0.724153161 -0.7976913452 -0.3390777111 0.4973601997
-0.08553946763 -0.1546529382 0.7136138678 -0.8319680095 -0.2907176912 0.4636563361
-0.08662935346 -0.157980904 0.7072136402 -0.8899712563 -0.2157987803 0.3886465728
0.005906412378 -0.06927103549 0.6931419373 0.05941540748 0.5400499701 -0.7662026286
0.01200447045 -0.07684227079 0.6954689026 0.3561183214 0.4874362648 -0.6855966449
0.001342316275 -0.06928768754 0.6889435649 0.07043471187 0.5555758476 -0.7974166274
0.0147452727 -0.0871655941 0.6907953024 0.6048044562 0.4428962469 -0.6257734299
0.02004119754 -0.08735558391 0.697769165 0.6750644445 0.4290708899 -0.5737855434
0.01051919535 -0.08351632953 0.6882611513 0.5254818201 0.4590424895 -0.6808080077
0.006737023126 -0.07822280377 0.6877502203 0.4410097599 0.4764572382 -0.7379161119
7.153703336e-05 -0.07573870569 0.6851482391 0.2962986529 0.5421769023 -0.7680258751
0.00381572987 -0.08192440122 0.6823822856 0.4877249897 0.5724934936 -0.632918179
0.01664827019 -0.09283810109 0.6887329817 0.6823263764 0.45005849 -0.5592923164
-0.006408460438 -0.07087554783 0.6852898002 0.1867766082 0.590564549 -0.784876585
-0.006479010452 -0.08232267201 0.6750336289 0.1524207443 0.6685852408 -0.7271795273
-0.004500768613 -0.07823406905 0.6799902916 0.1819994003 0.6288424134 -0.7535841465
9.609198969e-06 -0.0833408758 0.6768086553 0.4476655722 0.6325169802 -0.6088386178
-0.002961824648 -0.05317550898 0.6739242673 -0.4924642742 0.5211438537 -0.538639605
0.002496875357 -0.05225531757 0.670337975 -0.6222754717 0.4929866195 -0.4798420072
-0.01589311846 -0.05609690398 0.6852843761 -0.1194891855 0.5867933631 -0.7133077979
-0.01285061613 -0.04964188859 0.6901616454 -0.141006887 0.598751545 -0.6913664341
-0.009697282687 -0.05179663002 0.6809902191 -0.3679181635 0.5672109723 -0.5987082124
-0.007135249209 -0.04917822406 0.6853418946 -0.2757959962 0.5653569102 -0.6299676895
-0.01928386092 -0.05219124258 0.690109551 -0.1175881103 0.6253094077 -0.7110366225
-0.002641360974 -0.05215439573 0.6898986697 -0.3849583268 0.6112778187 -0.6285989285
-3.068035221e-05 -0.0499227345 0.6797545552 -0.4793197215 0.537319839 -0.5507898331
0.01283319108 -0.04944194853 0.6658627987 -0.8274691105 0.3954477906 -0.3814223111
0.006030854303 -0.05193281174 0.6786424518 -0.6502910256 0.5360151529 -0.5032516122
0.009094696492 -0.05496930704 0.6939210892 0.1588972956 0.8038800955 0.1160532236
0.005994368345 -0.05368713289 0.6877443194 -0.3145782948 0.6573634148 -0.3064226508
-0.0461028181 -0.0714937821 0.6825170517 -0.311237067 0.6069645286 -0.7305484414
-0.05496775731 -0.07179283351 0.6875606179 -0.4531376958 0.5787844062 -0.6712396741
-0.04571286216 -0.0654001534 0.6879080534 -0.317197293 0.6169925332 -0.7181400061
-0.05251954496 -0.06682057679 0.6905887723 -0.4177400172 0.5961173773 -0.6783832312
-0.01234624442 -0.09551652521 0.6630954146 0.1567953229 0.6168836355 -0.7688443661
-0.010083545 -0.07544903457 0.6802841425 0.1840064228 0.6127792597 -0.7680674195
-0.01639568992 -0.09200612456 0.6640294194 0.1186084077 0.6303482652 -0.7667839527
-0.02260249667 -0.09242660552 0.6592113972 0.01959647983 0.6140662432 -0.7642697692
-0.005377245136 -0.08429926634 0.6520655155 -0.3803576231 0.3970108628 -0.7504585981
-0.01443515159 -0.0881504491 0.6563723683 -0.1642158329 0.5110716224 -0.7583683133
-0.04594936594 -0.08631208539 0.6714943051 -0.3277053833 0.6162627339 -0.7125591636
-0.04156308249 -0.08916354924 0.668241024 -0.2591301501 0.6231533289 -0.7212615609
-0.04228013009 -0.092779845 0.6630545259 -0.2483979613 0.6346007586 -0.7303338051
-0.03453813493 -0.161421448 0.7576827407 -0.1044616401 -0.6182623506 0.7748507261
-0.02750132233 -0.1626096815 0.7572361231 0.01384737901 -0.6222596765 0.7741351724
0.005007875618 -0.156733796 0.7508624792 0.5479134917 -0.5415526032 0.6348050833
-0.009052871726 -0.1502560675 0.7655625939 0.2834745646 -0.5885965228 0.7528635263
-0.008690380491 -0.1446173489 0.7649015784 0.2512627244 -0.5833231211 0.7570947409
-0.01578369364 -0.1526488215 0.7649852037 0.1677874327 -0.5955471396 0.7820182443
-0.01419145335 -0.1482720673 0.7689149976 0.2008008361 -0.5823502541 0.7876279354
-0.01522871386 -0.1376067102 0.7704262733 0.1858605146 -0.579256475 0.777846992
-0.003529463196 -0.1397761852 0.7648980021 0.3202961683 -0.5783305168 0.7394846678
-0.009255158715 -0.1388847232 0.7675258517 0.2540863156 -0.5788777471 0.7582743764
-0.02168749273 -0.1681201607 0.7532152534 0.1050185338 -0.6144954562 0.7784593105
-0.01954768412 -0.1579362601 0.7626511455 0.114435412 -0.6178696752 0.7757658958
-0.01593454927 -0.1678162813 0.7535755634 0.1827453226 -0.6049958467 0.7745030522
-0.01891581155 -0.163531065 0.758040607 0.1324321926 -0.6220498681 0.7701743245
-0.01137650665 -0.1564076394 0.7619154453 0.2449547052 -0.6089975834 0.7475203872
-0.01028194185 -0.1675290316 0.752348721 0.2951709032 -0.5928429961 0.7460419536
0.009632011876 -0.1714065075 0.7321307659 0.6558150649 -0.4433338046 0.5939397216
0.01490166783 -0.168264851 0.7265915871 0.751575768 -0.3946819007 0.5104126334
0.004315830301 -0.168054983 0.7420780063 0.542764008 -0.5123654604 0.6608341932
0.00649791304 -0.1744254231 0.7380093336 0.5632941127 -0.5074762106 0.6461201906
0.01522708405 -0.164632231 0.7317720056 0.7517365813 -0.40474087 0.5174810886
0.02280246094 -0.1587405205 0.7192875743 0.8251824975 -0.3553973734 0.4382039905
0.03209540248 -0.1603888273 0.6985236406 0.9502738118 -0.05694380775 0.3003611565
0.02726696618 -0.1042345986 0.6945355535 0.7745957971 0.3698073626 -0.5129227042
0.02086855099 -0.1043881699 0.6847469807 0.7710379958 0.3443636298 -0.5344278216
0.01756617799 -0.09819082171 0.6856712699 0.7345231771 0.4149512649 -0.5365388989
0.02185338549 -0.09845601767 0.6911117435 0.7438699007 0.4018259346 -0.5329226255
0.00660572527 -0.1080394089 0.6644710898 0.6049807668 0.4533233643 -0.6372436881
0.004997421056 -0.1139698848 0.6581775546 0.5604535937 0.4724215865 -0.6674386263
-8.503721619e-05 -0.1097449139 0.6583331227 0.4032933116 0.4803313613 -0.774312675
0.009612429887 -0.1154332459 0.6630575061 0.6581360698 0.4696787298 -0.5848939419
-0.07598084211 -0.1568914056 0.7318116426 -0.7679696679 -0.3563108742 0.5268562436
-0.07080119103 -0.1628057212 0.7338144183 -0.6784003973 -0.3937391043 0.6049774885
-0.07946699858 -0.147761941 0.7344545126 -0.769774735 -0.3678905964 0.5149470568
-0.07583758235 -0.1517324299 0.7370945215 -0.742412746 -0.3959774077 0.5355433226
-0.06664136052 -0.163683638 0.7386393547 -0.617806077 -0.4398815632 0.6469231844
-0.06611127406 -0.1585393846 0.7434631586 -0.6158845425 -0.4859933853 0.6185682416
-0.07382337004 -0.1159058809 0.6693371534 -0.6570441723 0.4955163598 -0.567024827
-0.07851846516 -0.1174822152 0.6759338975 -0.6852072477 0.4775774777 -0.5488891006
-0.07959616929 -0.06596286595 0.7195792198 -0.647018075 0.4941925406 -0.5802951455
-0.07977801561 -0.07150769234 0.7147171497 -0.6625348926 0.48690027 -0.5690533519
-0.07337618619 -0.09232138842 0.6884416342 -0.7008271813 0.4584111571 -0.5459342003
-0.08093147725 -0.1177826449 0.6816405654 -0.7081529498 0.4602768421 -0.5350148082
-0.08136097342 -0.1135730743 0.6865947843 -0.7215901613 0.4475695491 -0.5277758241
-0.07830262929 -0.1120774969 0.6800855398 -0.7148448229 0.4535301626 -0.5317682624
-0.01969170943 -0.07277718931 0.6726719737 -0.09251077473 0.5824130177 -0.7146624327
-0.005057372153 -0.06387284398 0.6660740376 -0.4815221727 0.4556493759 -0.547303319
-0.01359820273 -0.06872602552 0.6703547239 -0.2513870299 0.5309084058 -0.6453549862
-0.01518244296 -0.06433984637 0.6752071381 -0.2146556228 0.5344983339 -0.670030117
-0.0198771134 -0.06912841648 0.67721349 -0.05887224153 0.5950705409 -0.7209892869
0.006569866091 -0.05389159173 0.6661892533 -0.7286940813 0.4605784714 -0.4335338771
-0.008783455007 -0.06141141802 0.6712244749 -0.3911811411 0.4817212224 -0.5968495011
-0.002289272845 -0.05789455771 0.6696663499 -0.5277720094 0.4814616144 -0.5293478966
-0.01565739699 -0.07630327344 0.6771980524 0.1675551683 0.6313913465 -0.7566591501
0.009667101316 -0.05402085185 0.6609913707 -0.8376021385 0.3765563369 -0.390592128
-0.02926278487 -0.08373653144 0.6700470448 -0.0608160086 0.6459645629 -0.7493363023
-0.03492664546 -0.08131957054 0.6713725328 -0.1430193335 0.6340321898 -0.7586667538
-0.02750670537 -0.07661211491 0.6748607755 0.003004829166 0.6295078993 -0.772392571
-0.01810878329 -0.08051914722 0.673381865 0.1116580591 0.6522523761 -0.7478051782
0.009289711714 -0.09117293358 0.6534741521 -0.4251258373 -0.07079866529 -0.8774400949
0.004431471694 -0.09661187977 0.6514552832 -0.2461638451 0.0802064538 -0.8701903224
-0.001169439522 -0.1598603129 0.7523808479 0.4489095807 -0.5762806535 0.6795421243
-0.005594541319 -0.1630789042 0.7527511716 0.3544836938 -0.6003543735 0.7115918994
-0.008053893223 -0.1590515375 0.757599771 0.3042464554 -0.6071573496 0.7272170782
-0.002783244243 -0.1452373564 0.7617415786 0.3286017179 -0.5909620523 0.7317419052
-0.002716724761 -0.1553797573 0.7570411563 0.388228178 -0.5911815166 0.7046724558
0.003532873699 -0.1419202089 0.760440886 0.4303420186 -0.5646718144 0.6957611442
0.007845063694 -0.1442819387 0.7569548488 0.5209492445 -0.5397283435 0.6472023726
0.005551890936 -0.1523777246 0.7558663487 0.5129252672 -0.5564319491 0.6498762369
0.002174681053 -0.1434256732 0.766597867 0.4035947025 -0.575433135 0.7062770724
0.003120139008 -0.1479454637 0.7620248199 0.4498691559 -0.5690131783 0.6842933893
0.01101402659 -0.1654936671 0.7373560667 0.6829753518 -0.4488307238 0.573628962
0.01297739334 -0.1577342451 0.7417123318 0.6796030998 -0.4842365682 0.5506473184
0.01683750749 -0.157667473 0.7360405922 0.7375743389 -0.4350584447 0.515298903
0.008081829175 -0.1631392837 0.743242979 0.6031793952 -0.5121201873 0.6049420834
0.02090128511 -0.1547254622 0.7308248878 0.7947286963 -0.3922452927 0.4625525773
0.02073449269 -0.1584285349 0.7250477672 0.8175755143 -0.3591199815 0.449616015
0.02549522556 -0.161728397 0.7150224447 0.8508532047 -0.326438874 0.4078875184
0.02802812681 -0.1286648363 0.7098733783 0.7938656807 0.04617839307 -0.1093634963
0.02432086878 -0.1445295215 0.7243891358 0.802916944 -0.2511583269 0.2804483473
0.02695787698 -0.1310735494 0.7168135643 0.7832873464 -0.04952197522 0.003690494224
0.02932838909 -0.1216264069 0.7066490054 0.7817351222 0.1437688917 -0.245731473
0.03113452159 -0.1125630289 0.706467092 0.7777168155 0.2620050907 -0.3649659753
0.02837139554 -0.1242710724 0.7153308392 0.7803201079 0.04817677662 -0.1028477401
0.02603924833 -0.1342102587 0.7225391865 0.7825380564 -0.1312472373 0.1156621128
0.03004303388 -0.1172218174 0.7102326155 0.7789637446 0.1754185408 -0.2570704222
0.0264676474 -0.139348492 0.7192385197 0.7997714281 -0.1714231521 0.1816494763
0.02396899462 -0.143454656 0.7305910587 0.7864338756 -0.3063724041 0.3409029245
0.0250780955 -0.1389875412 0.7267298102 0.785862565 -0.2214538157 0.2359044254
0.02394711412 -0.1512380838 0.7272394896 0.8053354025 -0.3808473349 0.4428126812
0.0301565975 -0.1346063912 0.7065252662 0.8339645863 0.02372059971 -0.01070367452
0.03170352802 -0.1270884722 0.7027534842 0.8353951573 0.1683699042 -0.1805830598
0.03205467761 -0.1127742827 0.6986444592 0.7880595326 0.3249384761 -0.4528659582
0.02820230462 -0.1550823152 0.7155317068 0.8874278069 -0.2239921987 0.3771044612
0.02534896322 -0.153343901 0.7217357755 0.8305173516 -0.3417246342 0.4263244569
0.0301220715 -0.1624863744 0.7051660419 0.9139772058 -0.1930822879 0.3518683314
-0.07148969918 -0.07323545963 0.7033051848 -0.659876585 0.4908705354 -0.5684242249
-0.07577387989 -0.07243992388 0.7086094618 -0.6662936807 0.4850844741 -0.5658435225
-0.0681071505 -0.06593694538 0.7046818733 -0.6174399853 0.5361253023 -0.575193882
-0.07448960841 -0.07997916639 0.7016599774 -0.690603137 0.4624143541 -0.5548267365
-0.06344459951 -0.06933044642 0.6983345151 -0.5728228092 0.5396293998 -0.6065790057
-0.05808004737 -0.06451904029 0.6963050365 -0.5067100525 0.5884717107 -0.6270182729
-0.06310024112 -0.1058346331 0.66528368 -0.593233645 0.5183839202 -0.6149430871
-0.05805611238 -0.1019493267 0.6643579006 -0.4954022765 0.5726528764 -0.6482930779
-0.05662050843 -0.1075809374 0.6580332518 -0.4515736103 0.5700418949 -0.6800965071
-0.06178113446 -0.09553430229 0.6726308465 -0.5482351184 0.5481839776 -0.6279277802
-0.04927458614 -0.09521392733 0.6630736589 -0.3462001979 0.6167773604 -0.7037781477
-0.05230269954 -0.09225277603 0.6689713001 -0.4035866261 0.6011188626 -0.683832407
-0.06010640785 -0.08853834867 0.6773192883 -0.5246282816 0.5413244963 -0.6550357938
-0.0540892221 -0.08793713897 0.6745173931 -0.4480090737 0.5750424862 -0.6820282936
-0.06220478565 -0.1010458991 0.6700893641 -0.5879458785 0.5307304263 -0.5959293842
-0.07031282037 -0.09324067086 0.6834526658 -0.6793662906 0.4726960659 -0.5607351661
-0.06456499547 -0.09274735302 0.6791553497 -0.607724607 0.5043155551 -0.605915308
-0.07106182724 -0.1069212779 0.6743955016 -0.6839239001 0.4782161713 -0.5498446822
-0.07295523584 -0.1017450765 0.680254817 -0.6968920827 0.4662390351 -0.5446677804
-0.07521625608 -0.1128463373 0.6740534902 -0.6925497651 0.4650928676 -0.5514003038
-0.06955655664 -0.1106063575 0.6668004394 -0.633643806 0.5021435618 -0.5863186121
-0.06765403599 -0.09967707098 0.6747759581 -0.631727457 0.5056638122 -0.5837293267
-0.0790233016 -0.1039944217 0.6898816824 -0.7249484062 0.4417487383 -0.5282757282
-0.07425100356 -0.09750202298 0.686516583 -0.7075862288 0.4498195946 -0.5447843671
0.007554227952 -0.07573443651 0.6500486135 -0.683627367 0.2807975411 -0.654520154
0.00778830424 -0.06876437366 0.6527032256 -0.7623732686 0.3295485973 -0.5353091359
-0.003154929262 -0.06745740026 0.6619229913 -0.5238687992 0.4469387233 -0.5593218803
0.005510530435 -0.06014557928 0.6584677696 -0.7763855457 0.3592622578 -0.4314628541
0.003743529553 -0.06600518525 0.6570847631 -0.6990354061 0.3933970928 -0.5026170611
-0.02428397536 -0.07976767421 0.6704859138 0.008723315783 0.6343251467 -0.7553352118
0.009806970134 -0.06385143846 0.654681921 -0.830381453 0.3463301659 -0.433904618
-0.01219013426 -0.08144651353 0.6740940213 0.1443280578 0.6574795842 -0.7392580509
0.02050917409 -0.1214698255 0.6733099222 0.7527893186 0.4304424822 -0.4974901378
0.02621691115 -0.1229860485 0.6827346087 0.8395305276 0.2294822633 -0.4844710827
0.02302893996 -0.1132881939 0.6795459986 0.7786753774 0.3383077979 -0.5281767845
0.02849892899 -0.1119534522 0.688990593 0.7829777002 0.337977767 -0.521795094
0.02381088212 -0.1190027148 0.6782166362 0.7728704214 0.3765604198 -0.5085325837
0.02469799109 -0.1056954041 0.6894859076 0.7785311937 0.3458653092 -0.5232075453
0.02766176313 -0.1183153018 0.6877105236 0.8180609941 0.2642509639 -0.5026672482
0.02405786701 -0.111078918 0.6855188012 0.8001003265 0.2926996052 -0.5189400911
0.02655080892 -0.1434163302 0.7081664205 0.8196361661 -0.1408669353 0.1447093338
0.02699428983 -0.130346179 0.7032237053 0.799593091 0.06040177867 -0.1244152784
0.02503884397 -0.1487276703 0.7145271897 0.8274912834 -0.2267972231 0.2660371065
0.02473345958 -0.1416598558 0.7136361599 0.8165341616 -0.1196540818 0.1254027337
0.02670918219 -0.1366710514 0.7116981745 0.8121548891 -0.04541236907 0.02501526475
0.02786541544 -0.1191000864 0.6986985803 0.7831066251 0.2332438231 -0.356167376
0.03238896281 -0.1069844216 0.7003695965 0.7765211463 0.3718380332 -0.5085901022
0.01225364674 -0.1107132956 0.6586342454 0.396718055 0.2593038678 -0.6591052413
0.01224572398 -0.1020930484 0.6579526067 0.03773516417 0.07624448091 -0.73958987
0.01224961039 -0.1071469337 0.6697776318 0.7503067255 0.4055919349 -0.5191506147
0.01261692587 -0.1136619523 0.6672332883 0.7032827139 0.4506490231 -0.5431292057
0.01248716842 -0.09633029997 0.6573434472 -0.221089229 -0.0432822369 -0.8033518791
-0.06015789881 -0.07123152167 0.6917858124 -0.5375521183 0.560067296 -0.6288909912
-0.06453868747 -0.07755018771 0.6894783974 -0.5994200706 0.5184720159 -0.6083090305
-0.07786720246 -0.09202174842 0.6961590052 -0.7258542776 0.4378382564 -0.5303724408
-0.07493044436 -0.08544311672 0.6974564195 -0.7043762803 0.4529033601 -0.5464501977
-0.06530672312 -0.08819826692 0.6827358603 -0.606338203 0.4995889068 -0.615285635
-0.06378067285 -0.0822821334 0.6849257946 -0.5795454979 0.5190578103 -0.6280371547
-0.0713237524 -0.08408261091 0.6931449175 -0.6787999868 0.4717027843 -0.561647594
-0.06993017346 -0.08668532223 0.688139081 -0.6658032537 0.4805307984 -0.5692718625
-0.05819264427 -0.07685068995 0.6856902838 -0.4916928709 0.556343317 -0.6612309813
-0.05797678232 -0.08178061992 0.6812795401 -0.4973736405 0.5421802402 -0.6765184402
-0.07891298085 -0.09718547016 0.6930237412 -0.7342924476 0.4357997477 -0.5203061104
-0.08191265911 -0.1021037921 0.6950188875 -0.7384405732 0.4280624092 -0.5208562613
-0.08154641092 -0.09382820129 0.7009205222 -0.7342275977 0.4243534505 -0.5299233198
-0.07902920991 -0.1077485532 0.6847118735 -0.7248447537 0.4459749758 -0.5249247551
-0.02066122927 -0.08212361485 0.6650983691 -0.0718023926 0.6054524183 -0.7232179046
-0.008656949736 -0.07377706468 0.6614513993 -0.385807097 0.50202775 -0.6132552028
-0.01350167394 -0.07535992563 0.6644294858 -0.2675310075 0.5436342955 -0.6559818387
-0.01047044061 -0.08090784401 0.6584004164 -0.2858084738 0.4733051658 -0.7261586189
0.001914444612 -0.07829018682 0.651175797 -0.5521364212 0.3141574562 -0.7255603075
-0.005316362251 -0.07900303602 0.6558352709 -0.4050274491 0.415191263 -0.7085644007
0.0006485906197 -0.07188382745 0.6555272341 -0.5935356021 0.3968552351 -0.583661139
-0.01627034694 -0.08421471715 0.660626173 -0.1409325898 0.5331738591 -0.7584705949
-0.02462717704 -0.08844881505 0.6655642986 0.02647984214 0.6439898014 -0.7572798729
-0.03141368553 -0.0879477337 0.6655749679 -0.05919028819 0.641228497 -0.7596266866
-0.01604825445 -0.08631456643 0.6686965227 0.1185016111 0.6560341716 -0.7437909245
0.02392269857 -0.1253881305 0.6776031256 0.7811154127 0.3742613494 -0.4331484437
0.02977079339 -0.1282169968 0.6849636436 0.8721847534 0.1144466549 -0.4178794324
0.03152955696 -0.1382097602 0.6897382736 0.9112058878 0.02936599404 -0.204173699
0.02933916822 -0.1462254524 0.6895236969 0.88864398 0.1197859943 -0.002306275535
0.03129193559 -0.1543003917 0.6945454478 0.9336564541 0.02522774227 0.1756465286
0.02657124959 -0.1344448626 0.6837335825 0.8375917673 0.2480071187 -0.2404641211
0.02861667238 -0.1412109286 0.6956188083 0.8944026828 0.02951772884 -0.07174773514
0.03104807436 -0.1487640291 0.7004498243 0.9222117066 -0.08057681471 0.1030670106
0.03118542209 -0.1545657814 0.7032997012 0.9336445332 -0.1053259745 0.2440506816
0.03145383298 -0.1240825504 0.6904683113 0.8607162833 0.1301381886 -0.4267104864
0.03166371956 -0.116681315 0.6926060915 0.818067193 0.2477195859 -0.4938088357
0.02800804935 -0.131826818 0.6908983588 0.8577389121 0.05422452092 -0.2846133411
0.02823908068 -0.1560697109 0.7082324624 0.9045841098 -0.1816204041 0.3276560903
0.02677101828 -0.1503181607 0.7066754103 0.8513052464 -0.21778965 0.229668349
0.02877459489 -0.130513832 0.6967970729 0.833376348 0.04029197991 -0.213546589
0.02775714733 -0.1380917728 0.7024859786 0.8276672363 -0.06681017578 -0.01103515737
