# .PCD v0.7 - Point Cloud Data file format
VERSION 0.7
FIELDS x y z normal_x normal_y normal_z
SIZE 4 4 4 4 4 4
TYPE F F F F F F
COUNT 1 1 1 1 1 1
WIDTH 512
HEIGHT 1
VIEWPOINT 0 0 0 1 0 0 0
POINTS 512
DATA ascii
-0.1156463698 -0.1080110818 0.4956250191 0.5374028087 -0.6184922457 0.5729603171
-0.05178845674 -0.1517208666 0.5377521515 0.6103883386 -0.5069810748 0.6025289297
-0.03452561423 -0.1391464174 0.5098460913 0.5380008817 -0.2618467212 0.5143755674
-0.03916801885 -0.1225003749 0.4972182214 -0.2009978443 -0.4624686539 0.4726904631
-0.03229530528 -0.1215760037 0.510599196 -0.4532704949 0.3058821261 0.6404541731
-0.03586482257 -0.1325619668 0.5058328509 0.2309586406 -0.2868595123 0.5097442865
-0.03308659792 -0.1318056732 0.5111624599 0.1088321209 0.03079226799 0.5791481733
-0.03550839424 -0.1222695038 0.5043977499 -0.3215679526 -0.05815061927 0.5609382391
-0.0375604853 -0.1289929897 0.5016468167 0.09391780198 -0.411675483 0.4832574427
-0.03829327598 -0.1173347682 0.4932730198 -0.4408484697 -0.59002918 0.4539054036
-0.08583064377 -0.1649801135 0.5385749936 -0.1984989792 -0.7494647503 0.6303228736
-0.1111344472 -0.05857546255 0.5458411574 0.2484041303 -0.7869084477 0.5633193254
-0.1086043566 -0.06043172628 0.5415401459 0.2873789966 -0.7610158324 0.5760222077
-0.09772825986 -0.05792901292 0.5364054441 0.2310333997 -0.7929171324 0.5635727644
-0.09765279293 -0.05363119394 0.5431048274 0.1841907054 -0.8113216162 0.5541014075
-0.1023154333 -0.05657103285 0.5411943197 0.2276450396 -0.7948213816 0.5620257258
-0.09928176552 -0.1059232503 0.4818888605 0.4154351652 -0.6690818071 0.6116480827
-0.01486476045 -0.06729143858 0.5582972765 -0.1283487827 -0.9441322684 0.302156359
-0.07591918111 -0.150654763 0.5563901067 0.08597362787 -0.7765566111 0.6220481992
-0.07812361419 -0.1693828404 0.5361707807 -0.03441161662 -0.7817248702 0.6135975718
-0.1172146127 -0.1048017591 0.5010018945 0.5482571125 -0.617174685 0.5643066168
-0.1137498617 -0.09934359044 0.5041652322 0.5438132882 -0.6209201217 0.5645147562
-0.08736899495 -0.1023263037 0.4791222513 0.2330110818 -0.7060267925 0.6548064351
-0.08815774322 -0.0973431766 0.4823495746 0.2941608429 -0.7199980617 0.6267826557
-0.04138740525 -0.112217389 0.4889559448 -0.613462925 -0.6517881155 0.4458105862
-0.04748788103 -0.1536070704 0.5337797999 0.6437992454 -0.4798250496 0.595911324
-0.05466460064 -0.1518468708 0.5424733758 0.541795969 -0.5840956569 0.6009685993
-0.1062814742 -0.1531547755 0.5278199911 -0.5800491571 -0.6419788003 0.4993094206
-0.1120611653 -0.1339510381 0.5090070963 -0.1576696038 -0.6312481165 0.5228813887
-0.1130981296 -0.1274117529 0.5049000382 0.03907271475 -0.6284741163 0.5390819311
-0.1152755395 -0.1163964644 0.4985131323 0.374325335 -0.6237104535 0.5647838116
-0.109939307 -0.1252468675 0.4990101457 0.09237422794 -0.6325033903 0.5505546927
-0.1117113456 -0.1416919678 0.514929235 -0.3806551993 -0.6347954869 0.4997429252
-0.110383369 -0.1135313436 0.4898539186 0.437245667 -0.6289185882 0.583034575
-0.1137681007 -0.1134731993 0.4941223562 0.4560962617 -0.62535882 0.5752964616
-0.1102570966 -0.1205303594 0.4954950213 0.2324979305 -0.6310399771 0.5631033778
-0.1148515716 -0.121564351 0.5022116303 0.2256304026 -0.6265242696 0.5493834019
-0.1125709862 -0.1450895071 0.5198942423 -0.4861960113 -0.6354756355 0.4835823774
-0.1161235794 -0.1111469716 0.5029647946 0.4344506264 -0.6213602424 0.554092288
-0.1154768988 -0.1159144789 0.5064297915 0.2877341807 -0.6233543158 0.540850997
-0.05681997538 -0.1610357016 0.535104394 0.4850793779 -0.5734443069 0.6470344067
-0.05510889366 -0.1567187756 0.5383870006 0.5325484872 -0.5638328791 0.6290425658
-0.0605545193 -0.1587237418 0.5399416089 0.4078097045 -0.6250226498 0.6552734375
-0.09944534302 -0.1696760654 0.5240731835 -0.4075413942 -0.6998237967 0.585079968
-0.08134611696 -0.1726084799 0.5316082835 -0.0928754881 -0.7831450105 0.5918629766
-0.07508651912 -0.1714432538 0.5288203359 0.03674306348 -0.7131295204 0.6480324864
-0.09229515493 -0.1713359058 0.5250485539 -0.2534324229 -0.7286722064 0.5905464888
-0.08181049675 -0.1713249981 0.5260284543 -0.06173485145 -0.7114266157 0.6244855523
-0.06932168454 -0.1717257053 0.5292708278 0.1498807967 -0.7147815824 0.6572874188
-0.09371151775 -0.1707905084 0.5303697586 -0.3397131562 -0.7367532253 0.5806934237
-0.09906237572 -0.08737064898 0.500760138 0.4066969752 -0.6917722821 0.5877817869
-0.1044803113 -0.09479059279 0.498229295 0.5244939327 -0.636277616 0.5657084584
-0.1051570997 -0.09081113338 0.5028755069 0.5157088041 -0.6394149661 0.5699131489
-0.1088837683 -0.09628896415 0.5023937821 0.5387728214 -0.6289926767 0.5601429939
0.0001929536811 -0.09140455723 0.5247264504 0.01472976711 -0.7097588778 0.700755775
-0.1051861569 -0.06161699072 0.5367652178 0.2881981432 -0.7612580657 0.5747597814
-0.1129843369 -0.06428117305 0.5410277843 0.3726117313 -0.7047264576 0.6031517982
-0.1098371372 -0.06533575058 0.5363319516 0.3551402986 -0.717692554 0.5948141813
-0.1000939906 -0.06266417354 0.5326002836 0.2722198665 -0.7667984366 0.5798408985
-0.1053678915 -0.1583645046 0.5293567777 -0.5679273009 -0.6460739374 0.50906986
-0.09624890983 -0.1658762991 0.5353721976 -0.4169653356 -0.7009785175 0.5752034187
-0.1010987535 -0.164980188 0.5282073021 -0.4785679877 -0.6730117202 0.5568714142
-0.07040324062 -0.1495312005 0.5497890711 0.2050213963 -0.6954454184 0.5844976902
-0.08187197149 -0.1491450369 0.5534778833 -0.06901905686 -0.7412399054 0.5775511861
-0.0847132653 -0.1494845152 0.5480802655 -0.1917568892 -0.6896713376 0.5417202115
-0.09096509218 -0.1350558996 0.5772614479 -0.1586824507 -0.7877422571 0.5941880941
-0.08516101539 -0.131049484 0.5804519653 -0.08826814592 -0.8045114875 0.5860386491
-0.07936110348 -0.1340277046 0.5774739981 -0.01536913402 -0.7797374129 0.6193685532
-0.0903961882 -0.1531334817 0.5517667532 -0.3073289692 -0.765165627 0.5570538044
-0.09514971077 -0.1608015299 0.5413810611 -0.4139143229 -0.6866525412 0.587305665
-0.08777400851 -0.1597868353 0.5444219708 -0.2369079441 -0.7377806902 0.617226541
-0.09319617599 -0.1382716894 0.573169291 -0.2041294277 -0.7762956023 0.596102953
-0.07085175067 -0.1652368605 0.5396540165 0.1437199861 -0.7115241289 0.6800196171
-0.07264795899 -0.1721312106 0.533613503 0.08858932555 -0.7708191276 0.6240944266
-0.06649827957 -0.1669119596 0.5341085196 0.2403407991 -0.6994121671 0.6672365069
-0.09115748852 -0.1653289199 0.5308149457 -0.3201334476 -0.6912645102 0.5942864418
-0.08369097859 -0.1664973348 0.5323089361 -0.1536869556 -0.7196074724 0.6197037697
-0.09514155984 -0.1587246209 0.534580946 -0.442410171 -0.666095078 0.547652781
-0.07537452877 -0.1625441462 0.5394994617 0.03554316238 -0.7436259985 0.6450122595
-0.08957392722 -0.1597375721 0.5357302427 -0.3143608272 -0.6875883937 0.5698513985
-0.08142393082 -0.1589224488 0.541116178 -0.09706107527 -0.7168297172 0.6231247187
-0.08145918697 -0.1628890932 0.53582865 -0.1249001846 -0.7214773297 0.6063403487
-0.07151785493 -0.1590132564 0.5440392494 0.1590057015 -0.7140282393 0.6733691096
-0.08773922175 -0.1540165097 0.5448184609 -0.2653894424 -0.7035278678 0.5795348287
-0.09377045184 -0.1553294659 0.5395884514 -0.4092576206 -0.6734523773 0.5518937111
-0.07635641098 -0.1601084173 0.5456391573 0.03820838407 -0.7354079485 0.6722940207
-0.07896392047 -0.1563193947 0.5493893027 -0.00941170752 -0.7590613961 0.6394354105
-0.07944550365 -0.1496682316 0.547965169 -0.05177192017 -0.6854762435 0.5551050305
-0.07489343733 -0.1542226225 0.5518519282 0.0936434269 -0.7621100545 0.6387371421
-0.08490625769 -0.1556464732 0.5496436954 -0.1356819868 -0.7735706568 0.6170804501
-0.06041936204 -0.1662174165 0.5323591828 0.371958077 -0.6326323748 0.6676828265
-0.06213509291 -0.171348393 0.5285778046 0.3055035174 -0.6677212715 0.6681066155
-0.04703339189 -0.161514461 0.527295053 0.5922490358 -0.5071820021 0.6221477985
-0.05234513059 -0.1652594805 0.529671967 0.5255529284 -0.5361231565 0.656656146
-0.04240602255 -0.1583365798 0.5252295732 0.6352456212 -0.4893149436 0.5966059566
-0.03843828291 -0.1461562067 0.5256101489 0.7659339905 -0.3765571117 0.5177223086
-0.03815513104 -0.1520955414 0.5215502977 0.71431458 -0.3713952601 0.5652199984
-0.03336937353 -0.1484605819 0.5178382993 0.8313729167 -0.269433558 0.480838716
-0.1086652875 -0.1565224826 0.5238694549 -0.5433385968 -0.6563084722 0.5131703019
-0.1054852754 -0.1624536067 0.5240487456 -0.4855010509 -0.6761266589 0.5433651209
-0.1101057082 -0.1037306413 0.4953234196 0.5292505622 -0.6218504906 0.5769039392
-0.1035628095 -0.1050140187 0.4879770875 0.4596317112 -0.6413941383 0.6020944118
-0.09591617435 -0.1035625339 0.4855457842 0.343290776 -0.66502738 0.636231482
-0.100358285 -0.0990851149 0.4894525409 0.4627967477 -0.6582078338 0.5891289711
-0.03467345983 -0.1182005778 0.4990829825 -0.3913629353 -0.4444091022 0.5263585448
-0.03024988249 -0.1154977605 0.5039609671 -0.5076547861 -0.220403105 0.6768953204
-0.02720094286 -0.11915683 0.5099408031 -0.3436550796 -0.03398548439 0.7683600783
-0.03111530468 -0.1264950782 0.5079692006 -0.02203861251 -0.2035203129 0.6241405606
-0.1131961048 -0.093857795 0.5097212791 0.5487139225 -0.6198541522 0.5601197481
-0.04938846081 -0.1411331594 0.5473371744 0.6272339821 -0.5555957556 0.5449775457
-0.05082383007 -0.146833241 0.5432054996 0.6161596179 -0.5473231077 0.5629902482
-0.09689568728 -0.1304819584 0.5775620937 -0.2233256549 -0.783544004 0.5759137869
-0.0664100945 -0.1601411998 0.5416069031 0.2804740369 -0.6747627854 0.6793464422
-0.06578489393 -0.1557197571 0.5454884171 0.3117099106 -0.6717565656 0.6637299061
-0.06000341848 -0.1544558257 0.5437905788 0.4364413321 -0.6268038154 0.6387245059
-0.03554172814 -0.1150160432 0.5052220225 -0.5749377012 -0.3626666069 0.5766052008
-0.1009965912 -0.1544121057 0.5413814783 -0.5159533024 -0.6744330525 0.5255449414
-0.105275929 -0.1552982032 0.5353987813 -0.5569717884 -0.6473303437 0.5133789182
-0.1008554399 -0.1591986418 0.5370040536 -0.5118103623 -0.6594894528 0.5444688201
-0.1081481278 -0.1499564648 0.5369547009 -0.593172431 -0.6468108296 0.4779911041
-0.1106252 -0.1078543663 0.4909934402 0.5131821036 -0.6221737266 0.5909771919
-0.1077814102 -0.1099880636 0.4857694507 0.4966621399 -0.6322035789 0.5946345329
-0.1183325276 -0.1018731594 0.5080153346 0.5673470497 -0.6085202098 0.5547512174
-0.1203283295 -0.1092178375 0.499420166 0.5517128706 -0.6141325235 0.5642260909
-0.02111120522 -0.07213746756 0.5628964305 -0.1401587129 -0.9531537294 0.2599712014
-0.08718073368 -0.05781732872 0.5319456458 0.1098558456 -0.8193528056 0.5555392504
-0.09462749958 -0.06013269722 0.5318513513 0.2326251566 -0.7847062945 0.5743967295
-0.04176822677 -0.1111405939 0.519939959 -0.1388184875 -0.5174299479 0.4634007215
-0.04064870626 -0.1225900277 0.5242028236 0.2384465486 -0.4078216553 0.4898005128
-0.03539743274 -0.1160330772 0.5150470734 -0.3506729305 -0.5214579701 0.5819995999
-0.0409033075 -0.10582266 0.5163818598 -0.4017289877 -0.5802947283 0.4763618112
-0.04278590903 -0.116565451 0.5241976976 0.05349232256 -0.5076314211 0.4679369628
-0.04131452739 -0.1506243199 0.5290728211 0.6628425717 -0.4784555137 0.5755125284
-0.04733032361 -0.1477293074 0.5351746678 0.6785705686 -0.4505176246 0.5733433366
-0.04279072955 -0.1451004297 0.5310968757 0.7347962856 -0.391735673 0.5473855138
-0.04703557491 -0.1436969191 0.5398299694 0.6805500984 -0.4634242356 0.5617285371
-0.03401855007 -0.1124746725 0.4963190854 -0.551032722 -0.6554136872 0.4899039865
-0.08444917947 -0.1418183595 0.5693977475 -0.06086213887 -0.785680294 0.6153466702
-0.07843399048 -0.1438345909 0.5657762885 0.05997776613 -0.7889748812 0.6051121354
-0.06971125305 -0.1351909041 0.5718902946 0.1836035997 -0.7630158067 0.6163719893
-0.07327681035 -0.1316723228 0.5765343904 0.09770709276 -0.7811023593 0.611455977
-0.09263686836 -0.07759554684 0.5114033818 0.2436919361 -0.7526708841 0.6028773189
-0.07981543243 -0.07694535702 0.5088723898 0.006741979159 -0.7952193618 0.5925094485
-0.08781445026 -0.07382118702 0.5158641338 0.126517579 -0.7761770487 0.6063690782
-0.08566366881 -0.07097124308 0.5202909112 0.05593332648 -0.7879158854 0.6104078293
-0.08734612912 -0.07671483606 0.5108216405 0.1476990283 -0.7724297047 0.5998530984
-0.1101141125 -0.06955048442 0.5312235951 0.3947118819 -0.696606636 0.5980278254
-0.1059149131 -0.0660366118 0.5325233936 0.3348753452 -0.735409379 0.5879040956
-0.1042254418 -0.06992022693 0.5262229443 0.3582542837 -0.7210493088 0.5908876657
-0.09502532333 -0.07477797568 0.5172460675 0.2447044104 -0.7500622869 0.6033120751
-0.09898108989 -0.06706830114 0.5264283419 0.2851406336 -0.7552936673 0.5883860588
-0.09318049997 -0.06918589026 0.5242150426 0.1662138999 -0.7690367699 0.6017819643
-0.1012473032 -0.0765626505 0.5174190998 0.3622820377 -0.710809648 0.6003540158
-0.09953735769 -0.07130266726 0.5226742029 0.3014900386 -0.7404966354 0.5975596905
-0.1012905389 -0.08310012519 0.5078877211 0.4399043918 -0.6805763841 0.5815016627
-0.09916577488 -0.07810234278 0.5120534897 0.3943797052 -0.7018330693 0.5896595716
-0.09593712538 -0.08231548965 0.5063428879 0.344643265 -0.735245347 0.5821381807
-0.1059668511 -0.08332952112 0.5122170448 0.4807860553 -0.6580139995 0.5776332021
-0.108597286 -0.08781935275 0.5093427896 0.5200893283 -0.6340200305 0.5715762973
-0.1128527671 -0.08870302886 0.5132228732 0.5418283343 -0.6212815046 0.5659032464
-0.06749168038 -0.07823462039 0.5105937719 -0.2600418627 -0.792941153 0.5425829291
-0.09942679107 -0.09199815989 0.4972726405 0.4374185205 -0.6764762402 0.585667491
-0.09104312956 -0.09957244247 0.4866237938 0.2769733667 -0.6844537258 0.6530795693
-0.1044302583 -0.09884561598 0.4942854345 0.4954822659 -0.6400604248 0.5839754939
-0.09440150112 -0.09453710169 0.4896841049 0.3676375151 -0.6960592866 0.6163185835
-0.06957836449 -0.0800120607 0.5054466724 -0.2094161958 -0.7960408926 0.5590804815
-0.1112108231 -0.1494616568 0.5247682333 -0.604804337 -0.6399639249 0.4734218121
-0.1116978005 -0.1429196596 0.5433185697 -0.5667228699 -0.6857254505 0.456343472
-0.1027312949 -0.1485479772 0.5410432816 -0.5592396259 -0.6696626544 0.4849714041
-0.09710842371 -0.1496193707 0.546158433 -0.522115171 -0.6853978634 0.507057488
-0.1110886931 -0.1502382159 0.5315201879 -0.6040812731 -0.6367151141 0.478699863
-0.1120381281 -0.1434245557 0.5372564197 -0.6021911502 -0.6639702916 0.4418029487
-0.1136284247 -0.1309531927 0.5178144574 -0.1659389883 -0.6322134733 0.4981878102
-0.1147193834 -0.1177579835 0.5139024854 0.1539297551 -0.6274887919 0.5175468922
-0.1156593114 -0.1070365459 0.5085681677 0.4328289032 -0.6212028861 0.53942132
-0.1136815995 -0.1286261529 0.5227349997 -0.1589702517 -0.6377485991 0.4856103063
-0.1163382009 -0.1291811466 0.5122952461 -0.01308169588 -0.6319190264 0.5197127461
-0.1138754785 -0.1389960796 0.5239565372 -0.3668678403 -0.6418346763 0.4776106477
-0.1148103923 -0.1364484131 0.5161979198 -0.228522405 -0.634329021 0.5023688674
-0.1134456396 -0.1333261877 0.5273172259 -0.2998915613 -0.6413919926 0.4710820019
-0.1154637784 -0.1216217354 0.5216625333 0.007885645144 -0.6275897026 0.500741899
-0.1179330871 -0.1206568703 0.5087978244 0.2232620418 -0.6289280653 0.5370899439
-0.1132000759 -0.1406039447 0.5299995542 -0.466057092 -0.6476300359 0.4586547315
-0.1172322407 -0.1104805321 0.5146440864 0.3192804754 -0.6161194444 0.531452477
-0.0291261822 -0.1371820122 0.514087081 0.4784099758 -0.1645808965 0.6191507578
-0.02250584774 -0.1268294752 0.5140042901 0.1196549758 -0.2632605731 0.7194607258
-0.03710540384 -0.1408746541 0.5258522034 0.8339025974 -0.2106838226 0.5041876435
-0.01865742728 -0.1205063462 0.5129064322 -0.1298704892 -0.2928875983 0.7868791819
-0.0278446842 -0.133010149 0.517529726 0.4052570462 -0.2377495319 0.6364848018
-0.03202076629 -0.1246080697 0.5154967904 -0.2793529928 0.3467845023 0.645018518
-0.03388642892 -0.1315828562 0.5191730261 0.1787171364 0.12023063 0.5883960724
-0.03474282473 -0.1380250454 0.5205958486 0.5539823174 -0.06032419577 0.5462955236
-0.03300815448 -0.142455548 0.5162861943 0.6838582754 -0.1075645685 0.5446797013
-0.03136926517 -0.1310290843 0.5245471597 0.4340930879 -0.2655297816 0.6216719747
-0.02504489943 -0.1217725798 0.5173149705 -0.122941114 -0.108762227 0.7271470428
-0.02725544758 -0.1259411722 0.5211610198 0.1689219624 -0.2479720116 0.6887845397
-0.03012443334 -0.1141913235 0.5127123594 -0.4867185056 -0.1408125907 0.6445382237
-0.02430633642 -0.1123456806 0.5053385496 -0.4303202331 -0.5611379147 0.6584399939
-0.1080938727 -0.07553246617 0.524461329 0.4327710271 -0.6748886108 0.5950675011
-0.113177605 -0.07501101494 0.5294259787 0.4353330731 -0.6733434796 0.5940660834
-0.1134546623 -0.07983578742 0.523769021 0.4766556919 -0.652939558 0.5833474994
-0.1166664064 -0.08557344228 0.5239013433 0.5108020306 -0.6336882114 0.5749174953
-0.1164709553 -0.09256270528 0.51602 0.5597853661 -0.6110596657 0.5589936972
-0.108974129 -0.08121664822 0.5204586983 0.4533208609 -0.6639195085 0.5870511532
-0.1097919419 -0.08593475074 0.5171478987 0.4632450044 -0.6584867239 0.5810908079
-0.1108476371 -0.137362957 0.5489596725 -0.5372062325 -0.7157304883 0.4458448589
-0.09250643849 -0.05660865828 0.5368777514 0.1688166708 -0.8010706902 0.5592424273
-0.07860632241 -0.05690742657 0.5371959805 -0.1248523667 -0.8253116608 0.533939302
-0.08982895315 -0.05391535163 0.5410231948 0.07391794026 -0.8280649781 0.5350203514
-0.08382941782 -0.05283204094 0.5404629111 -0.01467291825 -0.8783161044 0.4709233344
-0.04154079035 -0.07930409908 0.5257768631 -0.5318742394 -0.6771705151 0.4530731142
-0.03244040534 -0.07855157554 0.5293365121 -0.3543914855 -0.7023625374 0.4838445187
-0.01038517989 -0.07490804046 0.5408724546 0.08255718648 -0.7675737143 0.5611695647
-0.02441124804 -0.07741369307 0.5332347155 -0.1960268766 -0.7256718278 0.5117096901
-0.0225838013 -0.07720710337 0.5589452386 -0.08789677918 -0.9294015765 0.2968108654
-0.01211537793 -0.07717463374 0.5506474972 0.07210434228 -0.8462779522 0.4586155117
-0.0242191907 -0.08056254685 0.555051744 -0.0483375676 -0.9065017104 0.3060472608
-0.01822990365 -0.07802385092 0.5542080998 -0.005353808403 -0.8859370351 0.3726594746
-0.008062019013 -0.07778400183 0.5463985205 0.1459743679 -0.8076125383 0.5276206136
-0.01398754399 -0.07280945778 0.5574019551 -0.04208594561 -0.9117062092 0.3835721314
-0.003049773164 -0.07598163188 0.5417793393 0.2074883282 -0.7813932896 0.5883395076
-0.04029890895 -0.1265625656 0.52959764 0.391035378 -0.4133379161 0.5089544654
-0.03645382077 -0.103702493 0.5183915496 -0.541080296 -0.2983132899 0.5347357988
-0.03589263186 -0.1136372313 0.5196582675 -0.2931365967 -0.1299315542 0.5609896183
-0.03903291747 -0.1343326867 0.5291026235 0.6233628988 -0.2399533242 0.5228102207
-0.0369114019 -0.1302794069 0.5248737931 0.3040289581 -0.05732119456 0.5627537966
-0.03617825359 -0.1253678352 0.5226515532 0.08764521033 -0.03250662982 0.5715534687
-0.03510670364 -0.1201440096 0.5198271871 -0.1695801318 0.02508646436 0.5872010589
-0.03364754468 -0.08195424825 0.5600414276 -0.1632000655 -0.9635041952 0.1856298596
-0.03146954253 -0.08255201578 0.5545068383 -0.09525001049 -0.9145734906 0.3123036921
-0.01166186575 -0.08080285788 0.5435830355 0.1507366002 -0.7943437696 0.5313116908
-0.01312552206 -0.08345220238 0.5359473228 0.04411801323 -0.7371938825 0.5673752427
-0.03723951429 -0.09029196203 0.5334241986 -0.4189805686 -0.7597712874 0.400511831
-0.03245381638 -0.08792021871 0.5373219848 -0.2914302647 -0.7818585634 0.4126568437
-0.0214195177 -0.08182453364 0.5484096408 0.02470030822 -0.8492131233 0.4276921451
-0.02813759632 -0.08335668594 0.5489572287 -0.09119672328 -0.8652831912 0.3734848797
-0.02918511443 -0.0857802555 0.5417258739 -0.1860374361 -0.8105657697 0.4102004766
-0.02411654405 -0.08424212039 0.5425927043 -0.08516722918 -0.8084517717 0.4431966245
-0.01828777976 -0.08326530457 0.5409370065 0.003000248922 -0.7852755189 0.4975164235
-0.03755357489 -0.08666805178 0.5458265543 -0.2945370376 -0.8573200107 0.3215726316
-0.02795684338 -0.0890012756 0.5299000144 -0.2878785729 -0.7159218788 0.4924972057
-0.00741814822 -0.08117359877 0.538754046 0.1769092828 -0.7491310239 0.5932287574
-0.02536795661 -0.08609884232 0.5374321342 -0.1619725078 -0.7702874541 0.4655861855
-0.03744957596 -0.09335806966 0.5233330131 -0.5286644101 -0.6812178493 0.4612179697
-0.03972860798 -0.1395593733 0.5311231017 0.8156363368 -0.2534996271 0.5191525817
-0.07240084559 -0.1467230022 0.5587938428 0.1952341497 -0.764696002 0.6103630662
-0.0681136772 -0.1489814818 0.5554483533 0.2972972393 -0.7333620787 0.6060220003
-0.07177629322 -0.1430009007 0.5648018122 0.1898427755 -0.7673410773 0.6056196094
-0.06716452539 -0.1385488063 0.5681284666 0.252417475 -0.7446430326 0.6153118014
-0.09397047013 -0.1457361877 0.5564266443 -0.3744525313 -0.7570264339 0.5201244354
-0.07818291336 -0.1459969878 0.5597878695 0.05977344513 -0.7751422524 0.5930030942
-0.08432019502 -0.1446383297 0.560685575 -0.09466063976 -0.7808182836 0.5623576641
-0.1019237489 -0.1429667324 0.5502526164 -0.4918349683 -0.7204515934 0.4786266685
-0.08822236955 -0.148851186 0.5580335259 -0.2051530182 -0.7885351777 0.5715550184
-0.1004903764 -0.141128391 0.5629397631 -0.4122242332 -0.7502714396 0.5034788847
-0.08969650418 -0.1420015246 0.5698964 -0.1620413661 -0.7808836699 0.5996600389
-0.09148333222 -0.07051426917 0.5183773637 0.2166811675 -0.767570138 0.6023321152
-0.08863887936 -0.06397166103 0.524166584 0.163556397 -0.7846403122 0.5926138163
-0.07674951106 -0.07240829617 0.51421839 -0.1054977104 -0.799405098 0.585175097
-0.08231335878 -0.0729046315 0.5131365061 0.0217605792 -0.7919284105 0.60199368
-0.07450573891 -0.07568870485 0.5099250674 -0.1192279309 -0.8030723333 0.5801361799
-0.1012552828 -0.1439826041 0.5562565923 -0.4681301415 -0.743714869 0.4741844237
-0.09720222652 -0.155084461 0.5466175079 -0.44530949 -0.7083553672 0.5414677262
-0.09702271223 -0.1496696174 0.5523331165 -0.4277606308 -0.7421366572 0.5084770918
-0.1024346724 -0.1486992091 0.5475795865 -0.5196641684 -0.700528264 0.487306267
-0.06676479429 -0.1411188245 0.56170398 0.2943716645 -0.7315164208 0.5926322937
-0.06319028884 -0.1439683586 0.5570250154 0.3701185584 -0.7114659548 0.5826001167
-0.08816341311 -0.09464242309 0.4887865484 0.2406639308 -0.7240837216 0.6361028552
-0.08094271272 -0.09281154722 0.4872160554 0.04084388912 -0.7521642447 0.6391139627
-0.07111946493 -0.08728048205 0.4966685176 -0.1932247132 -0.7720294595 0.5962383747
-0.07116129994 -0.08400743455 0.5011832118 -0.1811271757 -0.7924699187 0.570828259
-0.06576487422 -0.08572456986 0.4985684156 -0.2723926008 -0.7700368166 0.5759946108
-0.1030646041 -0.130744487 0.571418345 -0.329785198 -0.7675414681 0.5409680009
-0.108433418 -0.1331073046 0.5651756525 -0.4254876375 -0.7517661452 0.496565491
-0.08243082464 -0.1342218369 0.5722169876 -0.05735259876 -0.7921712399 0.5732881427
-0.07734967768 -0.1355187744 0.5710908771 0.05526947975 -0.7847950459 0.5933627486
-0.08828466386 -0.1340451241 0.5718492866 -0.1641450822 -0.7937932014 0.5561290383
-0.09635391086 -0.1338617653 0.5709524155 -0.2670191824 -0.7859062552 0.5479628444
-0.07802885771 -0.1290096939 0.5787222385 0.02163299546 -0.798684895 0.5942649841
-0.09582693875 -0.140670523 0.5682414174 -0.2914536595 -0.7641665936 0.5598160625
-0.0871303007 -0.1406033337 0.5645939708 -0.1564583629 -0.7841437459 0.5502578616
-0.09391722083 -0.1425236315 0.56207937 -0.3263242543 -0.7894966602 0.5169106126
-0.05938756466 -0.05800961703 0.5427737236 -0.4628053606 -0.755581975 0.4481800795
-0.06355512887 -0.0578578189 0.5468866825 -0.4564916193 -0.7700184584 0.4120821059
-0.03352542594 -0.07615728676 0.5617485642 -0.1730626076 -0.9700242281 0.1703466922
-0.0587346442 -0.08659058064 0.5069441199 -0.4145596921 -0.7460945249 0.4998565912
-0.04825523123 -0.09286499023 0.5090788603 -0.5737965703 -0.6883098483 0.4359355271
-0.05436852202 -0.08946427703 0.5015563369 -0.502076149 -0.7207792997 0.4753189981
-0.06005086377 -0.0870211646 0.5010361671 -0.4088319242 -0.7486607432 0.5170117617
-0.0636767447 -0.08187679946 0.5047243237 -0.3363234401 -0.7671997547 0.5400912762
-0.01644786447 -0.08021900058 0.531658411 -0.08172784001 -0.743606627 0.5479500294
-0.002330397256 -0.08090483397 0.5348362923 0.1694916785 -0.7790961266 0.6008266807
-0.02104058303 -0.09010253847 0.525405407 -0.2695164084 -0.6941876411 0.570391655
-0.01797806285 -0.08676812053 0.5305711627 -0.1194324344 -0.7119120955 0.5631474257
0.0004872104037 -0.085117504 0.5321640372 0.1684887856 -0.7555394173 0.6282280684
-0.04619875178 -0.08414589614 0.5193033814 -0.5983896255 -0.6668100953 0.4436222315
-0.04357850179 -0.08962515742 0.5174136758 -0.5735298991 -0.6714890003 0.4667043984
-0.03001424298 -0.08890467882 0.5203493237 -0.411585629 -0.6445005536 0.5857050419
-0.0367520377 -0.08669604361 0.5215451121 -0.4996698797 -0.6591958404 0.5200645924
-0.02982167341 -0.08462680876 0.5235679746 -0.3996090293 -0.6699988246 0.5531502962
-0.01647746749 -0.09375528246 0.5188839436 -0.2345354557 -0.6369206309 0.6957601905
-0.03636440262 -0.08171860874 0.5245646238 -0.4840599 -0.6744037271 0.4981845021
-0.02399071679 -0.08654391021 0.523239255 -0.3228327036 -0.6711580157 0.5956986547
-0.01254314184 -0.08795776218 0.5245427489 -0.1668337733 -0.6911432147 0.6568102241
-0.005538824946 -0.09059070051 0.5240519047 -0.07632369548 -0.6923283339 0.7074673772
-0.03122963198 -0.09549587965 0.5194258094 -0.4719824791 -0.6507354975 0.5460611582
-0.02294836752 -0.09485059977 0.5200080276 -0.345812887 -0.6553845406 0.6097129583
-0.00895086024 -0.09534437954 0.5194531083 -0.1348700076 -0.6484146714 0.7369803786
-0.02513591386 -0.08186347783 0.5274398327 -0.2864358127 -0.7104546428 0.5370271802
-0.01151633635 -0.08395399898 0.5288603902 -0.08636821061 -0.7337614298 0.6102280021
-0.005608565174 -0.08367550373 0.5308869481 0.03460943699 -0.7581487894 0.623696804
-0.006726456806 -0.1077260226 0.5144889951 -0.1812824458 -0.6285904646 0.7526826859
-0.02430097386 -0.1042080373 0.5159011483 -0.4461196661 -0.5139824748 0.6778421998
-0.02902438678 -0.1003416106 0.5175118446 -0.4806750119 -0.5847227573 0.5991696119
-0.03252435848 -0.1063167974 0.513751626 -0.4653285444 -0.6588020921 0.5698635578
-0.02330899425 -0.1098762751 0.5130984783 -0.4315606952 -0.4844623506 0.7192659378
-0.01266371179 -0.106551826 0.5128675103 -0.2219573855 -0.63826859 0.7343659997
-0.01754407026 -0.11139182 0.5105457902 -0.295820266 -0.6248038411 0.7066426277
-0.05125951767 -0.07575381547 0.524669826 -0.5381174684 -0.6977671981 0.4664826095
-0.0581487976 -0.07312396914 0.5226008296 -0.4635715783 -0.7315513492 0.4987682998
-0.05617670342 -0.07694841921 0.5182769299 -0.4859136641 -0.726521492 0.4852211773
-0.04209358618 -0.09922374785 0.5125125051 -0.6140272021 -0.6430481672 0.4481406808
-0.04155064374 -0.101867348 0.5077626705 -0.6230586767 -0.6315963268 0.4512261748
-0.03781345114 -0.1077851355 0.5087609887 -0.5934639573 -0.5971639752 0.526022613
-0.04410758615 -0.1006415933 0.5021968484 -0.6278014183 -0.6475334167 0.425699085
-0.03863281757 -0.1119039655 0.5011366606 -0.5808172822 -0.6045058966 0.5346183777
-0.05591315404 -0.1031506583 0.4872490764 -0.3689678907 -0.6761184335 0.5773083568
-0.07546917349 -0.1015846357 0.483201474 0.002746063285 -0.6968798041 0.6607940197
-0.05854834989 -0.09670426697 0.4884819984 -0.35806036 -0.6627449989 0.6522907615
-0.05956124142 -0.1057735011 0.4844144285 -0.3073154688 -0.6832885146 0.5674216151
-0.06716419756 -0.103621006 0.4823569357 -0.1682177484 -0.6987095475 0.614936769
-0.05341930315 -0.1086465642 0.4857567549 -0.4245624542 -0.6699231267 0.5128421187
-0.04679703712 -0.1103871614 0.4876440167 -0.5557541251 -0.657673955 0.4601159096
-0.04916991293 -0.1043777987 0.4886772335 -0.507730484 -0.6690608263 0.5274736881
-0.003192164702 -0.09473729879 0.5203566551 -0.08373630792 -0.6505575776 0.7524878979
-0.004086735193 -0.1023329198 0.5170291066 -0.1315072179 -0.6476958394 0.7469091415
-0.08670604974 -0.0794608593 0.5048440099 0.1302708983 -0.786177218 0.5981212258
-0.09249981493 -0.0844263956 0.5003866553 0.2775845826 -0.7486563325 0.5978500247
-0.06803218275 -0.07086113095 0.5202115178 -0.2694091201 -0.7752438784 0.5563705564
-0.07444646955 -0.07249727845 0.5191977024 -0.1531766951 -0.7838102579 0.5697094202
-0.08057419956 -0.07147609442 0.519056201 -0.04340853542 -0.7918617725 0.5938691497
-0.06951310486 -0.07450708002 0.514631331 -0.2376847118 -0.7930160165 0.553224206
-0.08123920113 -0.06406565756 0.523684442 -0.03291461989 -0.7996619344 0.5959575772
-0.1070578396 -0.1454335302 0.5446914434 -0.5470923185 -0.7039059401 0.4523439407
-0.1078943014 -0.1404634267 0.5529543161 -0.5127483606 -0.7263411283 0.4560489058
-0.1102946103 -0.1350465417 0.5568019748 -0.4948734641 -0.7340994477 0.463711679
-0.1031334475 -0.1385021955 0.5567712188 -0.432964772 -0.7511704564 0.4824205935
-0.04383059964 -0.08901318908 0.5243013501 -0.6407223344 -0.6561425328 0.3931359947
-0.0439083688 -0.1211671829 0.5326123238 0.1897181869 -0.5321954489 0.4885469675
-0.04244301841 -0.1387854964 0.5360936522 0.7301006317 -0.3776143789 0.5281322002
-0.0457139723 -0.1390861869 0.5426830053 0.6771482229 -0.473380059 0.5359922051
-0.04418262467 -0.1254846305 0.5369699597 0.2794388831 -0.5475969911 0.5169787407
-0.0418657586 -0.1308820248 0.5334948897 0.4917178154 -0.4316241741 0.5185490847
-0.04047631472 -0.1064844355 0.5258004665 -0.2454141974 -0.6031976938 0.4863537848
-0.04533035308 -0.1331344247 0.5407873988 0.4972128868 -0.5149697661 0.5285800695
-0.04327910393 -0.1018362045 0.5195652246 -0.3860628605 -0.614207387 0.4328725338
-0.04275652394 -0.09561879188 0.5206117034 -0.5344871283 -0.6565261483 0.4232946038
-0.05243485421 -0.08864682913 0.5119524598 -0.5130739808 -0.7083556056 0.4625457525
-0.04567350447 -0.09396718442 0.5141546726 -0.6008222103 -0.6738262177 0.4213584363
-0.04942686111 -0.08735432476 0.5162780881 -0.5618424416 -0.6924666166 0.4491617978
-0.0462147072 -0.08165338635 0.5311275125 -0.6923014522 -0.625367403 0.3541914821
-0.05446840823 -0.07410533726 0.5297012329 -0.5417853594 -0.7005162239 0.457113117
-0.05214113742 -0.08226305246 0.5190896988 -0.5683684945 -0.6858828068 0.4419650435
-0.04980963469 -0.077199772 0.5324359536 -0.6343079209 -0.6564896703 0.3970288038
-0.06354755908 -0.149487868 0.5519237518 0.3950410187 -0.6994659901 0.5900465846
-0.0584814772 -0.1404601336 0.559982121 0.381103009 -0.7134075165 0.5820789933
-0.05673700199 -0.1414226294 0.5547599196 0.5054263473 -0.649872303 0.5564919114
-0.05759381875 -0.146256879 0.5507814884 0.499440372 -0.6477681994 0.5718461275
-0.0946034044 -0.09015554935 0.4956998229 0.3444513679 -0.7112802863 0.6051672101
-0.08757024258 -0.08724723756 0.4951858222 0.1710480452 -0.7759369612 0.5994133353
-0.07820025086 -0.08215563744 0.5026364923 -0.02121374011 -0.8081800938 0.5708791018
-0.0858309418 -0.08376371861 0.50143677 0.1321639568 -0.7820355296 0.5811789632
-0.03693379834 -0.06233930215 0.5550145507 -0.444930017 -0.7488628626 0.3790004849
-0.02770328894 -0.06423719972 0.5561619997 -0.3152245879 -0.8288692236 0.3479703069
-0.07879001647 -0.06079312414 0.5280228853 -0.0906823799 -0.8091140985 0.5804747343
-0.06229165569 -0.05911040306 0.5370406508 -0.3793505132 -0.7831088901 0.4918959737
-0.07453858107 -0.05421510339 0.5411507487 -0.1938811541 -0.8512625098 0.4854618013
-0.0670395121 -0.05439728126 0.5442129374 -0.2877286077 -0.8299268484 0.4750256836
-0.04868499935 -0.06272087246 0.554477334 -0.5419864058 -0.6823769808 0.476370573
-0.05818965659 -0.06001650542 0.5489752293 -0.5468219519 -0.7315225601 0.4041894376
-0.05295457318 -0.1299477518 0.5577760339 0.3731760383 -0.6629585624 0.5471724272
-0.04877947643 -0.1075088307 0.5580641627 -0.04994968697 -0.7264196277 0.5168921947
-0.05351520702 -0.136342898 0.5567042828 0.5189841986 -0.6319894195 0.5483664274
-0.04954972491 -0.1203712821 0.5553466082 0.2576304674 -0.6568166614 0.5150710344
-0.04558075964 -0.09494463354 0.5568715334 -0.2523704767 -0.744328022 0.4897637665
-0.05252591521 -0.1242134795 0.5588534474 0.2394693047 -0.6922428608 0.5469766855
-0.04692661017 -0.100972183 0.5584058762 -0.1354781985 -0.7709613442 0.4766701758
-0.05075137317 -0.1152744144 0.5605733991 0.09264861792 -0.7705168128 0.4998339713
-0.05659082159 -0.1341307908 0.5626776814 0.3420080841 -0.7239425182 0.5778478384
-0.04038932174 -0.09068180621 0.5578304529 -0.08058450371 -0.9091719985 0.2836962342
-0.04345673323 -0.08719432354 0.5313167572 -0.6060677171 -0.6762508154 0.4041448534
-0.0434012115 -0.08541248739 0.536392808 -0.5874732733 -0.6869434714 0.4084893465
-0.04278376698 -0.08343295753 0.5454241633 -0.5298214555 -0.7200957537 0.4308168292
-0.05466966704 -0.08136735857 0.513461411 -0.5084143877 -0.7170883417 0.4736353755
-0.06729695201 -0.06425461173 0.5345039368 -0.3224309683 -0.7704471946 0.5156441927
-0.06037420407 -0.06605120003 0.5380453467 -0.4734378457 -0.7342151999 0.4540949464
-0.06087495759 -0.06876145303 0.5332184434 -0.4321161509 -0.7332831621 0.4856801331
-0.07053086907 -0.05965032429 0.5384206772 -0.2881135941 -0.7951384187 0.5041487217
-0.07434789836 -0.05868347362 0.5339210033 -0.1890524328 -0.8130136132 0.5398668647
-0.08193706721 -0.05981061608 0.5340918303 -0.02786209807 -0.7993776798 0.561868608
-0.09016490728 -0.06320355833 0.5300877094 0.1185943112 -0.786565423 0.5797449946
-0.08413562924 -0.0638538897 0.5296612978 0.005202435423 -0.7928643227 0.579146862
-0.05405737832 -0.0678518191 0.5323073864 -0.4825553596 -0.7297341824 0.4756372273
-0.05870023742 -0.06223877892 0.5339896083 -0.4260572195 -0.762157321 0.4852117002
-0.05892472714 -0.06891623884 0.5281360745 -0.4664441645 -0.7417851686 0.4813223779
-0.05474685505 -0.06202357635 0.5410157442 -0.5060328841 -0.7067764997 0.4735962152
-0.0505156666 -0.06178064272 0.5477648377 -0.608096242 -0.6382590532 0.4564211369
-0.08057036996 -0.09870259464 0.4836448133 0.0763746649 -0.7155694962 0.6817566752
-0.06992279738 -0.09461856633 0.4875970483 -0.1611792892 -0.7183244824 0.6602777243
-0.07018659264 -0.1001090705 0.4848622978 -0.0976363644 -0.6960060596 0.6608980894
-0.06456798315 -0.09722600877 0.4874821901 -0.2316885591 -0.7022684813 0.6465318799
-0.07487470657 -0.09345519543 0.4861238003 -0.1225277707 -0.7383978367 0.6598610282
-0.03472268209 -0.1000521705 0.5070026517 -0.5196527243 -0.6348770857 0.5060495734
-0.02056309767 -0.09948559105 0.5120047927 -0.3087311983 -0.6215299368 0.6644181609
-0.02530271374 -0.09603980929 0.5123073459 -0.3345859051 -0.6344988942 0.6408653855
-0.04316662624 -0.09345131367 0.5070040822 -0.5497177243 -0.6647420526 0.4698553085
-0.03737419844 -0.09228793532 0.5110209584 -0.4685021043 -0.6535064578 0.5388768911
-0.0141250398 -0.09861734509 0.5154168606 -0.2087222487 -0.6181717515 0.7405176759
-0.0390836224 -0.108725898 0.4933805466 -0.6462897658 -0.6410888433 0.4127856493
-0.03161818534 -0.1093548536 0.500318706 -0.4993492067 -0.6577133536 0.5265299082
-0.03695792332 -0.1062666327 0.4972717464 -0.5995137095 -0.6378511786 0.4472204745
-0.03813698888 -0.1025745645 0.5022860765 -0.5884591937 -0.6385356784 0.4547615647
-0.02831463888 -0.1003930271 0.5085172653 -0.4295861125 -0.6284663677 0.574082911
-0.01891051605 -0.1050541252 0.5104352832 -0.283254236 -0.6455119252 0.6882417202
-0.0229729116 -0.103514038 0.5059324503 -0.3736080527 -0.6249151826 0.6171097755
-0.02789125405 -0.1062508598 0.5027528405 -0.4472596645 -0.6405876875 0.5633042455
-0.06190825626 -0.08053529263 0.5100345016 -0.4069209397 -0.7547083497 0.5118441582
-0.0631737411 -0.07652977854 0.5146241188 -0.3511557281 -0.7707846165 0.5245574117
-0.07557538152 -0.08968265355 0.4919166267 -0.1034059227 -0.7670891881 0.6275536418
-0.08108946681 -0.08390272409 0.4980652034 0.0328328982 -0.7978791595 0.5967302322
-0.08032338321 -0.08747891337 0.4933398366 0.01109460834 -0.7862352729 0.6106068492
-0.08560519665 -0.09062283486 0.4912705123 0.1810174584 -0.7732878327 0.6052876711
-0.0674578473 -0.08945323527 0.493216306 -0.2247508317 -0.7548726201 0.6112493873
-0.02665192261 -0.06745192409 0.5622889996 -0.1810663939 -0.9590120912 0.1810879409
-0.0334700048 -0.06522193551 0.5591555834 -0.3111795187 -0.8623198867 0.2531435192
-0.04268877581 -0.06326979399 0.5564020276 -0.4346743226 -0.7740274072 0.2816774249
-0.04170544073 -0.06713146716 0.5599811673 -0.4300029874 -0.7387248278 0.4458453059
-0.03154856339 -0.07011579722 0.5636411905 -0.1635820568 -0.9789535999 0.09232133627
-0.02611448057 -0.07347109914 0.5637204647 -0.1710419208 -0.9650497437 0.1962163299
-0.0379069522 -0.07230682671 0.5615770221 -0.293767035 -0.8763098717 0.2978238761
-0.04808339477 -0.1130901128 0.5552678704 0.1243539453 -0.6752391458 0.5040838718
-0.0489926748 -0.1301177591 0.5532761812 0.4893693328 -0.6379286647 0.4956849515
-0.04343408719 -0.1085591987 0.5546447039 0.1868437231 -0.7764462829 0.3779092133
-0.049898725 -0.1365671903 0.5518912077 0.5857881308 -0.5884262323 0.5299627185
-0.04092114046 -0.1002675891 0.5242883563 -0.4283934534 -0.6494553685 0.4702785313
-0.04729531333 -0.1285071373 0.5421407223 0.3475131094 -0.58032763 0.5129667521
-0.04619835317 -0.1235603094 0.5521851778 0.4055024385 -0.6683761477 0.4584474564
-0.03862374648 -0.08525288105 0.5576444268 -0.1497187316 -0.9389882684 0.2520936131
-0.0406095311 -0.09656053782 0.5555324554 0.0149992751 -0.8565195799 0.3127075434
-0.03894180804 -0.09071592242 0.5399355292 -0.3390619457 -0.8004459143 0.3593993485
-0.0407670252 -0.1024791226 0.5311687589 -0.2740321457 -0.6757811308 0.4533055425
-0.0416361168 -0.1033290997 0.5498679876 0.0424182564 -0.7811196446 0.3696424067
-0.03960454836 -0.09195359796 0.5513567924 -0.1331702471 -0.8603380322 0.3115294874
-0.03972082213 -0.09670842439 0.5315148234 -0.3697053492 -0.713547647 0.425739795
-0.0442051366 -0.1171545535 0.5506786704 0.2980739772 -0.7003370523 0.4280129075
-0.04722845182 -0.134256646 0.5476280451 0.5489570498 -0.5764344931 0.5191811919
-0.04612331092 -0.1279948652 0.5487927794 0.4578683376 -0.6220828295 0.4855772853
-0.04374689236 -0.1160635203 0.5439140797 0.1698472649 -0.6670800447 0.4547556639
-0.04097716883 -0.1009532958 0.5440254211 -0.09348265082 -0.7612687945 0.3862946332
-0.04053672776 -0.09755973518 0.5488128662 -0.07582680136 -0.8105902672 0.3486382365
-0.04197862744 -0.08608578891 0.5506942868 -0.421428442 -0.7372500896 0.4641096294
-0.04527859017 -0.1207017899 0.5393924713 0.1439554989 -0.604637146 0.5116095543
-0.04267941788 -0.1097616479 0.5318988562 -0.1570332348 -0.6287485361 0.4937888682
-0.0418747291 -0.09570048004 0.5402992368 -0.344589144 -0.6887444854 0.4754611254
-0.0437335372 -0.1062549427 0.5429159403 -0.1051944196 -0.6580630541 0.4914827645
-0.0441560261 -0.1143561751 0.5377836823 -0.0003678301291 -0.6230264306 0.501967907
-0.04208909348 -0.09126979858 0.5462732911 -0.3669148088 -0.7130012512 0.4705305398
-0.04631724954 -0.1216485351 0.5458269119 0.2339527756 -0.6118578315 0.5146203637
-0.0433216095 -0.1084142923 0.537818253 -0.1184765249 -0.6427245736 0.4933308661
-0.04515039548 -0.1109771803 0.548247695 0.04790468514 -0.6510290504 0.4997072816
-0.04235610366 -0.1027124524 0.5366796851 -0.2447650135 -0.6597419977 0.4847452939
-0.06318217516 -0.07025942206 0.5236263871 -0.3639496565 -0.7649692893 0.5279265642
-0.07489322871 -0.06716438383 0.5217716098 -0.127477482 -0.7940545082 0.5920949578
-0.0655117631 -0.06572556496 0.5282922387 -0.3254767358 -0.7840332389 0.5263554454
-0.07047889382 -0.06242123246 0.5301836133 -0.2504619062 -0.7937152386 0.536229372
-0.06960267574 -0.06830700487 0.5247274637 -0.2400238365 -0.7830533385 0.5532932878
-0.07510893792 -0.06587576121 0.5275363922 -0.1526469737 -0.7935688496 0.5696718097
-0.04463902861 -0.0784342736 0.5540748239 -0.4739588201 -0.7562818527 0.4492531717
-0.04973157123 -0.07262753695 0.5511183739 -0.5009457469 -0.7478184104 0.431897819
-0.05646495149 -0.06519059092 0.5463536978 -0.5396216512 -0.7338078618 0.4100267589
-0.05352060497 -0.0697498098 0.5437915921 -0.5389646888 -0.7246221304 0.4254343808
-0.05310706794 -0.06786542386 0.5509618521 -0.5146923661 -0.7460689545 0.4192503393
-0.0431156531 -0.07295628637 0.5584113598 -0.4546014369 -0.7581990361 0.4656026959
-0.0475230813 -0.06837909669 0.5565774441 -0.4668694139 -0.7597313523 0.4475828409
-0.04811401665 -0.07103147358 0.539928019 -0.6795513034 -0.6174508929 0.3818153441
-0.04461182654 -0.08109939843 0.5405219197 -0.630769968 -0.6620334387 0.3773586452
-0.04606666788 -0.07870806009 0.5461631417 -0.5147598982 -0.726736486 0.4464220405
-0.04863452166 -0.07674147189 0.5415783525 -0.5308009386 -0.71607095 0.4483900964
-0.04481938854 -0.06409575045 0.5505744219 -0.6162084341 -0.6328863502 0.4306958616
-0.03344657272 -0.06647489965 0.551166296 -0.4456402063 -0.744024992 0.3773395419
-0.04269514605 -0.07439988106 0.5381560326 -0.6421307325 -0.6506134868 0.3324427307
-0.04679681361 -0.0676568523 0.5454207063 -0.669159174 -0.6123402119 0.4043817818
-0.03934189677 -0.06545084715 0.5505936146 -0.5352837443 -0.6863497496 0.4031243622
-0.019315226 -0.06747528911 0.554387033 -0.222238034 -0.882722199 0.3285544217
-0.04129273444 -0.07036130875 0.543733716 -0.595710814 -0.6656502485 0.3646527827
-0.02297586203 -0.07350629568 0.5421081185 -0.2449043691 -0.7363674641 0.4476374984
-0.009338349104 -0.07139354944 0.5472589731 0.01951404288 -0.8151711226 0.5133392215
-0.01681348868 -0.07167838514 0.5457863808 -0.146931529 -0.7870277762 0.4661478102
-0.01797574759 -0.07575169206 0.5378227234 -0.07118587196 -0.7430102825 0.5294619203
-0.03249549866 -0.07636841387 0.5353173614 -0.393645823 -0.6782606244 0.4328552485
-0.03958681598 -0.07720434666 0.5323398709 -0.5364925265 -0.6558049321 0.4042847753
-0.03193217143 -0.0733898133 0.5410798788 -0.4551172256 -0.7110624909 0.3842898309
-0.009266793728 -0.06800310314 0.5532751679 -0.04908531159 -0.8880515099 0.4447962046
-0.02364867926 -0.07011555135 0.5493866801 -0.3070419431 -0.8324055076 0.3281258941
-0.02789855935 -0.07180885971 0.5450852513 -0.3830093145 -0.7695668936 0.3577465415
-0.06240635365 -0.09297633171 0.4909448326 -0.3226816654 -0.69227916 0.6439125538
-0.05528134853 -0.09468588233 0.493780762 -0.4723670781 -0.6914800406 0.5451806784
-0.05953454226 -0.09077617526 0.4952760935 -0.3997263014 -0.7134773731 0.5681474805
-0.05195648596 -0.09940505773 0.4915571809 -0.4584137201 -0.6832671762 0.5640347004
-0.04741046205 -0.09756585956 0.4980093241 -0.6039355397 -0.6716791987 0.4288464487
-0.04344850779 -0.103219077 0.4950073957 -0.6251339912 -0.6565996408 0.4208517671
-0.04866801202 -0.093568407 0.5032855272 -0.5868769288 -0.6822987199 0.4334251583
