# .PCD v0.7 - Point Cloud Data file format
VERSION 0.7
FIELDS x y z normal_x normal_y normal_z
SIZE 4 4 4 4 4 4
TYPE F F F F F F
COUNT 1 1 1 1 1 1
WIDTH 512
HEIGHT 1
VIEWPOINT 0 0 0 1 0 0 0
POINTS 512
DATA ascii
-0.02080109529 -0.1416103095 0.696367979 -0.4661375284 0.5439561605 -0.6973442435
-0.003478548024 -0.1400186718 0.6901049018 -0.2252330929 0.5539191365 -0.786927402
-0.009547379799 -0.1407306492 0.6925789714 -0.3167965412 0.5418832898 -0.7758761644
-0.001355212997 -0.1357540488 0.6926767826 -0.2337901592 0.5755194426 -0.776067853
-0.01495335717 -0.1415635198 0.6938387752 -0.3856522739 0.5427004695 -0.74081707
-0.0002786440309 -0.2147277594 0.7806155682 -0.1687924862 -0.550624311 0.8140411973
-0.006329350173 -0.2153078914 0.7787128091 -0.2567096949 -0.5353335142 0.8042060137
0.0687365979 -0.1812701523 0.7454255223 0.9684720039 -0.05025772378 0.2296674848
0.07004531473 -0.1787166148 0.738214612 0.9597894549 -0.005748759024 0.07786627114
0.06627743691 -0.1617066413 0.7251079679 0.9195259213 0.0862813741 -0.2422938496
0.06464568526 -0.1539947391 0.7184534073 0.8988385201 0.1277700514 -0.3990941942
-0.04569676146 -0.1220392957 0.7470363379 -0.7824634314 0.39419505 -0.4815951586
0.06979434937 -0.1682287753 0.7324547768 0.9555963278 0.03023399971 -0.06557000428
0.07038764656 -0.1739023477 0.7359694839 0.9620711803 0.006097500678 0.02194263227
0.06841356307 -0.1560259759 0.7255612612 0.942630291 0.0880548805 -0.2388489991
0.06703235209 -0.1572779715 0.732260406 0.9525994658 0.1335946023 -0.09447567165
0.07044935971 -0.1747084856 0.7439392209 0.9830988646 0.01388972439 0.1679784358
0.06713344902 -0.1628207564 0.7352690101 0.9584454894 0.09655760229 -0.03399652243
0.06600259244 -0.1513054669 0.7275205851 0.9393455982 0.1719006151 -0.1986291111
0.06534621119 -0.1452651918 0.7230630517 0.9276886582 0.2104243934 -0.2937223613
0.06772204489 -0.1688015759 0.7393012047 0.9683980346 0.05744561553 0.05168361589
-0.04246678576 -0.1302446276 0.7329829931 -0.7565287352 0.4179040194 -0.5027599335
0.007889734581 -0.1373367757 0.6891961098 -0.07611222565 0.5661595464 -0.8204393387
-0.04034080356 -0.1417711377 0.7210543752 -0.7136288285 0.4415152669 -0.5437347293
-0.04524796084 -0.1945891976 0.7603313923 -0.8175039887 -0.2435110956 0.5218394399
-0.03249935806 -0.2043184191 0.7717685103 -0.6381290555 -0.3546146452 0.6773291826
-0.02773620188 -0.2066168189 0.773421526 -0.5633933544 -0.3924459219 0.7178243995
-0.04583319277 -0.1993777454 0.7636662722 -0.775592804 -0.2684435844 0.562256813
-0.03379298747 -0.2095347792 0.775349021 -0.5933759809 -0.385700196 0.7040687203
-0.02979619056 -0.1978267729 0.7745345831 -0.6458340287 -0.356285125 0.6731399298
0.06785257161 -0.09223935753 0.7117643952 -0.6758466959 0.4866672456 -0.5525473952
0.0716895014 -0.09474124759 0.7076972127 -0.6922103763 0.4510394931 -0.5602561831
0.01940154657 -0.2178681791 0.7824284434 0.1508934498 -0.5733510852 0.8036362529
0.01866675168 -0.2070151716 0.7860578895 0.1763591319 -0.5483503342 0.8122329712
0.02611430734 -0.2095296383 0.7805980444 0.3152982593 -0.5355756283 0.7618950009
0.05769886449 -0.1871112883 0.7670021057 0.8112344146 -0.3606508672 0.4554484785
0.07065407187 -0.1868994534 0.7443570495 0.9463214874 -0.1098252162 0.2569749653
0.06820802391 -0.1765350848 0.7509337664 0.9353149533 -0.102828376 0.2636469603
-0.01994873956 -0.2046388388 0.779127717 -0.4607940018 -0.4532100856 0.7572873235
-0.01361504663 -0.2143421322 0.7772777081 -0.3340062499 -0.5009833574 0.7967100143
-0.004605283961 -0.211067915 0.7827965021 -0.2276010513 -0.5297198296 0.8166370988
-0.05179735646 -0.1867218763 0.749125421 -0.8621969223 -0.07991299778 0.4704746306
-0.03575583175 -0.1379641294 0.7167416215 -0.6856452823 0.460852623 -0.5627337098
-0.0371337533 -0.1347435564 0.7221519351 -0.7147014737 0.4392080903 -0.5440754294
-0.02523967065 -0.1305279583 0.7110403776 -0.5917975903 0.502589643 -0.626206696
-0.03179234266 -0.121586509 0.7251847982 -0.684502542 0.4584519863 -0.5657927394
-0.0303384196 -0.1265047342 0.720023334 -0.6657732129 0.4601230919 -0.587012887
-0.0349480696 -0.1291827857 0.722833097 -0.7061293721 0.4419498444 -0.5528523326
-0.03232460469 -0.1313934922 0.7168310881 -0.6681131124 0.4695743918 -0.5765470862
-0.0390378125 -0.1309711784 0.7268993855 -0.7288385034 0.4334257543 -0.529212296
-0.04320628941 -0.1242714897 0.7421216965 -0.7728846669 0.4071787894 -0.4862715006
-0.03951094672 -0.123704277 0.7339859009 -0.7568908334 0.4183658361 -0.5020181537
-0.03625241667 -0.1176956519 0.7346850038 -0.7426424623 0.4318724275 -0.5113431215
-0.04143502936 -0.1187009662 0.7437059879 -0.7708453536 0.4109421074 -0.4861883223
-0.0385357365 -0.1151725426 0.7409763932 -0.7600885034 0.4200744629 -0.4949869812
-0.0138113955 -0.1276693195 0.7055417299 -0.411028415 0.5600565672 -0.707888186
-0.01697769947 -0.1320977211 0.7021234632 -0.446968019 0.5550868511 -0.7009461522
0.03087290563 -0.1430408508 0.688670516 0.3076129258 0.5242289305 -0.7798906565
0.03719408438 -0.145502463 0.689550519 0.3756807148 0.3861990869 -0.8021142483
0.05980299413 -0.2030206472 0.7610718608 0.7747374177 -0.3841057122 0.5013710856
0.03126791865 -0.2138290256 0.7801260948 0.3776024282 -0.5317537785 0.7575330734
0.02525906265 -0.2175777555 0.7809844613 0.2444719672 -0.5598863959 0.7775686979
0.03105070628 -0.197999239 0.7874467969 0.3798570037 -0.5282437801 0.7573695183
0.003122768598 -0.1399422586 0.6925441027 -0.1258585155 0.5526040792 -0.7924185395
0.01894409209 -0.1398216188 0.6909034848 0.1489738971 0.5786803961 -0.7867386341
0.01500853896 -0.1298238933 0.695861578 0.05485782027 0.6107056141 -0.7891694903
0.02328822576 -0.1351803988 0.6911559105 0.2323898673 0.5976135731 -0.7651589513
0.01452846266 -0.1355571449 0.6901936531 0.07321408391 0.5962050557 -0.7951985002
0.05816257372 -0.1128334254 0.7359265089 0.6429129243 0.2904186845 -0.7066217065
0.05757942796 -0.1059324965 0.7395784855 0.5928829908 0.3051758707 -0.7438712716
0.05443228409 -0.1897598207 0.7738633156 0.7141506672 -0.4248677194 0.5558340549
0.002219534945 -0.2071641982 0.7868051529 -0.119086504 -0.5510561466 0.8225884438
0.00865602307 -0.2098787576 0.7865149379 -0.01629563235 -0.5596934557 0.8229931593
0.01363395806 -0.2157651782 0.7821621299 0.07197960466 -0.5778052211 0.8080440164
0.006774380337 -0.2141047418 0.7820116878 -0.06135397404 -0.5709594488 0.81445539
0.06180141866 -0.108604528 0.7427457571 0.6427626014 0.266179502 -0.7126086354
0.0263547264 -0.203859061 0.7855584621 0.3132733405 -0.5321088433 0.785613358
0.03069791757 -0.2043798715 0.7826113105 0.3949250579 -0.5039203763 0.7636172175
0.03510708734 -0.2058273852 0.7785773873 0.4789608121 -0.4953387082 0.7228633165
0.06108384952 -0.1810877919 0.7640550733 0.8432459235 -0.3042545617 0.4326057732
0.06427684426 -0.1779689193 0.7592942715 0.877981782 -0.2320820987 0.3650582433
0.06515202671 -0.1826974154 0.753842175 0.8743872643 -0.2408296913 0.3610197902
0.06409810483 -0.1837031692 0.7596567273 0.8192868829 -0.3541975915 0.4488105774
0.06408973038 -0.1775241196 0.7708798647 0.7952978611 -0.3584705889 0.4813784659
0.05533771217 -0.1990438104 0.7648704648 0.7528823018 -0.4216135144 0.5036082864
0.06693780422 -0.1860960424 0.7488570809 0.9147446156 -0.1837468147 0.3322801888
0.06525795162 -0.1927350461 0.7524377108 0.8592712879 -0.2939315736 0.377843529
-0.01159890462 -0.2102292925 0.7821341157 -0.3184170425 -0.4992934763 0.8052506447
-0.00821787212 -0.2009623647 0.7872372866 -0.2917842567 -0.5297668576 0.7949873805
-0.0173970107 -0.2101626694 0.7781031728 -0.3950488269 -0.477553159 0.7820499539
-0.02570436709 -0.210396558 0.7774114013 -0.4939725697 -0.4185783863 0.7530744076
-0.04085547477 -0.1964448988 0.7648739219 -0.7841612697 -0.2673384249 0.555941999
-0.02063529566 -0.1360358894 0.7017359734 -0.5004156232 0.5391329527 -0.6738888621
-0.01548522804 -0.1383586526 0.6992569566 -0.4331095219 0.5263210535 -0.7134034634
-0.03314085677 -0.1399599165 0.7119297981 -0.6655350924 0.4615744352 -0.5845378637
-0.03044445068 -0.134052828 0.7126562595 -0.6477912068 0.4848695397 -0.5867237449
-0.02548760734 -0.1348691732 0.7072557807 -0.5924683213 0.5092546344 -0.6234733462
-0.02562713809 -0.1410255134 0.7015444636 -0.5269545317 0.5205366015 -0.6684187055
-0.02979929373 -0.1405374557 0.7068152428 -0.5897304416 0.4967150986 -0.6361733675
-0.03707160056 -0.08997271955 0.7586648464 -0.7169930339 0.4352831841 -0.5438556671
-0.04257760942 -0.1006576493 0.7604274154 -0.7533406615 0.4155268669 -0.5092772841
-0.04251619801 -0.09411782026 0.7611523271 -0.7304605246 0.4248659909 -0.5346759558
-0.03915798292 -0.0992654413 0.7534018755 -0.7451328635 0.4166627824 -0.5202515125
0.003786086105 -0.1323666126 0.6943699121 -0.1347494572 0.5926249027 -0.7917328477
-0.003438791726 -0.1297180355 0.6995569468 -0.2493896186 0.5825332999 -0.7702978849
-0.006771827117 -0.1332583725 0.695872426 -0.2946256697 0.5709741116 -0.7648388147
-0.01124474872 -0.1311701089 0.6993411779 -0.35045892 0.557410419 -0.7492889762
0.06798570603 -0.1179505363 0.6971242428 -0.549713552 0.2179138362 -0.778383553
0.06213770807 -0.1154484972 0.6968742013 -0.4756228626 0.2320081294 -0.8237012625
0.04880349711 -0.2018708736 0.7712597251 0.6705865264 -0.3955948949 0.6267997026
0.05306909233 -0.1969072223 0.7707018852 0.7129526734 -0.4180445969 0.5602543354
0.023433825 -0.1329806447 0.6963049769 0.1661045551 0.5893929005 -0.7800531387
0.02908434905 -0.1383839995 0.6936504245 0.2851645052 0.5697489381 -0.7688340545
0.03064380772 -0.1273895055 0.6965038776 0.1104872301 0.5178263187 -0.7933852077
0.03791577369 -0.1249578744 0.6964572072 -0.0094764065 0.4192713201 -0.8271596432
0.04905082285 -0.1225526929 0.6955813169 -0.180879727 0.2695913017 -0.8774939179
0.03891013935 -0.1314171255 0.692560792 0.06714691222 0.4269085526 -0.8187174201
0.04414647445 -0.1285571456 0.6931781769 -0.03258398548 0.3534101546 -0.8448019028
0.03360478953 -0.1313315183 0.6935217381 0.1130632088 0.4850073457 -0.8008776903
-0.03100247681 -0.1921818703 0.7762038708 -0.6636917591 -0.3507190347 0.6575511098
-0.03600943089 -0.1863867193 0.7757029533 -0.7155874968 -0.3227400184 0.6186043024
-0.03638122976 -0.1940352023 0.7746173143 -0.6854204535 -0.3360384405 0.6382654905
-0.04032435268 -0.1961727142 0.7705927491 -0.7186770439 -0.3110013604 0.6087347269
-0.03830458596 -0.2050800771 0.7716852427 -0.6588004827 -0.3443633318 0.6520679593
-0.04210367054 -0.20192568 0.7683127522 -0.7131742239 -0.3095353544 0.6089125872
-0.0360330902 -0.199962765 0.7743800879 -0.6562868953 -0.3508073986 0.6581209898
-0.04399370775 -0.1370628029 0.7315075994 -0.7835565805 0.3696123958 -0.4856315553
-0.04104092345 -0.1374386549 0.7271525264 -0.7759551406 0.3590093553 -0.4985614419
-0.04407536238 -0.1446275115 0.726846993 -0.7749311924 0.3633152246 -0.4842642844
-0.04701164737 -0.1470910758 0.7338261008 -0.8766870499 0.214095816 -0.3534885049
-0.05098142475 -0.173959136 0.7416561246 -0.8902190924 0.2236867547 0.2629875541
-0.04934970289 -0.1663685143 0.7382021546 -0.8664593697 0.2507486641 0.07409697026
-0.0444566533 -0.1502295882 0.7293707132 -0.7832209468 0.3336079121 -0.3518532515
-0.04670586064 -0.1538095921 0.7358195782 -0.8663595915 0.1989261806 -0.2097313255
-0.04782376438 -0.1695536524 0.7425178885 -0.8855937123 0.1275397539 0.1594369859
-0.04572666809 -0.1563613415 0.7307693958 -0.7857707739 0.3517696559 -0.2114538997
-0.04860154539 -0.1602805853 0.7393909097 -0.8919187784 0.1754011959 -0.03502936289
-0.04874335602 -0.1759201437 0.7466725707 -0.8967621922 0.09070118517 0.3352383673
-0.04673256353 -0.1078899875 0.7620204687 -0.770041883 0.4046243727 -0.4931150973
-0.05014195666 -0.114677012 0.7612490058 -0.7793601155 0.394208163 -0.4869948328
-0.04733616486 -0.1182777733 0.753272295 -0.784019053 0.3919609785 -0.4811602831
0.06862786412 -0.1127237305 0.7296176553 0.2647173405 0.2417526841 -0.5928488374
0.07412282377 -0.1110428646 0.7157486677 -0.268175751 0.2745620608 -0.4988116324
0.06997489184 -0.1134201363 0.7222611904 0.07894063741 0.2458098084 -0.5546169281
0.07773812115 -0.1010045633 0.7064720988 -0.8109592199 0.3500513136 -0.4427611232
0.07322633266 -0.09791877866 0.7163312435 -0.4983564913 0.3510496914 -0.5175999999
0.07219135016 -0.1072773337 0.7220356464 -0.1450616717 0.2883076668 -0.5401081443
0.07766199112 -0.1081729606 0.7091078758 -0.6037082672 0.3049001694 -0.4478545487
0.06952024996 -0.1072401181 0.728484571 0.09006901085 0.2777034938 -0.5853642225
0.07547780871 -0.1056917831 0.713543117 -0.4799940288 0.3115597665 -0.4835606515
0.06685192138 -0.1123351827 0.736682117 0.4685186744 0.2350052744 -0.6332961321
0.07921352983 -0.1054110974 0.703476429 -0.8379988074 0.334893465 -0.4238871336
0.06515739113 -0.1170825139 0.7288246155 0.4660169482 0.2677493989 -0.601908803
0.05772532895 -0.177161932 0.7760967612 0.7364272475 -0.399995029 0.5389658213
0.05333730206 -0.177650705 0.7804115415 0.7017747164 -0.4313927591 0.5507304668
-0.02193150297 -0.1126335859 0.7219660282 -0.5409258008 0.5123499036 -0.6566693783
-0.02416238002 -0.1233585849 0.7175061107 -0.5813435912 0.4897951484 -0.6339268088
-0.02083479054 -0.1250991374 0.7122570872 -0.527525425 0.5141780376 -0.6677306294
-0.01582295261 -0.1239547729 0.7095293403 -0.460151583 0.5399901867 -0.7019792795
0.04630411416 -0.149518922 0.6932777762 0.48209095 0.1200694591 -0.8546167612
0.0489529334 -0.1468005329 0.6992051005 0.5315426588 0.2129910439 -0.797262311
0.0695194304 -0.1038381904 0.702137351 -0.7052711844 0.3775644302 -0.5948149562
0.07106249779 -0.1197416261 0.7092210054 -0.3075805306 0.2526159585 -0.6363089681
0.07328165323 -0.1203885227 0.7022185326 -0.61090976 0.1752892286 -0.6893170476
0.07755886763 -0.1119947731 0.7042784095 -0.6850997806 0.2951218188 -0.4748838246
0.07072294503 -0.1166330874 0.7151488066 -0.1018181369 0.3483832479 -0.5293629766
0.07491897047 -0.1131011397 0.7095814943 -0.4235862494 0.3347907662 -0.4734315574
0.06749802083 -0.1202372611 0.7179921269 0.09837835282 0.3340184689 -0.6015659571
0.07386466116 -0.1084480882 0.7003192306 -0.7519025803 0.3456361592 -0.5288524032
0.0760538429 -0.1154701635 0.6994326711 -0.6876966953 0.2620947063 -0.6300424337
0.05616354942 -0.1849263012 0.7757876515 0.7139657736 -0.4214180708 0.5591213107
0.05786662549 -0.1798297912 0.7706695199 0.7986511588 -0.3477201164 0.477792412
0.05101671815 -0.1868095994 0.7801662683 0.6787675619 -0.4549564719 0.5746536255
0.04798422754 -0.1962961555 0.7756149769 0.6710601449 -0.4128414392 0.6153759956
0.05998772755 -0.1357667297 0.7215223312 0.782864213 0.3163838983 -0.4636096656
0.05984551087 -0.1410737485 0.7168875337 0.7928879261 0.1912878901 -0.5285260677
0.05821656808 -0.1289992183 0.7245010138 0.7239711881 0.4435379505 -0.474104017
0.03877150267 -0.2011174709 0.77929461 0.5299924016 -0.4587058723 0.7020577192
0.06302006543 -0.1847595274 0.7698495388 0.7817776799 -0.3869121969 0.4823399484
0.06079869345 -0.1887002736 0.7615785599 0.8232754469 -0.3638752699 0.4355535507
0.06511080265 -0.180810079 0.7778655887 0.7369475365 -0.4018758237 0.5420738459
0.06271831691 -0.1909680068 0.7686965466 0.7671297193 -0.3900791407 0.5057973266
0.06157180294 -0.1968790591 0.7660229206 0.763649106 -0.3904859722 0.5128368735
0.06137637794 -0.1944748163 0.758302629 0.8116159439 -0.3849079311 0.437790066
-0.001715484075 -0.2015994191 0.7896205187 -0.1956802458 -0.5475531816 0.8122227192
0.006395712495 -0.2033913732 0.7892531157 -0.0419623144 -0.5769052505 0.8137673736
0.01183551457 -0.2049222887 0.7883442044 0.05275189504 -0.5648622513 0.8198106289
-0.01538100746 -0.2041840106 0.7825315595 -0.3968005478 -0.4849059284 0.7781797051
-0.04580255598 -0.1871593744 0.7576826215 -0.8201897144 -0.2376995981 0.5202698708
-0.03941746429 -0.1904269904 0.7679639459 -0.8022492528 -0.2600666285 0.5371050239
-0.04230776802 -0.1877935678 0.7636847496 -0.8123570085 -0.2466107607 0.5282487273
-0.04843038321 -0.1813845634 0.7480716109 -0.8954673409 0.06357243657 0.4358060062
-0.0503449142 -0.1961782575 0.7586903572 -0.8167706728 -0.2432654202 0.5231131315
-0.004718491342 -0.09819275886 0.7233603001 -0.2577886581 0.5987910628 -0.7446818352
0.005176094361 -0.126686126 0.6977270246 -0.1078884006 0.6027591825 -0.7900505662
0.01171154343 -0.1253828555 0.699308753 0.0008859795053 0.6116174459 -0.7860159874
0.009012564085 -0.1308995187 0.6953172088 -0.04809229448 0.600669682 -0.7937881351
-0.002488843165 -0.1233040914 0.7039568424 -0.247945115 0.5929563046 -0.7608416677
0.04523101822 -0.2092272341 0.7720015645 0.6022136211 -0.4427237511 0.6580078602
0.05147048458 -0.2060370594 0.7675555944 0.6789824963 -0.4041829705 0.6014616489
0.03746580333 -0.2123006731 0.7769677043 0.4783778787 -0.4941471219 0.7188779712
0.02427548729 -0.1412537843 0.6903455853 0.2429553121 0.5732039809 -0.7818884254
0.01462528203 -0.1402679682 0.6871220469 0.07324359566 0.589014411 -0.7998549342
-0.04725081474 -0.1797210574 0.756398499 -0.8669815063 -0.06182972714 0.4685507119
-0.04581358284 -0.1795935631 0.7623380423 -0.8421049714 -0.170981437 0.4969667196
-0.05039248243 -0.1903564185 0.7558464408 -0.8209158778 -0.2426922768 0.5168037415
-0.04783187062 -0.1866540015 0.7629139423 -0.8226989508 -0.2348035127 0.5175571442
0.06713706255 -0.09372671694 0.7284529805 -0.5355651379 -0.1581967473 -0.5900381207
0.06455548108 -0.09438034892 0.7352209091 -0.4072019756 -0.3256470859 -0.626535356
0.06797941029 -0.1025724933 0.7446272373 0.4423250556 0.2251071334 -0.6252338886
0.07240074128 -0.096244663 0.7224672437 -0.3638228178 0.3229273856 -0.5356448889
0.06697683781 -0.09892205149 0.7393330336 0.05267150328 0.01842737198 -0.6191066504
0.06564344466 -0.1096053198 0.7463518977 0.7109110355 0.2321935445 -0.6626162529
0.06714680046 -0.1070659459 0.7396684289 0.4468545616 0.2584282756 -0.6328698993
0.07132361829 -0.09870037436 0.7280496359 -0.1193070561 0.3250782788 -0.5594366193
0.06933353841 -0.1028035581 0.732963264 0.1354509741 0.2938808501 -0.5935997963
0.05851920322 -0.09085653722 0.7403568625 -0.09669467062 -0.1957219839 -0.8278566003
0.05843258277 -0.08777510375 0.7352901697 -0.3515257835 -0.5413510799 -0.6268537641
0.06519488245 -0.08840885013 0.7244605422 -0.4475124478 -0.5563700795 -0.3480805159
0.07154925168 -0.09070122242 0.7161331773 -0.6986888051 0.2398214787 -0.5362611413
-0.03821400553 -0.1037649587 0.749222219 -0.7579603195 0.407455951 -0.5093481541
-0.04386541247 -0.1135400832 0.7509292364 -0.7698525786 0.4070159197 -0.4915591478
-0.04267009348 -0.1087456718 0.7538109422 -0.7664418817 0.4091028571 -0.4951583147
-0.03040785156 -0.1117010713 0.7314110994 -0.6781910062 0.4736414552 -0.5600975156
-0.0306799151 -0.0956281051 0.7447726727 -0.691303432 0.4620717466 -0.554330349
-0.03431482986 -0.1027791798 0.7440596223 -0.7422017455 0.417526871 -0.5221071243
-0.02723750845 -0.1039986908 0.734081924 -0.6554552317 0.4851585627 -0.5776724219
-0.02803348377 -0.09843425453 0.7395430803 -0.6675477624 0.4813950062 -0.5668010712
-0.03228625655 -0.1050552428 0.7393730283 -0.7174229026 0.4395603836 -0.5367564559
-0.0154169118 -0.1081678718 0.7197089195 -0.4482070506 0.542599678 -0.7074985504
-0.02198608406 -0.1176311672 0.718668282 -0.547798872 0.5030735135 -0.6595680714
-0.02717699669 -0.1187143922 0.7217313051 -0.6193412542 0.4818940461 -0.6176689267
-0.01548460405 -0.1144581884 0.7158433795 -0.4591655135 0.5321950912 -0.7106928229
-0.01803190075 -0.1196411476 0.7131758332 -0.4873359501 0.5298905373 -0.6927628517
0.0626905635 -0.1476940215 0.7170411944 0.8575871587 0.1781368405 -0.4810462296
0.04065322876 -0.1367367953 0.7002094388 0.3844766021 0.4996358454 -0.7706182599
0.03924927488 -0.1417990029 0.6949185133 0.3809040487 0.4927767813 -0.7785645127
0.04422910884 -0.1426651776 0.6977735758 0.4352354109 0.3897316456 -0.805891335
0.05119464174 -0.08497327566 0.7441476583 0.07952281833 -0.08415436745 -0.9292052388
0.06166137755 -0.08857427537 0.7295023203 -0.4727619886 -0.76579386 -0.3787084818
0.0583518669 -0.1011394188 0.7433045506 0.5178326964 0.2468998134 -0.7732751966
0.06350925565 -0.1018419266 0.7485838532 0.5958058834 0.1982406527 -0.7132369876
0.05701730773 -0.09157824516 0.7466180921 0.242846936 -0.0519891791 -0.8733729124
-0.00840579439 -0.1062402427 0.718601048 -0.3206196129 0.5725232959 -0.7435256243
0.04798155278 -0.1411209106 0.7022877336 0.4832748771 0.3205062449 -0.7984462976
0.05713222176 -0.1222900823 0.6961679459 -0.2500056028 0.155769825 -0.9120019078
0.05449620262 -0.1273159385 0.6963739395 -0.1142909229 0.1870670021 -0.894744277
0.04027264565 -0.1371784955 0.6897175312 0.1700446308 0.4390552342 -0.8075012565
0.046270255 -0.1384460032 0.6940199733 0.2536354363 0.3214457333 -0.8338698149
0.05194209889 -0.1334180981 0.6964543462 0.0456693247 0.1940333992 -0.8768230677
0.05223558098 -0.141309008 0.6953862309 0.2360396534 0.03119309247 -0.8689790964
0.01964554936 -0.2018228322 0.7887634039 0.1826545 -0.546038866 0.8087093234
0.01747620106 -0.2124392837 0.7854942083 0.1271134764 -0.5635818243 0.815738678
0.02581940033 -0.1980212033 0.7898087502 0.2907221913 -0.5482994914 0.7816110849
0.02623031847 -0.175430268 0.8066409826 0.2503198981 -0.5044175386 0.8156988621
0.04868526012 -0.172841534 0.790946424 0.5908126235 -0.4597920179 0.6572697759
0.04118549079 -0.1711255461 0.7997655869 0.4681026042 -0.4735903144 0.7372041941
0.04546435922 -0.1733730584 0.7963751554 0.5239631534 -0.4642810225 0.7099243402
0.0625410676 -0.1750584096 0.7806863785 0.7435956001 -0.3815018535 0.5378605723
0.05469652638 -0.173355639 0.7867320776 0.6572745442 -0.4250822365 0.6121941805
0.03873379156 -0.1874569058 0.789857924 0.4830051064 -0.5184317827 0.6950959563
0.03744406253 -0.1955443025 0.7860967517 0.4671442211 -0.5053710938 0.7226986885
0.035058368 -0.1921643317 0.7903276086 0.4311081469 -0.5269581676 0.7292660475
0.05866222084 -0.1774448901 0.7851720452 0.666307807 -0.4377794862 0.5942685604
0.0505458042 -0.1787162572 0.7890616059 0.5980300903 -0.4673382342 0.6426408291
0.04889319092 -0.1841861904 0.7858006358 0.6157175899 -0.4935158193 0.6112700701
0.04615276307 -0.1909645796 0.7822665572 0.6223196983 -0.467923522 0.6253896952
0.06169819832 -0.1272197217 0.7284413576 0.7348192334 0.3953404725 -0.5172952414
0.06286236644 -0.1158207655 0.7390679717 0.6933557987 0.2873811126 -0.6495400071
0.06060944498 -0.1189296246 0.7344012856 0.6740794778 0.3809351623 -0.6194699407
0.03885773569 -0.1293236017 0.7046903372 0.3240820467 0.5763288736 -0.7489019632
0.03696729988 -0.1249443218 0.7068068981 0.3096152246 0.6087706089 -0.7286462784
0.0160426423 -0.1713183969 0.8113750219 0.1143638939 -0.506647408 0.8543577194
0.0103999842 -0.1700504422 0.8127773404 0.02698485553 -0.5002821088 0.8600649238
0.006014666054 -0.1674573123 0.8142632842 -0.06350994855 -0.4865565002 0.8696926832
-0.03173923865 -0.1842923909 0.7823673487 -0.6744979024 -0.3896222115 0.6261725426
0.01355351787 -0.1885717362 0.7984632254 0.05567737296 -0.575848639 0.8100314736
-0.002448765794 -0.1889737397 0.7976374626 -0.2083533257 -0.5760563016 0.7893432975
-0.04468434677 -0.159072116 0.7519934773 -0.8471181989 -0.02184315771 0.035205964
-0.04351485893 -0.1663665175 0.7613320947 -0.8283720016 -0.1310853958 0.2579555809
-0.04287169129 -0.1650741696 0.767188549 -0.8017094135 -0.128586188 0.3258522749
-0.04431286827 -0.1478985995 0.7575902939 -0.7960865498 0.1023583636 -0.01983652823
-0.04517015815 -0.1722538769 0.7649583817 -0.8216985464 -0.1740421206 0.4222441018
-0.04420536757 -0.1535065621 0.7599429488 -0.80012995 0.03334627673 0.0870122388
-0.04515811056 -0.1285533458 0.7484536767 -0.7850229144 0.3487766385 -0.3962906301
-0.04477115348 -0.1339424849 0.7513249516 -0.7871838808 0.2774625123 -0.2889066935
-0.04438516498 -0.1404962838 0.7525028586 -0.7996372581 0.1929320097 -0.1947133392
-0.04175497964 -0.1726009846 0.7719085217 -0.8035393953 -0.2381601334 0.476685226
-0.04611349851 -0.142473042 0.7384774685 -0.8600824475 0.2033675015 -0.3677996099
-0.04485009611 -0.1498003751 0.7482457161 -0.8398531675 0.0920060426 -0.1393440515
-0.04288553074 -0.1588130444 0.7635665536 -0.801894486 -0.05300093815 0.1882309914
-0.04633147269 -0.1558592767 0.7452953458 -0.8629088402 0.04625625536 -0.08412467688
-0.04568590596 -0.1520995647 0.7531315088 -0.8214643002 0.0772812888 -0.01468046103
-0.04601604491 -0.1661274135 0.7549750805 -0.8472424746 -0.08388654888 0.1974763721
-0.04569223523 -0.1360082477 0.7452592254 -0.8157637715 0.2705687881 -0.3453430533
-0.04594798014 -0.142892465 0.7447624207 -0.834224999 0.1935226321 -0.2624765635
-0.04611269757 -0.1359839588 0.7389602065 -0.841820538 0.2800462842 -0.4411702156
-0.0464300923 -0.1505431384 0.7412511706 -0.8670096993 0.1122221798 -0.2152524143
-0.04202795401 -0.1851664037 0.7708664536 -0.776609242 -0.280061096 0.5604706407
-0.03935552016 -0.179694593 0.7744452357 -0.7672439814 -0.291124016 0.5681363344
-0.04470524192 -0.1929597855 0.7667018175 -0.7792152166 -0.2719110548 0.5600825548
-0.04457310215 -0.1785012782 0.7682923079 -0.8177224398 -0.2444283664 0.5204853415
-0.01893097721 -0.1796362847 0.7965784073 -0.4687952697 -0.5109927654 0.7166262865
-0.02686519362 -0.1791195869 0.7913419604 -0.5988265276 -0.4590794146 0.6548932791
-0.005524878856 -0.196889773 0.7915442586 -0.2484448403 -0.5476168394 0.7986165285
0.003730544122 -0.1990532428 0.791806221 -0.08543851972 -0.5787993073 0.8076441288
-0.0005578468554 -0.1944537014 0.7938680649 -0.1733356267 -0.5651681423 0.8016034961
0.005465500057 -0.1936088353 0.795985043 -0.0629208535 -0.5814364552 0.8085328937
-0.0238867607 -0.195167914 0.7819066048 -0.5443888307 -0.407823652 0.7290537357
-0.03169862181 -0.2032934278 0.77783674 -0.6028000116 -0.3857486248 0.6959952712
-0.02885808982 -0.197379306 0.7802299857 -0.5948832035 -0.3889449239 0.6991505623
-0.01152708847 -0.1024432331 0.7217594981 -0.3964547515 0.5649375319 -0.7218847275
-0.01784482226 -0.09977529943 0.7287729383 -0.5030450821 0.5524159074 -0.6614852548
-0.02006745711 -0.1059297621 0.7242424488 -0.5139607787 0.5296409726 -0.6721350551
-0.02250386216 -0.1034129262 0.7300859094 -0.5756482482 0.5254368782 -0.6230104566
-0.02572688274 -0.1083298028 0.7280657291 -0.6077976227 0.5012278557 -0.6125271916
0.01211324893 -0.1169913113 0.7054466605 0.01858847402 0.5984408259 -0.7955747247
0.006774426904 -0.1167764142 0.7054209709 -0.08861128241 0.592277348 -0.7969617248
0.007190088741 -0.1223849431 0.7018451095 -0.0835230723 0.6068716645 -0.7845128179
0.0426434353 -0.2020574063 0.7756490111 0.5930770636 -0.4472025335 0.6615516543
0.04389634728 -0.1971751004 0.7805150747 0.6037027836 -0.4606236219 0.6505063772
-0.009877437726 -0.1114387736 0.7147727609 -0.3513724804 0.5607990026 -0.7472915053
-0.01165002957 -0.1172485948 0.7126277685 -0.4090071619 0.5491864681 -0.7278879881
0.02239304967 -0.108514756 0.7132040262 0.1780230105 0.591329515 -0.7829561234
0.01807326265 -0.1114715636 0.7105892301 0.1211563498 0.6004896164 -0.7866252065
0.05731865391 -0.1421723217 0.6986422539 0.3305724263 -0.1592342705 -0.8986141682
-0.002363975393 -0.1051383615 0.716150403 -0.2349984199 0.5752969384 -0.7803236842
0.003656495363 -0.1045588851 0.7154306173 -0.1281996816 0.5898470879 -0.7949229479
-4.636482481e-05 -0.09918462485 0.7188492417 -0.2283101082 0.593061924 -0.770958662
0.05890509486 -0.1496777982 0.7098677754 0.5814649463 -0.1367723942 -0.7996631861
0.06150441244 -0.1401086152 0.7052990794 0.3199097216 -0.1926060468 -0.8865141869
0.06242382154 -0.1456662267 0.7103033662 0.5377428532 -0.1101290658 -0.7341659069
0.05844223872 -0.1460744143 0.705019474 0.4986744523 -0.09530415386 -0.8211577535
0.0659276396 -0.1350948662 0.7055309415 0.1432533264 -0.08570149541 -0.7892294526
0.06712029874 -0.1288658082 0.7013272047 -0.2144956738 -0.06403926015 -0.8719246387
0.06659611315 -0.1405848712 0.7104807496 0.402597934 -0.02630630881 -0.6452792287
0.06852889806 -0.1442855895 0.7162879705 0.5713248253 0.1183076501 -0.4438935518
0.06678534299 -0.1398524046 0.7182661891 0.6074840426 0.1962779611 -0.3987809122
0.06900328398 -0.1356384158 0.7115114331 0.1708452553 0.1450321823 -0.548489809
0.07020809501 -0.1294733584 0.7061749101 -0.2200069875 0.1360522658 -0.6661297083
0.06555179507 -0.1328840703 0.7205840945 0.5330421329 0.2659248114 -0.487264961
0.06705512106 -0.13040483 0.7156088948 0.2407324165 0.2302618474 -0.5668038726
0.06354667246 -0.1324223727 0.7265533805 0.7928158641 0.3302794099 -0.4479087293
0.06763688475 -0.1245090812 0.7128104568 -0.04281194136 0.2384509146 -0.6849958897
0.06514403224 -0.1261427701 0.7206222415 0.3563695848 0.3086245656 -0.5969731212
0.06910474598 -0.1244001687 0.6987828612 -0.3484845161 0.08260858804 -0.8586424589
0.05795194954 -0.1353277266 0.6964304447 -0.01400622632 0.04334454238 -0.8633157611
0.06272593886 -0.124293372 0.6980392337 -0.3746094704 0.1380895972 -0.873826623
0.05206083134 -0.1497824192 0.6947560906 0.4790337682 -0.1094163433 -0.8589425683
0.06249867007 -0.1331646591 0.7010581493 0.1210101992 -0.2233145833 -0.9589256644
0.0598253943 -0.1300965548 0.6968027353 -0.2021309435 0.1132763252 -0.8605554104
0.03595998138 -0.1848136336 0.7959205508 0.4348830581 -0.5032694936 0.7466535568
0.03970522061 -0.1765523106 0.8002595901 0.4475704134 -0.4821710289 0.7527347803
0.04443336278 -0.179356575 0.7905653715 0.5601558089 -0.4956496358 0.6543629169
0.0398327522 -0.1809470356 0.7953851223 0.4702134728 -0.5002793074 0.7261464596
0.03372909129 -0.1791097075 0.801289022 0.3977401853 -0.502078414 0.7673513293
0.03621564806 -0.1702067852 0.8040206432 0.3998010159 -0.4872273505 0.7746755481
0.02388103493 -0.1893063337 0.79715693 0.2160631418 -0.5610684156 0.7975928783
0.01836934686 -0.1906197071 0.7966912985 0.1410387754 -0.5736399293 0.8042800426
0.02087431774 -0.1963554025 0.7930375934 0.1915843785 -0.5652403831 0.7994090915
0.01492080558 -0.1956035048 0.7949020863 0.09107843786 -0.5780661106 0.8106784821
0.009896988049 -0.1988956481 0.7923403382 0.01194639318 -0.5823420882 0.8096387982
0.008565530181 -0.1896498799 0.8003875017 -0.02067642473 -0.588128686 0.8066597581
0.02989518456 -0.1834968626 0.7996891141 0.3348923326 -0.5226312876 0.7805523276
0.02393558808 -0.184009552 0.8002185225 0.2146492302 -0.5520119071 0.804364562
0.01760700904 -0.1814379841 0.804492414 0.1387411356 -0.545661211 0.8247594237
0.01180382445 -0.1770986915 0.8082709908 0.05221033469 -0.5278633237 0.8432349563
0.009866077453 -0.1837285906 0.8042812943 0.01827516407 -0.5485644937 0.8315332532
-0.01297905948 -0.1685315371 0.8073467612 -0.3303578496 -0.50275141 0.7959392071
0.04243648797 -0.1099559292 0.722089529 0.4995918572 0.5213268995 -0.6901816726
0.04748528451 -0.1131684631 0.7242918611 0.542329669 0.5153923631 -0.6605033875
0.05568249896 -0.1161977798 0.730787158 0.6299006939 0.3755546808 -0.6710843444
0.05744826421 -0.1215923205 0.7288626432 0.6469799876 0.4872591496 -0.5850269794
0.04638579488 -0.1078726724 0.72603935 0.5077493191 0.4735834897 -0.7142873406
0.05193751305 -0.1094932482 0.7310295105 0.5608327389 0.3175631166 -0.7545722127
0.04987443611 -0.1037761718 0.7319232821 0.5165151358 0.2587623298 -0.8117806911
-0.0239881631 -0.08645292372 0.7452812791 -0.6077370644 0.539000988 -0.5823454857
-0.02068591118 -0.090172261 0.7396223545 -0.5651788116 0.5507800579 -0.6102722883
-0.01557016745 -0.08751898259 0.7377581 -0.4961781204 0.581063211 -0.6424408555
0.06594316661 -0.09805830568 0.7072749734 -0.5922774076 0.4524371326 -0.6118109226
0.04946761578 -0.09805301577 0.7362843752 0.4199932814 0.3758900464 -0.8093438148
0.04592446983 -0.09296718985 0.7364856005 0.3324698508 0.4432179928 -0.8309190273
0.05056668073 -0.09370829165 0.74108392 0.4336870909 0.4090301394 -0.7906878591
0.03641724214 -0.08414890617 0.7351012826 0.2097151279 0.45719257 -0.7200022936
0.04286538064 -0.08413878083 0.7333803773 0.142282024 0.03996053338 -0.5037087798
0.03387798741 -0.07925002277 0.738127172 0.186805144 0.5563111305 -0.73686409
0.05549596995 -0.08518145233 0.7302309275 0.03680483252 -0.7227208614 -0.1239442378
0.05937736109 -0.1100212485 0.6998215914 -0.474237293 0.4035000503 -0.7129499912
0.05543580279 -0.1166404933 0.6981387734 -0.3039004505 0.2176220864 -0.8810846806
0.03765902296 -0.1126362979 0.7063214183 -0.001661585644 0.4883417785 -0.7778842449
0.0463431254 -0.1143062711 0.702457428 -0.153245613 0.3654648662 -0.8210184574
0.04675658792 -0.1337403804 0.7072026134 0.4545407891 0.4825177491 -0.7119852304
0.04708595201 -0.1285634339 0.7109359503 0.3884009123 0.5915777683 -0.6548577547
0.05598900095 -0.1420196295 0.7110018134 0.7017627954 0.1668916196 -0.6575383544
0.0533166565 -0.1296634525 0.7173466682 0.5757847428 0.4525022209 -0.6018019319
0.05567622185 -0.1357093155 0.7154362202 0.665563345 0.2936436236 -0.6179054379
0.04959020019 -0.1237010062 0.7175049782 0.4372414351 0.6383817196 -0.5963407159
0.004313386977 -0.1734957993 0.8115410209 -0.08139328659 -0.5312479138 0.843042016
0.001670920057 -0.1679440141 0.8104262948 -0.09772133082 -0.4977242649 0.8464844823
0.004405800253 -0.1783722192 0.8077932596 -0.07860133052 -0.5186952949 0.850553453
-0.005979110487 -0.1696835607 0.8097786307 -0.2072586566 -0.4999100566 0.8394747972
-0.03504086658 -0.179660067 0.7799201608 -0.6924237609 -0.3724465966 0.6150647402
-0.03070982546 -0.1795522571 0.7866609693 -0.6477240324 -0.4271456003 0.6297891736
-0.03845230117 -0.1730035394 0.7797480822 -0.7100524902 -0.3608348966 0.6002306938
-0.003516692203 -0.184410274 0.8019323945 -0.217281267 -0.560600698 0.7979664207
0.002078998601 -0.182766974 0.8034589291 -0.114404805 -0.5507721901 0.8228852749
-0.002333218697 -0.1757742465 0.806099534 -0.1701212674 -0.5255644321 0.8284158111
-0.01553852297 -0.1932011545 0.7903774381 -0.4220640063 -0.4989281297 0.7550739646
-0.01685523055 -0.1874666661 0.7928007841 -0.4429733753 -0.5166683197 0.7254148126
-0.0222154893 -0.1878373325 0.7894203663 -0.5475530028 -0.4773786664 0.6848387122
-0.0289817974 -0.1904512346 0.7817787528 -0.6460683346 -0.3856298029 0.6541674733
-0.02687739022 -0.1864667684 0.7852396965 -0.6228826046 -0.4240747392 0.6564821005
-0.02648442611 -0.2033706605 0.7804594636 -0.5351907015 -0.429125905 0.7249698639
-0.01944903284 -0.1996309459 0.7835066319 -0.4633501768 -0.4591184258 0.7562321424
0.008951073512 -0.1036435142 0.7155601978 -0.0342948772 0.5965655446 -0.7976982594
0.01822328195 -0.1040764451 0.7157054543 0.1091196314 0.5970000029 -0.792141974
0.02269752696 -0.1016784161 0.7185284495 0.1709477603 0.596224606 -0.7814323902
0.01671184786 -0.09895721078 0.7187044621 0.09467231482 0.6065759063 -0.7866004109
0.02491900697 -0.09737044573 0.7227801681 0.200527817 0.5866978168 -0.7837517262
0.02389262244 -0.1138704419 0.7093107104 0.2135044038 0.5894339681 -0.77711761
-0.007920864038 -0.126369983 0.7020005584 -0.3234133124 0.5705622435 -0.7494750619
-0.009746461175 -0.1221183538 0.7061113119 -0.3531225622 0.5639712214 -0.7420762181
-0.0003733507183 -0.1172554716 0.7063205242 -0.2115475833 0.5791119933 -0.7844324112
0.006319594104 -0.1086814255 0.7121301889 -0.08614978939 0.5932428837 -0.797549665
0.01161862351 -0.1086518317 0.7122712731 0.01370585524 0.6007210016 -0.7951466441
0.002273204969 -0.1130308211 0.7091691494 -0.1641397923 0.5843788981 -0.7921470404
-0.005287315231 -0.1144154891 0.7108059525 -0.2792772353 0.570070684 -0.7689059973
0.05283860862 -0.1428604275 0.7064788342 0.6293103695 0.1118178442 -0.734154582
0.02954379097 -0.1707869321 0.8066577315 0.3065566421 -0.5000399351 0.8013504744
0.02061930485 -0.1755352467 0.8065505624 0.175002858 -0.5305253267 0.8271420598
-0.03496068716 -0.1717376262 0.7859224677 -0.65574193 -0.4140797555 0.6304522157
-0.03196280077 -0.1732447743 0.7900263071 -0.630972147 -0.4321884811 0.643961072
-0.02508980595 -0.1698858887 0.8005930185 -0.5116071105 -0.4732609391 0.7118182778
0.02618813701 -0.07832868397 0.7373360991 0.1819882989 0.6366323233 -0.7475306392
0.0302709993 -0.08382790536 0.7348492742 0.2165514976 0.5940553546 -0.7730963826
0.05914409086 -0.09972244501 0.7100844979 -0.3708775938 0.4733407199 -0.6442282796
0.04765427113 -0.1017242372 0.7158197761 0.01134385075 0.5153206587 -0.6931866407
0.05341902375 -0.1007802114 0.7128400207 -0.1831359267 0.4941792786 -0.6685320139
0.04806219786 -0.1057594642 0.7109758258 -0.08928593993 0.4886302352 -0.6969803572
0.05533392727 -0.1053875834 0.7072885633 -0.3100664914 0.4484010935 -0.6720279455
0.02816247381 -0.1069515795 0.7161393166 0.2536312342 0.5831180215 -0.7678714991
0.0616279915 -0.1052523702 0.7039262056 -0.5009239912 0.4130095541 -0.6525091529
0.06598141789 -0.1076169685 0.6992552876 -0.6260425448 0.3846504986 -0.6709032059
0.03904233873 -0.1077302694 0.7139444947 0.1689219028 0.5314199924 -0.7393608689
0.05005575716 -0.1092028096 0.7054919004 -0.2079588771 0.4672896862 -0.7206648588
0.03383697942 -0.1102957278 0.7111695409 0.1524148881 0.5510669947 -0.7535322309
0.04215996712 -0.1099695042 0.7077689171 -0.04652011022 0.5073078871 -0.7370494604
0.03475105017 -0.1084345952 0.7178112864 0.3751829863 0.5582776666 -0.7375989556
0.03464971855 -0.1034558937 0.7209271789 0.3493531048 0.5616564155 -0.7474124432
0.03172229603 -0.08903002739 0.7314118743 0.2469637245 0.5846756101 -0.7710632086
0.04184915125 -0.1013075635 0.7265788317 0.3990222514 0.4892500043 -0.7711401582
0.04256861657 -0.09958328307 0.7204689384 0.1507573575 0.5455248356 -0.7054619193
0.035457775 -0.09803994745 0.7247229218 0.3280906677 0.562104404 -0.747888267
0.04169952124 -0.09632123262 0.7314014435 0.3533559144 0.4398248494 -0.8111007214
0.06120881438 -0.09326905012 0.7144980431 -0.4767919183 0.5019369125 -0.5925657749
0.05132674426 -0.09356048703 0.71949476 -0.1866788119 0.5135401487 -0.648242712
0.05698976666 -0.08982902765 0.7204313874 -0.3220768571 0.2684830725 -0.5197586417
0.06365921348 -0.08803381026 0.7180448174 -0.5552082658 0.3031904101 -0.5015553832
0.0578398779 -0.08767843992 0.7254572511 -0.1014576778 -0.5382170081 -0.1790764779
0.04290798679 -0.0941208899 0.7240795493 0.1048331037 0.4068498611 -0.646481812
0.05150657147 -0.09015456587 0.7255840898 0.0194412712 -0.2455964983 -0.3321779966
0.04014425725 -0.09044557065 0.7302234173 0.2172726989 0.2388729751 -0.6112915874
0.04707376659 -0.08882091194 0.7294719219 0.1349327266 -0.2080542892 -0.3832403421
0.04056569934 -0.08185452223 0.7415515184 0.287627846 0.5255993605 -0.7991992235
0.04718061909 -0.08368767053 0.738645196 0.2346082479 0.1155417785 -0.5865941048
0.05147203431 -0.0843866244 0.7338817716 0.1205853596 -0.3464487791 -0.3311891556
0.04347727448 -0.08783338964 0.7384787202 0.2786048651 0.5088903904 -0.8115722537
0.0376996696 -0.1197333932 0.7111077309 0.3211506903 0.6267498136 -0.7074756026
0.03914919496 -0.1134806797 0.7170462608 0.4485966861 0.5516560078 -0.7000530958
-0.01421551406 -0.1829335988 0.797950983 -0.4009221196 -0.5417012572 0.7382457256
-0.009336140007 -0.1883107424 0.7965363264 -0.3150941432 -0.5463521481 0.7718939185
-0.007975352928 -0.1777757108 0.8040731549 -0.2793264091 -0.5336488485 0.793959558
-0.01348536927 -0.1781239957 0.8018692136 -0.393094033 -0.5250611305 0.7540308833
-0.01530211978 -0.1729197502 0.803933382 -0.401273489 -0.5116876364 0.7591083646
-0.02745465003 -0.171560362 0.7950617671 -0.5589413643 -0.4519627392 0.6826407313
-0.0201769378 -0.1742661297 0.7993525863 -0.4787731767 -0.4897181094 0.7195843458
0.04995558411 -0.1180913672 0.7000479102 -0.1455041766 0.27417624 -0.870904386
0.03139378875 -0.1157321632 0.7081717849 0.214154169 0.5382164121 -0.7781165838
0.02326982655 -0.1228065789 0.7030413151 0.2161188126 0.603228569 -0.7652502656
0.01999429241 -0.1192033812 0.7047824264 0.1603153199 0.5995180011 -0.7808737755
0.03387205303 -0.1312298775 0.7009440064 0.3030169904 0.5659890175 -0.7646035552
0.02880135551 -0.1261346191 0.7026047707 0.2703415453 0.5885753036 -0.7604997754
0.03378442302 -0.1227233782 0.7004767656 0.08276255429 0.4797549546 -0.803694129
0.04318105057 -0.1219892874 0.697725296 -0.08932670206 0.3492721319 -0.8503298163
0.04177936167 -0.1191207692 0.7034222484 0.0741982013 0.413107425 -0.8132703304
0.03166314214 -0.1217734143 0.7061967254 0.3100030422 0.5852409601 -0.7486237288
0.01732918248 -0.124545224 0.7005488276 0.1138830855 0.6129342914 -0.7779701948
0.02179206721 -0.1701692194 0.8107447624 0.1586719751 -0.501314044 0.8492732048
-0.01420843229 -0.09482558817 0.7304596901 -0.434168309 0.582726717 -0.6803621054
0.01144901384 -0.09708114713 0.7196214199 0.01542337891 0.6125041246 -0.7871354818
0.04458587617 -0.1218255684 0.7142730951 0.3696137965 0.662769258 -0.6395196915
0.05260406435 -0.1208092421 0.7233892679 0.585344851 0.5630215406 -0.5793107748
0.04555156082 -0.1159644499 0.7198922634 0.5095977783 0.5565264225 -0.6544244885
0.01859646849 -0.08176091313 0.73331213 0.1068833396 0.6450570822 -0.7550403476
0.02026097104 -0.07676237077 0.7374483347 0.1236073747 0.6604195237 -0.73886168
-0.007218501065 -0.09224493057 0.7281655073 -0.3139638901 0.6072400808 -0.7286963463
0.002656809054 -0.08895732462 0.7275398374 -0.1292461455 0.6284685731 -0.7598506808
0.002536505461 -0.09508795291 0.7220622301 -0.1599199921 0.6048920751 -0.7762693167
0.007492822595 -0.09274627268 0.7240605354 -0.0656979382 0.6111014485 -0.7861177921
0.01424134057 -0.09291522205 0.7232075334 0.04644871131 0.6240305901 -0.7795328498
0.01107274648 -0.08850587904 0.7270640135 -0.005511634983 0.6329228282 -0.7718032002
0.005768665113 -0.08151830733 0.7333413959 -0.09010886401 0.6704833508 -0.7311218381
-8.492916095e-05 -0.0795571655 0.736269474 -0.2125020623 0.6886929274 -0.6868327856
0.01318977587 -0.08264698088 0.7322252989 0.03249359876 0.6521324515 -0.7533605695
0.01051900256 -0.07687769085 0.7365978956 -0.01757448167 0.6805145144 -0.726642549
0.01864271238 -0.08712299913 0.7290025353 0.1108750626 0.6263305545 -0.7695310116
0.0258043278 -0.09144137055 0.7271866798 0.2148301303 0.597633481 -0.7686228156
0.01976244897 -0.09267862886 0.7257010341 0.1347812265 0.602580905 -0.7826224566
0.03066657111 -0.0939071402 0.7268958688 0.2763358653 0.5797790289 -0.7623108625
0.026469009 -0.0866926387 0.7311819196 0.202674076 0.6102585793 -0.764552772
-0.004274738487 -0.08736953884 0.7312533855 -0.2647030056 0.6277216077 -0.7253758907
0.0008130188216 -0.08481153846 0.7314213514 -0.177181378 0.6506623626 -0.7329720855
