# .PCD v0.7 - Point Cloud Data file format
VERSION 0.7
FIELDS x y z normal_x normal_y normal_z
SIZE 4 4 4 4 4 4
TYPE F F F F F F
COUNT 1 1 1 1 1 1
WIDTH 512
HEIGHT 1
VIEWPOINT 0 0 0 1 0 0 0
POINTS 512
DATA ascii
0.008794898167 -0.1708615124 0.7627581954 -0.1365941763 -0.5763357878 0.8016055822
-0.0299149882 -0.09054987878 0.7049227357 0.679823339 -0.5295268893 0.5073368549
-0.02499444783 -0.08611541986 0.7035571933 0.6712238193 -0.525975883 0.5222818851
-0.0323702246 -0.09158942848 0.7107820511 0.6925355196 -0.5158339739 0.5038856864
-0.041817002 -0.1960059255 0.7014093995 -0.7801672816 -0.356695354 0.5138311386
-0.03814239427 -0.2008185983 0.70658952 -0.7748807073 -0.3571350276 0.5215313435
0.004390067887 -0.1736361384 0.759786427 -0.1828165799 -0.578458786 0.7946527004
0.001262187259 -0.1687605083 0.7610821724 -0.2115852088 -0.5740160942 0.7863336802
0.009724108502 -0.1770766377 0.7583212852 -0.08647029102 -0.5780124068 0.8055204749
0.01561637316 -0.1700340658 0.7636278272 -0.02025106363 -0.5723426938 0.8188641071
0.05450647697 -0.09062529355 0.6900426745 -0.2885232568 -0.6124511957 0.6546674967
0.05876224861 -0.08810003102 0.6935648918 -0.2216451615 -0.662735939 0.6225349307
0.05035687611 -0.08522318304 0.6947162747 -0.4267763197 -0.6180164814 0.6590050459
-0.02841261216 -0.09322908521 0.7001233101 0.6837925911 -0.5243481994 0.5067631006
-0.03268420324 -0.09626384825 0.7057310939 0.7060537934 -0.5063930154 0.4945685863
-0.0263580624 -0.095658198 0.6951526403 0.670580864 -0.5245956779 0.523917079
-0.03442584723 -0.1299706697 0.6770602465 0.7512684464 -0.4443208575 0.4874914587
-0.02503161877 -0.1737893671 0.7418147922 -0.6203277707 -0.4467952549 0.6300568581
-0.04176704213 -0.1226245165 0.6977801919 0.7872730494 -0.4185552597 0.452676028
-0.04176091775 -0.1271887273 0.6922341585 0.784160614 -0.4176158011 0.4588941038
-0.0417082049 -0.1409650892 0.6799383163 0.7704716921 -0.425221324 0.4740256965
-0.04198370129 -0.1363287866 0.6854978204 0.7811319232 -0.4179006815 0.4631190002
-0.03249750286 -0.1002534181 0.7002093792 0.7262278795 -0.486854732 0.484588176
-0.001464604284 -0.1737568229 0.7563625574 -0.2748808563 -0.5687259436 0.7691444159
0.0007062633522 -0.1796167046 0.7551980019 -0.2591937482 -0.5657966733 0.7791327238
0.005475982092 -0.08013445884 0.687518537 0.1933798492 -0.6856220365 0.6970955729
0.0005579888239 -0.08257149905 0.6873185635 0.2739232183 -0.6701300144 0.6816975474
-0.005514543504 -0.08321802318 0.6902130246 0.3898509443 -0.6476596594 0.6529628634
-0.009890527464 -0.1397244483 0.6407936215 0.3774372041 -0.5651220083 0.7269613743
-0.02610403113 -0.2099241912 0.7140677571 -0.6426671147 -0.4035422802 0.6325436234
-0.02096350305 -0.2140320539 0.7180364728 -0.5739005804 -0.4302473962 0.6916485429
-0.03118269518 -0.2062957585 0.7122057676 -0.6923334599 -0.3893801868 0.5930969715
0.005901676137 -0.1345708668 0.6392899752 0.173159793 -0.6385777593 0.7482561469
0.01183190849 -0.1356501579 0.6377668977 0.08032497019 -0.6656810045 0.7379507422
-0.004641330801 -0.1379202008 0.6415056586 0.305909723 -0.6004753709 0.7335938811
4.794755296e-05 -0.136601299 0.6369168758 0.2453149855 -0.600012064 0.7595456839
0.0681893155 -0.09356335551 0.6950572729 -0.06651388854 -0.5995823741 0.6670764089
0.06419729441 -0.09213981032 0.6986640096 -0.2712629437 -0.5592807531 0.7060084939
0.07501730323 -0.1020910144 0.6929076314 0.32741943 -0.3192467093 0.8299197555
0.07486400753 -0.09603087604 0.6896834373 0.284640193 -0.646592021 0.6227657199
0.07186229527 -0.09593881667 0.7015752792 -0.01488528028 -0.4198337495 0.8275533319
-0.03549678624 -0.176788941 0.7252622247 -0.7617513537 -0.3629871011 0.5356780291
-0.01058378164 -0.2181643695 0.7216231227 -0.4084295332 -0.4810621142 0.7488148808
-0.04326064885 -0.1634179205 0.7015019059 -0.321328938 -0.3472935855 0.4973903
-0.04281717166 -0.1576396525 0.6864961386 0.2096388489 -0.3913035095 0.4976136088
-0.04245417565 -0.1478735507 0.6789865494 0.6626657844 -0.4215404391 0.4865055084
-0.04255448654 -0.1376873553 0.6932724118 0.5846000314 -0.3983821869 0.4606893361
-0.04242151231 -0.1524853408 0.6731075644 0.6833502054 -0.4305689633 0.4978148341
-0.04323453084 -0.1676131785 0.6963199377 -0.3066445887 -0.355096221 0.5075713992
-0.04268665612 -0.147893697 0.6897043586 0.3953254819 -0.3950127065 0.4796429276
-0.04252715036 -0.1434555054 0.6865436435 0.5949295759 -0.4081306159 0.4744327068
-0.0434040688 -0.1700714678 0.7018202543 -0.5105416179 -0.3385579288 0.5080448985
-0.04258473963 -0.1450400352 0.6971446276 0.294611603 -0.3812518418 0.4712370634
-0.04259898514 -0.1504859924 0.6996999383 0.08765457571 -0.369345516 0.4792577922
-0.04350662604 -0.1751092225 0.706985414 -0.7747741342 -0.3202345669 0.5133913755
-0.04005175456 -0.1532480419 0.6809698939 0.4330868721 -0.4132581949 0.4998427927
-0.04135389253 -0.1576072723 0.7012759447 -0.1601226628 -0.3576800823 0.4930279553
-0.04132694751 -0.1615873128 0.696590662 -0.1521688849 -0.3655422926 0.5028098226
-0.04070996866 -0.1549520642 0.6917577386 0.1337576509 -0.3843404651 0.4952148497
-0.01181327272 -0.1050664932 0.6745218635 0.4454898238 -0.6016720533 0.6588147283
-0.006956100464 -0.1059173346 0.6704845428 0.3658006489 -0.6276921034 0.6814810038
-0.03622711077 -0.09612073004 0.7138237953 0.7133812904 -0.4969854057 0.4930906594
-0.04004416242 -0.1044372842 0.7114710212 0.758818388 -0.4443422854 0.4758760333
0.02839998528 -0.1067176759 0.6664977074 -0.203774333 -0.6282975078 0.7479712963
0.01697636209 -0.1764542311 0.7597977519 0.0376637429 -0.5768501759 0.8145694733
0.03235218674 -0.1163613796 0.6611872315 -0.2935820818 -0.6165696383 0.7194626331
0.0365062058 -0.1220339462 0.6570105553 -0.3662579656 -0.6028837562 0.7036800981
0.01580166444 -0.07854449749 0.6871028543 0.0217405241 -0.6933966279 0.7198206782
0.02288109995 -0.07835996151 0.6874201298 -0.1046409979 -0.6873198152 0.7161927223
0.02957317233 -0.07889097929 0.687767446 -0.2247606218 -0.6698961258 0.7046042681
0.03459712863 -0.1063493863 0.6669755578 -0.2894388735 -0.6011730433 0.7448438406
-0.03741861135 -0.1488877088 0.6669786572 0.7298419476 -0.4496619403 0.5136338472
-0.03385585919 -0.1450005323 0.6604114175 0.7046598196 -0.4638049603 0.5349097848
-0.02098067664 -0.142315343 0.6482573748 0.5688721538 -0.4948515892 0.6500024199
-0.02583854087 -0.1429313272 0.6514861584 0.6403775215 -0.4702730775 0.6066141129
-0.01339004561 -0.1347912103 0.6478877068 0.4605807662 -0.5723336339 0.676686883
-0.0147105027 -0.1409067512 0.6448382139 0.4461997151 -0.558518827 0.6979371905
-0.007921218872 -0.1324056983 0.6474198699 0.3704951108 -0.6072678566 0.7023316026
-0.006064668763 -0.1267116517 0.6501919031 0.3317342103 -0.626221478 0.7044041157
-0.03887093067 -0.1946066916 0.7096261382 -0.7780728936 -0.3477122486 0.5230126381
-0.03613104299 -0.1789270043 0.7175449133 -0.781470716 -0.3348709345 0.5229801536
-0.02952943556 -0.1812257767 0.7275274396 -0.710283637 -0.4062201083 0.5665975213
-0.006865828298 -0.1757976413 0.7550091147 -0.3764184713 -0.5411993265 0.7511695027
-0.007060907781 -0.2209637463 0.727134645 -0.3186298013 -0.5152301192 0.7920862436
0.06241129711 -0.1234759018 0.6786090732 -0.640637815 -0.4510023594 0.5989977121
0.04984453321 -0.1263555139 0.6616651416 -0.4881823659 -0.5619239807 0.6637412906
0.03100390173 -0.1198563501 0.6544567347 -0.2697071731 -0.6391861439 0.7181321979
-0.03609761596 -0.1258646995 0.682759881 0.7633273602 -0.4377199709 0.4750387073
-0.03716385365 -0.1014532223 0.7060005069 0.7356415391 -0.4761406481 0.4787658453
-0.04128732532 -0.1106434166 0.7061172128 0.7776885629 -0.4307987988 0.457708478
-0.04117406532 -0.1624839753 0.6826533079 0.1327459067 -0.3735695779 0.4830104709
-0.0423524864 -0.1709892005 0.6876379251 -0.227890417 -0.3132483661 0.4464650452
-0.04405675456 -0.1811816245 0.7012756467 -0.8291535974 -0.2580679655 0.441935271
-0.04165397957 -0.1643116772 0.6896727681 -0.07597951591 -0.3738835752 0.5056307316
-0.04372524098 -0.1754335612 0.6985982656 -0.5931489468 -0.3001448512 0.4695273638
-0.04282102361 -0.1593282223 0.6779819727 0.3664328754 -0.3884886503 0.4788749218
-0.04425501078 -0.1823817044 0.6954458356 -0.7310859561 -0.2348254323 0.402893573
-0.04352989793 -0.1791069508 0.690793097 -0.5347954035 -0.252038449 0.4032076597
-0.041967839 -0.1680652648 0.6827548146 -0.0315627493 -0.3268363476 0.4425823987
-0.04391142726 -0.1893367618 0.6977950931 -0.8596391082 -0.2561919093 0.4262943268
-0.002217307687 -0.1011533365 0.672301352 0.2998907864 -0.6357114315 0.7096673846
-0.003229554044 -0.09748219699 0.6762462854 0.3193154037 -0.6258673668 0.7105972767
0.0258674603 -0.1116274074 0.660208106 -0.1811699718 -0.6405447721 0.7442359924
0.030799428 -0.1102175042 0.6626502275 -0.2479934543 -0.62118119 0.7402330041
-0.008567428216 -0.08720245212 0.6876218319 0.4141223431 -0.630692482 0.6540067792
-0.01707601361 -0.1153130755 0.6678140163 0.512986362 -0.5844455361 0.6266961098
-0.008477831259 -0.1687532812 0.7574136257 -0.3531030715 -0.5561814308 0.749894917
-0.004348719027 -0.1699873507 0.7620620131 -0.2926767766 -0.5542826653 0.7770443559
-0.01623684913 -0.1747560799 0.7470654249 -0.4981253147 -0.5134519935 0.6951885223
-0.01524812542 -0.1701166779 0.7525594234 -0.4476939142 -0.5346081853 0.7135760188
0.02196773514 -0.1703776568 0.7632459998 0.1011526138 -0.5595452189 0.8212403059
0.03159698099 -0.1764590442 0.755892396 0.2929811478 -0.5623954535 0.7711430788
0.02684332058 -0.1739202142 0.759766221 0.1845228821 -0.5666808486 0.7950880527
0.06254141778 -0.1182637885 0.682938695 -0.6525171995 -0.3810558021 0.6503709555
0.05635580793 -0.1144326553 0.6772764325 -0.6086868048 -0.4867034853 0.6235679984
0.05804604664 -0.1193358153 0.6757357717 -0.6271463037 -0.5323204398 0.5612941384
-0.01892793737 -0.1309464574 0.6551844478 0.5366240144 -0.5549879074 0.6334569454
-0.02225212008 -0.1361328661 0.6525768638 0.5785820484 -0.531211555 0.6173278689
-0.02517356537 -0.1186547875 0.6739390492 0.6534199715 -0.5106397867 0.5549609661
-0.02096557803 -0.1197871417 0.6690412164 0.5934224725 -0.5365782976 0.5832233429
0.02244225703 -0.116092898 0.6562319398 -0.1279953271 -0.6548771858 0.7418609858
-0.03736725077 -0.1386881173 0.6741765738 0.7583491206 -0.4395420849 0.4811500013
-0.03793432564 -0.1354543865 0.6785644293 0.7679356337 -0.4325778782 0.4720896482
-0.03909976408 -0.1452288628 0.6740834713 0.7532954812 -0.437166214 0.490719825
0.08970815688 -0.1263752133 0.6590870023 0.6953061223 -0.5053915977 0.4564373493
0.07788352668 -0.1318234503 0.6698684692 0.01188672893 -0.5686758757 0.5017781854
0.08295125514 -0.1288394928 0.6668986678 0.2459395081 -0.5361455679 0.4697507322
0.08974459022 -0.1232117563 0.663771987 0.5887745023 -0.5067782998 0.4655159116
-0.03295938298 -0.1389918625 0.6646239758 0.7290549278 -0.4602918327 0.5064108968
-0.03668803349 -0.1417466253 0.6686400771 0.7424082756 -0.4502068162 0.4957000911
-0.01333787572 -0.1301610917 0.6525270343 0.4444297552 -0.5894847512 0.668168366
-0.03343782946 -0.2004201561 0.7106687427 -0.7659664154 -0.3598965704 0.5324678421
-0.03151844442 -0.1767889112 0.7323935628 -0.7493951917 -0.3700612485 0.5477728248
0.05874317512 -0.08951922506 0.6992134452 -0.4083238244 -0.5746331215 0.7024996877
0.07421717793 -0.1087782681 0.6904197931 0.08607067913 -0.3056917191 0.7967830896
0.06574246287 -0.1161490157 0.6883394122 -0.5795161128 -0.3217282891 0.7465159893
0.0845688507 -0.1102813184 0.6750431657 0.3005720675 -0.38491413 0.592225492
0.07954049855 -0.1129492596 0.6808233857 0.08030468971 -0.3266996443 0.6358575225
0.08111557364 -0.1049394682 0.6818415523 0.518705368 -0.3298954666 0.6363725662
0.08784849942 -0.105343163 0.6725341678 0.6089090705 -0.416179359 0.5700893998
0.07428894937 -0.1147579476 0.6872456074 -0.09939733893 -0.2638517022 0.6833590269
0.07331001759 -0.1232602745 0.6851878762 -0.5288407803 -0.2687461674 0.6755513549
0.09022243321 -0.1094814911 0.6674778461 0.5727125406 -0.4521271586 0.5358896852
0.08283809572 -0.1155231595 0.675198257 0.09190960228 -0.3720819652 0.5967872143
0.06861643493 -0.1066303775 0.6985475421 -0.4856564701 -0.399934411 0.7753995061
0.06525459886 -0.09991971403 0.6981993914 -0.4476355314 -0.4402118027 0.7777294517
0.06623443961 -0.09404057264 0.7047221661 -0.379534632 -0.4319291115 0.8059116602
0.07044164836 -0.1017544791 0.7037385702 -0.2788849473 -0.3239528239 0.8820107579
0.06990098953 -0.1132328212 0.6959100366 -0.5291546583 -0.3575950563 0.7665314078
0.07091735303 -0.118190825 0.6918661594 -0.5529096723 -0.3044413626 0.7425247431
0.06182043627 -0.1025595888 0.6929716468 -0.4831960797 -0.4587657154 0.7437692881
0.06042781845 -0.09673984349 0.6964905858 -0.4684259892 -0.4935826361 0.7303981781
0.0563313365 -0.09585122019 0.6927223802 -0.4797501862 -0.5329190493 0.6964130402
0.0803361237 -0.1215374991 0.6554191709 0.4134116173 -0.4985565841 0.750895679
0.08321797848 -0.09788876027 0.6774778962 0.6290712953 -0.466271013 0.6199733019
0.07824083418 -0.1008106172 0.6873437166 0.6812619567 -0.2860931754 0.6723340154
0.08793207258 -0.0981766656 0.6682428718 0.6578401327 -0.4584845304 0.5971426368
0.09078294784 -0.1119899079 0.6625617146 0.6798698306 -0.4907176793 0.5374071002
0.0273527652 -0.1326434314 0.6417230368 -0.2346608788 -0.6681076288 0.6985270381
0.01748318411 -0.1284960508 0.6451023817 -0.02152822725 -0.690105021 0.7199656367
0.02412166446 -0.128049776 0.6454587579 -0.1465868205 -0.6918323636 0.7052099705
0.04033697024 -0.1414198577 0.6513910294 -0.4372163713 -0.5162298679 0.7039048672
0.0338427797 -0.1322501153 0.6501643658 -0.3164371848 -0.5986632109 0.7068114877
0.02901722305 -0.1237759665 0.6506349444 -0.236657545 -0.651186645 0.7157379389
-0.03116229363 -0.1219241098 0.6783961058 0.7324021459 -0.4543729722 0.5068944693
-0.03783024102 -0.1220671535 0.6928198338 0.7797594666 -0.4190128148 0.4649943411
-0.03807336465 -0.1174343303 0.6980938315 0.781865418 -0.4210337996 0.4597063065
-0.04134353623 -0.1896530092 0.7045798898 -0.791515708 -0.3382458985 0.5089039207
-0.03628308326 -0.1892093867 0.7119099498 -0.7903217077 -0.3360612392 0.5121603012
-0.04065694287 -0.1768548042 0.7119778395 -0.793815434 -0.3216837943 0.5160266757
-0.04139968008 -0.1824275106 0.7070426941 -0.7958638072 -0.3277249038 0.5090131164
0.05266916752 -0.1055990905 0.6813670993 -0.5250512958 -0.4851216376 0.6959067583
0.06301470846 -0.1027487516 0.6726566553 0.05367055535 -0.5080972314 0.6424665451
0.01317198668 -0.08511738479 0.6819784045 0.06059832498 -0.6562533379 0.7515310049
0.02097457647 -0.0894408375 0.6789556742 -0.09364708513 -0.6397770643 0.7574294209
0.02446098998 -0.0858515501 0.6822368503 -0.1231835112 -0.6417139769 0.7564334869
-0.03396930546 -0.1079934239 0.696500659 0.7512708902 -0.4562111199 0.4759675562
-0.03808370605 -0.1110931709 0.6991851926 0.7676287889 -0.4346903265 0.4705609381
0.03650716692 -0.1128869951 0.6634637117 -0.3423449397 -0.5937688947 0.7268058658
0.04076306149 -0.1099753305 0.6676056981 -0.4178451598 -0.569889307 0.7072616816
0.01542226505 -0.206433028 0.7384778261 0.04709242284 -0.6216708422 0.7777321339
0.04542227834 -0.1075172499 0.6730083823 -0.4742264152 -0.5516250134 0.6854130626
0.04011770338 -0.105126515 0.6716150045 -0.3916315734 -0.5753214359 0.7142659426
0.04290932789 -0.1164922789 0.6655501127 -0.4567005634 -0.5649422407 0.6860841513
0.05047580227 -0.1091881394 0.6765844822 -0.5399080515 -0.5090495348 0.6628876328
0.05377832428 -0.1197983921 0.6712990403 -0.57196486 -0.5797976255 0.571767509
0.04791062325 -0.1202716008 0.6669645309 -0.5111746192 -0.5799853802 0.6231393218
0.04992257059 -0.1148527488 0.6712704301 -0.5297282934 -0.555588603 0.6348369718
0.05065860227 -0.1151755229 0.6651269794 -0.3337973356 -0.5462340713 0.7023243904
0.08027023822 -0.1026848927 0.6696047783 0.5312469006 -0.4618957937 0.6018539071
0.0709957853 -0.11092522 0.6646401286 0.1981827021 -0.4826426804 0.698633492
0.07797505707 -0.1090155244 0.664377749 0.4132961929 -0.4654603302 0.6830264926
0.07023885101 -0.1169318408 0.6592649817 0.1268413067 -0.4823847711 0.7776581645
0.07658875734 -0.1132234335 0.6608626246 0.3388729095 -0.4674728215 0.7371778488
0.06484953314 -0.1117769703 0.6656445265 0.01561561227 -0.4980778098 0.7013100982
0.05716612563 -0.111451149 0.6681957841 -0.201099053 -0.5178819299 0.6861137748
0.06719295681 -0.1056361049 0.6705935001 0.1342340261 -0.4943955839 0.6254633665
0.07383976132 -0.1036521867 0.670481801 0.3406233191 -0.4781057537 0.6088895202
0.05744502321 -0.1050804257 0.6723850369 -0.123941794 -0.5209369063 0.6536666155
0.07153344154 -0.193576321 0.7006981373 0.8617919087 -0.2997100949 0.4009384811
0.05544767156 -0.09440849721 0.6810589433 -0.1852980703 -0.5445109606 0.6720615625
0.05775180086 -0.09187448025 0.6855379343 -0.1766302884 -0.5494853854 0.6687685847
0.06344078481 -0.09363652766 0.681451261 0.01264170278 -0.5274509192 0.660677135
0.07790968567 -0.09615449607 0.6819328666 0.4527236521 -0.6283592582 0.5895421505
0.06966162473 -0.09470290691 0.6861007214 0.2013957202 -0.6623485088 0.5989772081
0.03740625456 -0.08153241128 0.6896659732 -0.3383722305 -0.6388477087 0.6904260516
-0.0143444445 -0.1179460585 0.6627578139 0.4726721644 -0.5956292748 0.6456938386
-0.0217480883 -0.1277731508 0.6603292823 0.5818060637 -0.5460425019 0.6019276977
-0.01874028146 -0.121853672 0.6633247733 0.5508031845 -0.5722746849 0.6069456339
-0.00528483279 -0.1107325107 0.6646975875 0.3206882179 -0.6446650624 0.6925030351
-0.01287809759 -0.1104787961 0.6698256135 0.4350929856 -0.6119072437 0.6548073888
-0.003612080822 -0.121552214 0.6541725397 0.2906717956 -0.6400639415 0.7090182304
0.002899755258 -0.1165592372 0.6562734842 0.1795699596 -0.6523810029 0.7328218222
0.002183482284 -0.1219271123 0.6521252394 0.2029733956 -0.6490642428 0.7294966578
-0.008823903278 -0.1231289804 0.6551738977 0.3678336442 -0.6217778325 0.6875391603
-0.01463513635 -0.1234998181 0.6581192613 0.4665500224 -0.5968612432 0.6507634521
-0.009111594409 -0.1164129749 0.6607731581 0.3777517676 -0.6269468665 0.678840518
0.06810680777 -0.1325187534 0.6535228491 0.02579334006 -0.2268255502 0.9437535405
0.06697101146 -0.2035348713 0.7003096342 0.8205683827 -0.356605649 0.4295140505
0.0624371469 -0.2059686184 0.7045740485 0.7681093812 -0.3884627223 0.4952058792
0.03655112907 -0.1437048167 0.6456943154 -0.4028101861 -0.5473046899 0.7026606798
0.02984654345 -0.138130188 0.6427600384 -0.2852434516 -0.6310011148 0.6978824139
0.0228250511 -0.1353400052 0.6391671896 -0.1643546522 -0.6762339473 0.7091913819
0.01812030189 -0.1371961832 0.6364701986 -0.05905618519 -0.6763350964 0.7229827046
0.01707620546 -0.1332306266 0.64093256 -0.007013706025 -0.6866569519 0.7224313617
0.02450218238 -0.141091153 0.6316102743 -0.2453619689 -0.6893938184 0.6809418797
0.07759777457 -0.1273023039 0.6545043588 0.3832466304 -0.5363767743 0.733453095
0.07576140016 -0.133330062 0.6550478339 0.1760993153 -0.2659318447 0.9120063782
0.07614341378 -0.1288600266 0.6787546873 -0.3199664652 -0.5300221443 0.4897306263
0.08323081583 -0.1241795942 0.6720551848 0.1435006261 -0.4427740872 0.5281397104
0.07934205234 -0.1218676195 0.6775894165 -0.120509699 -0.3392906189 0.6130198836
0.08800631762 -0.1166232899 0.6672669649 0.4614459574 -0.432993114 0.5370246768
0.08837565035 -0.1190304458 0.6593694091 0.655746758 -0.5039319992 0.5465685129
-0.02813384309 -0.1357106417 0.6603398323 0.6839939356 -0.4803927541 0.5482056141
-0.02820170484 -0.1306856573 0.6656256914 0.7025993466 -0.4748333097 0.529606998
-0.02837798558 -0.1241527349 0.6734721065 0.7135260105 -0.4705988467 0.5187493563
-0.03086291067 -0.1299768984 0.6712139845 0.7244872451 -0.4636628032 0.5087348819
-0.03355241567 -0.1347463578 0.6701225042 0.7400109768 -0.4543309808 0.4956249893
0.01184781455 -0.1307540983 0.6433714032 0.07840324938 -0.6737252474 0.7316550612
0.01115090866 -0.2227796763 0.7294408083 0.005881238263 -0.5714488029 0.8102324605
0.02549144626 -0.2145058811 0.7290112972 0.2525400817 -0.5960942507 0.7574674487
0.02111062966 -0.2182628363 0.7294646502 0.1816246957 -0.5889937878 0.7802672982
0.0252494812 -0.2214840204 0.7232462168 0.2313422859 -0.5928983688 0.7706351876
-0.02025693282 -0.2034884989 0.7233431935 -0.600697577 -0.4273436964 0.6740918756
-0.03550741822 -0.185602352 0.7160173655 -0.7777873278 -0.3364995718 0.5304661989
-0.03247915953 -0.1874547899 0.7213273048 -0.7600200772 -0.3478803933 0.5480396152
-0.03403514624 -0.1924548745 0.7166324854 -0.7525132895 -0.3625180125 0.5486370325
0.01631394401 -0.1817120016 0.7553985119 0.04337172955 -0.5841708183 0.8070664406
0.02349315211 -0.1820333153 0.7537363768 0.1719621867 -0.5833045244 0.7876434922
0.03018988296 -0.1830673516 0.7512095571 0.2764321566 -0.5796634555 0.7652897239
-0.01968047582 -0.1782355011 0.7427065969 -0.5570654273 -0.4930064082 0.6675097942
-0.02427501976 -0.1824337691 0.7344235182 -0.6500800848 -0.4570814669 0.6066778302
0.04300227389 -0.1762612909 0.7507838011 0.456248939 -0.519554913 0.7201218605
0.03685088828 -0.1770577431 0.7532034516 0.3635213375 -0.5475652218 0.7517036796
0.0363481231 -0.182259813 0.7492687702 0.3735594749 -0.5573669076 0.7394877672
0.06364329904 -0.1100937128 0.690558672 -0.5280488133 -0.3884550035 0.7534853816
0.05931584537 -0.1057172492 0.688228786 -0.5205537677 -0.4418630898 0.7291135788
0.05866213143 -0.1108918115 0.6832817197 -0.5964586139 -0.4334125221 0.6707348824
0.08459281176 -0.1088427305 0.6616866589 0.5341784358 -0.4883287549 0.6651206613
0.08232604712 -0.1150217652 0.6575453877 0.4524981976 -0.4909023643 0.7301325798
0.09113146365 -0.1021148264 0.6664206386 0.675245285 -0.4796713293 0.5574840903
0.08566001058 -0.1047070995 0.6663231254 0.6503437161 -0.4823226035 0.5804627538
0.03228214383 -0.1421482712 0.6309705377 -0.3444919288 -0.6337701082 0.6897461414
0.04043098167 -0.146058023 0.6421555877 -0.4648059607 -0.5239468813 0.7001223564
0.03353212774 -0.1432786435 0.6387417912 -0.3732073307 -0.607055068 0.6822865605
0.04594630748 -0.1493888348 0.6512390375 -0.5475285053 -0.4516219795 0.6986976266
0.0382088311 -0.1356104314 0.6443766952 -0.4549629688 -0.5715305805 0.6815416217
0.03538955003 -0.1386592686 0.6489257216 -0.3524910808 -0.5696675181 0.7017056942
0.03362282366 -0.1330479085 0.6431026459 -0.3712605834 -0.6249451637 0.6833359599
0.03121355362 -0.137680307 0.6371980906 -0.3382808864 -0.6251850724 0.6988318563
0.03988910466 -0.1288970858 0.6559059024 -0.423340261 -0.5599051118 0.7028850317
0.04460373148 -0.1391686499 0.6560941339 -0.5153523088 -0.4875082672 0.6975079179
0.04497784004 -0.1315973997 0.65813905 -0.4769492745 -0.5229945779 0.7010007501
0.03925092891 -0.1310494244 0.6487987041 -0.4083716273 -0.6025682688 0.6781101227
0.03596813604 -0.1256047934 0.6515421867 -0.3429101706 -0.6303097606 0.6943001747
0.04187912866 -0.1192006245 0.6608526707 -0.4127399623 -0.5851839185 0.6950021982
0.07395403087 -0.1206605658 0.6549970508 0.2434154302 -0.4493408799 0.8170797229
0.06274036318 -0.1254110187 0.6549185514 -0.01554584596 -0.4071847796 0.8322509527
0.06943016499 -0.1267762333 0.6543323398 0.1238563284 -0.2851980329 0.9203891754
0.05676116794 -0.1248559132 0.6553422213 -0.1425302029 -0.4929094911 0.7688682675
0.04844382033 -0.1210348606 0.6596700549 -0.3392672241 -0.5601825118 0.706803441
0.04659369215 -0.1252044588 0.6564133763 -0.3682735562 -0.5669755936 0.7070839405
0.05411911011 -0.1184832603 0.6606745124 -0.2166017145 -0.5410329103 0.7235020995
0.06169465184 -0.1189513057 0.6586154103 -0.04011766985 -0.5161103606 0.7524356842
-0.03594612703 -0.118431069 0.687432766 0.7584885955 -0.4284908473 0.4903948605
-0.03773432598 -0.1288497448 0.6882619262 0.7772504687 -0.4199063182 0.4673224688
0.004432169255 -0.08815954626 0.6809926629 0.2013098747 -0.6570433974 0.7262461185
-0.004642732441 -0.09020322561 0.6829385161 0.3497406244 -0.6332857013 0.6888991594
0.04216983169 -0.09773420542 0.6779469848 -0.4265925586 -0.58183074 0.6898007393
0.03672896698 -0.09889148921 0.6742515564 -0.3258832991 -0.5954163671 0.7314568758
0.03437256813 -0.09054291248 0.6804637313 -0.2874465287 -0.6288683414 0.7209023833
0.02300826833 -0.1064933836 0.6638922095 -0.1282678992 -0.6392814517 0.7551693916
0.01938036084 -0.1105099916 0.6602885127 -0.06772042066 -0.6500145793 0.7521538138
0.01276112441 -0.1098689809 0.6607426405 0.04668092728 -0.6550688148 0.75220716
0.009411489591 -0.113457799 0.6578416228 0.08747705817 -0.6569443941 0.7462897301
-0.02987712249 -0.1034583226 0.6929473877 0.7041504383 -0.485866338 0.516494751
-0.02620368265 -0.1071441397 0.6850509048 0.6710444689 -0.4928711355 0.5518478155
-0.03557629883 -0.1142653525 0.6925308704 0.7633718848 -0.4311563671 0.480091244
-0.03024321049 -0.1086521447 0.6896808743 0.7107267976 -0.4706451595 0.51718086
-0.03194651008 -0.1144661605 0.6864940524 0.7381931543 -0.4462475181 0.504345715
-0.0195769202 -0.1050113663 0.6804403067 0.5697386265 -0.5472057462 0.6053792238
-0.01808835007 -0.1096409187 0.6749607921 0.5388501287 -0.5674585104 0.6176025867
-0.02330258675 -0.1138406321 0.6759505272 0.6167940497 -0.5311589241 0.5769141316
-0.02729577944 -0.1130383834 0.6810539961 0.6922231913 -0.4798455536 0.5372185707
-0.02162699215 -0.09842930734 0.6871285439 0.581071496 -0.5497217774 0.5999541879
-0.0276488848 -0.1905068457 0.725286603 -0.7017070055 -0.4135943949 0.578369081
0.06481458992 -0.1848139465 0.7139095664 0.8123854995 -0.3529580534 0.4617930353
0.06680005044 -0.1842197776 0.7084418535 0.8330768943 -0.3300985992 0.4401254058
0.07551088184 -0.1839422584 0.688711822 0.9582436681 -0.06112344563 0.2738813162
0.0698722899 -0.1388868392 0.6547811627 0.03966168687 -0.3107492328 0.9058656693
0.0537208952 -0.1466568708 0.6502169371 -0.4566168785 -0.3755731285 0.770299077
0.06043235958 -0.1448280364 0.6529363394 -0.212760359 -0.3962859809 0.8109698296
0.06603082269 -0.1439950913 0.655757308 -0.04285909608 -0.3957340717 0.8455913663
0.08153998107 -0.1333471686 0.6564665437 0.5330891609 -0.5165899992 0.6139996648
0.0567981489 -0.1498485059 0.6547494531 -0.5321846008 -0.2840918601 0.7925642133
0.05750457197 -0.1371118724 0.6498157978 -0.2328776419 -0.3428976834 0.8284415007
0.04031234607 -0.1407248527 0.6402578354 -0.4571087062 -0.556268692 0.6884529591
0.04556405917 -0.147797212 0.6456152201 -0.5212309957 -0.4350358248 0.7212163806
0.03748322651 -0.1430371255 0.6337916255 -0.4127028883 -0.5964612961 0.6794022918
0.07226601988 -0.1593784988 0.6695117354 -0.2271267325 0.002198517555 0.6782685518
0.07458060235 -0.1690791845 0.6741455793 0.3814444244 0.07732426375 0.3929571807
0.07592793554 -0.1745923609 0.6763421297 0.7293671966 0.1265884191 0.224823907
0.07343940437 -0.1727268845 0.6818351746 0.5411364436 -0.03571645543 0.3851044178
0.07069488615 -0.165611133 0.6687065363 0.08939096332 -0.002444670303 0.4871195853
0.07595141232 -0.1792515665 0.6853963733 0.9150605798 0.03956899419 0.2547391057
0.07118884474 -0.163184613 0.6752323508 -0.01291679405 -0.08224660903 0.5960609913
0.07507814467 -0.1704443693 0.6676077247 -0.4153931439 0.3369738162 0.628662765
0.06851305813 -0.1589381844 0.6641492844 -0.5535980463 -0.004862488713 0.6990913153
0.07526317239 -0.1753919572 0.6700435281 0.0991358161 0.2914298475 0.4457856417
0.06909372658 -0.1247133091 0.6884424686 -0.6837653518 -0.2814308405 0.6598682404
0.06364739686 -0.1295723021 0.6752762198 -0.6490769982 -0.6116195321 0.4414888024
0.06719781458 -0.1292923242 0.6817009449 -0.7290139794 -0.4832740128 0.4461866915
0.06855365634 -0.1513975412 0.6660211086 -0.6190667152 -0.1326686144 0.7453886271
0.06674367934 -0.1371518672 0.6746179461 -0.6868016124 -0.4860920906 0.4744413197
0.07320369035 -0.1544831991 0.6873229742 0.07451659441 -0.3182952404 0.4043501318
0.07157800347 -0.1530328393 0.6722515821 -0.4070077538 -0.1266126335 0.7019584179
0.07489960641 -0.172980696 0.6880730987 0.6223096251 -0.07228656113 0.3912870586
0.07355753332 -0.1661448181 0.6806015968 0.2096966207 -0.06209899113 0.5382433534
0.07247388363 -0.1550241411 0.6795062423 -0.1384597272 -0.200944379 0.5588262081
0.07392889261 -0.1635738909 0.6866028309 0.3119241893 -0.1820919365 0.4194404185
0.0757830292 -0.1372094303 0.6690667272 -0.1334116012 -0.4519785345 0.5798080564
0.07264102995 -0.1471674591 0.6679344773 -0.4226226807 -0.1984531432 0.7243559361
0.07220828533 -0.1426584572 0.6724945903 -0.4854361415 -0.3125557303 0.649091959
0.076636374 -0.1411693394 0.6640295386 -0.02881926671 -0.3519483209 0.6484095454
0.07179175317 -0.1333945096 0.680832684 -0.565138936 -0.5471611619 0.4969579577
0.07968020439 -0.1346982867 0.6625794172 0.263767451 -0.5170722008 0.5597770214
0.07813172787 -0.138060838 0.6580067873 0.3389625251 -0.4590165019 0.6770133376
0.07361457497 -0.1429672092 0.6592908502 0.08379969746 -0.3574602902 0.7951696515
0.06193764135 -0.1493770778 0.6609671116 -0.5402657986 -0.2650173306 0.7752021551
0.06399863213 -0.1417290717 0.6675543785 -0.5961626768 -0.4263108671 0.6130421758
0.07026989758 -0.147993356 0.6612684131 -0.2242793441 -0.2391211689 0.8363059163
0.05158443749 -0.1392429918 0.6585323811 -0.495280236 -0.4922083914 0.7001698613
0.04869510233 -0.1451862007 0.6552292109 -0.5571187139 -0.4602020085 0.6871852279
0.05676139519 -0.1346938014 0.6621789336 -0.3505860865 -0.5075938106 0.7713294029
0.05721559748 -0.1396176666 0.6648206115 -0.5797131658 -0.5489447713 0.5703950524
0.06184958667 -0.1359267831 0.6701145172 -0.6074181795 -0.5896116495 0.502406776
0.05948126316 -0.1316264272 0.6668226123 -0.4394120574 -0.5655224323 0.6557842493
0.05488163978 -0.1271293312 0.6651607752 -0.5231337547 -0.5840343237 0.6104493737
0.059566129 -0.1262420267 0.6721788645 -0.6103578806 -0.6123031974 0.4992818832
-0.003683788003 -0.1321328878 0.6427460909 0.2978850305 -0.6035807729 0.7382178307
0.004505586345 -0.1304946393 0.644000113 0.1884260029 -0.6433063745 0.7410494089
-0.0001880065684 -0.1280843019 0.6479234099 0.264418155 -0.6312639713 0.7258854508
0.005689599551 -0.1260623783 0.6477959752 0.1542105079 -0.6587303877 0.7358394861
0.007959646173 -0.1177657917 0.65402776 0.102134563 -0.6581369042 0.7430039048
0.01348428149 -0.1211968362 0.6513797641 0.03025240637 -0.6753351688 0.7340942621
0.02158985287 -0.1243180707 0.6487595439 -0.1139019132 -0.6787239909 0.7195971608
0.02469876595 -0.1201607138 0.652477622 -0.1778204888 -0.6571987867 0.7314710021
0.01650671475 -0.1161072031 0.6553790569 -0.02275248244 -0.661509335 0.7470756769
-0.02438741364 -0.2054993957 0.7184927464 -0.6370606422 -0.4028276205 0.6552224159
0.06615751237 -0.1964251846 0.7030758858 0.8312628865 -0.337997824 0.4380234778
0.04063687101 -0.2075228095 0.7274206281 0.4623686075 -0.5672289133 0.6803600788
0.004533118568 -0.2210893184 0.7266694307 -0.1367627978 -0.5657269955 0.8103883266
-0.002455690876 -0.2167562991 0.7249159813 -0.255545795 -0.5231193304 0.7859504819
-0.0004195178626 -0.2103706002 0.7293583751 -0.221930936 -0.5335348248 0.7932813764
-0.01270881947 -0.1755764633 0.7516850233 -0.4476214647 -0.5338622928 0.7160611153
-0.01536516752 -0.184090212 0.7429366112 -0.5196073651 -0.5120544434 0.6831188202
-0.01273036934 -0.1800162643 0.7465121746 -0.4648708999 -0.5208769441 0.7122907639
-0.009448513389 -0.1846241057 0.7460362315 -0.4308469296 -0.5320897698 0.72573632
-0.004499803763 -0.182629019 0.7514959574 -0.3454728425 -0.5500537753 0.7593961358
0.005848427303 -0.1857704073 0.7519842982 -0.1588418037 -0.5786676407 0.7965452075
0.04771903157 -0.1774895936 0.7452942729 0.5487454534 -0.5271887779 0.6484489441
0.05890059471 -0.1305513531 0.6533148289 -0.1581310332 -0.3373991549 0.8621617556
0.04844395071 -0.1318560094 0.6527659297 -0.4257124364 -0.4688604772 0.7527974248
0.0444656387 -0.1354551315 0.6481000781 -0.4802094996 -0.5301755667 0.6915911436
0.04710526019 -0.140340209 0.6463221908 -0.4719519317 -0.4824294448 0.705946207
0.01492214017 -0.08946172893 0.6777318716 0.04233431816 -0.6502625942 0.7582959533
0.05649136752 -0.1006062329 0.6780768037 -0.2692242265 -0.5229659677 0.659040451
0.07738868892 -0.09759506583 0.6741881371 0.4190536141 -0.4778523147 0.6392087936
0.06948212534 -0.09935168922 0.6742662191 0.2042891532 -0.4965587258 0.6514332891
0.05073221773 -0.09802705795 0.684470892 -0.5068285465 -0.5351861119 0.6752057672
0.04597002268 -0.09529538453 0.682348609 -0.4575413764 -0.5668800473 0.6845499873
0.06294043362 -0.09726954252 0.6759405136 0.06669861823 -0.5217781067 0.6585308313
0.04878013581 -0.09753657877 0.6776332855 -0.2957399189 -0.5624752641 0.6775564551
0.004548339639 -0.1116531491 0.6605104208 0.1683200002 -0.6582815647 0.7333578467
0.008049240336 -0.1062814221 0.6644006968 0.1171335205 -0.6605005264 0.7387129664
0.001852555084 -0.1066160053 0.6654664874 0.2156149298 -0.6580933332 0.7178981304
0.03400098532 -0.2096113414 0.7293063402 0.384983182 -0.5839743614 0.7134495378
-0.01815528423 -0.1937341094 0.7321600318 -0.5788696408 -0.4740011394 0.6609141231
-0.02220144495 -0.1885285825 0.7319092155 -0.6339788437 -0.4585689306 0.6210236549
-0.02798492461 -0.1867424846 0.7294514179 -0.7021355033 -0.4120562077 0.5760871172
-0.02345622331 -0.194195658 0.728703022 -0.6342295408 -0.446567595 0.6307395697
0.03826212883 -0.1995291114 0.7339833975 0.4370027184 -0.5758240819 0.689233005
0.07336058468 -0.1945798248 0.6899348497 0.920601964 -0.2208471745 0.3074445426
0.0716419667 -0.1998070627 0.6953026652 0.8802272677 -0.3099924326 0.355514884
0.07253883779 -0.1889553368 0.6978287101 0.9000743032 -0.2633424997 0.3440983891
0.07574487478 -0.1781549454 0.6921075583 0.8867040277 -0.0572883673 0.3125560284
0.07022612542 -0.1686932594 0.6896215081 0.2757961154 -0.1862866431 0.5881714821
0.07238045335 -0.1765332222 0.6967550516 0.7530226111 -0.1722186208 0.4091927111
0.06959336251 -0.1693181694 0.6999825239 0.4950539768 -0.3299745917 0.4257229567
0.07000944018 -0.1588643789 0.6860325336 -0.0439340882 -0.2571105361 0.5472240448
0.06940998137 -0.1552413404 0.6932489872 0.007406323217 -0.4078782797 0.3914420009
0.06961616874 -0.1458567828 0.6834374666 -0.4228684902 -0.3820740879 0.4559874237
0.0696747154 -0.141129002 0.6792291403 -0.625117898 -0.3798034489 0.4764420688
0.0700647831 -0.1486547738 0.6780967116 -0.457926333 -0.2690328658 0.5724794269
0.06955511123 -0.1619040668 0.6954907775 0.2195366621 -0.3571991026 0.4231895208
0.07157920301 -0.1426840723 0.6880266666 -0.2997454405 -0.4968381524 0.4419802725
0.0740396902 -0.1700664908 0.6956399083 0.6384978294 -0.2293291241 0.3497273028
0.07326056808 -0.1590878516 0.6916741729 0.262455076 -0.321488291 0.3809782863
0.07251705974 -0.1741864234 0.7020505071 0.7616097927 -0.2810515463 0.3802655041
0.06996828318 -0.1477992237 0.6907770038 -0.1914960891 -0.4724545479 0.4179320335
0.06991271675 -0.137580961 0.6855886579 -0.5483577251 -0.5252283216 0.4030850828
0.07117468119 -0.1791987866 0.7078182697 0.8702183962 -0.2885145247 0.3888274729
-0.02602538094 -0.1984900087 0.7216921449 -0.6690411568 -0.4125568569 0.6135768294
-0.03062164038 -0.1941143423 0.7204009295 -0.728779912 -0.3772448003 0.5713261962
-0.02929772995 -0.2015259564 0.7172036767 -0.7003834248 -0.3832515776 0.6000216603
0.05270416662 -0.2103072703 0.71408391 0.6414456964 -0.476144284 0.6006500721
0.05341914669 -0.204148367 0.7164686918 0.6678776145 -0.4594955444 0.583127141
0.03653578088 -0.2197819948 0.7218006849 0.404384017 -0.593214035 0.6934199929
0.04286806285 -0.2156244516 0.7197263241 0.4930507541 -0.5527696609 0.6653519869
0.03467248008 -0.2143279016 0.7238295674 0.4155148268 -0.5576298237 0.7169824839
0.02917961217 -0.2173256278 0.7239156365 0.3186176717 -0.5776797533 0.7456691265
0.04161886498 -0.2105580121 0.7217748761 0.4916907847 -0.5386905074 0.6785722375
0.06577906758 -0.1904277056 0.704190135 0.8442358971 -0.3225060701 0.4119893909
0.07459648699 -0.189737767 0.685467422 0.95297122 -0.1109687164 0.2692764997
0.06952420622 -0.1828112751 0.7025336623 0.8714959025 -0.2876731753 0.3937451243
0.07380384207 -0.1834328771 0.6961101294 0.9231216908 -0.1971915066 0.3210498095
0.009627976455 -0.2171956003 0.7277228236 -0.03235365078 -0.5682223439 0.8171977401
0.008527203463 -0.2071134001 0.7344998121 -0.0573695302 -0.5728828311 0.8125065565
0.01219837833 -0.2114129514 0.7316350341 0.03195843101 -0.5848672986 0.804545939
0.007339051459 -0.2133593708 0.7348598242 -0.08494331688 -0.5849785805 0.793868959
-0.001711251214 -0.2098653466 0.7361741662 -0.2598941326 -0.5657984614 0.7809726
-0.01762702502 -0.2000297606 0.7277768254 -0.5728677511 -0.4551880956 0.6805001497
-0.007058660034 -0.2092063278 0.7315853834 -0.3672328591 -0.5019251108 0.7769957185
-0.01672103256 -0.2081805319 0.7254887223 -0.52294451 -0.4516024292 0.7199079394
-0.01288506109 -0.2135088146 0.7262380123 -0.4444929659 -0.4764077365 0.7545967102
0.02227064222 -0.2116336673 0.7331306934 0.2005050927 -0.5851998925 0.7826095223
0.0322150141 -0.2040928006 0.7329177856 0.3668650985 -0.5824747086 0.7242830992
0.0174756404 -0.2161448896 0.7335992455 0.1156046167 -0.5973194838 0.7911567092
0.0195819512 -0.2016499788 0.7408524156 0.1221126392 -0.634978354 0.7599409223
0.02580024116 -0.2063402236 0.7324074507 0.2552783787 -0.5936142206 0.7537607551
0.001733256271 -0.1890358329 0.7479105592 -0.243588388 -0.5804142356 0.7756809592
-0.004380161408 -0.1882173866 0.7463154197 -0.3492565751 -0.5540944934 0.7531485558
0.0007741203299 -0.1938421875 0.7440751791 -0.2299564779 -0.5878478289 0.7711271644
-0.01349120773 -0.1938052326 0.7362844348 -0.4970936477 -0.5091209412 0.6952309608
-0.01738736965 -0.1882766783 0.7379838228 -0.5505982637 -0.5033042431 0.664013505
-0.005506204907 -0.1927711517 0.7423168421 -0.3418141007 -0.5634012222 0.7486193776
-0.01183783449 -0.1895615309 0.7422089577 -0.4773057401 -0.5241780281 0.7042392492
0.002507597208 -0.1995781064 0.7419524193 -0.2037896216 -0.6016825438 0.7697858214
0.003260393627 -0.2031120658 0.7369986773 -0.1696054488 -0.5627895594 0.8048335314
0.02801649086 -0.198309049 0.7392627001 0.3023376763 -0.6043412089 0.7332603335
0.01904628053 -0.1959431916 0.7448566556 0.115337953 -0.608058393 0.7817533016
0.009185647592 -0.201074183 0.7413253784 -0.08011820912 -0.6188696623 0.7735720873
0.01456563547 -0.1987917721 0.7431184649 0.02898485214 -0.618503809 0.7811988592
0.011666039 -0.1857506633 0.7530421615 -0.04436657578 -0.5889135003 0.8023979068
0.02945695259 -0.09173482656 0.6781489253 -0.2005622387 -0.6274478436 0.7499508858
0.02498660237 -0.09805715829 0.6719632149 -0.1436001658 -0.6234232783 0.7684822083
0.03080707788 -0.09740139544 0.6744054556 -0.2280717492 -0.6135855317 0.7514633536
0.01737941243 -0.09490908682 0.6739876866 -0.005421331618 -0.6293613315 0.7730785012
0.02329429425 -0.09346868098 0.6755803823 -0.1129331216 -0.626213491 0.7688397169
0.03329999372 -0.1926644444 0.7421901226 0.3553919494 -0.5997826457 0.7147735953
0.04072938114 -0.190354988 0.7412740588 0.4828116298 -0.5685492754 0.6645390987
0.04643955082 -0.2075181156 0.7208896875 0.5502339005 -0.521160543 0.6505637765
0.04750255123 -0.2004340738 0.7242857814 0.5858410597 -0.5078299046 0.6306720376
0.0667295903 -0.193827495 0.7086298466 0.8142101169 -0.3504676521 0.4624178708
0.05950631201 -0.1977184862 0.7140562534 0.7622462511 -0.3878121376 0.517077148
0.06285995245 -0.1985799223 0.7078553438 0.7976580262 -0.3583679795 0.481877774
0.01922762021 -0.2214770913 0.7248247862 0.1317151636 -0.5854668617 0.7878640294
-0.00329463766 -0.2165464312 0.7317855358 -0.2733854353 -0.5340438485 0.7987684608
0.004643161781 -0.2141669691 0.7291538715 -0.1175441146 -0.5625740886 0.8178414702
-0.002485708101 -0.2019402385 0.7388192415 -0.3023453355 -0.5664833188 0.7648303509
-0.008371034637 -0.1990176886 0.7364670634 -0.4084022343 -0.5323783755 0.7380101085
-0.01273666695 -0.2023665011 0.7311108112 -0.482339859 -0.4692129195 0.7393404245
0.01176225394 -0.1939080954 0.7461659312 -0.02121813782 -0.6073394418 0.7875185609
0.01915590465 -0.1901149452 0.7486719489 0.1012518406 -0.6155709028 0.7801473737
0.02588439919 -0.1881052405 0.7487040162 0.2140434682 -0.6004229188 0.7701839209
0.01141974423 -0.09932818264 0.6711292267 0.0806511268 -0.6436146498 0.7579760551
0.009287109599 -0.0942909494 0.6752860546 0.1217005029 -0.6410806179 0.7535666823
0.01740500145 -0.1005588025 0.6702856421 -0.02440066077 -0.6412793994 0.7617093921
0.01517262403 -0.1045112014 0.6652622819 0.02140231989 -0.6501853466 0.7594305277
0.0225194525 -0.102803126 0.6687932014 -0.1032624617 -0.6362091303 0.7594211102
0.006032206584 -0.101801306 0.6700233817 0.1794855595 -0.6470470428 0.7396161556
0.0462857224 -0.1868063509 0.7393216491 0.5598605871 -0.5348271728 0.632070899
0.03854001313 -0.194139719 0.737454474 0.4421816766 -0.5775280595 0.6801584363
0.05171922967 -0.1789864749 0.7398491502 0.5900159478 -0.516659677 0.6195960045
0.03640617803 -0.1873781383 0.7447365522 0.3970478773 -0.5726162791 0.7147723436
0.04143456742 -0.1847796142 0.7441270947 0.4884095192 -0.5474983454 0.6737692952
0.05230703205 -0.199995622 0.7208065391 0.6432931423 -0.4730004966 0.6000446081
0.05589973554 -0.1959223151 0.7188346386 0.7156946659 -0.4300227463 0.5433952212
0.05451578647 -0.1898606122 0.7264069915 0.6835672855 -0.4717106819 0.5503904819
0.05849734321 -0.1872962862 0.7235924602 0.746543467 -0.4339546859 0.5037246346
0.06235444173 -0.1798654795 0.7240493894 0.7764210701 -0.4025398791 0.4845733643
0.06041904166 -0.1779091209 0.7292771339 0.7408975363 -0.4284673333 0.5170223117
0.06121600047 -0.1888532341 0.7182503939 0.7836793065 -0.3832996786 0.4882320464
0.06301062554 -0.1828291267 0.7193777561 0.7950965166 -0.3738467991 0.4751611352
0.06797457486 -0.1780015826 0.7152846456 0.8186829686 -0.3571744859 0.4481670558
0.04405675083 -0.1914702654 0.7359047532 0.5247852206 -0.5456584096 0.6460408568
0.04369108006 -0.1958928853 0.7311202288 0.5273840427 -0.5378903747 0.6488286853
0.04909269512 -0.1897284836 0.7342301607 0.5937959552 -0.5233135819 0.6096076369
0.04980609566 -0.1940272152 0.7282608151 0.6126692891 -0.5064833164 0.6060571074
0.05085550994 -0.1841735244 0.7363648415 0.6072378755 -0.5108461976 0.6044713855
0.05606939644 -0.1782079488 0.7352133989 0.648360312 -0.487249285 0.5822820067
0.05683082342 -0.1831902564 0.7289948463 0.708198905 -0.4526943564 0.536200583
