# .PCD v0.7 - Point Cloud Data file format
VERSION 0.7
FIELDS x y z normal_x normal_y normal_z
SIZE 4 4 4 4 4 4
TYPE F F F F F F
COUNT 1 1 1 1 1 1
WIDTH 512
HEIGHT 1
VIEWPOINT 0 0 0 1 0 0 0
POINTS 512
DATA ascii
-0.02710601315 -0.09586250782 0.6063600183 -0.1092364565 -0.6086768508 0.7812744379
-0.02065714635 -0.09683018178 0.6069464087 -0.2070996761 -0.5927686095 0.7710468173
0.0456071794 -0.06753931195 0.6683518291 0.228099674 -0.5414173603 0.8041719198
0.05146145821 -0.0791990459 0.6562273502 0.3759744465 -0.5159470439 0.7646699548
0.05411389843 -0.08457350731 0.6476415396 0.3888413012 -0.5194394588 0.7570751309
-0.08971989155 -0.1386153102 0.6704286337 -0.8621376753 -0.2709322572 0.424461931
0.01850199327 -0.1101512611 0.6335751414 -0.4786315858 -0.4751083255 0.7359762192
0.01505438425 -0.1060941368 0.6294980645 -0.5420551896 -0.4320157766 0.7130573988
-0.04465333745 -0.1705708653 0.7000102997 -0.2216694355 -0.5304458737 0.786016047
-0.05014091358 -0.1719237864 0.7007928491 -0.2586213052 -0.5261787176 0.7934877872
-0.01097889431 -0.1719474643 0.6965648532 0.3377634287 -0.6045952439 0.7181444168
-0.009693025611 -0.1669403762 0.7003164291 0.3596512377 -0.5987797379 0.7121476531
0.01655831188 -0.1460198462 0.6893807054 0.7306109667 -0.4516410828 0.5111806989
0.01167605259 -0.164001137 0.6836779714 0.6623016596 -0.5022847056 0.5489421487
0.01708783954 -0.1609838605 0.6789591312 0.6994401813 -0.4869619906 0.5177677274
-0.007411846425 -0.1683194637 0.693439126 0.4119563997 -0.5822352767 0.6783215404
0.007683834992 -0.1531282812 0.6968984604 0.6330122948 -0.5022848845 0.5852746964
0.004979193211 -0.1611961275 0.691326499 0.6150942445 -0.5280649662 0.5766012669
0.0028743078 -0.1578083783 0.6954080462 0.5658696294 -0.5233690143 0.6151020527
0.00959081389 -0.157096684 0.6924722195 0.6672670245 -0.4838371277 0.5635487437
0.006693796255 -0.1651455611 0.6871116161 0.6079221964 -0.5360683799 0.5845426917
0.005047333427 -0.1518463045 0.7023029923 0.5898485184 -0.5197908282 0.6160029769
-0.07768901438 -0.09851849079 0.6358994246 0.6296627522 -0.4894286394 0.6028421521
-0.07474666834 -0.098479487 0.6312640905 0.6106998324 -0.4785048068 0.6296098828
-0.01074995752 -0.09461773187 0.6140962839 -0.3648738265 -0.5456669331 0.7468944192
0.041566208 -0.08146931231 0.6635730267 0.1507909894 -0.5512357354 0.7461519241
0.03654651344 -0.08957769722 0.6581237912 -0.09355092049 -0.5888329744 0.6924132109
0.03642474487 -0.08259557188 0.6651446223 -0.08007183671 -0.5625522733 0.7188588977
0.04650672898 -0.09595265239 0.6465530992 0.3305533528 -0.5993224382 0.7122105956
0.04461453855 -0.07523087412 0.6681918502 0.3027268648 -0.5234250426 0.7838669419
0.04415661469 -0.08443824202 0.6592574716 0.2575462759 -0.5589296222 0.7462333441
0.04616572708 -0.08867876977 0.6539795399 0.3351068199 -0.5722372532 0.7388058901
0.03936690092 -0.09509839118 0.6511452198 0.0164966546 -0.6058772802 0.6836569905
0.04961302876 -0.09012175351 0.6481494308 0.357098341 -0.5559673309 0.7473243475
0.04892382398 -0.08384881914 0.6548354626 0.3471718729 -0.5336411595 0.7685340047
0.04814004898 -0.07812371105 0.6611489058 0.3376431465 -0.5143335462 0.7872655392
0.02053150721 -0.106356144 0.6384331584 -0.4680019021 -0.5353047252 0.6735437512
0.02442334592 -0.1088337824 0.6428574324 -0.3097561896 -0.6744673252 0.6329378486
0.02226745896 -0.1118122339 0.6382778287 -0.3580912948 -0.5894774795 0.7000764608
0.02793564089 -0.1044246107 0.6651741266 -0.08115271479 -0.5095677972 0.5764068961
0.02694366127 -0.1092955992 0.6516453028 -0.17159684 -0.6526125669 0.6214739084
0.0266888421 -0.1311270744 0.667345345 0.5759028196 -0.391721338 0.4582838416
0.02793803439 -0.100444518 0.661509335 -0.2295493931 -0.5666137338 0.6099971533
0.02667895146 -0.1266649812 0.6630077362 0.4060759544 -0.4583818614 0.4970376194
0.02654204331 -0.1171251461 0.6516255736 0.01114801504 -0.6258144975 0.5899786353
0.0270830933 -0.116902642 0.6612725854 0.1516418308 -0.512589395 0.5447262526
0.02712135389 -0.1256269068 0.6700981855 0.4888918102 -0.3781822622 0.4673062265
0.0265244972 -0.1220159009 0.657435596 0.2204316705 -0.5403753519 0.5418899059
0.02677769028 -0.1354391277 0.6737276316 0.7765176892 -0.3014656305 0.410087496
0.0265890155 -0.1053928435 0.6581167579 -0.08927479386 -0.5906708241 0.6003453732
0.02654035948 -0.1132278889 0.6567890644 0.03841217607 -0.5788165331 0.5778495073
0.02633848041 -0.1144758835 0.645868063 -0.1358266473 -0.7030211091 0.6280614138
0.02709643357 -0.1132271439 0.6663833261 0.1808539182 -0.4654154181 0.5321452022
0.02713844366 -0.1188157052 0.6689882278 0.3354345858 -0.4151265621 0.4983382821
0.0448051095 -0.1009003818 0.642719388 0.2658964992 -0.6230044365 0.6908090711
0.03073232435 -0.10754738 0.645540297 -0.1316576749 -0.6938548684 0.6561037302
0.0369320251 -0.105615437 0.6434524655 0.05818862841 -0.6682969928 0.6713766456
0.03417149931 -0.1017038375 0.6484295726 -0.09677259624 -0.6525939703 0.6646545529
0.03050184064 -0.09949549288 0.6525084972 -0.258615613 -0.6486978531 0.65566957
0.03336002678 -0.09432248026 0.6551782489 -0.2342970371 -0.6126101613 0.6627811193
-0.07158654183 -0.04928795621 0.6733788848 0.6495155096 -0.5289353132 0.54486835
-0.07545183599 -0.05408779532 0.6742087007 0.6741412878 -0.5175172687 0.5266421437
-0.07708602399 -0.05159980804 0.6788229346 0.6579785943 -0.5294849277 0.5346253514
-0.07384514809 -0.04675403982 0.6786662936 0.6401370764 -0.5426957011 0.5434377193
-0.06975474209 -0.118570067 0.7190715075 -0.6409374475 -0.412532419 0.6353000998
-0.08101534098 -0.06175686792 0.6768035293 0.688875556 -0.5114477277 0.5136725307
-0.02114006877 -0.1722454429 0.7000267506 0.1918566376 -0.604967773 0.7695068717
-0.004439733457 -0.1269278526 0.727996707 0.3589854836 -0.5546492934 0.7475405335
-0.008648555726 -0.1205625162 0.7311859131 0.2340759784 -0.5407010317 0.7994890809
-0.00821452029 -0.1308997571 0.7286301851 0.3214018941 -0.5659707189 0.7567023039
-0.009384482168 -0.1266019642 0.7327899933 0.2658062279 -0.5674751997 0.7779774666
0.01316014212 -0.1578860283 0.684111774 0.7078263164 -0.4685213864 0.5273706317
0.0002548991761 -0.1633275598 0.6956074238 0.5278255939 -0.5736188293 0.6222282648
-0.001913166605 -0.1594799757 0.7010805607 0.4818897545 -0.5652961731 0.66369313
-0.005063400138 -0.1643125117 0.697599113 0.4442031085 -0.5892369747 0.6622569561
-0.001783793792 -0.1684645265 0.6938614845 0.493437916 -0.5760368109 0.6499682069
0.01371818967 -0.1428527534 0.698743999 0.6973029375 -0.461800009 0.5476302505
0.01575934887 -0.1378457099 0.6996916533 0.7130889893 -0.4434707165 0.5415922999
-0.01247023419 -0.1591271907 0.7060465813 0.2927931547 -0.5977615118 0.744081974
-0.0149909826 -0.1635689139 0.7025753856 0.2792160511 -0.6041522622 0.7452597618
-0.02330250666 -0.1657881588 0.7033436298 0.160428524 -0.5949183106 0.7854961753
-0.01906946115 -0.1606316119 0.7073944211 0.1977018416 -0.5972717404 0.7749637365
-0.01560036372 -0.1560703665 0.7106377482 0.2275860608 -0.6037102342 0.7633053064
-0.01576935872 -0.1698417664 0.7010294199 0.2754357159 -0.6035317779 0.7481044531
0.006734967232 -0.09828882664 0.6254655719 -0.5799440145 -0.4161167443 0.6988071203
0.009704684839 -0.1027203277 0.6249311566 -0.595138371 -0.4013433456 0.6959570646
0.03407087922 -0.06653264165 0.6744589806 -0.04971038178 -0.3032671809 0.9491893649
0.02835036442 -0.06586351991 0.6721301079 -0.3171518445 -0.3463124037 0.8704172373
-0.009587670676 -0.03383604065 0.6620309353 -0.2804372013 -0.6496455669 0.6997789145
0.02819685452 -0.1063410267 0.636438489 -0.1906376481 -0.5173798203 0.7992467284
0.0236370936 -0.1045504957 0.6331911683 -0.2960965335 -0.4692001939 0.7750304937
0.03458026052 -0.1014616713 0.637414813 0.03275268525 -0.4955179989 0.8625463843
0.02632594295 -0.1035241857 0.6492707133 -0.2867381275 -0.6966440678 0.6496583819
0.01927957125 -0.09406395257 0.6427941918 -0.62210989 -0.5026986003 0.5842824578
0.02253354527 -0.1010760739 0.6442017555 -0.4446014166 -0.6032420993 0.613293469
0.02039534226 -0.150765717 0.6796633601 0.7379813194 -0.4588369727 0.4945752323
0.02535998449 -0.1487729549 0.6729419827 0.7808337212 -0.4264647067 0.4477024972
0.02278012596 -0.1538797319 0.6728636026 0.7525666952 -0.4461937249 0.4699334502
0.02663018927 -0.1422391683 0.6735033989 0.8763625622 -0.2826310694 0.3540088832
-0.06670161337 -0.1335348487 0.7135821581 -0.6034890413 -0.4626846015 0.6475074291
-0.06356243789 -0.1235582307 0.7241446376 -0.5587159991 -0.4711433947 0.6819211841
-0.06765366346 -0.1241067201 0.7180283666 -0.6122467518 -0.4324007034 0.6593090892
-0.06559742242 -0.1190283373 0.7265584469 -0.5543236732 -0.4658339918 0.6844021082
-0.02926390804 -0.1657051146 0.7042843699 0.04551482201 -0.5931686759 0.7940559983
-0.04207328707 -0.1655455977 0.7043287754 -0.1468893588 -0.5721181035 0.8045473695
-0.03904876113 -0.1725513041 0.7024199367 -0.07676653564 -0.5865814686 0.8045226336
-0.03216638789 -0.1715348065 0.7023196816 0.004673675168 -0.5973021984 0.7989910245
-0.02688133903 -0.1713620126 0.7003275752 0.1014141291 -0.5959706306 0.7857490778
-0.0711530596 -0.1608387977 0.6928565502 -0.6411203146 -0.3928360939 0.6510955095
-0.08749894053 -0.1433992237 0.6737731695 -0.8445811868 -0.2898367047 0.4487497211
-0.0820434317 -0.1500815302 0.6824761033 -0.8187503219 -0.2982490957 0.4899192452
-0.08352944255 -0.1431278884 0.6798043251 -0.8480620384 -0.2790032327 0.4490136504
-0.06388587505 -0.1634495854 0.696410954 -0.5528435707 -0.4180332124 0.7193792462
-0.06004894897 -0.1679009795 0.6977461576 -0.4762117863 -0.4442851543 0.7575418949
-0.0553445816 -0.1691575944 0.7009285092 -0.346441716 -0.4839960933 0.8015052676
0.01089304406 -0.1433409154 0.704652667 0.6629078984 -0.4797024429 0.5739463568
0.01381373405 -0.1460625827 0.6944351196 0.7051837444 -0.461961627 0.5376050472
0.004704761785 -0.1397597045 0.7120810151 0.5543973446 -0.5285456777 0.6404346228
0.008305509575 -0.134690702 0.7128890753 0.5758457184 -0.5184832215 0.6286776662
0.01191166509 -0.1359185129 0.7090083957 0.6442908645 -0.4859319031 0.5895213485
0.005545090418 -0.1447988153 0.7073876262 0.5899863839 -0.5212589502 0.6149853468
-0.05234675109 -0.1198267341 0.7323204875 -0.3648181856 -0.5015074611 0.7766575813
-0.05977973342 -0.1173104718 0.7289286256 -0.5145582557 -0.4876704812 0.7050274014
-0.05947444588 -0.1224363893 0.7286747694 -0.4996562302 -0.5030793548 0.7044398785
-0.04516353086 -0.1303946972 0.7307420969 -0.2642136812 -0.5428531766 0.7916836143
-0.04837694392 -0.1250062734 0.7321617603 -0.3286244869 -0.5318725109 0.7764207125
-0.01456543244 -0.1244668365 0.7329103947 0.1989961863 -0.5557499528 0.8051842451
-0.02058937214 -0.1236283407 0.7353369594 0.1107361242 -0.5335640907 0.8362554312
-0.01239094138 -0.1178422645 0.7358121872 0.1764404178 -0.5381339788 0.8232348561
0.01439034939 -0.1538571268 0.6879305243 0.7150150537 -0.4656218886 0.5202792883
0.02091733553 -0.1579694003 0.6757118106 0.7301648259 -0.4696447849 0.4962792695
0.01875176653 -0.1553850025 0.6819131374 0.7414998412 -0.4516584575 0.4957658947
0.01246659551 -0.1516938955 0.6927028894 0.6971182823 -0.4640802443 0.5463585258
-0.005576766096 -0.09899296612 0.6144702435 -0.4407732487 -0.4745526314 0.7409449816
-0.01404479146 -0.09694840014 0.6092713475 -0.3042460084 -0.5664334297 0.754286468
0.002968617249 -0.1006511375 0.620094955 -0.5587972999 -0.4120912254 0.7189278007
-0.09028690308 -0.1305104941 0.6732728481 -0.9330434203 -0.1399085671 0.2948292494
-0.0816662088 -0.1026413068 0.6394879222 0.5989601016 -0.4810026586 0.5741133094
-0.08428714424 -0.1120913327 0.6475451589 0.1319940984 -0.3598719239 0.4607712626
-0.08309215307 -0.1079723537 0.643882513 0.3358813524 -0.4131526351 0.51068753
-0.08828891814 -0.1247294918 0.6594375372 -0.4933393896 -0.1945499033 0.3055917919
-0.08651597053 -0.1203746647 0.6546089053 -0.2784662545 -0.2535262704 0.3612836599
-0.08817654848 -0.128631711 0.6639173031 -0.7163056731 -0.1379584074 0.2534344196
-0.0874388665 -0.1257779002 0.6732382178 -0.7757364511 -0.2286599576 0.4185710847
-0.08893702179 -0.1328325123 0.6674150229 -0.9311562181 -0.08467660099 0.2047120482
-0.08720224351 -0.1240762025 0.6680414677 -0.6223319173 -0.2326309085 0.3956406713
-0.08517567813 -0.111838825 0.6540914774 0.07054401189 -0.3715569973 0.4970283508
-0.07055558264 -0.1407024413 0.7051612735 -0.6559004784 -0.403280586 0.6363160014
-0.0660391897 -0.1397084892 0.7092046142 -0.5911747813 -0.448027581 0.6611071229
-0.07582531869 -0.1286568791 0.7071837187 -0.7290833592 -0.3624501824 0.5717164874
-0.07100183517 -0.1250575632 0.7122981548 -0.6798841357 -0.387483418 0.6182214022
-0.07123883069 -0.1344931275 0.7078323364 -0.6836875677 -0.3981706798 0.6025359631
-0.04121611267 -0.09316062927 0.6120226979 0.1710559279 -0.595507741 0.7725445032
-0.02523565292 -0.07575137913 0.6248153448 -0.08253930509 -0.6141957641 0.7841637731
-0.0309734717 -0.07643742114 0.6242975593 0.01865196414 -0.619143188 0.7800431252
-0.03512360901 -0.0800877884 0.6219449639 0.08878786117 -0.6304414868 0.7702560425
0.006828881335 -0.09217113256 0.6285479665 -0.5831550956 -0.4346742928 0.6852374673
0.03263770789 -0.05489072576 0.6674377322 -0.1989721209 -0.373128742 0.8858357668
0.02515854128 -0.05024428293 0.6700645089 -0.3490344286 -0.3972250521 0.8272665143
0.04143110663 -0.06813252717 0.6725264788 0.1608065814 -0.4551898837 0.8561592698
-0.003765446134 -0.04672076926 0.6543021202 -0.4062037766 -0.5790319443 0.7060626745
0.0003482724132 -0.04348523915 0.6587565541 -0.4439765513 -0.5718438625 0.6864702106
0.01354424562 -0.09783987701 0.6310471892 -0.5538514256 -0.4212616682 0.6965295076
0.02145975642 -0.1001286581 0.6309792399 -0.3038264811 -0.4123237431 0.7694430351
0.03248813376 -0.1082480252 0.6402676702 -0.03460790962 -0.6450188756 0.7113398314
0.05694065616 -0.08536616713 0.6430032253 0.4318434596 -0.5310975313 0.7243056893
0.05017758533 -0.0716816932 0.6618332267 0.4061669111 -0.5187746286 0.7440013289
0.056681104 -0.07630240172 0.6533708572 0.4674743414 -0.5258271098 0.7031167746
0.05330504104 -0.07161419839 0.6547530293 0.4649295509 -0.5277035832 0.7056363225
0.01982543431 -0.08650182933 0.6495383382 -0.6756021976 -0.4526466131 0.5620989799
0.02597342804 -0.092475757 0.6554313898 -0.3950701058 -0.6393889785 0.6474420428
-0.0758683309 -0.1487003714 0.6930643916 -0.7218099236 -0.3679926693 0.584653616
-0.07741128653 -0.1556774229 0.6881350279 -0.742097199 -0.3657977879 0.5577024221
-0.08049151301 -0.1484750509 0.687579751 -0.8182907104 -0.3204722703 0.4724946916
-0.06406767666 -0.1545626819 0.6997272372 -0.5454740524 -0.4197775424 0.7195360065
-0.0571732074 -0.1543738097 0.7045812011 -0.4304124713 -0.4610589743 0.7724334598
-0.05972365662 -0.1595882475 0.7014446259 -0.4530934691 -0.4515741467 0.7674299479
-0.06223259121 -0.1505071223 0.7040065527 -0.5093533397 -0.4490606785 0.7286484838
-0.05966090783 -0.1476140618 0.7079803944 -0.4656897187 -0.4785875082 0.7419102192
-0.06488912553 -0.145292744 0.7063231468 -0.5549005866 -0.4513884187 0.6981441379
-0.06839004159 -0.1510403007 0.7008619905 -0.6117373109 -0.4013860822 0.6779305935
-0.07109695673 -0.1549774557 0.6973119378 -0.6367224455 -0.3921045065 0.6623723507
-0.04624980688 -0.160034582 0.7062667012 -0.245412007 -0.5244860053 0.8133214116
-0.04864306748 -0.1661558896 0.7035730481 -0.2488343567 -0.52743119 0.8095189929
-0.05193533003 -0.1574103385 0.7054371238 -0.3474892676 -0.4832014441 0.8003171682
-0.05377172306 -0.162759006 0.7021080256 -0.3678862154 -0.4705628753 0.8009797335
0.004619783722 -0.1310839653 0.7168810368 0.4973396361 -0.5303964615 0.6852265596
-0.004938029684 -0.134652555 0.7238919735 0.3931318223 -0.5573087931 0.7304078341
-0.0004051292199 -0.1288161427 0.7225402594 0.3975123763 -0.5497509837 0.7342668772
-0.02364600636 -0.1285693944 0.7341471314 0.08713773638 -0.5377719998 0.837728858
-0.005662727635 -0.1542388797 0.7069090605 0.3847261071 -0.595512569 0.7045288086
-0.007687398233 -0.1602681428 0.7035261989 0.3759858608 -0.5935303569 0.708596468
-0.01956544816 -0.1469578594 0.7182747126 0.1732314229 -0.6250283718 0.7572447062
-0.01009085495 -0.1471165568 0.7155427933 0.3094893396 -0.5901959538 0.7422813177
-0.009610882029 -0.1516174376 0.7111512423 0.3077532649 -0.6000413895 0.73535043
-0.01254663337 -0.1435552537 0.7198172808 0.2775756419 -0.6029700637 0.744977653
-0.03710276261 -0.1544510573 0.7121321559 -0.1231583655 -0.5764769316 0.805640161
-0.04416167736 -0.1552377045 0.7098658085 -0.2243947387 -0.5399810672 0.8095778823
-0.04091309011 -0.160961777 0.7086553574 -0.1426738799 -0.57251513 0.8056903481
-0.05193130672 -0.1268485337 0.7270069122 -0.3758481145 -0.5382073522 0.7487040758
-0.03839835525 -0.144248575 0.7200155258 -0.1617588401 -0.6180911064 0.7644410729
-0.05308786035 -0.1342230588 0.7221887708 -0.4061446786 -0.5419219732 0.7343751192
-0.0481618382 -0.1444514543 0.7157600522 -0.3173059523 -0.5769725442 0.7492480278
-0.04695050046 -0.1365295947 0.7250913382 -0.324192971 -0.560833931 0.7598845363
-0.04572203755 -0.1415382773 0.7216650844 -0.2926415205 -0.5951384306 0.7452564836
-0.0508531034 -0.1391575187 0.7200876474 -0.3683835864 -0.5584486127 0.7389128804
-0.05541745573 -0.1416184157 0.7149958014 -0.4269069433 -0.5308559537 0.7318783998
-0.04520115256 -0.1186203882 0.7340715528 -0.2472053468 -0.4910473824 0.8326850533
-0.02458788455 -0.1195150986 0.7351000905 0.01107988972 -0.5099118948 0.8422417045
-0.03013669141 -0.1180568263 0.7348744869 -0.05312938616 -0.5153532624 0.8298156857
-0.02984309755 -0.1257143766 0.7351768613 -0.02639317885 -0.4962263405 0.8616574407
-0.04127575085 -0.1254380196 0.7338246107 -0.2221864462 -0.5137652755 0.8237028718
0.02015724592 -0.1461361796 0.6844207048 0.7491397262 -0.4451414049 0.4905321598
0.02351921611 -0.1453723013 0.6775522232 0.8113170862 -0.3689317107 0.4055560231
0.02545597777 -0.1493189633 0.6670435071 0.9327329397 -0.2235489935 0.2361561954
0.02279352769 -0.1408749819 0.6835629344 0.7497466803 -0.4405873418 0.4937029183
0.01876253076 -0.141230166 0.6895720959 0.7444894314 -0.4362153411 0.5052268505
-0.001667599543 -0.09507516026 0.6195662618 -0.4859441221 -0.4749517441 0.7323183417
0.001859241631 -0.09054729342 0.6248438954 -0.5193421245 -0.4739125073 0.7098290324
-0.007623073645 -0.08829475194 0.6208999157 -0.4146949351 -0.5208982825 0.7458822727
-0.0696600005 -0.1455322355 0.7011849284 -0.6286020279 -0.4116411209 0.6511080265
-0.07545652241 -0.1411257982 0.6983394027 -0.7330926061 -0.3592440486 0.5772083998
-0.07489968091 -0.1358475238 0.7023180127 -0.7475973368 -0.343206197 0.5627728701
-0.07546777278 -0.1206773371 0.7091313004 -0.7388810515 -0.3386723399 0.5813214183
-0.07948920131 -0.1223365963 0.7059262991 -0.7806190848 -0.3070087433 0.5427165627
-0.05267109722 -0.1527496129 0.7084308863 -0.3640167713 -0.4991223216 0.7851156592
-0.05303614959 -0.147111252 0.7125153542 -0.3829874694 -0.5279796124 0.7562830448
-0.03903073817 -0.0886111632 0.6167837977 0.1527865827 -0.5992233753 0.7678942084
0.02945172973 -0.05910630152 0.671599865 -0.2951713502 -0.3565092087 0.8567700386
0.03539365157 -0.05945971608 0.6682827473 -0.1513309479 -0.349971205 0.9093396664
0.03894244507 -0.06391284615 0.6701563597 0.01132905297 -0.3901819289 0.9063113332
0.02463787422 -0.06899594516 0.6666454077 -0.4830227494 -0.2911672592 0.8239374757
-0.0006948959199 -0.03823651001 0.6626566052 -0.4161329567 -0.6016864181 0.6768980622
0.005077935755 -0.04298830032 0.662879467 -0.492593199 -0.5453558564 0.6768478155
-0.05566923693 -0.04240339994 0.6616572142 0.4804570377 -0.6106844544 0.6243259311
-0.04486679658 -0.03836038709 0.6582246423 0.3074792624 -0.6662432551 0.6766334176
-0.05081404373 -0.03673981875 0.6627991199 0.3959959447 -0.6671353579 0.6264549494
-0.06470766664 -0.0424364768 0.6712068915 0.5820042491 -0.5674557686 0.5756027699
-0.0604525134 -0.0388353318 0.6676486135 0.5428828001 -0.5968647003 0.5896507502
0.02333951369 -0.08588637412 0.6567454934 -0.645260036 -0.4525393546 0.6033583283
0.02712466381 -0.08853495121 0.6615923047 -0.5584142208 -0.504789412 0.654088974
0.02853726409 -0.07397241145 0.6705340743 -0.4019625783 -0.2942357659 0.847779274
0.02779001929 -0.08046872914 0.6665174365 -0.4837213457 -0.3812094033 0.7584904432
0.03249236569 -0.07452899218 0.6746976972 -0.1143821403 -0.364938587 0.9023265243
0.04059834406 -0.073933281 0.6715488434 0.1488126814 -0.4974609613 0.7989848852
0.03497095034 -0.07807867974 0.6703017354 -0.07852154225 -0.4779185653 0.8031848669
0.01922994107 -0.07318983227 0.6564825177 -0.6851377487 -0.3460550606 0.6267860532
0.02010015957 -0.0667457059 0.6617972851 -0.6094706059 -0.3525907099 0.7023127675
0.0009090603562 -0.05642067268 0.649086535 -0.4824672937 -0.5351999402 0.6928462386
-0.02105177939 -0.06714650989 0.6325692534 -0.1356906891 -0.5929198861 0.789883852
-0.01461364701 -0.06899605691 0.6327255368 -0.2550768852 -0.5734621882 0.7779012322
-0.02493811585 -0.07053414732 0.6287012696 -0.0767577365 -0.6037490368 0.7932964563
-0.005573259667 -0.06879331917 0.6358482838 -0.3965343535 -0.5363999605 0.7438753247
-0.0006856393884 -0.07077930868 0.6380924582 -0.4771789014 -0.5020423532 0.7115676403
0.002397951903 -0.06741314381 0.6426048875 -0.5156462193 -0.4913469851 0.6951907873
-0.003113625571 -0.06493862718 0.6404542327 -0.4221175015 -0.528257072 0.733461678
-0.004417708609 -0.1395918131 0.7190917134 0.383503139 -0.5768475533 0.7210589647
-0.00550867524 -0.1447469145 0.7155257463 0.3723408878 -0.5646998286 0.735452652
0.0002671683615 -0.1351791769 0.7180192471 0.4266275764 -0.5562359691 0.7109220624
-0.02128173225 -0.1322072744 0.730207026 0.1364706308 -0.5732351542 0.8028044701
-0.02060685866 -0.1531470716 0.7125439644 0.1333677173 -0.6166564822 0.7657592893
-0.02701542154 -0.1617482007 0.7073993683 0.06972308457 -0.6006228924 0.7925347686
-0.02714289911 -0.1547764242 0.7122506499 0.03383364156 -0.6092012525 0.7890161276
-0.03430051357 -0.1588119119 0.7086057067 -0.05422719195 -0.5826483369 0.8101500273
-0.01532305032 -0.1508607417 0.7148187757 0.2267640978 -0.6090339422 0.7596042156
0.008214582689 -0.1475389153 0.6985692978 0.6168873906 -0.5029409528 0.5854765177
0.0001131390454 -0.1540142149 0.7036553621 0.5025355816 -0.5574073195 0.6549732089
0.0005253211712 -0.1493667066 0.7070347667 0.5091442466 -0.5559960604 0.6543204784
-0.03248181567 -0.1523241401 0.7143782377 -0.05123766512 -0.6013148427 0.7922154665
-0.02612513863 -0.1501230597 0.7161058187 0.06175552681 -0.628303051 0.7727168202
-0.03805016354 -0.1494639367 0.7160100937 -0.1635276973 -0.6109693646 0.770899713
-0.04411263764 -0.1493774951 0.713891983 -0.2434806973 -0.5764182806 0.7771280408
0.01098142844 -0.07798425853 0.6425632238 -0.6240593791 -0.4515590668 0.6369945407
0.0157459639 -0.07448847592 0.6507456303 -0.7054510117 -0.3883734345 0.5889569521
-0.05744633824 -0.1294449121 0.7225543261 -0.4867979586 -0.5062253475 0.7082215548
-0.06206155941 -0.1313010901 0.7173370123 -0.5350843668 -0.4805649817 0.6882559061
-0.05874853954 -0.1355132759 0.7173315883 -0.4854285419 -0.5138449073 0.7044540048
-0.07886198908 -0.1386054903 0.6933833957 -0.8002159595 -0.3025195599 0.5108757019
-0.0791522339 -0.1438661665 0.6898467541 -0.7920318246 -0.3100144267 0.5169004202
-0.08300227672 -0.1420176774 0.6853615642 -0.8539937139 -0.2807663381 0.4376815557
-0.08471313864 -0.1376057565 0.6811457872 -0.8616992831 -0.2660596967 0.4318004549
-0.08644220233 -0.1337445527 0.6759504676 -0.8702194691 -0.2471275777 0.4255886674
-0.08583249897 -0.1330658793 0.6844111085 -0.8659881949 -0.254213959 0.4303446412
-0.09005967528 -0.1294268817 0.6791617274 -0.8673370481 -0.2463141829 0.431745261
-0.07817212492 -0.1313820481 0.6988964677 -0.7969176173 -0.2996343076 0.5155614018
-0.08180525899 -0.1199099272 0.6959694028 -0.8260029554 -0.2548343539 0.4930724204
-0.08211647719 -0.1276051849 0.6947994232 -0.849064827 -0.2481886744 0.4643811584
-0.08005777746 -0.1332136691 0.694075048 -0.8314910531 -0.2699241936 0.4828684926
-0.07064373046 -0.0964499414 0.6272208691 0.5909279585 -0.4712074697 0.6545981765
-0.04948420823 -0.09295582026 0.6159546375 0.3330346346 -0.544670701 0.766166091
-0.06587649137 -0.08750579506 0.630685091 0.5720044374 -0.4958938062 0.652469039
-0.0326997675 -0.09470126778 0.6059768796 -0.04177940637 -0.6254805326 0.7784879208
-0.01981155388 -0.09232217818 0.6128526926 -0.234167099 -0.5798197985 0.7725514174
-0.03293932974 -0.08636526018 0.6154839993 0.04833708704 -0.6309681535 0.7701246142
-0.02588209882 -0.08196219802 0.6203615665 -0.08228762448 -0.6373723745 0.7640575171
-0.03155049682 -0.09002573788 0.6114078164 -0.01960504241 -0.6267231703 0.7750584483
-0.02729477547 -0.08840420097 0.6144582033 -0.07739276439 -0.6130989194 0.7825425267
-0.04458616674 -0.08629344404 0.6192065477 0.2611352205 -0.5957862139 0.7589555979
-0.0395154357 -0.08366365731 0.6195189357 0.1709019244 -0.6160805821 0.7630023956
0.01501924172 -0.08457819372 0.6440850496 -0.6667847037 -0.448277384 0.5904465914
0.01718331128 -0.04349943995 0.6715248227 -0.46439749 -0.4320429564 0.7723306417
0.01220200583 -0.04660370946 0.6662212014 -0.5043442249 -0.4747491181 0.7167535424
0.01586667262 -0.05253411457 0.6655905843 -0.5128483176 -0.4407424033 0.7324969172
0.0200200174 -0.06126121804 0.6643056273 -0.5565928221 -0.372402817 0.7367588282
0.01949890517 -0.05020122975 0.6695352197 -0.4780302346 -0.4101008177 0.7763551474
0.02248973399 -0.05602965876 0.669010818 -0.487799108 -0.3894062638 0.7810480595
0.02368343435 -0.06216559187 0.6679736972 -0.472099781 -0.3402702808 0.812148869
-0.05152885243 -0.04315673187 0.6578717232 0.4185862243 -0.6123588681 0.663795352
-0.007874398492 -0.04907575622 0.6492759585 -0.3502347171 -0.5847917199 0.73079741
-0.01203656662 -0.0453591831 0.6517657638 -0.2911331356 -0.6047978401 0.7368312478
-0.008203191683 -0.04201831296 0.6552091241 -0.322994709 -0.6179028153 0.7159987092
0.02503037639 -0.07464833558 0.6639961004 -0.5442253351 -0.2769179344 0.7895516753
0.02266511135 -0.07648637891 0.6588442326 -0.6688889861 -0.3261743188 0.6569394469
0.01996689476 -0.07990244031 0.653436482 -0.7303055525 -0.3749064505 0.5689820647
0.04993593693 -0.0638840571 0.6553260684 0.1990270913 -0.6945997477 0.6554806828
0.04385615885 -0.06279259175 0.6654397249 0.1016343236 -0.6946626306 0.7075058818
0.04925983399 -0.06796745211 0.6507897973 0.2359837294 -0.6848281026 0.6755279899
0.01065240428 -0.06072674692 0.6549801826 -0.5900400877 -0.4491562843 0.6698287129
0.01558236964 -0.05721011013 0.6625000834 -0.5871352553 -0.4238955677 0.6874869466
0.007176681422 -0.05031171441 0.6583146453 -0.5269405842 -0.5062359571 0.6787713766
0.01107272692 -0.05491664261 0.6579858661 -0.5790513754 -0.4683457911 0.6644600034
0.006184243131 -0.05692138523 0.652690351 -0.5377582312 -0.4997146726 0.6767077446
0.02793324739 -0.05777352303 0.6610055566 -0.3663390279 -0.6175909638 0.6240054369
0.03425267711 -0.0585340634 0.661758244 -0.2647889256 -0.6976549029 0.6005049944
0.03948536515 -0.05883245543 0.6627492309 -0.1815508902 -0.7591734529 0.5858272314
0.02636359632 -0.05349022523 0.6653620601 -0.4020489454 -0.5386781096 0.6889234781
0.02225144766 -0.05610605702 0.6614204049 -0.4601620734 -0.531424582 0.6593286991
-0.001659141853 -0.07540529966 0.6342695951 -0.4646385014 -0.5120298862 0.716622591
0.003642627737 -0.07566839457 0.6380761862 -0.5578303337 -0.4705091715 0.6806192994
0.00710561173 -0.07982730865 0.6383794546 -0.586428225 -0.4706202149 0.6567435265
-0.005986129865 -0.08281943947 0.626211822 -0.4139121473 -0.5254247189 0.7429087162
-0.001702725887 -0.07982124388 0.6301929951 -0.4677707553 -0.5073642731 0.7204936147
-8.97658756e-05 -0.08538478613 0.6273097396 -0.4930644631 -0.4941245317 0.7137895823
0.003448933596 -0.08001877367 0.6326990724 -0.5376601219 -0.4837111533 0.6905177236
-0.009346077219 -0.07802321762 0.6284604669 -0.3556162119 -0.55447644 0.7503134608
-0.01442559902 -0.07625634968 0.6272172928 -0.2563989162 -0.5779716372 0.7733215094
-0.01938655041 -0.0791157335 0.6237108111 -0.1848189384 -0.6068795323 0.7687662244
-0.01417431608 -0.09074638784 0.6162401438 -0.3367784321 -0.5636880398 0.7536378503
-0.01457020268 -0.0860119164 0.6198669672 -0.3004134595 -0.5744672418 0.7602162361
-0.02093201317 -0.08697108179 0.616531074 -0.2021727115 -0.6057810783 0.7633838654
0.02908503637 -0.08705991507 0.6365132928 -0.1984555423 -0.4676691294 0.73436445
0.04433942214 -0.08616752177 0.6374068856 0.2018603534 -0.4983508289 0.801543951
0.03820304945 -0.0860966742 0.6373098493 0.04383814707 -0.4910586774 0.7680746317
0.02524394169 -0.08333359659 0.6387757659 -0.2745949924 -0.502532959 0.6621463895
0.02012076974 -0.08143758029 0.6406292915 -0.4263280928 -0.476711452 0.6491603255
0.04342719913 -0.07883258164 0.6420483589 0.2222929895 -0.5739524961 0.6963812709
0.01900877804 -0.0762411356 0.6452288628 -0.477005899 -0.4624889493 0.6412905455
0.03717906773 -0.07858069241 0.6425014734 0.04488278925 -0.5461720824 0.682718873
0.03035390563 -0.08090538532 0.6407158971 -0.1392706186 -0.5205085278 0.6705392003
0.008127099834 -0.0882075876 0.6327170134 -0.5990220308 -0.4403395951 0.6682691574
0.01251004077 -0.08702997863 0.6388648748 -0.6284570098 -0.4615813196 0.624132812
0.01269846596 -0.09214282781 0.6354863644 -0.6289309263 -0.4479125142 0.6325150132
0.02375522628 -0.09327708185 0.6352185607 -0.2247876078 -0.4421298802 0.7717431784
0.01812384091 -0.08949444443 0.6361572146 -0.4313658774 -0.4488372505 0.7009786367
0.01857636869 -0.09476373345 0.6334651113 -0.3750765622 -0.4387565255 0.7401599884
0.02946705744 -0.09673746675 0.6357539296 -0.07304348797 -0.4461450875 0.8240972161
0.04006598517 -0.09352476895 0.6365677118 0.1798787713 -0.4588588476 0.8644443154
0.03401774913 -0.09368862957 0.6366016269 0.03264847398 -0.4527442753 0.8331559896
-0.03977049887 -0.07753653079 0.6247354746 0.1724490821 -0.6208258867 0.7608729601
-0.03307399154 -0.07239505649 0.6279003024 0.06215254962 -0.6185531616 0.7772936821
-0.03895886987 -0.07177240402 0.6291591525 0.1663089991 -0.618601501 0.7657966614
-0.04461191967 -0.07348681241 0.6285826564 0.2530737519 -0.6118420362 0.7485725284
-0.04316514358 -0.06809484959 0.6328592896 0.2346826047 -0.6155691147 0.750197351
-0.03281099722 -0.06747417897 0.6312399507 0.05777877197 -0.6112525463 0.7866359353
-0.07130532712 -0.08699440211 0.6353862882 0.6246726513 -0.4892738163 0.608027041
-0.07300107926 -0.09324935824 0.6329931021 0.6167494655 -0.4818458855 0.6218490005
-0.07990669459 -0.0718035996 0.6628094316 0.6819193363 -0.5085818768 0.525668323
-0.07868824154 -0.06694978476 0.6670078635 0.6827147007 -0.5095251799 0.5237159133
-0.0697703287 -0.06430571526 0.6551519632 0.6511771679 -0.5197558999 0.5521944165
-0.0736739561 -0.06538376957 0.6589415073 0.6733912826 -0.5123707652 0.5328907967
-0.0710272789 -0.05240515992 0.6688628793 0.6552353501 -0.5255932212 0.5416092277
-0.07374604046 -0.05772637203 0.6692256331 0.6646009684 -0.5241175294 0.5318282247
-0.07469505072 -0.06165677309 0.6645860076 0.6767501831 -0.5124154091 0.5285635591
-0.02162703499 -0.137770921 0.7254036069 0.1380243897 -0.6017034054 0.7807400227
-0.01809175685 -0.1421699822 0.7222900391 0.1897585839 -0.6204405427 0.7563244104
-0.02458591014 -0.1427641213 0.7220174074 0.06900429726 -0.6441370249 0.7597768307
-0.00973591581 -0.1381031573 0.7217965722 0.3141885996 -0.5821408033 0.7462004423
-0.01518243179 -0.1378875226 0.7253013253 0.2436488271 -0.5982411504 0.762819767
-0.01509175636 -0.1316135377 0.7284017205 0.2412532866 -0.5688608885 0.784958601
-0.02717618831 -0.1346998662 0.7299864888 0.0376150012 -0.5689764619 0.8169881105
-0.03993406519 -0.1343625486 0.7293345928 -0.1866948158 -0.5676268935 0.8002393246
-0.03541215137 -0.138763845 0.7259557843 -0.1305816323 -0.6014052033 0.787224412
-0.04145242274 -0.1389531791 0.7231241465 -0.2180122137 -0.5921245217 0.7612106204
-0.03288652748 -0.1342296451 0.7289799452 -0.08483337611 -0.5605803132 0.8163327575
-0.03596302494 -0.1294839531 0.7329429388 -0.1309001744 -0.508600831 0.8485599756
0.008950088173 -0.07277760655 0.6438270807 -0.6144164205 -0.4476103783 0.6490625143
0.04324660823 -0.07145494968 0.6475234032 0.14190799 -0.6283218265 0.6767845154
0.0228603743 -0.07028169185 0.6469643116 -0.3414057195 -0.5074692965 0.6475813389
0.02955568768 -0.07301225513 0.645214498 -0.1467839926 -0.5236232281 0.6653816104
0.03755926713 -0.06791378558 0.6500170231 -0.04210952669 -0.6268606782 0.6573877335
0.02722118981 -0.06774999946 0.6493780017 -0.2806045115 -0.5612477064 0.6440877914
0.04290929809 -0.06642881036 0.6516417861 0.05729094148 -0.6765698195 0.6587758064
0.03566070274 -0.07289951295 0.6457645297 -0.00914948713 -0.5644723177 0.6725025177
0.008431171998 -0.06718172133 0.6482453942 -0.602609694 -0.4520919919 0.6488887668
0.01350819692 -0.06892284751 0.6524849534 -0.671240747 -0.4067221284 0.6108911633
-0.08520104736 -0.122490406 0.6916040182 -0.8455638289 -0.2456934452 0.4686941206
-0.08759326488 -0.1234083027 0.6866771579 -0.8605496883 -0.2356808037 0.4483816326
-0.08193483949 -0.1236763895 0.7007654905 -0.8113747239 -0.2810835242 0.509259522
-0.08635692298 -0.125097245 0.6809834242 -0.8787386417 -0.2155705839 0.4254085422
-0.08407696337 -0.1303463876 0.6895954013 -0.862567842 -0.240552485 0.4447444081
-0.05801444128 -0.08067961782 0.628962338 0.4528650641 -0.5600924492 0.6919658184
-0.04738167673 -0.08272238076 0.6226742268 0.3069249094 -0.5870118737 0.7461125255
-0.05161143839 -0.08138532192 0.6255143285 0.3653661907 -0.5781154037 0.7234224081
-0.05745605752 -0.0927689597 0.6199675798 0.4557772577 -0.5222195387 0.7200677395
-0.05870995298 -0.08743175864 0.6246191859 0.4741207957 -0.5204246044 0.7036920786
-0.05323913693 -0.088390477 0.6205892563 0.3786624372 -0.5497248173 0.7420122027
-0.06396356225 -0.09127213806 0.6251945496 0.5564792156 -0.4838729203 0.67527771
-0.06693454832 -0.04805277288 0.6694983244 0.6072385311 -0.5550337434 0.5656043887
-0.06272113323 -0.04756718874 0.6645162702 0.5631605983 -0.5755406618 0.5887895226
-0.003478555707 -0.0520150587 0.6506668925 -0.4200635254 -0.5560770631 0.7127653956
-0.006449159235 -0.05418651924 0.6462467313 -0.3688814342 -0.5741554499 0.7305293083
-0.01348328497 -0.05057212338 0.6463193297 -0.2556744218 -0.5988224149 0.7566092014
0.05904546008 -0.07768427581 0.646333158 0.492698729 -0.540620327 0.6803241372
0.05285662413 -0.07458773255 0.6455363631 0.4014253914 -0.5835251808 0.7047812939
0.0497754477 -0.0871264264 0.6379270554 0.3150219619 -0.5158284307 0.7929150462
0.05381212756 -0.07938810438 0.6425998211 0.4112664461 -0.5535535812 0.7224066854
-0.02726239897 -0.06463140249 0.633230567 -0.02739498205 -0.6001424789 0.7965929508
-0.03499034047 -0.06005071104 0.6369142532 0.1200853884 -0.6144444942 0.7781894207
-0.0423274003 -0.05762788281 0.6422316432 0.2483670264 -0.6208577156 0.7404320836
-0.03316123411 -0.04644121602 0.6483845115 0.1155238673 -0.6332761049 0.7597325444
-0.01899546385 -0.04715077579 0.6483975053 -0.1648385078 -0.6161923409 0.7602578998
-0.02872884274 -0.04997452721 0.6447867751 0.03745739162 -0.6152150035 0.7808762789
-0.02300071903 -0.05026593432 0.6443483233 -0.07319704443 -0.6102516651 0.7845084071
-0.04338416085 -0.04761181027 0.6498131752 0.3026296198 -0.6178247333 0.7247470617
-0.03755194321 -0.04418006167 0.6511104107 0.2036212534 -0.6356664896 0.7402579784
-0.03598501161 -0.05609692261 0.6414806247 0.1431895643 -0.6174337268 0.7709925175
-0.0284033753 -0.05753954872 0.6380650401 0.0184700042 -0.612167418 0.7877423167
-0.0266994033 -0.04458450153 0.6486290097 -0.009303370491 -0.6436862946 0.7622520328
-0.03152283281 -0.04237340763 0.6513884664 0.09057100117 -0.6525531411 0.7453092337
-0.01733450033 -0.04180822521 0.6526955366 -0.1991735846 -0.6312675476 0.7438306808
-0.01543438807 -0.03745618835 0.6562843323 -0.2096796632 -0.6456951499 0.7333735824
0.04790923372 -0.09719759971 0.638487339 0.3419452012 -0.5697875619 0.743580699
0.04282582924 -0.1001603603 0.6372244954 0.2679662704 -0.5524686575 0.7883800864
0.05350054055 -0.09224066138 0.6402506232 0.3723338842 -0.5355793238 0.7566702962
-0.08851519972 -0.1190591082 0.6787903905 -0.6692327261 -0.2608354986 0.4458042979
-0.08716645837 -0.1136108711 0.6752002239 -0.4663487375 -0.2923819125 0.4600730538
-0.08552012593 -0.1180313602 0.6841961741 -0.7801348567 -0.2265077829 0.4436546266
-0.08427321166 -0.1119691953 0.6796381474 -0.5405743718 -0.2653390765 0.4599795938
-0.08576705307 -0.1083550602 0.6600747108 0.04028736427 -0.3811231554 0.5115240216
-0.08234124631 -0.09414236993 0.6472844481 0.6602841616 -0.480969727 0.5591688752
-0.08497706801 -0.102725558 0.6627447009 0.07727906853 -0.3837649822 0.5027341843
-0.08333133161 -0.09813859314 0.6512470245 0.4760822356 -0.451148212 0.5444627404
-0.08344107121 -0.1014817357 0.6447572112 0.5863438845 -0.4729758799 0.5672185421
-0.08376795053 -0.09766653925 0.6583325863 0.2941773832 -0.4186348319 0.5191907883
-0.08820166439 -0.1196004152 0.671428442 -0.5015414357 -0.2907086611 0.4641760886
-0.08580008149 -0.1148174182 0.6603129506 -0.1460870355 -0.34549582 0.4938474596
-0.08354637772 -0.1061250865 0.6668511033 -0.08841404319 -0.3466661572 0.4999417961
-0.08145198226 -0.08786318451 0.6559068561 0.5513269305 -0.4554993808 0.5314208269
-0.08238276839 -0.09632731974 0.6647101045 0.1556854993 -0.3861513436 0.5051537156
-0.08336165547 -0.103571035 0.6552138329 0.2696032524 -0.4131019413 0.5359774232
-0.08216684312 -0.09356990457 0.6536868215 0.5012738705 -0.4500701129 0.5392367244
-0.08331365883 -0.104744263 0.6729698181 -0.2246118486 -0.3196955919 0.4805807173
-0.08449486643 -0.1134111732 0.6702859402 -0.3278137743 -0.3065178394 0.4866793156
-0.086197339 -0.1188485175 0.665382266 -0.3873014748 -0.3015266061 0.467979759
-0.06001866981 -0.07799655199 0.6333956718 0.4955950677 -0.5662215352 0.654366672
-0.05440427363 -0.07671896368 0.629811883 0.4076334238 -0.5856558681 0.6989601254
-0.04987682402 -0.07163224369 0.6319180727 0.3325576186 -0.6045544744 0.7195619345
-0.05645416677 -0.07292640209 0.6343189478 0.4373625517 -0.588090539 0.6796141863
-0.05364032462 -0.06879230589 0.6379185319 0.4011816084 -0.5969129801 0.6849443913
-0.04685277119 -0.06235977635 0.6396500468 0.3158663213 -0.6136193871 0.7221419215
0.01669223048 -0.0624387376 0.6533074379 -0.5238203406 -0.4875400066 0.6446252465
0.03720284253 -0.06372891366 0.6535143852 -0.09718093276 -0.6537749171 0.649301827
0.02130831033 -0.06022959575 0.6555796266 -0.4278957248 -0.5215632915 0.6525447965
0.02033133805 -0.06622003764 0.6501809955 -0.4479899406 -0.521851182 0.6356952786
0.0316551514 -0.06066390872 0.6558768749 -0.2126801908 -0.6051290035 0.6554988027
0.0257312879 -0.06254561245 0.6538097858 -0.3358170986 -0.5601739287 0.6479547024
0.04256508127 -0.06192910671 0.6564034224 -0.01221740525 -0.7153555155 0.6388195157
0.01538323611 -0.06208811328 0.6588281989 -0.6135134697 -0.4083004594 0.6747247577
-0.05214865878 -0.05799059197 0.645388186 0.3919866383 -0.6036221981 0.6929926872
-0.05285375938 -0.06315679103 0.6408177614 0.3926629424 -0.6029399037 0.6938788891
-0.04690273851 -0.05416896194 0.6463293433 0.342146188 -0.6062839627 0.7150478959
-0.0550689362 -0.05126968399 0.6527692676 0.4542978108 -0.5836167932 0.672616899
-0.04907941073 -0.04677927867 0.6529387832 0.3855203688 -0.5998517275 0.6987145543
-0.05042416975 -0.05159740523 0.649600625 0.3855113685 -0.6032948494 0.6969387531
-0.06678049266 -0.05883948505 0.6560465693 0.6227744818 -0.5286484957 0.574981153
-0.01186436322 -0.05614618212 0.6423939466 -0.2649099231 -0.5862489343 0.7600740194
-0.005777508486 -0.05934851244 0.6429296732 -0.3705315292 -0.5571730137 0.7394331694
-0.01475999411 -0.06044608727 0.6387727857 -0.2361474931 -0.5831363797 0.7766062021
-0.009295606986 -0.063108854 0.6391426921 -0.3220757842 -0.5574090481 0.7597551942
-0.02238309011 -0.06158075109 0.6353791952 -0.09005545825 -0.5990696549 0.7934380174
-0.01659878716 -0.06431899965 0.635371089 -0.2069299072 -0.5792072415 0.7858092189
-0.01815446094 -0.05573771149 0.6406103969 -0.1478626579 -0.5962505341 0.7847889066
-0.02339455858 -0.05495943502 0.6402186751 -0.05324701965 -0.6003514528 0.7956040502
-0.04374863207 -0.04315557331 0.6532842517 0.3123417795 -0.6192401052 0.7174464464
-0.03712381795 -0.03858923912 0.6549002528 0.2059731036 -0.6522986293 0.7254644632
-0.03574113548 -0.03400046378 0.6587370634 0.1599140167 -0.6804084182 0.7145630121
-0.02591037937 -0.0396999158 0.6523977518 -0.02516056225 -0.6625338793 0.7466861606
-0.02719224244 -0.03551574796 0.6559628844 0.001263867249 -0.6708022952 0.7359127402
-0.0620046556 -0.07465936989 0.6375366449 0.5234581828 -0.5616431832 0.6357176304
-0.06611145288 -0.08284381777 0.6348938942 0.5904854536 -0.5103849173 0.6235718131
-0.06993348151 -0.05585710332 0.6640678048 0.6471747756 -0.5284078717 0.5477311611
-0.06064981222 -0.05403920263 0.6549613476 0.5318879485 -0.5589334369 0.6312137246
-0.06419146806 -0.05159487575 0.6599345207 0.591272831 -0.5534166098 0.5832691193
-0.07106479257 -0.05944725126 0.6591091156 0.6698867083 -0.5138537288 0.5359121561
-0.07422953844 -0.08623325825 0.6405673027 0.6550931334 -0.491001606 0.5736907125
-0.07618060708 -0.09288820624 0.6381079555 0.6422243714 -0.4910961092 0.5878610611
-0.07950685173 -0.09377566725 0.6419641376 0.6607533693 -0.4895838797 0.568754673
-0.07810553163 -0.07936053723 0.6530478597 0.6827487946 -0.4941340387 0.5380197167
-0.07889010012 -0.07590724528 0.657797873 0.683827877 -0.5022304654 0.5290994644
-0.07999078184 -0.0869827494 0.6488976479 0.680519402 -0.4839889109 0.5496647358
-0.07000814378 -0.07043715566 0.6510477662 0.6288943291 -0.5288387537 0.565195322
-0.05837988481 -0.06579858065 0.642852366 0.4762169421 -0.5789836645 0.6561649442
-0.05897415429 -0.05709190667 0.6506562829 0.5001161695 -0.5691940784 0.6504940987
-0.06334519386 -0.06058249995 0.6512233615 0.5684448481 -0.5489484072 0.6116606593
-0.06219553947 -0.06460262835 0.6472994685 0.5458769202 -0.555871129 0.6199973226
-0.057600867 -0.06106072664 0.6468548179 0.4728363454 -0.5789880753 0.6560958624
-0.0745274052 -0.07422123104 0.6528919935 0.6715124846 -0.5074302554 0.5393368602
-0.06637690961 -0.06964183599 0.646732986 0.5915566087 -0.5424654484 0.5938185453
-0.07374044508 -0.08201369643 0.6445878744 0.6672695875 -0.496630311 0.5548578501
-0.06923119724 -0.08041237295 0.6412081122 0.6453065872 -0.5081948638 0.5701829791
-0.07184690237 -0.07721860707 0.6475020051 0.660743475 -0.5087612271 0.5510828495
-0.06717638671 -0.07482577115 0.6426681876 0.6003893614 -0.5353049636 0.5924692154
