# .PCD v0.7 - Point Cloud Data file format
VERSION 0.7
FIELDS x y z normal_x normal_y normal_z
SIZE 4 4 4 4 4 4
TYPE F F F F F F
COUNT 1 1 1 1 1 1
WIDTH 512
HEIGHT 1
VIEWPOINT 0 0 0 1 0 0 0
POINTS 512
DATA ascii
-0.007122933399 -0.07889186591 0.5644974113 -0.3254373074 -0.8434192538 0.386269182
-0.0003793825745 -0.07838200033 0.56444484 -0.1972526163 -0.959081471 0.1968557537
0.009725776501 -0.128585279 0.5146896839 0.2316102535 -0.07288952172 0.8649312854
-0.01165074669 -0.1475509107 0.5401595235 0.7099273205 -0.4495052695 0.5388993025
-0.08201594651 -0.154799372 0.5102815032 -0.2798709571 -0.4650044143 0.3774321973
-0.08111018687 -0.1486945152 0.5075733066 -0.08597566932 -0.4199311137 0.3331848085
-0.02644245699 -0.06883672625 0.539721787 -0.4493821561 -0.7388066649 0.4867940247
-0.01692039147 -0.0766133517 0.5523721576 -0.4428658187 -0.7619765401 0.4642343521
-0.02299082465 -0.07096251845 0.5469129086 -0.4082689285 -0.7608382106 0.4930302799
-0.02596336417 -0.06130376086 0.5441967249 -0.5259569287 -0.7721315026 0.3422434628
-0.01961692423 -0.07540392131 0.5447295904 -0.5005822778 -0.734315455 0.452028662
-0.01176349167 -0.08030093461 0.5593399405 -0.4121067226 -0.7759474516 0.4745007753
-0.08669615537 -0.09837376326 0.52013731 0.6847069263 -0.544495821 0.4834119976
-0.08290218562 -0.1349685341 0.5295160413 -0.564510107 -0.5648813844 0.4027201533
-0.08535714447 -0.1147452518 0.5271998048 0.08338479698 -0.5578052998 0.4390135407
-0.08664327115 -0.1005696133 0.5250992179 0.5242270231 -0.5565467477 0.4656909704
-0.08560046554 -0.1033732891 0.5120301843 0.6854580045 -0.5265696645 0.4997959137
-0.08258531988 -0.1269649267 0.5201214552 -0.1949613839 -0.5523739457 0.441539973
-0.08359079808 -0.1200481206 0.5182582736 0.05876815319 -0.5448742509 0.4571681619
-0.08799057454 -0.1066614166 0.5249371529 0.4609591961 -0.5316889882 0.4580876231
-0.08532564342 -0.121234864 0.5265724063 -0.05384812504 -0.5471945405 0.4316903949
-0.08394102752 -0.1145478338 0.5148934126 0.2768099606 -0.538666904 0.4749661088
-0.05457987264 -0.1318689883 0.5828027129 -0.07268619537 -0.8293887973 0.5531488061
-0.01559923589 -0.1692081839 0.5289859772 0.5872894526 -0.5721922517 0.5613388419
-0.06954358518 -0.1496180594 0.5477048159 -0.6585445404 -0.6448201537 0.3870870471
-0.07241477817 -0.1517061889 0.5363351703 -0.6968014836 -0.584051013 0.4129882753
-0.01246407535 -0.1256146729 0.537989378 0.3084957898 -0.5336540341 0.4904494882
-0.012506973 -0.1059727073 0.5315282941 -0.2684245706 -0.6188399196 0.4608163238
-0.01205676794 -0.1180503815 0.5336546302 0.09367409348 -0.5520705581 0.4782406688
-0.01325928327 -0.1346716285 0.5445193052 0.5603710413 -0.5220442414 0.5056456327
-0.01430636924 -0.1252163202 0.5458809733 0.2648376524 -0.5978997946 0.4933104813
-0.01487361919 -0.1342196614 0.5513995886 0.5190966725 -0.5787791014 0.5079969764
0.02883724868 -0.0770489946 0.5466789603 0.2786370218 -0.7467074394 0.591295898
0.02635743842 -0.07343059778 0.5510593057 0.1241641641 -0.8346523046 0.4985288382
-0.01604842581 -0.1531282067 0.5415454507 0.6291451454 -0.4808397293 0.6081611514
-0.03440604359 -0.1743643284 0.5311820507 0.1590406001 -0.7392063737 0.6120861769
-0.02812188677 -0.173355341 0.5323637128 0.302711606 -0.7026347518 0.6270751953
-0.08419933915 -0.1194377095 0.5005791783 0.6150134802 -0.424226135 0.4052948356
-0.0834916085 -0.1308117807 0.5135932565 -0.004484132398 -0.473631531 0.3825926483
-0.08326173574 -0.1157051548 0.5066002011 0.4342430234 -0.5001756549 0.463021785
-0.08465193212 -0.127393499 0.5013453364 0.4928053916 -0.3841281235 0.3486890495
-0.08340134472 -0.1213413328 0.5087355971 0.2882342637 -0.4860302806 0.4307001531
-0.07297306508 -0.1573931128 0.5351579189 -0.6836900711 -0.5757401586 0.4477362931
-0.07829981297 -0.1474345624 0.5400331616 -0.6944959164 -0.5951679349 0.403069526
-0.07302471995 -0.1509793848 0.5425983667 -0.6752305627 -0.6310473084 0.3813036978
-0.07592587918 -0.1382161379 0.5552385449 -0.6237864494 -0.6475753188 0.3937954307
-0.08307076991 -0.1223439127 0.543992281 -0.1177917421 -0.5969780087 0.4205392003
-0.07888014615 -0.135390088 0.5493617654 -0.5082754493 -0.6247488856 0.3987801075
-0.08069645613 -0.124271065 0.5488283634 -0.2019973844 -0.6154988408 0.4170923531
-0.08153387159 -0.1309410036 0.5447099805 -0.356605202 -0.6052188277 0.4063628316
-0.08710392565 -0.1092051715 0.5390159488 0.2726336718 -0.5705477595 0.4424278736
-0.08920957893 -0.1054059416 0.5328626037 0.4546499848 -0.5440394282 0.4480672479
-0.08681672066 -0.115819335 0.5353862047 0.1480816752 -0.560267508 0.4309629202
-0.08418081701 -0.1149379611 0.5407797694 0.1464017779 -0.5782837272 0.4317267537
-0.09037343413 -0.09744950384 0.5299788713 0.7083300352 -0.5269440413 0.4602012634
-0.08251725882 -0.1274425983 0.5379958153 -0.282923013 -0.5811600685 0.4125672281
-0.08333565295 -0.1304823309 0.5327763557 -0.3951575756 -0.5671003461 0.4084259272
-0.08122047037 -0.1342522502 0.5378214717 -0.5187402964 -0.5872262716 0.4019841552
-0.08559770137 -0.1219632924 0.5333428979 -0.05694600195 -0.5589563847 0.4212728441
-0.08073251694 -0.1520156711 0.5247466564 -0.7071386576 -0.5671513081 0.4220398068
-0.08322710544 -0.1434782147 0.5047929287 0.08254551142 -0.3546371162 0.1926326305
-0.08236102015 -0.136989221 0.5103376508 0.1200939789 -0.3693118989 0.2449096739
-0.07967217267 -0.1443612427 0.5224350095 -0.4715782106 -0.4921096861 0.3595663905
-0.08245120943 -0.1393930465 0.5255348086 -0.5420817137 -0.5230898261 0.3630927801
-0.07881620526 -0.1549927443 0.5190435648 -0.6647134423 -0.5498489738 0.4492292404
-0.08249314129 -0.1375025511 0.5042183399 0.340169698 -0.3140738308 0.2123527229
-0.08086086065 -0.143887639 0.5122087002 -0.1133094132 -0.41782251 0.3100480139
-0.07978132367 -0.1487145275 0.5168762803 -0.4099918604 -0.4868405759 0.3779275119
-0.08339720964 -0.1358720064 0.4978453219 0.6015508175 -0.2578777373 0.1685506552
-0.01538961846 -0.07164926827 0.5615817308 -0.4113167524 -0.7898702621 0.4481842518
-0.02999734133 -0.05496201292 0.5490509272 -0.4399572015 -0.7881530523 0.4014861882
-0.02221318521 -0.06795406342 0.5557898879 -0.3164574504 -0.7725096345 0.5372220874
-0.03287670016 -0.06073286757 0.5416978002 -0.3013817072 -0.7669861913 0.5640261769
-0.03172864765 -0.06050694734 0.5470867157 -0.2544534802 -0.7591247559 0.5930407643
-0.02723617293 -0.06507206708 0.5499095321 -0.293213129 -0.7670943141 0.5604660511
0.02600972727 -0.1073981971 0.5160207152 -0.04650177062 -0.477327168 0.8688954115
0.01591833495 -0.1170571595 0.5136873722 -0.04870034009 -0.1105534285 0.9835174084
-0.01886605844 -0.077401191 0.5361505747 -0.6188333035 -0.6827914119 0.3735855818
-0.01473454945 -0.07985461503 0.542994678 -0.5712964535 -0.699570477 0.3964333534
-0.02275243588 -0.0735938251 0.5375106335 -0.5489438772 -0.7101832032 0.4379909933
-0.01229697093 -0.08083324879 0.5497865677 -0.4959343374 -0.726945281 0.4451017678
-0.01953055896 -0.06923801452 0.5415318608 -0.6180411577 -0.6967866421 0.3451051712
0.01630321145 -0.06888473779 0.5617027879 -0.1196883768 -0.9424248934 0.3066425622
0.02309061959 -0.07091007382 0.5560798645 -0.004958841018 -0.9053575397 0.416983366
0.009088590741 -0.06882864237 0.5624924898 -0.1596152782 -0.9567869306 0.2028042823
-0.005900258664 -0.07249643654 0.5466122031 -0.4915220141 -0.7457154989 0.319408685
0.01287394017 -0.06921999156 0.5571789145 -0.1332312673 -0.9130778313 0.3121217787
0.001305577345 -0.07122125477 0.5507899523 -0.3531195819 -0.8112778068 0.3147144616
0.006157528143 -0.06994239241 0.5565133691 -0.2388401479 -0.8870280981 0.2663300037
-0.001462685643 -0.07070460916 0.5561557412 -0.3557801843 -0.8617895842 0.2081994861
0.01218266226 -0.07614254206 0.5444700122 -0.05092773587 -0.6993608475 0.5071864724
0.001976596192 -0.07545468956 0.5428222418 -0.2850802243 -0.6804379821 0.4462364316
0.01759177819 -0.0696720928 0.5541830659 -0.06724248081 -0.8870183229 0.3984116316
0.01900531538 -0.07508528233 0.5475336313 0.0744350031 -0.7514367104 0.5166175961
0.01373176742 -0.07282876223 0.5491408706 -0.08560808748 -0.7910649776 0.4458846748
0.007688952144 -0.07083213329 0.5502207875 -0.2568959296 -0.8211655021 0.376992166
-0.01234237477 -0.1415892839 0.5460676551 0.6890855432 -0.5049402714 0.512783885
-0.01481518243 -0.1407378614 0.5519071221 0.642195642 -0.5601850152 0.5203438401
0.02097958513 -0.07565503567 0.560139358 -0.01873029768 -0.9107196331 0.3978242576
0.02168482542 -0.07887749374 0.5534318089 0.1083915532 -0.836853981 0.4591554105
0.01115836576 -0.07927370816 0.5614834428 -0.07415634394 -0.9307109118 0.3041611016
0.01617881842 -0.08202727139 0.5520623922 0.1160066053 -0.8251613379 0.4240517616
0.026178075 -0.08608655632 0.5378050804 0.1261462867 -0.7836225033 0.5828354359
0.02061395161 -0.08426853269 0.5451071858 0.09981171787 -0.8134211898 0.494818002
0.01877064817 -0.07858087867 0.5431232452 0.1171201766 -0.692540586 0.557913959
0.02510310151 -0.08062200993 0.5422391891 0.2697107792 -0.6975587606 0.5970591903
0.03249053657 -0.09764519334 0.5228214264 0.0228985399 -0.6227038503 0.7742807269
-0.02557634562 -0.07559453696 0.5244204998 -0.475063324 -0.7278888822 0.493434906
-0.0221866183 -0.07942911983 0.5229225159 -0.5151882172 -0.719973743 0.4581263661
-0.06368605047 -0.05700358003 0.5440654159 0.2957176566 -0.7725335956 0.5455399156
-0.0543073304 -0.05779623985 0.5374167562 0.04364322126 -0.7901797295 0.610634625
-0.05769459903 -0.05554244295 0.5443229079 0.1600066423 -0.7887851596 0.5652759075
-0.03589842096 -0.05681853741 0.545094192 -0.2099386305 -0.7557988763 0.6187183857
-0.04259514064 -0.05781098455 0.5406190157 -0.1181777269 -0.7856124043 0.6042927504
-0.05047053844 -0.05479173362 0.5421708822 -0.01697350852 -0.8087717295 0.5838555098
-0.07742259651 -0.06199157611 0.5488465428 0.4944647551 -0.6943601966 0.5148761272
-0.08483546227 -0.06792340428 0.5513288379 0.5608139038 -0.6523690224 0.4995193481
-0.0892110765 -0.0715617016 0.5531576276 0.6004294753 -0.6281818748 0.4884824455
-0.0813447088 -0.06822181493 0.5466832519 0.5777881145 -0.6422961354 0.499053061
-0.03645882383 -0.1488531679 0.5625119805 0.2628405094 -0.7561557889 0.5979306102
-0.05383842066 -0.1484051049 0.5631375909 -0.1906376481 -0.8074607253 0.548613131
-0.04811589047 -0.1507778615 0.55934304 -0.04932259396 -0.7871252894 0.5764119029
-0.04578330368 -0.1320779771 0.5832429528 0.03151829541 -0.8143333197 0.57141608
-0.03574126586 -0.1367484927 0.5761246681 0.1935632825 -0.7566913366 0.6193753481
-0.03941915929 -0.1334696114 0.5821474791 0.1113847047 -0.7913514972 0.5963195562
-0.04359094799 -0.1386249065 0.5777803659 0.05348019674 -0.7791516185 0.6234867573
-0.05193990469 -0.1381537318 0.5791964531 -0.06779391319 -0.8127027154 0.5703423619
0.001056365436 -0.0716695115 0.5650713444 -0.2295749784 -0.9556716681 0.1788094938
-0.006266717333 -0.073004134 0.5649075508 -0.3225412369 -0.868712008 0.3353439271
-0.01588108204 -0.06645342708 0.5593041778 -0.403680861 -0.8257610202 0.365029186
-0.008137196302 -0.06504568458 0.5605766177 -0.3101965785 -0.9072037935 0.23369205
-0.02329916693 -0.05713227764 0.5530367494 -0.4456948638 -0.8257716298 0.318433702
-0.01699182019 -0.06437072903 0.5497249365 -0.4980521202 -0.7812704444 0.2996687591
-0.00798635371 -0.06908201426 0.5527811646 -0.4352633953 -0.8171078563 0.2439757437
-0.01220926363 -0.07126838714 0.5463365912 -0.5589222312 -0.732039392 0.2968164682
-0.01395070087 -0.06092546508 0.5564987659 -0.368901819 -0.8715848327 0.2502416968
-0.001569405431 -0.06699991971 0.5611600876 -0.2739395797 -0.9271137714 0.1712216288
-0.01349341124 -0.1157663912 0.5399009585 0.004575667903 -0.6135931015 0.4743350744
-0.01103624701 -0.09993091971 0.5429140329 -0.2611517906 -0.6631563902 0.4468502402
-0.01015093736 -0.09210669994 0.5551967621 -0.254472971 -0.7229961753 0.4976253808
-0.01446097065 -0.1285543293 0.5504986644 0.372125864 -0.5998800993 0.4884627759
-0.01242294256 -0.1115549132 0.5448400378 -0.01843025535 -0.6340398192 0.4587528706
-0.01286781486 -0.1151722819 0.5492045879 0.1042565182 -0.6361364722 0.4787569344
-0.009168620221 -0.08388740569 0.5533301234 -0.4324219227 -0.7420886755 0.48702389
-0.009943494573 -0.09113825113 0.5290829539 -0.5997184515 -0.6485108137 0.3842766881
-0.009656377137 -0.08838027716 0.5404571295 -0.509141922 -0.6904801726 0.4326720238
-0.01073933113 -0.09767723829 0.5346169472 -0.407441467 -0.6453204751 0.4102396965
-0.01171051711 -0.1057676747 0.5376601219 -0.2171817869 -0.6301005483 0.4258950651
-0.01121861581 -0.1010746583 0.5560719967 -0.07486093789 -0.6987226605 0.5041642189
-0.01042153966 -0.0948516801 0.5395948887 -0.3982386291 -0.6685373187 0.4309236407
-0.009884082712 -0.09044632316 0.535500288 -0.5323638916 -0.6696012616 0.4118465185
-0.0008896234212 -0.07952266932 0.537306726 -0.4240803123 -0.6906470656 0.4332484007
0.01617373899 -0.08521760255 0.5345546603 -0.1172731817 -0.7422644496 0.5394441485
0.00970404502 -0.0831932351 0.535472393 -0.2344625592 -0.7225245833 0.4991391003
0.004264135845 -0.08021178842 0.5374362469 -0.3248311877 -0.707527101 0.4656304717
-0.01219648682 -0.07582487911 0.5390595794 -0.6278674603 -0.6563483477 0.3628562689
-0.008503035642 -0.08523257822 0.5308457017 -0.6136506796 -0.6572942734 0.38340801
-0.003020426957 -0.08505798131 0.5318292975 -0.5022736192 -0.6763869524 0.4181266427
0.01091927849 -0.08803529292 0.531142056 -0.2409366667 -0.7206506729 0.5053808689
-0.007617465686 -0.07836446166 0.5373786092 -0.5519914031 -0.6689349413 0.3910531104
0.003301883116 -0.08601672202 0.5318825841 -0.3812448382 -0.6969525218 0.457817167
0.01472483296 -0.08150004596 0.5384779572 -0.0535441488 -0.7114869952 0.5312256217
-0.08163437247 -0.1227429509 0.4958426058 0.6230065823 -0.3912390172 0.364387542
-0.07968916744 -0.1214298829 0.5045453906 0.1928249002 -0.5431088805 0.521774292
-0.0821325779 -0.1311682165 0.5052689314 0.2967696488 -0.3842343092 0.2948483229
-0.08426820487 -0.1306996942 0.4929620028 0.8721152544 -0.2099672556 0.1289574653
-0.08169858158 -0.1378546208 0.517267108 -0.1757601202 -0.4456357658 0.3047434092
-0.08038587868 -0.126699388 0.5083433986 0.08797715604 -0.5076352358 0.4480611086
-0.07946621627 -0.1162990704 0.4988215864 0.398144275 -0.5446296334 0.5601223111
-0.01720005088 -0.1477046609 0.5419588685 0.641392231 -0.4910610914 0.5761817098
-0.01049714815 -0.1569339782 0.5316125751 0.6844873428 -0.444966644 0.5760143399
-0.01244697813 -0.1516922265 0.5360615849 0.6817002892 -0.4502721429 0.574385345
-0.03917872906 -0.1690329313 0.540538013 0.08605831116 -0.7701416612 0.6236630082
-0.03962342069 -0.1735187024 0.5352140069 0.04821780697 -0.7725793719 0.6182082295
-0.03984986991 -0.1638103426 0.5434845686 0.0849897489 -0.7314915061 0.6496548057
-0.04453327134 -0.1617947966 0.5477843881 -0.0176646132 -0.761519134 0.6280050874
-0.04804099724 -0.1637827754 0.543649137 -0.113928549 -0.7615112662 0.6255888939
-0.03442148492 -0.1702625304 0.5373597145 0.1853539497 -0.7482639551 0.6354403496
-0.08421530575 -0.1167039797 0.49563694 0.7655377388 -0.4260382354 0.4377787709
-0.0823700577 -0.1094710082 0.4987925589 0.6442063451 -0.5327154994 0.5473073125
-0.07989922911 -0.1147398949 0.4900856018 0.596609652 -0.5432648659 0.590677917
-0.07704205066 -0.1423785985 0.5435328484 -0.6837450266 -0.6157102585 0.3887473047
-0.07908668369 -0.1409287304 0.5367904902 -0.7038674951 -0.5890386105 0.3938318789
-0.07320129126 -0.1441532224 0.551150322 -0.6576164365 -0.6465310454 0.386300832
-0.07820928842 -0.1444437504 0.5322018266 -0.719050765 -0.5693574548 0.397018224
-0.06913682073 -0.1472910792 0.5536137223 -0.5528178811 -0.7002795339 0.4285414517
-0.0429443717 -0.1550306529 0.5585098267 0.07732826471 -0.7857542038 0.6083997488
-0.04074459523 -0.1584887654 0.5535305142 0.1130637899 -0.7717482448 0.6219767928
-0.02336979099 -0.07403742522 0.5298689604 -0.5119083524 -0.7095640302 0.4665264487
-0.01470287703 -0.1288432777 0.557151854 0.4462660849 -0.6242292523 0.515286088
-0.01475009322 -0.1190341264 0.5615662932 0.2221072763 -0.7024300694 0.5179483294
-0.007018795703 -0.09565042704 0.5608107448 -0.05523570254 -0.7962275147 0.4672746062
-0.01014700532 -0.1094323695 0.5603166819 0.1516847461 -0.7411071062 0.4839948416
-0.01633279212 -0.1367772222 0.5592726469 0.5630242229 -0.6309783459 0.5171014071
-0.0050304709 -0.08485142887 0.5618823171 -0.2292652428 -0.8447805047 0.4553968012
-0.01279054862 -0.1137995943 0.5627958179 0.1733385175 -0.7458202839 0.4937364459
-0.0110914968 -0.1034000292 0.5626189709 0.01175803691 -0.7709114552 0.4822700918
-0.01731230319 -0.1303795129 0.5633790493 0.3920055628 -0.6937741637 0.5252429247
-0.01642143354 -0.1244233325 0.5629576445 0.2919028401 -0.7034547329 0.5245086551
-0.01347289234 -0.09110867977 0.5638488531 -0.2549380064 -0.7776449323 0.4841427207
-0.02328771912 -0.1274415404 0.569024682 0.2133101225 -0.746064961 0.5621145964
-0.01859953627 -0.1156535372 0.5660459995 0.09453359991 -0.745432198 0.5255743265
-0.01175059658 -0.08531574905 0.562887609 -0.3261263967 -0.7815413475 0.4705339968
-0.02585492097 -0.1336744279 0.5706759691 0.274166286 -0.7470385432 0.5820955634
-0.01401847508 -0.09690705687 0.5625292063 -0.2067915946 -0.760704875 0.5325821042
-0.01746079512 -0.1032391563 0.5660446882 -0.1199673042 -0.7717211246 0.5205513239
-0.01917957328 -0.1086839214 0.5671285391 -0.0516125299 -0.769118011 0.5308461785
-0.02271510102 -0.1215135902 0.5688786507 0.106841363 -0.7579787374 0.5636599064
-0.02672258392 -0.1563082635 0.5456326604 0.4630126059 -0.5746033788 0.6425005794
-0.03887448832 -0.1584767848 0.5472826958 0.1487256438 -0.713947773 0.6214245558
-0.02102245949 -0.144855082 0.5528344512 0.565764904 -0.6257127523 0.5238197446
-0.008129622787 -0.148474887 0.5329341888 0.762907505 -0.3652126193 0.5303053856
-0.002205011202 -0.1464508325 0.5211894512 0.8263882399 -0.234257251 0.5088473558
-0.005175472237 -0.1538135558 0.5225183368 0.7630644441 -0.3260909021 0.5392920971
-0.008003826253 -0.1595004648 0.5259213448 0.7076619864 -0.4199489653 0.5599800944
0.0008583547315 -0.1515803933 0.5180934072 0.822691977 -0.2464339137 0.507902205
-0.01878731325 -0.07827631384 0.5289288163 -0.5841701031 -0.6894335747 0.4136396646
-0.01498566847 -0.08138988912 0.5346323848 -0.6787797213 -0.6587506533 0.3191809058
-0.01346628834 -0.08711691201 0.5251793265 -0.6303939819 -0.6479913592 0.4267148376
-0.03219471127 -0.08759861439 0.5035934448 -0.2910749912 -0.791395247 0.5368676186
-0.07976151258 -0.1182159409 0.513774991 0.07381397486 -0.574496448 0.4848786294
-0.08071569353 -0.1248354986 0.514383018 -0.03470602632 -0.5522083044 0.4687087536
-0.08028703928 -0.1336452663 0.5234684944 -0.4205626845 -0.5650210381 0.4277119935
-0.07892458141 -0.1054833308 0.5044614673 0.5280584097 -0.5777919292 0.5364350677
-0.05348474905 -0.06538011134 0.5312849283 0.09383818507 -0.7669053078 0.6006854177
-0.05744336545 -0.06284601986 0.5358955264 0.190869078 -0.7552735806 0.5735829473
-0.04830239341 -0.06279401481 0.5344153047 -0.01555595826 -0.7875797749 0.5838949084
-0.06196853891 -0.06093396246 0.5387711525 0.2723664045 -0.7559726238 0.5598914027
-0.08689151704 -0.09395211935 0.5253323913 0.6754332185 -0.5618597269 0.477376461
-0.08665950596 -0.08900766075 0.5294803381 0.6617777944 -0.5750241876 0.4803704023
-0.04118107632 -0.06198483706 0.5352351069 -0.198102206 -0.7838593721 0.5771940351
-0.03286325186 -0.0678043142 0.5360554457 -0.3432532847 -0.7528452277 0.5146794915
-0.02862302959 -0.0638814047 0.5384805202 -0.4672204852 -0.7681452036 0.4330256879
-0.03490363061 -0.1436361969 0.5691752434 0.2666437328 -0.7430312634 0.6125581264
-0.07001662254 -0.1417531371 0.5595762134 -0.5042592883 -0.7175428271 0.4515248537
-0.05407607928 -0.1532921344 0.5589283705 -0.215390414 -0.7951583266 0.5619142652
-0.05109414831 -0.1599681228 0.5479826927 -0.1920937002 -0.7666531801 0.594468534
-0.05689843744 -0.1564796865 0.5493160486 -0.3298351467 -0.7597409487 0.5472266078
-0.06541962922 -0.1519467086 0.5502310395 -0.516123116 -0.7252112627 0.4438437521
-0.06733579934 -0.1541394144 0.5426518917 -0.6228105426 -0.6387526989 0.4318603873
-0.06142998487 -0.1574378312 0.5434454083 -0.4716379642 -0.6913950443 0.5109338164
-0.04014660046 -0.1410869807 0.5728433728 0.1191980913 -0.7677369118 0.6225653887
-0.04151272401 -0.1456011534 0.5693992972 0.1101072356 -0.7712388039 0.6166744828
-0.04609374702 -0.1498941928 0.5653228164 0.009251226671 -0.7968150973 0.6026786566
-0.04997615144 -0.1463543475 0.5695230961 -0.06642695516 -0.7951987982 0.5956656933
-0.07448688895 -0.1562593877 0.526386261 -0.6778557301 -0.5739094615 0.4544352889
-0.07514758408 -0.1517214328 0.5296977758 -0.7066168189 -0.5607735515 0.4265508056
-0.07735756785 -0.1050215811 0.4977938235 0.6064501405 -0.5588872433 0.5629930496
-0.07453601062 -0.1058954597 0.4928212166 0.5851763487 -0.5634605289 0.5824767351
-0.06533893943 -0.1008166075 0.4891429245 0.4754901826 -0.641505599 0.6012768745
-0.06699730456 -0.105489336 0.4858857095 0.5095003247 -0.5995194912 0.6157775521
-0.04584338889 -0.1684498787 0.5371228456 -0.08808682859 -0.7327737808 0.6301950216
-0.08302359283 -0.1204154342 0.4905788004 0.7277078032 -0.4413839281 0.4736531675
-0.08222013712 -0.1257181317 0.4881006777 0.6651452184 -0.4742104411 0.5019700527
-0.07673517615 -0.1216139868 0.4855362475 0.5682758093 -0.5468993783 0.6131601334
-0.03803141415 -0.07417075336 0.5205408931 -0.1980987638 -0.8032593131 0.5586250424
-0.0377929844 -0.07749445736 0.5157500505 -0.1735045612 -0.8073493838 0.5627462864
-0.05095515028 -0.07695099711 0.5162633657 0.05111319572 -0.7949662805 0.581782043
-0.04519570619 -0.07569563389 0.5177500844 -0.0695117414 -0.8072273135 0.5717425942
-0.05674349517 -0.07844784856 0.5143402815 0.1788259894 -0.7803925276 0.5968164802
-0.04535653815 -0.07230326533 0.5226460099 -0.08331216872 -0.8051329255 0.573846221
-0.03851539269 -0.06749963015 0.532466352 -0.228922233 -0.7776411772 0.5471404195
-0.04622900113 -0.06583290547 0.5295872092 -0.07073289156 -0.797421515 0.5918052197
-0.05976010486 -0.06684461236 0.5288887024 0.2145465761 -0.759056747 0.604765296
-0.05091814324 -0.06978715211 0.5250976086 0.02899084985 -0.7885291576 0.5993856788
-0.05486714095 -0.1418219805 0.5700798035 -0.161467731 -0.7777267694 0.578101635
-0.04619023576 -0.1427511722 0.5729086399 -0.0032280304 -0.7825407982 0.6196189523
0.005645908415 -0.0797772482 0.5643666387 -0.1269057095 -0.9603461027 0.2378202975
0.007321284153 -0.07387691736 0.5649473071 -0.1663639545 -0.9638884068 0.176854223
-0.02033909969 -0.1423933506 0.5586982369 0.5370015502 -0.6568727493 0.5282986164
-0.01680287719 -0.1475085318 0.5481204391 0.6194736362 -0.5550536513 0.549903214
-0.02333107963 -0.1510931849 0.549864471 0.5377027988 -0.6064590812 0.5795131326
-0.02190990932 -0.1531564891 0.5443268418 0.5681210756 -0.5270226598 0.6247337461
0.03282159567 -0.09282264113 0.5268490911 0.07161716372 -0.6975462437 0.7096884251
0.03243401274 -0.08760706335 0.5320190191 0.1177296489 -0.7653572559 0.6320877075
0.03224875033 -0.0824566707 0.5385918617 0.2407561094 -0.7419403195 0.6144402623
-0.005782463588 -0.1421221495 0.5349035263 0.8135709763 -0.2813046575 0.5008307099
-0.01023886167 -0.1374574155 0.5365021825 0.6932647228 -0.350702703 0.5615463853
-0.003085765289 -0.1498523802 0.5263797641 0.7962943912 -0.2990067303 0.5219141841
-0.003907286562 -0.1453956664 0.5301954746 0.8142703176 -0.2750638425 0.5068210363
0.007023120299 -0.1319084913 0.5184425712 0.3550167978 -0.1168215498 0.7870953679
0.003715818282 -0.1363055408 0.5220318437 0.5247467756 -0.162740618 0.6830109954
-0.00163826521 -0.1323859245 0.5183551311 0.5991983414 0.06083768979 0.7302116156
-0.004400287289 -0.1342928857 0.5252919197 0.6248468757 -0.03766175359 0.692389071
-0.0039993315 -0.1408353448 0.5250083208 0.7323770523 -0.1607147902 0.5908763409
-0.02883715555 -0.08461983502 0.5094695091 -0.3662127256 -0.7715542316 0.5138460398
-0.02388900891 -0.08879905939 0.5090429187 -0.4503918886 -0.7356601357 0.485722661
-0.03418810293 -0.08046017587 0.5127902627 -0.2488197982 -0.7914992571 0.5561180115
-0.03790225834 -0.08641013503 0.5029161572 -0.1768120229 -0.8041530252 0.5517133474
-0.0451784879 -0.08264026791 0.5057087541 -0.03527071327 -0.8144646883 0.5753878951
-0.06514312327 -0.09298076481 0.4985739887 0.4162099063 -0.6980232596 0.578951776
-0.0344357416 -0.09157619625 0.4975637496 -0.239912197 -0.7897424102 0.5529224873
-0.04376809672 -0.09258951247 0.4933135509 -0.04183623567 -0.7882750034 0.6114219427
-0.08296663314 -0.108984001 0.5217040777 0.2148569524 -0.5624229908 0.4600004852
-0.08236287534 -0.1276124567 0.5264313221 -0.3534413278 -0.5653745532 0.4208579361
-0.08055033535 -0.0969299227 0.5100876093 0.6352787614 -0.5724764466 0.5133081675
-0.08181473613 -0.0848139897 0.5265194774 0.6422105432 -0.595852375 0.4808073044
-0.08087089658 -0.08040506393 0.5317001343 0.6198540926 -0.6048619151 0.4969255626
-0.09054644406 -0.0896808058 0.5349766612 0.6694389582 -0.5637740493 0.48370713
-0.08697219938 -0.1042489856 0.5426027179 0.3144235313 -0.5867390633 0.4488395452
-0.07731994987 -0.1322139204 0.5544301867 -0.4732078612 -0.64246732 0.4033112228
-0.08256413043 -0.1167173907 0.5482523441 -0.04491416365 -0.6134738922 0.4283934832
-0.08831818402 -0.0986764133 0.5423243642 0.4262691736 -0.5860629678 0.4571006596
-0.08955417573 -0.1005002409 0.5363807082 0.5206256509 -0.5560045242 0.4567525685
-0.08459584415 -0.1092391387 0.5462053418 0.1400326341 -0.6039087176 0.4399577975
-0.08914911747 -0.09440466017 0.5382555127 0.5879023075 -0.5648120046 0.4640082121
-0.09086863697 -0.08787204325 0.5405558348 0.6662365198 -0.5766362548 0.4727330506
-0.03295508027 -0.1591204256 0.5482112765 0.274317652 -0.708650589 0.6486058831
-0.02889121138 -0.1533618122 0.5517603159 0.3750255406 -0.7143937349 0.5871914029
-0.03712812439 -0.1535142213 0.5575040579 0.2296490669 -0.7642050982 0.6021063328
-0.04736633226 -0.1563790292 0.5508249402 -0.06745158136 -0.7841306329 0.575101316
-0.03648282588 -0.1548899263 0.5508061647 0.1918020397 -0.7439590096 0.5838878155
-0.06833512336 -0.1392497569 0.5669485927 -0.3736464679 -0.7590753436 0.5304057598
-0.06370051205 -0.1361487955 0.5722170472 -0.2882953286 -0.7799548507 0.5359323025
-0.05995738506 -0.1330735832 0.5801996589 -0.1269306988 -0.8087746501 0.5696762204
-0.05758070573 -0.1398225129 0.5759806037 -0.1403208375 -0.8028717637 0.5787028074
-0.06453613192 -0.1457520127 0.5635336637 -0.3416295946 -0.7781267166 0.5222495794
-0.06425145268 -0.1478893012 0.557643652 -0.3775552213 -0.7799866796 0.4928164482
-0.05901125073 -0.1465231925 0.5669572949 -0.258292228 -0.7939578295 0.5427647829
-0.06185261905 -0.1423452348 0.570296824 -0.2117366642 -0.7952070236 0.5664992929
-0.06009687483 -0.1533178389 0.5548081994 -0.3620084524 -0.7727023959 0.5171042085
-0.06003984809 -0.1509008706 0.5606859326 -0.3224974573 -0.7929794192 0.5145884752
-0.06715800613 -0.1716441959 0.525547266 -0.5570616126 -0.6433350444 0.5203903317
-0.07196415961 -0.1679289192 0.5220288038 -0.605407238 -0.622115314 0.4896208644
-0.07232866436 -0.1621317863 0.5303421021 -0.678407073 -0.5686686039 0.4650532007
-0.07545527816 -0.1611912251 0.5196068883 -0.6590176225 -0.5804874301 0.4762933552
-0.06783617288 -0.1656388938 0.5255885124 -0.6116250753 -0.6099143028 0.5038062334
-0.07486252487 -0.1000356749 0.5017718077 0.5528318286 -0.612945497 0.5582226515
-0.07005849481 -0.1016016901 0.4928317666 0.5088684559 -0.6181428432 0.5973153114
-0.07169292867 -0.09341152012 0.5026257038 0.5064743757 -0.6580427885 0.5564895868
-0.06950962543 -0.0974412784 0.4981850982 0.4886157215 -0.6532741189 0.5764759779
-0.05689430609 -0.1037322357 0.4802955687 0.283829838 -0.6379140019 0.7132908702
-0.06436701119 -0.1082260385 0.480500102 0.4454375505 -0.590783596 0.6660939455
-0.06953272969 -0.112038739 0.4839165807 0.533927083 -0.570867002 0.6224544048
-0.07464317232 -0.1108758897 0.489764899 0.5609346628 -0.5635325909 0.6035596728
-0.0733622089 -0.1153192669 0.4862219095 0.5456593037 -0.5674187541 0.6146210432
-0.01302645728 -0.1625978053 0.5293986797 0.6528941393 -0.472510308 0.5815922618
-0.03387695923 -0.1640908718 0.543202877 0.1952049136 -0.7107431293 0.6692495346
-0.02851406671 -0.167049244 0.5373378396 0.3203006387 -0.6903530955 0.6420100927
-0.05169216171 -0.1691731811 0.5377326608 -0.2527259588 -0.7501050234 0.6053080559
-0.05056655779 -0.1759803444 0.5286992192 -0.2106639445 -0.7787002325 0.5645397305
-0.05668200925 -0.176788345 0.5287720561 -0.3517991602 -0.7612648606 0.5402368307
-0.05389462039 -0.1713504791 0.5305327773 -0.2808668911 -0.7341732979 0.5765887499
-0.06069238856 -0.1689309031 0.5273119807 -0.4451923966 -0.6728175879 0.534414649
-0.04600815848 -0.1743994504 0.5339041948 -0.1257145405 -0.7792434692 0.6093327403
-0.05698622391 -0.168930769 0.5351276994 -0.3512863815 -0.7153345346 0.5970830321
-0.06164705381 -0.1640555561 0.5348690152 -0.4683326781 -0.6673328876 0.5439583659
-0.06678692251 -0.1671024263 0.5322018266 -0.5892422199 -0.6275085807 0.4994230568
-0.03432593495 -0.09473206848 0.4917585552 -0.2173762918 -0.783305943 0.579497695
-0.0422648862 -0.1005031168 0.4849588275 0.01243247278 -0.7566680312 0.6321706772
-0.05119452998 -0.1015647575 0.4809443057 0.140358597 -0.6681934595 0.7175511718
-0.035834115 -0.1010442525 0.4833712578 -0.08942166716 -0.7556022406 0.6426638961
-0.05854482204 -0.07035591453 0.5238181353 0.1847685724 -0.7765473127 0.5919683576
-0.06348338723 -0.07650969177 0.5196536183 0.3013057411 -0.7458717227 0.57285887
-0.07769993693 -0.08341142535 0.5221573114 0.6004298329 -0.6194469333 0.5021675825
-0.07164712995 -0.07882972062 0.52192837 0.4873663783 -0.6792462468 0.5263152122
-0.04103067145 -0.06878060102 0.5263913274 -0.1816176325 -0.7923328876 0.573813796
-0.0340057537 -0.07168603688 0.5251045823 -0.3156419098 -0.7787715793 0.53973037
-0.03147966415 -0.06993468106 0.5300378203 -0.395349592 -0.7464919686 0.5343671441
-0.03184687346 -0.1459389925 0.562363863 0.357435137 -0.726153791 0.5765279531
-0.03105060756 -0.1507651359 0.5572716594 0.3426356316 -0.738899827 0.5693260431
-0.02567451075 -0.144738853 0.561147511 0.4725419283 -0.6964734793 0.5388858318
-0.003282132791 -0.08988387883 0.5269809961 -0.5481646657 -0.6538373828 0.4346843362
0.01649523154 -0.09243553877 0.52646029 -0.1967694461 -0.6663851738 0.6242976785
8.348055417e-05 -0.0936749354 0.5239088535 -0.518214941 -0.6255064011 0.4891961813
0.005918495823 -0.09404822439 0.5238143802 -0.4093394279 -0.6298807263 0.5468800068
-0.01611575671 -0.09021646529 0.5167748332 -0.5937033892 -0.6703007221 0.4438894987
-0.01126943715 -0.09166433662 0.5212763548 -0.63652426 -0.6386355162 0.4282429218
-0.02092370391 -0.08393272012 0.5178228021 -0.5263990164 -0.7136276364 0.4602739215
-0.02660674043 -0.07984951884 0.5178059936 -0.4695121348 -0.7398272753 0.4804445207
-0.01098131202 -0.09651947021 0.5176802874 -0.5931854248 -0.6513504982 0.4679906666
0.002985320054 -0.1031097025 0.5101412535 -0.3600658774 -0.5152885914 0.6939803362
0.01239057444 -0.1064433306 0.5136599541 -0.2461497337 -0.4582963586 0.8012251854
-0.003868987551 -0.1005019471 0.5106035471 -0.4844698012 -0.5694277883 0.5785351992
-0.01545968931 -0.09432028979 0.5112892985 -0.620072186 -0.6511846185 0.4373698533
0.0245534461 -0.1012402251 0.517555356 -0.07007591426 -0.5445594192 0.8157765865
0.008569649421 -0.1010605022 0.5171183944 -0.3515103161 -0.5655118227 0.6456692219
0.01993918419 -0.1037771478 0.5157856941 -0.1340145618 -0.501322329 0.8214054704
0.01670789532 -0.09919165075 0.5185853839 -0.2213218957 -0.5921651721 0.6908317208
0.002203816548 -0.09878705442 0.5183668137 -0.477897644 -0.6158654094 0.5315960646
-0.005393617786 -0.09495977312 0.5224769115 -0.6262377501 -0.6168069243 0.4407813847
-0.007357456256 -0.1040415168 0.5208015442 -0.4451293051 -0.6368744969 0.5102545619
-0.01112761442 -0.1135515198 0.5296000242 -0.04785448313 -0.5623466969 0.477297008
-0.01113595068 -0.1025567949 0.5256560445 -0.3661293983 -0.6056291461 0.4593801796
-0.00883165095 -0.1194598377 0.5284514427 0.04918224737 -0.5615879297 0.5163195133
-0.007748965174 -0.125991717 0.5345294476 0.357037127 -0.4293397367 0.5850434303
-0.008784964681 -0.131711781 0.5379360318 0.5484824181 -0.3913922012 0.5403841734
-0.004262404051 -0.1098311692 0.5234984756 -0.1697005183 -0.512906611 0.7086371779
-0.003108052071 -0.1142639965 0.5170562267 -0.03661567345 -0.2328320742 0.6934841871
-0.002388908761 -0.1247613803 0.5187391043 0.4399274886 0.1193343997 0.8076343536
-0.008052627556 -0.1298649758 0.530401051 0.4505611658 -0.3250026703 0.599378109
-0.005474423524 -0.1012015045 0.5319942832 -0.2992291451 -0.604229629 0.6778305173
-0.009181368165 -0.09783886373 0.5506880879 -0.1816018969 -0.6859071255 0.5598868132
-0.01245542243 -0.1140773445 0.5559227467 0.17183429 -0.6580973268 0.5225005746
-0.006215273403 -0.1091066897 0.5306951404 -0.1642902941 -0.5759225488 0.6840803623
-0.0131539898 -0.120660387 0.5552090406 0.2877566516 -0.6359378099 0.5253655314
-0.007523853797 -0.09450379759 0.5451698303 -0.2970582545 -0.6745633483 0.595800817
-0.01082854345 -0.1081695557 0.5520529747 0.02428775467 -0.6606708169 0.5485916138
-0.01039562467 -0.1197749153 0.5432875156 0.1562190354 -0.5927881598 0.6013501287
-0.008136220276 -0.112325713 0.5374696851 -0.03887784109 -0.5924310088 0.6402121186
-0.009029133245 -0.1069639772 0.5446446538 -0.06967823952 -0.635789752 0.5959767103
-0.005179159809 -0.1341813654 0.5331616402 0.648211062 -0.3022373319 0.5264179111
-0.006411715411 -0.08920909464 0.5470331907 -0.3622694016 -0.7098045945 0.578962326
0.01259236317 -0.09702350944 0.525691092 -0.1533833146 -0.6413747668 0.714355886
0.0001299963478 -0.0895446986 0.5488656759 -0.2285703868 -0.8193809986 0.4004202187
-0.003618015209 -0.09512406588 0.5374766588 -0.3172465265 -0.6772150993 0.6269673705
0.01322911959 -0.08828089386 0.5426074862 -0.068454355 -0.8065426946 0.4919946492
0.01091661677 -0.08635114878 0.5483598113 -0.08263532817 -0.8509997725 0.4167001247
0.01642196253 -0.0915177837 0.533434391 -0.05259823054 -0.7340537906 0.6113945246
0.02253833599 -0.08934937418 0.5338565707 0.03220526874 -0.7575613856 0.614392817
0.00748480903 -0.09183980525 0.5389375687 -0.1580002308 -0.7549285889 0.5302408338
0.002129874192 -0.08478396386 0.5578207374 -0.1740121692 -0.9080709219 0.2861030996
0.007295568008 -0.0846985653 0.5544233322 -0.1137447134 -0.8940509558 0.3357270658
0.001261528116 -0.09705787152 0.532032311 -0.2638729215 -0.6725788116 0.6084222198
0.009070382454 -0.09379737824 0.5336293578 -0.1524030864 -0.7121376395 0.598978579
0.01982149668 -0.08761475235 0.5394696593 0.01208149921 -0.799460113 0.5402964354
0.0007803998305 -0.09271417558 0.5417053103 -0.2411852777 -0.7583113909 0.4864289761
0.003753981553 -0.09973921627 0.5245392323 -0.2524999082 -0.612993598 0.7057976723
-0.001442818437 -0.1025793329 0.5220352411 -0.3310422003 -0.5736634135 0.7301604152
-0.0667270422 -0.08863576502 0.504128933 0.4229754508 -0.7065802813 0.5624370575
-0.06086004153 -0.0880600363 0.5031415224 0.3003532887 -0.7377770543 0.5882552266
-0.05140025169 -0.09664810449 0.4878099263 0.1305733472 -0.7491152883 0.6437938213
-0.0562431328 -0.09670408815 0.4907857478 0.2268374711 -0.7387352586 0.6162134409
-0.05934590846 -0.1002818644 0.4850460887 0.3508874178 -0.6561540365 0.652839303
-0.06272915006 -0.09580325335 0.4930433929 0.4219295084 -0.6870365143 0.5885833502
-0.05107178539 -0.09377148002 0.4940947294 0.1183171794 -0.7572035789 0.6041192412
-0.05884316564 -0.09042971581 0.496937722 0.2892233431 -0.7395265102 0.6046081185
-0.05518049374 -0.08643476665 0.502428174 0.1740205735 -0.7715053558 0.5989832878
-0.07571626455 -0.0940407142 0.5078476071 0.5608436465 -0.6338089108 0.5309575796
-0.08154945076 -0.1025178283 0.5178706646 0.3854987621 -0.5672070384 0.4789099991
-0.08093005419 -0.1146378815 0.5214095116 0.006012897473 -0.5769152045 0.4534366429
-0.07877974957 -0.1041939929 0.5114579797 0.3939300478 -0.5913792253 0.5068346262
-0.079318434 -0.1097791493 0.514598608 0.2136855423 -0.5879684687 0.4881389141
-0.07996167988 -0.08939421922 0.5199271441 0.6029654741 -0.6096570492 0.5072391033
-0.07496701926 -0.0682329759 0.5380296111 0.5536756516 -0.6578223109 0.506244421
-0.07108930498 -0.06431186199 0.5406316519 0.4848978221 -0.6999961734 0.5171014071
-0.07666971534 -0.06907059997 0.5434467196 0.5339303017 -0.6677695513 0.5034537315
-0.08610064536 -0.07878712565 0.5444170833 0.6371359229 -0.6015959382 0.4806957245
-0.08458089083 -0.07326791435 0.5455088615 0.6290132403 -0.6056672931 0.48402372
-0.0723624602 -0.05961718038 0.5456187725 0.4637163579 -0.7143015862 0.522821188
-0.06734898686 -0.06550677866 0.5341441631 0.4001969397 -0.7032090425 0.5779508352
-0.0654886663 -0.0695290193 0.5286614299 0.3589423895 -0.7189258337 0.5858991742
-0.07223650813 -0.06890083849 0.5331555605 0.520152688 -0.6688863039 0.5231140852
-0.07047422975 -0.07382266968 0.5274657607 0.4662345648 -0.6819287539 0.54766047
-0.0830239132 -0.07347022742 0.5398409963 0.6291539073 -0.598526299 0.4930971563
-0.07684716582 -0.07278713584 0.5327640772 0.5921878815 -0.6275353432 0.5037454367
-0.09065333754 -0.08267766237 0.5448878407 0.6560013294 -0.5856649876 0.4758378267
-0.08557184041 -0.0802199021 0.53709203 0.6565964818 -0.5793660879 0.4828007817
-0.08970755339 -0.07647220045 0.5506756306 0.6387678385 -0.6024958491 0.4783332646
-0.05530746654 -0.1648097783 0.5402821898 -0.3085894287 -0.7297788262 0.607673347
-0.06540323794 -0.1590224206 0.5373677015 -0.5829372406 -0.6327603459 0.4766682386
-0.01806867495 -0.1627497971 0.5365259647 0.5903661251 -0.5019882321 0.6304256916
-0.02072465792 -0.1676922441 0.5339614749 0.4728216827 -0.63103652 0.6099060774
-0.02565531805 -0.16168423 0.5418527126 0.4196831882 -0.6127498746 0.6649718285
-0.02000070922 -0.1583127677 0.5417941809 0.5658763647 -0.5363864899 0.6240675449
-0.01793429255 -0.09403508157 0.5056228638 -0.6088915467 -0.6526068449 0.4502159059
-0.02321919799 -0.09106950462 0.5041788816 -0.4752695262 -0.731872201 0.4763036966
-0.01969213597 -0.08847522736 0.5130314827 -0.5388048291 -0.7009185553 0.4599118531
-0.02574216016 -0.09566995502 0.495500505 -0.3393476605 -0.7770221233 0.5285040736
-0.02826538682 -0.09166371077 0.5000984669 -0.349429369 -0.7805580497 0.5138521791
-0.02028317004 -0.09707228094 0.498945713 -0.5391875505 -0.6917729974 0.4685204029
-0.01108898781 -0.09955310076 0.5122963786 -0.5606921911 -0.663667798 0.4902059436
-0.0155617157 -0.1001139581 0.5022588372 -0.5501632094 -0.6820583344 0.4798705876
-0.02124295011 -0.1382833868 0.564090848 0.5185231566 -0.6685792804 0.528083384
-0.02759774029 -0.1406675577 0.5685060024 0.3480759561 -0.7208632231 0.5908939242
0.0004980140366 -0.1405004561 0.5155228972 0.7383164167 -0.05458778143 0.6065241694
0.004977050237 -0.1248446926 0.5183178782 0.3010754287 0.02539556101 0.8889805675
0.002805514727 -0.1301294565 0.5237934589 0.4615643024 -0.09074043483 0.7476764321
0.004177350551 -0.1352883577 0.5149667859 0.5367442966 -0.05698167905 0.7211430073
-0.06393421441 -0.08242723346 0.5111807585 0.3181926608 -0.7562816739 0.5672659874
-0.05801598728 -0.08361873776 0.5071642995 0.2285170406 -0.7701694369 0.588475883
-0.06966541708 -0.08545775712 0.5116942525 0.4346290529 -0.7054242492 0.5524807572
-0.07661799341 -0.08851468563 0.5135244131 0.569934845 -0.6304367781 0.5213906765
-0.08258773386 -0.09364105016 0.5166498423 0.6626952887 -0.5621170998 0.4946294129
-0.07623908669 -0.07833791524 0.526804328 0.5905180573 -0.6302818656 0.5029581189
-0.03011744842 -0.1021615341 0.484467268 -0.2032208145 -0.7593254447 0.5995678902
-0.05164343491 -0.07200498134 0.5196338296 0.05735611171 -0.8068925738 0.5834938884
-0.0434721373 -0.08620028943 0.5010396838 -0.06218980625 -0.8054376245 0.5863986015
-0.03940119594 -0.08910892159 0.4977098703 -0.1415182799 -0.789277494 0.5933368206
-0.03941002488 -0.09600803256 0.4872432649 -0.0750708878 -0.7583299279 0.6434662342
-0.04563803971 -0.09509029984 0.4875074327 0.02312060818 -0.745646596 0.6627988815
-0.04619715363 -0.07807181776 0.5103351474 -0.05099734664 -0.8176505566 0.5731918812
-0.04009881988 -0.08155544847 0.5079331398 -0.1658506542 -0.8041069508 0.5611799955
-0.03456824645 -0.08330381662 0.5078500509 -0.2565062344 -0.797441721 0.5453797579
-0.05163774267 -0.08083128929 0.5073952079 0.06481073052 -0.803530097 0.5894442797
-0.04997974262 -0.08601533622 0.4997106791 0.06621225178 -0.7809817791 0.6128770113
-0.01153529529 -0.1094259247 0.5055480003 -0.1441508383 -0.3243364394 0.6199380159
-0.00673745852 -0.1094301119 0.5128535032 -0.2256669253 -0.3996993899 0.6199287772
-0.01145492867 -0.1024496406 0.5075865984 -0.5076676607 -0.6490820646 0.5136391521
2.677680641e-06 -0.1088087782 0.517858386 -0.2931607366 -0.4669752419 0.8134242892
-0.00328510697 -0.1201050505 0.5258149505 0.1651290208 -0.4068757892 0.6447414756
-0.001902208314 -0.1276411563 0.5266986489 0.3892340064 -0.2947209775 0.6422123313
0.002687053755 -0.1183121204 0.5165572762 0.09871902317 -0.07316541672 0.9063415527
0.02612793818 -0.09432660788 0.5271012187 0.0004739632714 -0.6678754091 0.7327429056
0.007409650832 -0.106217891 0.5184236765 -0.2310160249 -0.4963776767 0.8217491508
0.02059644833 -0.09845510125 0.52386415 -0.06942524016 -0.6086900234 0.7668346763
0.01350340154 -0.1043809429 0.5190214515 -0.1605904549 -0.5240499973 0.8185604811
0.01829320192 -0.1109787822 0.51677531 -0.02002268843 -0.2949493825 0.9074830413
-0.0237814337 -0.1020896435 0.4884967506 -0.3914604485 -0.7366881371 0.5200293064
-0.01361683663 -0.1075346321 0.500618875 -0.2892617285 -0.4395979643 0.5666150451
-0.002070352901 -0.1024566591 0.5055482388 -0.3984566629 -0.5463068485 0.6523907185
-0.009387408383 -0.1011597514 0.5016193986 -0.4884355664 -0.600246191 0.5620738268
-0.01358294766 -0.1026740745 0.4962487221 -0.5272396803 -0.6428198814 0.5122330189
0.0007330612279 -0.1139410734 0.5106010437 -0.2179142237 -0.0685826093 0.9041044116
-0.004306005314 -0.119135417 0.5115216374 0.1906198263 0.01365592889 0.7818248272
-0.007939631119 -0.1147884279 0.5066404939 -0.007692242973 -0.1693948805 0.6948345304
0.009447479621 -0.1207188219 0.5144676566 0.07334498316 0.02780844644 0.9839103818
0.001614927314 -0.1103530005 0.5052870512 -0.2911733389 -0.3149520457 0.7807041407
0.008657546714 -0.1152038053 0.5127225518 -0.1451575756 -0.04781105742 0.9683932066
0.008165324107 -0.1072249487 0.5074661374 -0.2546333075 -0.4702063203 0.7861198783
-0.007737781852 -0.1059483066 0.4990978837 -0.4358533919 -0.5224939585 0.613371253
0.01530040242 -0.1109084785 0.5120533705 -0.1432041079 -0.3002623022 0.9158449769
