# .PCD v0.7 - Point Cloud Data file format
VERSION 0.7
FIELDS x y z normal_x normal_y normal_z
SIZE 4 4 4 4 4 4
TYPE F F F F F F
COUNT 1 1 1 1 1 1
WIDTH 512
HEIGHT 1
VIEWPOINT 0 0 0 1 0 0 0
POINTS 512
DATA ascii
-0.00881991256 -0.08716648817 0.5099810362 0.799181819 -0.4581056833 0.3879885375
-0.01807695255 -0.1635310352 0.514229238 0.8462314606 0.2073863894 0.3801683486
-0.0156114744 -0.1586023569 0.5125055313 0.8473665118 0.3072160184 0.3668357134
-0.09940449893 -0.1610567421 0.5287565589 -0.402122885 -0.5201178789 0.4913875163
-0.1000740603 -0.1661401987 0.532885015 -0.5602479577 -0.5085679293 0.4566408396
-0.1003033519 -0.1560306549 0.5090628862 0.3573116958 -0.2201929837 0.5632345676
-0.09943922609 -0.1510142088 0.5081261992 0.4219092429 -0.2753496766 0.5874640942
-0.09849279374 -0.1521418244 0.5199212432 -0.03539531305 -0.490988344 0.5537958741
-0.09775948524 -0.1468408108 0.5171051621 0.1026715189 -0.5133238435 0.5838490129
-0.09819119424 -0.1464210153 0.5119079947 0.3037275672 -0.417178154 0.5983468294
-0.1003594771 -0.1631864309 0.5223473907 -0.1915299743 -0.3767158091 0.4995636344
-0.09959039837 -0.1566609442 0.5175237656 0.03029822744 -0.3774971664 0.5398646593
-0.09705798328 -0.1408883631 0.51270473 0.3050348759 -0.5140288472 0.6206119657
-0.08020873368 -0.1381444931 0.4877616167 0.3770259023 -0.6052712202 0.6982668042
-0.09556932002 -0.1129017323 0.5292575359 0.3562164605 -0.7432748675 0.5655766129
-0.1005550176 -0.1178346202 0.517331779 0.3461437225 -0.70501405 0.6178138256
-0.09671948105 -0.1295045763 0.5252054334 0.1980585456 -0.6935040355 0.5789158344
-0.0961619094 -0.1288769394 0.5170800686 0.3579618335 -0.652284205 0.6281757951
-0.09704355896 -0.1634950787 0.5437712073 -0.561838448 -0.6078471541 0.4330020845
-0.0967150107 -0.12427371 0.5229888558 0.3029936552 -0.7102089524 0.5975379348
-0.09812386334 -0.155239597 0.5372139812 -0.3910061121 -0.6053485274 0.4682024717
-0.09772241116 -0.1376226544 0.5286576748 -0.004792757332 -0.658460021 0.5404093266
-0.1003929228 -0.1671755016 0.5384905338 -0.6605536342 -0.5231100917 0.4241290987
-0.09837124497 -0.168802157 0.5439407229 -0.6880928278 -0.5658886433 0.4124636054
-0.09772312641 -0.1505202353 0.5355855227 -0.2863877118 -0.6263671517 0.4868339598
-0.09893222898 -0.1610120684 0.538485527 -0.5202252269 -0.5722696781 0.4461859465
-0.09681548923 -0.1463256776 0.5227640271 0.009609695524 -0.5801435709 0.5690091848
-0.09771736711 -0.1414464563 0.5243369937 0.0133591434 -0.6097649336 0.5583895445
-0.09730945528 -0.1346007437 0.5231355429 0.1397168934 -0.6457963586 0.5775976181
-0.09876850247 -0.1509937197 0.5298276544 -0.2428376526 -0.5785405636 0.506744802
-0.09678190202 -0.137457788 0.5181165934 0.2027030289 -0.6032280326 0.6055480242
-0.09600917995 -0.1343932748 0.5129102468 0.3571309149 -0.5960754156 0.6445631385
-0.09856383502 -0.1445256919 0.5301223993 -0.1534250081 -0.6197150946 0.5155771375
-0.0502817221 -0.1182937622 0.509955287 -0.1381498873 -0.8125572801 0.5637568831
-0.101329796 -0.1659413278 0.5080776215 0.1581302881 -0.1714210212 0.4659174383
-0.1012994424 -0.17911762 0.521756351 -0.6680718064 -0.3922552466 0.3034782708
-0.09814414382 -0.1562192738 0.4985637069 0.6422093511 -0.1136455238 0.6120938063
-0.1012001932 -0.1750319749 0.516191721 -0.3679644465 -0.3180970252 0.3572644889
-0.09830830246 -0.1238428876 0.5169606805 0.3638317585 -0.6847003102 0.628115654
-0.03824967518 -0.1105203629 0.5284409523 -0.4248733222 -0.7479301095 0.5091795325
-0.03581559286 -0.1071577445 0.5355895162 -0.4464442134 -0.690998435 0.5576273799
-0.09969417751 -0.1424303651 0.5019891262 0.5727273226 -0.3464185297 0.6365532875
-0.09825025499 -0.1326178163 0.5052167773 0.3935998976 -0.6153726578 0.6712912321
-0.1010262668 -0.1248849109 0.5113192201 0.3641819358 -0.658957243 0.6464046836
-0.1011313871 -0.1502328813 0.4996855259 0.7234145999 -0.1201230958 0.6050713062
-0.09994972497 -0.1375552565 0.5064635873 0.5493917465 -0.3983744979 0.6291815639
-0.09080161899 -0.1480900943 0.4927808046 0.5763782859 -0.3483583629 0.6778360605
-0.0957929194 -0.1520514488 0.4957109392 0.6944350004 -0.187384367 0.6620725989
-0.08506771922 -0.1423560381 0.4899322093 0.4154595435 -0.5675514936 0.7050959468
-0.08611111343 -0.1369391233 0.4940510988 0.4255571961 -0.5670354962 0.7046980262
-0.0654329434 -0.2087393701 0.5390244126 -0.1166561469 -0.6520624757 0.7450107932
-0.0275537502 -0.1300095469 0.4972363114 -0.03206475452 -0.08630941808 0.9365498424
-0.02774175815 -0.1377472878 0.4973956943 -0.2689896226 -0.2066696882 0.8782871366
-0.06482498348 -0.1702347249 0.5834909678 -0.05067980662 -0.8107874393 0.5815156102
-0.04428301007 -0.0894556269 0.5506588221 -0.2148548365 -0.4310873151 0.8754531145
-0.04863609374 -0.08272348344 0.5528126359 -0.1876217872 -0.4468388855 0.8707894087
-0.05569167435 -0.0995702669 0.5348145962 -0.2228845656 -0.7519248128 0.5772307515
-0.07343515754 -0.09328041226 0.5401468873 0.1455343664 -0.76218611 0.5983966589
-0.09290783107 -0.1137726307 0.5249529481 0.3441575468 -0.7280443311 0.5922597051
-0.08619984239 -0.1058071554 0.5291497707 0.3457686603 -0.7303752899 0.5876996517
-0.01894165389 -0.07381121069 0.5317050219 0.8195486069 -0.248743549 0.4917488694
-0.01489981636 -0.07168846577 0.5239967108 0.8639019132 -0.2818762958 0.4133177102
-0.02468024008 -0.07662497461 0.5424478054 0.7578828931 -0.2022499591 0.6013838053
-0.02813117392 -0.0777824074 0.5484516621 0.6995011568 -0.1620159596 0.6897055507
-0.01918910071 -0.07734979689 0.5355722904 0.7677918077 -0.2302688956 0.5520897508
-0.04601723701 -0.1129867956 0.5196922421 -0.2653231323 -0.8058998585 0.5230335593
-0.04253675044 -0.1184640527 0.5148829222 -0.1977224052 -0.827632606 0.5224711299
-0.05259970576 -0.1138160229 0.5138933063 -0.1843567342 -0.8100390434 0.5539560318
-0.02590219676 -0.09591724724 0.5454826355 -0.07393590361 -0.481271565 0.7305784822
-0.01737026498 -0.08408680558 0.5328231454 0.4894049466 -0.372282654 0.5426269174
-0.02117316052 -0.08298234642 0.5385380983 0.516680479 -0.3326506913 0.6178207397
-0.02925975807 -0.08481283486 0.5506905913 0.3946918249 -0.3083712161 0.7838770151
-0.02019853145 -0.0881787315 0.537073493 0.2980778217 -0.4133441448 0.6057939529
-0.0155765228 -0.07777988166 0.5301275253 0.7706099153 -0.2929542959 0.4970924556
-0.02461729757 -0.08855704218 0.5437139273 0.2582051754 -0.3911486566 0.695615232
-0.0257456582 -0.08263255656 0.5454096198 0.5073459148 -0.2990414202 0.7096740603
-0.01188957877 -0.07667979598 0.5245868564 0.8376635313 -0.3002124727 0.4209905267
-0.03204900399 -0.09139556438 0.5513858795 -0.03588071093 -0.4148511589 0.8177316785
-0.038312383 -0.09100716561 0.5520127416 -0.2625297308 -0.4413099289 0.8568045497
-0.03506017476 -0.08689957857 0.5516825914 -0.2337485254 -0.4334410727 0.8697054386
-0.09156650305 -0.1405889392 0.4972849488 0.424287945 -0.5687530041 0.7036089897
-0.08717969805 -0.1333830506 0.4992363751 0.4106363952 -0.5957655907 0.68966645
-0.009050421417 -0.08305722475 0.5137171745 0.8303520679 -0.4084434509 0.3760916591
-0.08462449163 -0.09556365013 0.542150259 0.3398250341 -0.725892067 0.5811727643
-0.09683708102 -0.1889581829 0.5272669196 -0.7254208922 -0.5156881213 0.4477054477
-0.0952308625 -0.1948305815 0.5299713016 -0.7052823901 -0.5159777999 0.4714872539
-0.1009223014 -0.1825174838 0.525955677 -0.8445361853 -0.4427211583 0.2888177633
-0.01571447402 -0.1710591912 0.5216137171 0.9224584103 0.02904202975 0.3144314587
-0.01724321209 -0.1761759818 0.5265744925 0.9183802605 -0.1316053718 0.3340053856
-0.02162396535 -0.1674973965 0.5224304795 0.7865293026 -0.03363807499 0.4597266912
-0.02181545459 -0.1638094485 0.5183232427 0.7721964717 0.07878294587 0.4644446373
-0.02146824822 -0.1566817164 0.5093774199 0.7624040246 0.3264634609 0.4526435137
-0.02147461474 -0.1739005446 0.5298188925 0.8068425059 -0.2365893126 0.4568758607
-0.02020017244 -0.1811619997 0.5296401978 0.8085708618 -0.2980309427 0.4264704287
-0.02117954195 -0.1578561962 0.519374907 0.8325602412 0.1340929866 0.3062470853
-0.0210704878 -0.1515487432 0.5119261146 0.8202034235 0.3413814008 0.2986832857
-0.03896282241 -0.1391942799 0.493902266 -0.3314777315 -0.3348848224 0.8464118838
-0.04214428738 -0.1340478063 0.495667547 -0.2476371527 -0.5226367116 0.7895584106
-0.03273938969 -0.1414364427 0.4956406653 -0.3978516757 -0.230618 0.8790887594
-0.05305783451 -0.1346182227 0.4898875058 -0.1267574728 -0.5842420459 0.7770520449
-0.04638199881 -0.1356707215 0.4925723076 -0.1994538456 -0.5087454915 0.7986469269
-0.0189369265 -0.1461715698 0.5046216249 0.7056452632 0.4436084926 0.4890859723
-0.02225169539 -0.1327582747 0.5033432245 0.4919605851 0.1947910786 0.6542362571
-0.02042509429 -0.1391105652 0.505307734 0.6274192929 0.3111195266 0.5175147653
-0.01672066003 -0.1501674205 0.5084676147 0.8128111362 0.4449114799 0.3594807982
-0.05984082446 -0.1679061353 0.5828081369 0.02318798006 -0.7925403118 0.5920996666
-0.01732092351 -0.08414961398 0.5085662603 0.7433739901 -0.4950662255 0.4425115287
-0.07814395428 -0.09994918853 0.5310593247 0.2706430256 -0.7342073321 0.6212565303
-0.06690915674 -0.09662048519 0.531699717 0.01918743178 -0.7721382976 0.6296864152
-0.08367088437 -0.1128286198 0.5191781521 0.3079349399 -0.7290071845 0.6112678647
-0.09275258332 -0.114703007 0.5187552571 0.3253420293 -0.7158508897 0.6170291901
-0.08761083335 -0.1122627929 0.5218423009 0.3162717521 -0.7292397618 0.606263876
-0.09050659835 -0.1093152687 0.527813971 0.3441855609 -0.7513873577 0.562582314
-0.04544359818 -0.09984438866 0.5385103226 -0.373236984 -0.6921489835 0.6116442084
-0.04563071206 -0.09591817111 0.5419012904 -0.3549326658 -0.6146423817 0.6999906898
-0.03431409597 -0.08071240783 0.5514891744 0.1495106518 -0.3316754997 0.8348567486
-0.04702139273 -0.09211794287 0.5451948047 -0.3100969791 -0.5480700135 0.7720764875
-0.04041565955 -0.08216558397 0.5522162318 -0.2345179617 -0.4047245979 0.8836945891
-0.0965000391 -0.1013416946 0.5456082225 0.4993572831 -0.6715657115 0.5471822023
-0.07502444834 -0.1326780468 0.49037534 0.2672635317 -0.6866840124 0.6716371179
-0.06671084464 -0.1303544492 0.4906832874 0.1506863832 -0.7098780274 0.6777647734
-0.06094809249 -0.09145827591 0.5396152139 -0.1392740458 -0.7750017047 0.6026535034
-0.06642794609 -0.09531833977 0.5384534597 -0.002943607746 -0.7594921589 0.5902175307
-0.05257160217 -0.08362959325 0.5469509363 -0.05523758382 -0.486076355 0.7546461821
-0.04779781029 -0.07851053774 0.5486175418 0.09422513843 -0.1869649887 0.776119411
-0.03791405633 -0.07539246976 0.5483059883 0.1673627496 0.2106733471 0.8726586699
-0.05981758237 -0.0824656859 0.5489143729 0.0001249250927 -0.6753751636 0.6598531008
-0.05553787947 -0.08169140667 0.5525775552 -0.10235852 -0.5455904007 0.8191574216
-0.04563036188 -0.1078238934 0.526520133 -0.3495180309 -0.7634831071 0.540707469
-0.05105036497 -0.110556446 0.5206747055 -0.18919532 -0.7921614647 0.5522980094
-0.04454201832 -0.1050905958 0.5315132141 -0.3907679319 -0.7473549247 0.5367319584
-0.02864874341 -0.1008616239 0.5473524928 -0.3172654212 -0.4867144227 0.7730916739
-0.02389961667 -0.09718449414 0.5386629701 -0.06247309968 -0.4578369558 0.6685159206
-0.02100758441 -0.09547270834 0.53390944 0.09517119825 -0.4543440044 0.6173484921
-0.01493705064 -0.09064215422 0.5245307088 0.4403053522 -0.4338655472 0.5057261586
-0.01808550209 -0.09388945997 0.5290356874 0.2527708709 -0.4523692727 0.5661482215
-0.01000867598 -0.08279956132 0.5188151002 0.7655929923 -0.3755838871 0.4017368257
-0.009342018515 -0.07655214518 0.5205533504 0.8692390323 -0.312597543 0.3699864745
-0.01713328622 -0.08817569166 0.5299643278 0.3639020622 -0.3965032697 0.5317413807
-0.01290610339 -0.08479572088 0.5234413147 0.6044210792 -0.3820706308 0.4539584219
-0.01220320724 -0.08917874843 0.5199622512 0.5875472426 -0.432207644 0.4578850567
-0.0275453534 -0.1041643322 0.5350934267 -0.2296134681 -0.5764378905 0.6166095138
-0.02835108899 -0.1032520458 0.5418913364 -0.3153780401 -0.5208225846 0.714378953
-0.02486707084 -0.1024043113 0.5314390063 -0.08959793299 -0.5655684471 0.5808184147
-0.01920808665 -0.09840026498 0.5248450637 0.1976077706 -0.5309507847 0.5224096775
-0.02060092613 -0.09855481982 0.5297523737 0.1017648578 -0.5055326223 0.5869294405
-0.02489821613 -0.1037617996 0.5261969566 -0.05075452849 -0.6203019023 0.5005534887
-0.03115171194 -0.1088272259 0.5309511423 -0.3487378955 -0.6847255826 0.5264338851
-0.03958168998 -0.1013425216 0.5413587093 -0.3945602179 -0.6507786512 0.6398345828
-0.03355950117 -0.09811805934 0.550450027 -0.312599659 -0.4806417227 0.8176371455
-0.09464590251 -0.1442031562 0.4993107915 0.5831329823 -0.363409698 0.6742086411
-0.09434025735 -0.1389337331 0.5030492544 0.5337586999 -0.449786216 0.6719737053
-0.08280520886 -0.1301640868 0.4999345839 0.3797354102 -0.6330270767 0.6688181162
-0.08002767712 -0.1313980669 0.4945669472 0.3484002054 -0.6511008739 0.6705633998
-0.07810882479 -0.1268197745 0.50071311 0.3397392929 -0.6765844226 0.6470990181
-0.07492292672 -0.1288692355 0.4964329302 0.2988900542 -0.6889466047 0.6562661529
-0.02250155434 -0.1048863828 0.5189298391 0.1258589476 -0.6035316586 0.4918289185
-0.01884764619 -0.09992673248 0.5188589692 0.2631072402 -0.5755744576 0.4523519576
-0.01104623638 -0.09665642679 0.5083119869 0.6932761073 -0.4890353382 0.4435486794
-0.01567541808 -0.10014835 0.5123667717 0.4670911729 -0.5346947908 0.464772433
-0.01319082361 -0.09509688616 0.514703393 0.5289595127 -0.5218433142 0.4206128418
-0.01410169434 -0.1197474748 0.5068885088 0.7897503376 -0.09222552925 0.3695599735
-0.02375094965 -0.1276624352 0.5008907914 0.3660362065 0.1019353941 0.7986447215
-0.0196235124 -0.1241264269 0.5034170747 0.5457936525 0.01595958509 0.6170725226
-0.01624106802 -0.1339514554 0.5088053346 0.8187081814 0.1928416938 0.3018555045
-0.01581055298 -0.1137671918 0.5039011836 0.6418344378 -0.2013510913 0.5421088338
-0.01269489434 -0.1022343338 0.5034965873 0.690022707 -0.4385662079 0.5209856629
-0.01709959283 -0.142024368 0.5101933479 0.853754878 0.3533690274 0.2436475605
-0.01327875257 -0.1076784581 0.5044285655 0.7134023905 -0.330291152 0.4820023477
-0.0250923764 -0.1217756495 0.498234868 0.2381533682 -0.006906592753 0.9496890903
-0.01633729972 -0.1279132366 0.5071502328 0.7540922761 0.07585662603 0.3861490786
-0.02272099815 -0.1218395531 0.5160855055 0.3837270737 -0.1743572354 0.3569177985
-0.02523088641 -0.1114251912 0.5206885338 0.06378470361 -0.5121734738 0.4654211998
-0.02571941353 -0.1250586957 0.5196276307 0.2501347065 -0.1599827558 0.3467398286
-0.02982028201 -0.1172819138 0.5259940624 -0.1259362996 -0.4653660655 0.4415453076
-0.01941494457 -0.107046172 0.5135848522 0.3525194228 -0.4902811348 0.4685138762
-0.02033746988 -0.130691573 0.5118438601 0.6710823178 0.1187490001 0.2631434202
-0.02909167111 -0.1116234511 0.52574265 -0.1708874702 -0.5989938974 0.4875481725
-0.01658582501 -0.1103728712 0.5094474554 0.579603672 -0.3340016603 0.4213055372
-0.01927448437 -0.1230195984 0.5114041567 0.6147622466 -0.06063690782 0.3250510097
-0.02660655975 -0.1184350401 0.5216223598 0.09033177048 -0.3579183519 0.411359787
-0.01948157884 -0.1141985357 0.5127788186 0.4619642198 -0.3009911776 0.4050777555
-0.02279990166 -0.1167381555 0.5168267488 0.2978779674 -0.3123839796 0.4029459357
-0.03383724764 -0.1132863984 0.5292274356 -0.3890152574 -0.6923856735 0.4953445494
-0.03265766054 -0.1204504967 0.522877872 -0.1294806153 -0.5106199384 0.4137881696
-0.02647386305 -0.1320598572 0.5167219639 0.3714696467 -0.02024362423 0.2809301019
-0.08551797271 -0.09115495533 0.5453455448 0.3676221073 -0.7393330336 0.5624511838
-0.08278321475 -0.08484570682 0.5519586205 0.3111550212 -0.7840209603 0.531152904
-0.08081699908 -0.09155722708 0.5426026583 0.2810254097 -0.7528033257 0.5896530151
-0.07742939889 -0.08392485231 0.5492232442 0.2370898426 -0.7936270237 0.5574903488
-0.08192425221 -0.08742153645 0.5472912788 0.3217783868 -0.7641965151 0.5551282167
-0.09449474514 -0.1080566868 0.5315400362 0.3723121583 -0.7453601956 0.5518249869
-0.09894516319 -0.1148717627 0.5216656923 0.3522289991 -0.7185430527 0.5974615216
-0.09079732001 -0.104706943 0.533659637 0.3814092577 -0.7357011437 0.5585606694
-0.09324410558 -0.1031497046 0.538510561 0.4404691458 -0.7050625682 0.5507912636
-0.08638677746 -0.1010774449 0.5343902707 0.3849367797 -0.7122628689 0.5861856341
-0.08911400288 -0.09982698411 0.5390145183 0.4386253357 -0.687535584 0.5750598907
-0.09926448017 -0.1699995697 0.5120975971 -0.1438490003 -0.3032631874 0.4413591325
-0.09697788954 -0.1794382185 0.5341273546 -0.7380846143 -0.5029298663 0.448987931
-0.09710843116 -0.1516583264 0.5142226815 0.1005093902 -0.4817214906 0.5938265324
-0.09801010042 -0.1640840918 0.5130593777 0.01714987122 -0.3372918665 0.5617168546
-0.09832035005 -0.1669899225 0.5193126202 -0.2463072687 -0.4314934015 0.5306568742
-0.09706554562 -0.1532896608 0.5034821033 0.4854166508 -0.2551057041 0.6278244257
-0.09773898125 -0.1613921225 0.5083360076 0.2212259471 -0.2710016072 0.5866302848
-0.09658949822 -0.1468203217 0.50365448 0.5450179577 -0.3218027353 0.6461059451
-0.09904366732 -0.1754579842 0.5256659389 -0.5702890754 -0.4732184112 0.4829828441
-0.09682163596 -0.1567096859 0.5233230591 -0.2026432157 -0.5458942056 0.5414008498
-0.09764686972 -0.1655754447 0.5263848305 -0.4212266803 -0.5291249752 0.5051840544
-0.1013596132 -0.1599698812 0.5038541555 0.4795618355 -0.08663790673 0.5410951376
-0.1011725366 -0.1738395691 0.5324564576 -0.6971898079 -0.4481097162 0.409471333
-0.1013746336 -0.1714131832 0.5199714899 -0.3535512686 -0.3107511997 0.4026461542
-0.1012123376 -0.170741722 0.5261554718 -0.4359686673 -0.3682400286 0.4392187297
-0.09249404073 -0.1813341081 0.5422857404 -0.731560111 -0.510140419 0.4518496096
-0.0977415666 -0.1740370989 0.5403552651 -0.7498546243 -0.5123526454 0.4181676507
-0.09014825523 -0.2005449533 0.5362164378 -0.6181497574 -0.5302382708 0.5776188374
-0.09074418247 -0.1972363591 0.5316109061 -0.6528639197 -0.5300035477 0.5320464373
-0.0820684433 -0.2014099211 0.5362061858 -0.5183550715 -0.5285115242 0.6618636847
-0.03713477775 -0.1695485562 0.567815125 0.5003381968 -0.6486808062 0.5679048896
-0.07177139819 -0.138810128 0.4845435619 0.2442606986 -0.6731472611 0.6963626146
-0.06714459509 -0.1351090223 0.4865390062 0.1982285976 -0.7143765092 0.6698981524
-0.0605625622 -0.1326445043 0.4880671203 0.02126649395 -0.6885764599 0.7152280211
-0.06209631264 -0.1293483377 0.4931191206 0.07504381984 -0.722648561 0.6769716144
-0.04756258056 -0.1216585264 0.5056339502 -0.1063558906 -0.7988922 0.5873223543
-0.04771807417 -0.1160322502 0.5029559135 0.04957631975 -0.7026643157 0.6362500191
-0.03258156404 -0.1371881217 0.4992202818 -0.4687788486 -0.3234514296 0.8133689165
-0.03525128961 -0.1316703856 0.5031040907 -0.4161391556 -0.4979763627 0.7232714891
-0.0395728685 -0.1219142154 0.5124756694 -0.21403943 -0.7916334867 0.5434201956
-0.03976133838 -0.1317603886 0.499859035 -0.3030519783 -0.5558621287 0.7389528155
-0.04208298028 -0.1235825717 0.5082284212 -0.166004777 -0.7785804868 0.5889399052
-0.02462778054 -0.144811675 0.5044209957 0.3839082122 0.2113215774 0.4939051867
-0.02902499773 -0.138338998 0.5033650994 -0.1404278725 -0.1492729485 0.6456552744
-0.02818297222 -0.1450891495 0.498175025 -0.1265764534 -0.05018795282 0.7611040473
-0.02327706292 -0.1495617777 0.5027047396 0.5540408492 0.3642306626 0.517018199
-0.02258616313 -0.1409827024 0.5012994409 0.2983892262 0.1608541608 0.6801311374
-0.07709323615 -0.1740506887 0.5734818578 -0.3216753304 -0.7758063674 0.541246891
-0.07595986128 -0.1773719937 0.5682653189 -0.3304709792 -0.768873632 0.5469035506
-0.0681893304 -0.1264105886 0.4952587783 0.1582797915 -0.7359578013 0.6538874507
-0.05428284034 -0.1210188121 0.5026977658 -0.06289802492 -0.7861488461 0.6127004027
-0.06090031937 -0.1197464988 0.504583478 -0.003603076329 -0.7806643248 0.6152384281
-0.06584097445 -0.1209457293 0.5030590296 0.08716932684 -0.7663631439 0.6328991652
-0.06494452804 -0.123854585 0.4980750382 0.09470337629 -0.7557173967 0.6474938393
-0.04990955442 -0.128345862 0.4976796806 -0.1037042812 -0.6809977889 0.7125216722
-0.0597537607 -0.1258132607 0.495996207 0.02284068987 -0.7555438876 0.6489667892
-0.05445810035 -0.1240516305 0.4985610545 -0.05164691061 -0.7702288628 0.6334075928
-0.07036644965 -0.1230764538 0.5016980767 0.1874698251 -0.7405581474 0.6379996538
-0.05600382015 -0.1164899915 0.5087021589 -0.1119222715 -0.8005136847 0.5856163502
-0.06134141609 -0.116011627 0.5084141493 -0.005976287182 -0.7887781262 0.6031880379
-0.02339136787 -0.09275192022 0.5031123161 0.5983271599 -0.5159797668 0.5629722476
-0.02726000734 -0.0933586657 0.506426692 0.4686112702 -0.5672019124 0.5340556502
-0.03435517848 -0.09718138725 0.5106818676 0.2193113714 -0.650780201 0.5127785206
-0.0412549451 -0.1023493409 0.5138437748 -0.02922362834 -0.7265090942 0.509085238
-0.03139993921 -0.09891861677 0.5066691041 0.3091446161 -0.6032350063 0.5606570244
-0.04255064204 -0.111441046 0.5241907239 -0.3280400336 -0.7970734239 0.5065643191
-0.09447304904 -0.1301603764 0.5110293031 0.4239695966 -0.6182663441 0.6583420038
-0.08851978183 -0.1241775602 0.5107762814 0.342030108 -0.6816549301 0.6423838139
-0.09309146553 -0.1257910728 0.5141639113 0.3730597496 -0.6686327457 0.6373756528
-0.09359142929 -0.1211305186 0.5197966695 0.3321362734 -0.7192237973 0.6098660827
-0.07614441961 -0.1226569191 0.5042922497 0.3026889861 -0.7157846689 0.6289408803
-0.08199059218 -0.1179772168 0.5124794841 0.2818641961 -0.7233697176 0.6291407347
-0.07576403022 -0.1037166342 0.5258298516 0.2511589527 -0.7371278405 0.6263104081
-0.09936056286 -0.1190429106 0.5121828318 0.3534756303 -0.6928312182 0.6283093691
-0.0865290612 -0.1160044745 0.5152122974 0.3096831143 -0.7214595675 0.6188062429
-0.09356775135 -0.1187873781 0.5115064383 0.3386413157 -0.7011145353 0.6266067624
-0.09404198825 -0.1333984435 0.5013718009 0.4031772614 -0.584053874 0.699503541
-0.09728249162 -0.1271351278 0.5067072511 0.3786539733 -0.6354117393 0.6669741273
-0.0889544189 -0.08615691215 0.5541693568 0.375205487 -0.7651617527 0.5202862024
-0.08209517598 -0.09702410549 0.5361545086 0.3529055417 -0.712287426 0.6004024148
-0.07771640271 -0.09504178166 0.5369354486 0.2597849965 -0.7444959879 0.6096194386
-0.07383698225 -0.0961612165 0.5334143639 0.1863867044 -0.7560805082 0.6262680888
-0.05183840916 -0.09697213024 0.5374401808 -0.2924574018 -0.7266204357 0.6152949929
-0.06232262775 -0.09464477003 0.5338420868 -0.100937739 -0.7772408128 0.6107009053
-0.05942303687 -0.09851326048 0.5296921134 -0.1545709819 -0.7675138712 0.6109229922
-0.03182958066 -0.07609705627 0.5311487317 0.4216869473 -0.4111617804 0.5974243283
-0.03551608697 -0.07594012469 0.5426706672 0.2354920059 0.02124848217 0.7945400476
-0.03093489259 -0.0741712749 0.5385280848 0.3573225439 0.005349106155 0.7431730032
-0.03560600057 -0.07719548792 0.5364272594 0.3011935949 -0.3025505245 0.6752235293
-0.04103147238 -0.07843705267 0.5457543731 0.1093120128 -0.05715846643 0.8201673627
-0.04208194464 -0.08032782376 0.539008975 0.1642248034 -0.4478598833 0.6855463386
-0.04572958127 -0.08798874915 0.5302228332 0.02188139595 -0.6964085102 0.544287622
-0.0551289022 -0.09094269574 0.5358505249 -0.1436758637 -0.7533573508 0.5835518241
-0.03128480911 -0.07747193426 0.5248880386 0.4765169024 -0.5951985121 0.4887687564
-0.0502881594 -0.09159851074 0.5317451954 -0.1313355267 -0.7290151119 0.5615740418
-0.04632036388 -0.08378273249 0.5338939428 0.1419068724 -0.679772079 0.568128109
-0.05653542653 -0.0879168734 0.5421084166 -0.118263334 -0.7137416601 0.6627881527
-0.03709963337 -0.07957361639 0.5287466049 0.3549177051 -0.624969542 0.5235262513
-0.05109105632 -0.08552666754 0.5386176705 0.01185664814 -0.686190486 0.6283196807
-0.04148279503 -0.08105186373 0.5336756706 0.2297594994 -0.6245955825 0.589438796
-0.02109562233 -0.07198809087 0.5215526223 0.7227827907 -0.4656941891 0.4601372182
-0.02597563155 -0.07270523161 0.5319650769 0.5257001519 -0.1376065165 0.6320629716
-0.02224602923 -0.07148202509 0.5281289816 0.6676201224 -0.2257259786 0.5387445092
-0.02504481189 -0.07268484682 0.5375732183 0.6283334494 -0.05574518815 0.6300203204
-0.03049747273 -0.07394266874 0.5447084308 0.4009099305 0.1653176844 0.7886798978
-0.03963945433 -0.09732917696 0.5449737906 -0.3290117383 -0.5376548171 0.7678112984
-0.05173645541 -0.08919471502 0.5460277796 -0.2294351161 -0.5722994804 0.7736840844
-0.07639242709 -0.08882255107 0.5465340018 0.2000502795 -0.7648570538 0.5822789669
-0.06702366471 -0.08845638484 0.5439594388 0.03445731103 -0.7683494687 0.620116353
-0.07068066299 -0.08261100948 0.5500199199 0.1263949871 -0.800812006 0.5754849911
-0.05403514206 -0.1728583425 0.577604115 0.1531746387 -0.7698765993 0.6131119728
-0.05978871882 -0.173484385 0.5782660842 0.04915549979 -0.7891008258 0.6087354422
-0.04883166775 -0.1693324149 0.5775646567 0.2449311763 -0.7436283231 0.6106532812
-0.04962574691 -0.1739457548 0.5733056068 0.2556884587 -0.7472919226 0.6045371294
-0.05628555641 -0.1814939082 0.566736877 0.1219769418 -0.7700214386 0.6240361929
-0.06363518536 -0.1732966304 0.5747187734 -0.02663816698 -0.7729625702 0.5996002555
-0.04434711859 -0.168597132 0.5748232007 0.3338818848 -0.7182650566 0.6098060012
-0.07390002161 -0.1691253781 0.5764938593 -0.2213641256 -0.7760282755 0.5582979321
-0.06658039987 -0.1688867658 0.576893568 -0.08646525443 -0.766242981 0.5732115507
-0.0541318655 -0.1680078059 0.5811462998 0.1314342916 -0.7694612741 0.6080473065
-0.04528558999 -0.1266460866 0.5001828671 -0.1154379472 -0.7136933208 0.6832942367
-0.04886165261 -0.1223016903 0.4990043044 0.03261442855 -0.6565829515 0.6824867129
-0.02471846715 -0.1145899296 0.4966978729 0.3478179574 -0.2023063302 0.8946869373
-0.02000634931 -0.1042036414 0.4963940084 0.5432187915 -0.4236977398 0.6873440742
-0.02180553228 -0.1091838628 0.4970664382 0.4575050473 -0.3157871962 0.7779176831
-0.04134818539 -0.1152356267 0.5200690627 -0.2723101079 -0.8131875396 0.5086345077
-0.0175039582 -0.1076321751 0.5009135008 0.5448287725 -0.3311205208 0.6752155423
-0.01932261512 -0.09654347599 0.4990763366 0.6641319394 -0.4878211319 0.5652400851
-0.01893039793 -0.08864879608 0.504642427 0.7114422917 -0.5011799335 0.4876500964
-0.009333006106 -0.09245667607 0.5058406591 0.7797086835 -0.4656631649 0.4163092077
-0.0139402058 -0.08854240179 0.507222116 0.7729707956 -0.4757258594 0.4168651104
-0.01477498934 -0.09403906018 0.5021908879 0.7150660157 -0.480684787 0.4987160861
-0.07869598269 -0.2058168054 0.5383332372 -0.4496076703 -0.5633132458 0.6748297215
-0.06726078689 -0.2029115558 0.5422646999 -0.1686370522 -0.6354858279 0.7356564403
-0.07014936954 -0.210374102 0.5401523113 -0.2518322468 -0.6146773696 0.7467881441
-0.08393928409 -0.1961473376 0.5401653647 -0.564193964 -0.5516676903 0.6019373536
-0.07895094901 -0.1993259341 0.5418471098 -0.4320143759 -0.6310105324 0.6415380239
-0.07400532067 -0.2016824484 0.5434994102 -0.3339523077 -0.629347086 0.6998805404
-0.09685663134 -0.180136174 0.5396383405 -0.7413525581 -0.5036780238 0.4400532842
-0.09593078494 -0.193601355 0.5350044966 -0.681599319 -0.5127344728 0.5156296492
-0.09294737875 -0.1859211624 0.5401110649 -0.7296618223 -0.5038583875 0.4608424604
-0.09116394073 -0.1951387078 0.5380381942 -0.6770116687 -0.517123282 0.5192292929
-0.085892573 -0.1903578788 0.5431026816 -0.6300603151 -0.5438501835 0.5467832685
-0.09446891397 -0.1851766258 0.5341302156 -0.7169957161 -0.5048333406 0.4804048538
-0.09079230577 -0.189624846 0.5362358689 -0.6718007922 -0.5172140002 0.5238837004
-0.09539488703 -0.1758805215 0.5464589 -0.7189059258 -0.5428213477 0.4286701679
-0.09187281132 -0.1807468832 0.5480617881 -0.6984016895 -0.5535104275 0.4495092332
-0.09001720697 -0.186547488 0.5453237891 -0.6778000593 -0.5546355844 0.4720607698
-0.09043330699 -0.178028509 0.5545569658 -0.6286560297 -0.6283627152 0.4505479932
-0.09394656122 -0.1714866161 0.5489871502 -0.6446835399 -0.6130852699 0.4330545664
-0.08502230048 -0.177254498 0.5545495749 -0.5003198981 -0.6689468622 0.5056446195
-0.08102954924 -0.1822156906 0.5595226884 -0.4921615422 -0.6974740624 0.5154525638
-0.07559867948 -0.1836610734 0.5598148704 -0.3353028893 -0.725969851 0.5938110948
-0.08694001287 -0.1825041324 0.5494884849 -0.6298724413 -0.5914836526 0.491253525
-0.07117974758 -0.1738471538 0.5736906528 -0.1647047549 -0.7885361314 0.5781239271
-0.05811794847 -0.1778260469 0.5704367161 0.08493704349 -0.7720683217 0.6176644564
-0.04542761669 -0.1777676344 0.5670298338 0.378279835 -0.7118671536 0.5908865333
-0.04483643919 -0.1715317369 0.5707049966 0.3495037556 -0.7033862472 0.6015302539
-0.04178243876 -0.1073084101 0.5084845424 0.02448519133 -0.6976376772 0.5797404647
-0.03583023325 -0.1052749977 0.5030515194 0.2601739168 -0.615713954 0.6216568351
-0.04606792331 -0.1110256612 0.5067166686 0.02373104356 -0.7197552323 0.5941928029
-0.03069964238 -0.1035884395 0.4997883737 0.4110809565 -0.5438013077 0.656486094
-0.04237439111 -0.1103581861 0.5030408502 0.1715055108 -0.6590335369 0.6300104856
-0.0248490423 -0.09993490577 0.4982428849 0.5322464705 -0.4904024899 0.6655279994
-0.04547236487 -0.1075162292 0.5143538117 -0.1908733547 -0.7646226883 0.5323523283
-0.03676511347 -0.1032380313 0.5088058114 0.1124636158 -0.6601412892 0.5646474361
-0.03463336453 -0.1162400693 0.4982281923 0.3331801295 -0.3588640094 0.8078132272
-0.03836304694 -0.1134075373 0.4988999367 0.2291785032 -0.588293612 0.6853353381
-0.04130872339 -0.1192510426 0.4994370639 0.1892920583 -0.4851960242 0.7552356124
-0.02955163084 -0.113079235 0.497307241 0.4381750524 -0.2932544947 0.8299254775
-0.02416727133 -0.1401983202 0.5087056756 0.4911606014 0.1903263032 0.3089221418
-0.03159312904 -0.1315311491 0.5089543462 -0.01919943839 -0.3461005986 0.4988544285
-0.03416133672 -0.1276896298 0.5108945966 -0.06361056864 -0.5262408257 0.4943996668
-0.02798873186 -0.1354954839 0.5093665719 0.2664866149 -0.08418067545 0.3865048289
-0.03611568362 -0.1209908053 0.5175938606 -0.1440097839 -0.6986109614 0.4601470828
-0.0302620586 -0.1276965588 0.5171403289 0.1670216471 -0.2852928936 0.3492070138
-0.02399534546 -0.1371559203 0.513784349 0.5870988965 0.1839949787 0.2229192704
-0.0720629245 -0.1707922071 0.5818207264 -0.1704632789 -0.7898423076 0.5869211555
-0.06735514104 -0.1736076474 0.5783035755 -0.08034797758 -0.7942767143 0.5982296467
-0.08211126924 -0.1707180738 0.5746596456 -0.3339065015 -0.7755947709 0.532697618
-0.0794043839 -0.1684019566 0.578848362 -0.2939073741 -0.7798953652 0.5440804958
-0.0878726095 -0.1681717932 0.5724092126 -0.4339005053 -0.7520682812 0.4929227829
-0.08467361331 -0.173952356 0.5671889186 -0.4598883688 -0.7286649942 0.502812922
-0.06651193649 -0.1137044802 0.5109496713 0.09370191395 -0.7749111652 0.6222482324
-0.0701039955 -0.1192770302 0.5057797432 0.1802561432 -0.7500228286 0.6259202361
-0.07459967583 -0.1180234849 0.5088540316 0.2487135231 -0.7354289293 0.6262882352
-0.07689680904 -0.1150056198 0.5127618909 0.249939546 -0.7374430895 0.6266892552
-0.06184843555 -0.1080954522 0.5168808699 -0.03905360401 -0.7739900947 0.6215729117
-0.05610823631 -0.1090282649 0.516228199 -0.173186332 -0.7754988074 0.6010160446
-0.05874242261 -0.112264581 0.5126265287 -0.08221898973 -0.7830485106 0.6052230597
-0.08252427727 -0.123994872 0.5043878555 0.3242211938 -0.6895590425 0.6466372609
-0.08620147407 -0.1194680035 0.5093542933 0.315889746 -0.7063937187 0.6327884793
-0.0902364105 -0.1316871196 0.5045689344 0.4098932743 -0.6092900634 0.6777393818
-0.09354326129 -0.1226697266 0.5070382357 0.3563525677 -0.6818314791 0.6384537816
-0.08955716342 -0.1257573813 0.5036587119 0.3626487553 -0.6660764217 0.6508982182
-0.07211806625 -0.09961228818 0.5287401676 0.1407214403 -0.751226604 0.6422075629
-0.06768460572 -0.1023754105 0.5275472999 0.06700766087 -0.7499415278 0.6182302833
-0.09289496392 -0.09501113743 0.5467834473 0.4508361518 -0.7115424275 0.5384879112
-0.09341593832 -0.08947292715 0.5546130538 0.4189663231 -0.7329393029 0.5357640386
-0.09868613631 -0.1001890674 0.5510577559 0.4843614101 -0.6836611629 0.5442510843
-0.09512907267 -0.09612958878 0.5512479544 0.4550555944 -0.7055318356 0.5406755209
-0.1015918404 -0.09622567147 0.5568000674 0.4548596144 -0.7133830786 0.5323973894
-0.08912979066 -0.09045209736 0.5506215096 0.4142120183 -0.7347754836 0.5370178223
-0.06202126667 -0.08650292456 0.5450090766 -0.04683341086 -0.7469429374 0.6546722651
-0.06595490128 -0.0890808925 0.5391963124 -0.01127617806 -0.7723136544 0.6320007443
-0.06510395557 -0.08147338033 0.550375998 0.04697263241 -0.8057710528 0.5902549028
-0.0720404014 -0.08793124557 0.5412903428 0.1064359546 -0.7902835608 0.6005309224
-0.07053980976 -0.09255514294 0.5356688499 0.08157289773 -0.773591578 0.6252072453
-0.04144813493 -0.1035406515 0.5365028977 -0.4216726124 -0.7184152007 0.5512297153
-0.03412291408 -0.1031574905 0.5425329208 -0.3656071126 -0.5549729466 0.7466270328
-0.0255536437 -0.07663027197 0.5204620957 0.6231551766 -0.5207457542 0.451464504
-0.03803544492 -0.08495391905 0.5255174637 0.2521944046 -0.6084438562 0.5006530881
-0.04189425334 -0.08854898065 0.5255374312 0.1625955254 -0.6356562376 0.5221083164
-0.02903114073 -0.08037529886 0.5203692913 0.5513781309 -0.5170904994 0.4575715363
-0.05439685658 -0.09646937251 0.5305956602 -0.2158766687 -0.750965178 0.5847278833
-0.04908713698 -0.0941484198 0.526941061 -0.0299021136 -0.6991450787 0.5628044009
-0.03480244428 -0.08882572502 0.5166913271 0.3518972695 -0.6068572402 0.518694222
-0.02979515865 -0.08620597422 0.5140411854 0.4900686145 -0.568605423 0.498131901
-0.02145665511 -0.08027756214 0.5115458369 0.7353253961 -0.4904791117 0.4528284967
-0.01728998311 -0.07712741941 0.5162383914 0.8144775629 -0.4094969034 0.4100605845
-0.01437744871 -0.08226861805 0.5128010511 0.8142827153 -0.4407277703 0.3757936656
-0.05149233341 -0.1287159175 0.4924867749 -0.04359269142 -0.6397118568 0.7369478345
-0.04485407844 -0.1245212555 0.4940706789 0.140056178 -0.4676155448 0.7976199985
-0.05703002214 -0.1293705255 0.4912306964 -0.04623582214 -0.7111840248 0.6984095573
-0.03808638453 -0.1958767772 0.5417546034 0.5013427734 -0.5666850209 0.6405985951
-0.06154652685 -0.1975203305 0.5497760773 -0.01754301786 -0.6800408959 0.7230915427
-0.05107283965 -0.191492036 0.5500075817 0.2307090759 -0.6387483478 0.6838821173
-0.07498584688 -0.1880761236 0.5548420548 -0.3260044158 -0.6923305392 0.6418761015
-0.07527046651 -0.1965807676 0.546243012 -0.3455215991 -0.6415939331 0.6837715507
-0.06737585366 -0.193556428 0.5524015427 -0.1504992098 -0.6726881862 0.7154951692
-0.0694623366 -0.2005188465 0.5471381545 -0.2184697539 -0.6440547109 0.7250312567
-0.07146735489 -0.1958905458 0.5495662689 -0.2728867531 -0.6465029716 0.7051881552
-0.08080728352 -0.1930928379 0.546189189 -0.4949804246 -0.6005319953 0.6165487766
-0.07533866167 -0.1923125833 0.550222218 -0.3703376055 -0.636670053 0.6695086956
-0.08354627341 -0.1870480925 0.5481809378 -0.5956584811 -0.567001164 0.5378699899
-0.08034306765 -0.1854510456 0.5540209413 -0.4655466676 -0.6660749912 0.565607667
-0.09130355716 -0.1729741991 0.5604101419 -0.5811107755 -0.6809868217 0.4433740973
-0.08548371494 -0.1738063544 0.5613228679 -0.4926024079 -0.7011399269 0.4833221734
-0.07527951896 -0.1801133156 0.5640994906 -0.3162673712 -0.7559151053 0.5705571771
-0.08007372171 -0.1769628525 0.5631892681 -0.4025857747 -0.7328563333 0.5241746306
-0.08942985535 -0.1734958142 0.5522036552 -0.5596958399 -0.6454691291 0.4697009325
-0.09154267609 -0.1686836481 0.5651747584 -0.5207967758 -0.7288869619 0.4424214363
-0.09505692869 -0.1702902913 0.5541969538 -0.6673585176 -0.6182672977 0.4134681821
-0.06500472128 -0.1798927933 0.5692897439 -0.05277131125 -0.7885216475 0.6121705174
-0.06895756721 -0.1819737256 0.565095365 -0.1674970835 -0.7692803741 0.6055619717
-0.0702964142 -0.1788620204 0.569565177 -0.1972638518 -0.7783001065 0.5830793381
-0.07111362368 -0.1109911874 0.5154958963 0.1515155733 -0.7568049431 0.6282532215
-0.06862036139 -0.106525518 0.5194562078 0.09888034314 -0.7632311583 0.6343864202
-0.07926422358 -0.109929204 0.5208096504 0.3018759489 -0.734133184 0.6057924628
-0.05830452591 -0.1071545184 0.5210802555 -0.1092399061 -0.7675193548 0.602286458
-0.0612042509 -0.1025065631 0.5247137547 -0.1224029288 -0.7741347551 0.6159220338
-0.05552391708 -0.1044513285 0.5260612965 -0.2092955559 -0.7658246756 0.5896499753
-0.05078490078 -0.1042902395 0.528853178 -0.2989996374 -0.7576396465 0.5688146949
-0.04178855568 -0.09315542132 0.5197131634 0.152682811 -0.6648993492 0.5487123728
-0.05254044384 -0.09957044572 0.5251677632 -0.1511967033 -0.7468261719 0.5817657113
-0.04587726295 -0.09601761401 0.5214615464 0.03315052763 -0.6979848742 0.5598923564
-0.05329165235 -0.1046063825 0.5205603838 -0.1825126261 -0.7638530135 0.5820232034
-0.04455205426 -0.0987419486 0.5171427131 0.05888404325 -0.6977136135 0.5526714325
-0.03705443442 -0.09386329353 0.5139718652 0.2673054934 -0.6408625841 0.5280789733
-0.04901509359 -0.101823166 0.5187525153 -0.06363552809 -0.7314261794 0.5679940581
-0.03191637248 -0.09177483618 0.5102832913 0.4063082635 -0.6047912836 0.5124079585
-0.02602886222 -0.08741493523 0.508595109 0.5662488341 -0.560303688 0.4912763536
-0.05070536211 -0.1063401252 0.5158590674 -0.1380344629 -0.7564778924 0.5725464225
-0.05488294363 -0.2038306147 0.5435185432 0.0859676525 -0.6644361019 0.7413113713
-0.04764818028 -0.2015860826 0.5433856249 0.2777904868 -0.6641814709 0.6818878651
-0.05309749395 -0.1988239884 0.5468003154 0.1913605779 -0.6667625904 0.7138264775
-0.06307623535 -0.2005916387 0.5455905795 -0.08343180269 -0.6620685458 0.7413883209
-0.06102729216 -0.2043987066 0.5424322486 -0.02927342057 -0.6620605588 0.7447314262
-0.03126950562 -0.1854730099 0.5425478816 0.6243855357 -0.5085131526 0.5771176219
-0.0356307961 -0.1894109547 0.5430906415 0.5372902155 -0.5604920387 0.6187731624
-0.02461608686 -0.1901090294 0.5337222219 0.6813185811 -0.4712636471 0.5492206812
-0.02538450994 -0.1857921779 0.5372216105 0.7125192285 -0.4545665383 0.5289642811
-0.02050728537 -0.1869192421 0.5304220915 0.7681616545 -0.4226508141 0.4774912596
-0.03095419146 -0.1697810441 0.5572836399 0.6032701731 -0.5841188431 0.542642951
-0.03082051128 -0.1773288101 0.5514986515 0.6720429063 -0.5002989769 0.5421299934
-0.05188265443 -0.1788376272 0.5664556623 0.2434666753 -0.7374635339 0.6124377847
-0.04755654186 -0.1818083376 0.5636549592 0.3641422093 -0.7030113339 0.6046429276
-0.04211370647 -0.1802406013 0.5617369413 0.465133369 -0.6647105217 0.5809435844
-0.03418636695 -0.1703740507 0.5619599819 0.5798072815 -0.5917876363 0.5584195852
-0.0419039093 -0.1747244596 0.5630038977 0.434265852 -0.6536297202 0.5827002525
-0.03459293023 -0.1748680174 0.5562092066 0.5743708014 -0.5851461887 0.5643469691
-0.04025371745 -0.1797813475 0.5555117726 0.4675107002 -0.6211889386 0.5978446603
-0.05124624074 -0.1844257563 0.559281528 0.2398531735 -0.712970674 0.6358363032
-0.04590156302 -0.1814593673 0.5581562519 0.345775038 -0.6726351976 0.6117168069
-0.05624707416 -0.1880788952 0.5572126508 0.1269499362 -0.720864594 0.6641632318
-0.06163813919 -0.1885230839 0.5567440391 -0.03422486782 -0.7228140831 0.663880229
-0.05680422112 -0.1908512712 0.5524772406 0.08829694241 -0.6711069345 0.6821894646
-0.06179441512 -0.1930418909 0.5525298715 -0.01031695586 -0.6751878858 0.7127217054
-0.061307244 -0.1858987212 0.5620076656 0.006653933786 -0.7618729472 0.6392463446
-0.05612820759 -0.1851180494 0.5625478029 0.1213827431 -0.7589902282 0.6363377571
-0.06821595877 -0.1863108277 0.55918926 -0.1863908768 -0.7403389215 0.6411890984
-0.0338735804 -0.1983637661 0.5382332206 0.5484614968 -0.559949398 0.6092008948
-0.05455618724 -0.1955543756 0.5511929989 0.1510768831 -0.7009244561 0.6954221725
-0.03826173767 -0.2018135339 0.5405254364 0.4489542544 -0.6233239174 0.6379389167
-0.04384469613 -0.1972422302 0.5464490652 0.3786540926 -0.644515574 0.660785079
-0.05160620809 -0.1890773475 0.555903852 0.2505024076 -0.6953532696 0.6681233048
-0.04565316066 -0.1870262325 0.5558248758 0.396274209 -0.6507037282 0.6459055543
-0.04151432216 -0.1882804781 0.5499956608 0.4553693831 -0.6092672348 0.6476643085
-0.03859763965 -0.1921735853 0.5461972356 0.5452993512 -0.5522330999 0.6223492622
-0.04511570185 -0.1919244528 0.5507282019 0.3971743882 -0.622430563 0.6653671265
-0.02991253696 -0.1243254766 0.496303916 0.01740104705 -0.2407241315 0.8928271532
-0.03670880571 -0.1307051629 0.4960721135 -0.1782865524 -0.393158257 0.8326303363
-0.02935812436 -0.1192899868 0.4960318506 0.2131786346 -0.2490027249 0.9046792984
-0.03557671979 -0.1232352853 0.4961628318 0.1362025738 -0.3705878258 0.8522501588
-0.04011840746 -0.1261927634 0.4963011444 0.07114416361 -0.4610162079 0.8108932376
-0.0359832719 -0.1802115589 0.5519968271 0.5473387837 -0.5833380222 0.5932477117
-0.02589359507 -0.1697733104 0.5465579033 0.6923962235 -0.4972573817 0.5183755159
-0.0202444829 -0.1652141511 0.5296321511 0.7961573601 -0.08632408082 0.4235982299
-0.02112386748 -0.1712769717 0.534707427 0.8266618848 -0.2243424058 0.4128265381
-0.01697251387 -0.1637704968 0.5203744769 0.8666887283 0.1351307184 0.3629954457
-0.0205375459 -0.157388106 0.5254378915 0.7902189493 0.05022807419 0.3669610918
-0.01653959043 -0.1533813477 0.5136100054 0.8315752149 0.3350417316 0.3398625553
-0.02396120131 -0.16082865 0.5337930322 0.7563647628 -0.161418587 0.3886713982
-0.02517654561 -0.1663932651 0.5417056084 0.7164980769 -0.370545119 0.4692156613
-0.02208173089 -0.1534877568 0.522221446 0.8170897961 0.134998098 0.2748370469
-0.02350825444 -0.1665260345 0.5349295139 0.7655264735 -0.2493325472 0.4245555103
-0.02087256126 -0.1484715044 0.5163720846 0.8425863385 0.3040398955 0.2191214263
-0.02941029333 -0.1720284969 0.5508160591 0.6437360644 -0.5398506522 0.5388386846
-0.03594978154 -0.1866400242 0.5486826301 0.5863100886 -0.5343241096 0.6077418923
-0.03134742752 -0.1921329498 0.5399850011 0.6211966276 -0.5062891245 0.5980533957
-0.02886566706 -0.1772096753 0.5461880565 0.6662347913 -0.4970185161 0.5450245142
-0.03371217474 -0.1820961237 0.5468937159 0.581709981 -0.5402010083 0.5877411962
-0.02627046593 -0.1807738394 0.5415204167 0.7128280401 -0.4616236985 0.5260629058
-0.02250421606 -0.1807689071 0.5358269215 0.7637345791 -0.4197808504 0.4862184525
-0.02505906299 -0.1745648086 0.5430396795 0.7465389967 -0.4164004922 0.4883788228
