# .PCD v0.7 - Point Cloud Data file format
VERSION 0.7
FIELDS x y z normal_x normal_y normal_z
SIZE 4 4 4 4 4 4
TYPE F F F F F F
COUNT 1 1 1 1 1 1
WIDTH 512
HEIGHT 1
VIEWPOINT 0 0 0 1 0 0 0
POINTS 512
DATA ascii
0.001416129293 -0.1839779764 0.7500597239 -0.2386491895 -0.5723360181 0.779858768
0.0007873135619 -0.1779852211 0.7552249432 -0.2449950427 -0.5591249466 0.7882221937
-0.03815535456 -0.1436170787 0.670651257 0.73043257 -0.4477564692 0.5157130957
-0.0354064703 -0.1380031407 0.6708355546 0.7203691006 -0.4533057511 0.5245119333
0.09443092346 -0.1157535613 0.6671730876 0.508117795 -0.5440440178 0.6671958566
0.09996051341 -0.1172217578 0.672991693 0.6082713008 -0.4737997353 0.6340426207
0.07120513916 -0.1013684496 0.6917278171 -0.1886414886 -0.761831224 0.5496886969
0.06569140404 -0.09974261373 0.699375391 -0.3640379012 -0.5409168005 0.7519754767
0.02964369208 -0.1055761352 0.6662155986 -0.2264884412 -0.6259934306 0.7427777648
0.03122163191 -0.09982230514 0.6710092425 -0.2376214117 -0.6274988055 0.7390017509
-0.03713512421 -0.1810234487 0.7159209847 -0.8042969704 -0.3359795809 0.4746007025
-0.03953585401 -0.1806074828 0.7091096044 -0.862141788 -0.2262979299 0.3977416158
-0.04110656679 -0.1806387454 0.7035624981 -0.9229872227 -0.1126039177 0.315862
-0.03760655224 -0.1857197136 0.7102302313 -0.8386778235 -0.3031634092 0.4523472488
0.03135675192 -0.1829820424 0.7483976483 0.2690897882 -0.5454778671 0.7886440754
0.02226377837 -0.1814649254 0.7514467835 0.142733857 -0.5567042828 0.8091805577
0.03123982437 -0.1779838353 0.7509888411 0.2742459774 -0.5284163356 0.7972567081
0.02604907937 -0.1781927794 0.7531833053 0.2055510134 -0.5352568626 0.8146845102
0.04804964364 -0.2147680819 0.7136399746 0.5716650486 -0.5210332274 0.6326738
-0.04172676429 -0.1631883532 0.6834517717 -0.03996798024 -0.253256768 0.4021868706
-0.04167224839 -0.1479207724 0.6732403636 0.700943768 -0.439507246 0.5102846622
-0.04302348197 -0.168231979 0.6880835295 -0.2825337052 -0.1407840699 0.3186686933
-0.04227695242 -0.1538260877 0.6764585972 0.5059044361 -0.3252001703 0.4300430417
-0.04074861482 -0.1605558097 0.6785877943 0.2251799554 -0.2933609486 0.4313163459
-0.01737586409 -0.1478257626 0.6414619088 0.5150991678 -0.5389820933 0.6531767845
-0.02823490463 -0.151305005 0.6477556825 0.6375849247 -0.4703111053 0.6046848297
-0.02296212129 -0.1481489539 0.6457311511 0.5963374376 -0.503174603 0.6157319546
0.05384781957 -0.2157063186 0.7077859044 0.6597251892 -0.4975609481 0.5563195944
0.003860463388 -0.1889392585 0.7469741702 -0.2056221068 -0.5913506746 0.777451694
-0.01248013694 -0.1437577158 0.6399503946 0.4555386007 -0.5825217962 0.672180891
-0.009133175015 -0.1448212117 0.6349523067 0.3942639232 -0.5990678668 0.6930640936
-0.002596735954 -0.1438219696 0.6308551431 0.2649734616 -0.6418896914 0.7111475468
-0.03224401549 -0.0962588042 0.70200032 0.6888195276 -0.5345695615 0.4895242751
0.03914297 -0.1335172504 0.6458960772 -0.3981783092 -0.6049669385 0.6829615235
0.02809536457 -0.1103881076 0.6629649401 -0.2157205641 -0.634834528 0.7402618527
0.05139529705 -0.1790884137 0.7380065918 0.5543679595 -0.5014488101 0.6580942273
0.04311729595 -0.1780068725 0.7463164926 0.4303596616 -0.5189058781 0.736081481
0.0476148054 -0.1794069409 0.7435395122 0.4839296341 -0.5201969147 0.7021475434
-0.003199366387 -0.09500799328 0.6782895327 0.3361884952 -0.6347604394 0.6944250464
-0.002211917657 -0.09053021669 0.6819272637 0.3212394416 -0.6591706872 0.6758509278
0.0889346078 -0.1202636585 0.6628692746 0.4107877314 -0.53265661 0.7293763161
-0.0173375234 -0.1312139779 0.6545881033 0.5151420236 -0.5566994548 0.6496247053
-0.01209956873 -0.1294414699 0.6521449089 0.4632760882 -0.5800962448 0.6696971655
-0.01708127372 -0.1414550096 0.6461723447 0.5377641916 -0.5534462929 0.6316365004
-0.03396369889 -0.1428745836 0.667147696 0.7043762207 -0.4588598013 0.5407381058
-0.02911091223 -0.1453340948 0.6527136564 0.6763789654 -0.457800895 0.5767869353
0.08551450074 -0.1056921631 0.6829427481 0.2289857864 -0.7735177875 0.5860537887
0.09048184007 -0.1093703732 0.6721589565 0.3852581978 -0.6693001986 0.6322831511
0.09432557225 -0.1123823598 0.6786375642 0.4893952906 -0.5604755282 0.6376796961
0.09534910321 -0.1122797504 0.6713372469 0.5308073759 -0.5177178383 0.6657565236
0.02563471161 -0.09612513334 0.6735517979 -0.1491316259 -0.6414502263 0.7519392371
0.03280762583 -0.09506160021 0.6753456593 -0.2499665767 -0.6318749189 0.7308475971
0.01434622705 -0.09945182502 0.6706113219 0.02916769311 -0.6558426619 0.7536417842
-0.03197860718 -0.1275030375 0.6745259762 0.691639185 -0.4757979512 0.5431189537
-0.03302755579 -0.1321533471 0.6713140011 0.7107830644 -0.460536629 0.5312162638
0.03567754105 -0.1993146688 0.7350990176 0.38636145 -0.5853059292 0.7099063396
-0.027568914 -0.1292846501 0.66733253 0.6419549584 -0.5124356747 0.5639977455
-0.0411410816 -0.1977798939 0.6962952018 -0.8284823895 -0.2915254235 0.4775564969
-0.03012297302 -0.2072896212 0.7142831087 -0.7161928415 -0.4038827419 0.5670202971
-0.03543836251 -0.1540927887 0.6599603891 0.7645335197 -0.3674409091 0.497821182
-0.03910021111 -0.1559670568 0.6650895476 0.8671724796 -0.2608092129 0.4021449685
-0.0315512903 -0.1531091332 0.6528054476 0.7117015719 -0.4064845741 0.5500956178
-0.03328802809 -0.1465548277 0.6572352052 0.6938150525 -0.455062598 0.5576249361
-0.03824817389 -0.1485032886 0.6664469838 0.7181656361 -0.4481632113 0.5321106315
0.06383807957 -0.2099181116 0.6972785592 0.8019500971 -0.3941960335 0.4477549791
0.03613499179 -0.1354549974 0.6410785317 -0.3512872458 -0.6140940189 0.7012786865
-0.007974351756 -0.2196854502 0.7226359248 -0.3606435657 -0.4865244627 0.7929779291
0.04478792474 -0.2131304145 0.7191557884 0.5294142365 -0.5321416259 0.6593385339
0.03797250241 -0.2125319988 0.7220098376 0.4229793847 -0.5563980341 0.7077935338
0.03950400278 -0.202820152 0.7284852266 0.4591370821 -0.5668665767 0.6732680798
0.04575646296 -0.143430531 0.6424275637 -0.5192058682 -0.5435732007 0.6592876315
0.0407005474 -0.1398803294 0.6418635845 -0.4169852734 -0.5807462335 0.698331356
0.04526702687 -0.1375968605 0.6459817886 -0.4948321581 -0.5525969267 0.6703663468
0.02675833926 -0.1163704842 0.6569790244 -0.1846633106 -0.647995472 0.7346731424
0.03358616307 -0.1261564195 0.6498225927 -0.3115676343 -0.6420164108 0.6992688179
0.03055995889 -0.1225661337 0.6519118547 -0.2540999949 -0.6482309103 0.7123038173
0.02554252371 -0.1248129159 0.6479990482 -0.1599054039 -0.6637766361 0.729513824
0.03456690162 -0.1098317578 0.6643179059 -0.3026713431 -0.6203038692 0.7234433889
0.032093063 -0.1146236137 0.6588085294 -0.2638684213 -0.6406127214 0.7184135914
0.03797725588 -0.1146406233 0.662196815 -0.3598335683 -0.6150450706 0.6977837682
0.04212602973 -0.1190041751 0.6614605188 -0.4203205705 -0.596062839 0.6770039201
0.02450319193 -0.1022129729 0.6693998575 -0.1467179209 -0.6338123083 0.7533322573
0.01853784733 -0.10333056 0.6679739952 -0.04863669351 -0.6492093205 0.7509771585
0.04433243349 -0.1235559806 0.6588433385 -0.4599837661 -0.588956058 0.6611406803
0.03665790334 -0.120277442 0.6556200385 -0.3400936723 -0.6278945208 0.6958446503
0.03896444663 -0.1246860996 0.6522142887 -0.3898324668 -0.6108744144 0.6847013831
0.03729242831 -0.178044498 0.7489459515 0.3567585647 -0.519497931 0.7747349143
0.04840686917 -0.1015686244 0.6804642677 -0.5224741697 -0.557307303 0.6438339949
0.04204387963 -0.09902842343 0.6768616438 -0.4182541966 -0.590928793 0.6870411038
0.0349893868 -0.1043953896 0.6697751284 -0.2994083464 -0.6118537188 0.7318373322
-0.006846288685 -0.1048684195 0.6726799011 0.3868555427 -0.623678565 0.67775172
0.00853604544 -0.1788346618 0.7557920218 -0.1144891158 -0.5756958127 0.8042266965
0.01008042041 -0.1743687838 0.7605737448 -0.05379599333 -0.5814028382 0.8106164336
0.0188819617 -0.1756411493 0.7580400705 0.08586217463 -0.5529657006 0.8227119446
0.01688342541 -0.1813379228 0.7554649711 0.06205141172 -0.5812385678 0.8084793687
-0.03121478297 -0.1785880327 0.7304342389 -0.6980458498 -0.4351249039 0.5626173019
-0.008547919802 -0.1940697134 0.7379609346 -0.3796841502 -0.5619726181 0.7295548916
-0.004536563065 -0.1914432645 0.7427814603 -0.3342941999 -0.5698117018 0.7501955628
0.09832141548 -0.1252450198 0.6644148231 0.4954432249 -0.5469784737 0.6713502407
0.09426810592 -0.1218426377 0.663877964 0.478038311 -0.5695956945 0.6683513522
0.09411332011 -0.1291200966 0.659625411 0.4378608763 -0.5555858612 0.7067292333
0.09201364219 -0.1336867362 0.6573573351 0.3527510166 -0.5106908679 0.7832424641
0.08193544298 -0.1132852137 0.6920621395 0.2557509542 -0.6055027843 0.7393555641
-0.0222434774 -0.132492885 0.6578199863 0.5878574848 -0.5297290087 0.6102211475
-0.02808301151 -0.1353331506 0.6607686281 0.6787472367 -0.4808861613 0.5527189374
-0.02548446879 -0.141128242 0.6530631781 0.6460065246 -0.477396369 0.5933939815
-0.02081783675 -0.1368163079 0.6526715159 0.5647730827 -0.5193532705 0.6330596805
-0.01494934037 -0.1355405152 0.6488432288 0.4948719442 -0.5669022202 0.6578666568
-0.02286613174 -0.1441257298 0.6490572095 0.6221324205 -0.5026010871 0.5988916755
-0.02938120067 -0.1398831159 0.6573987007 0.6892337799 -0.469312489 0.5507502556
-0.03163565695 -0.1393265724 0.6633418202 0.6977869272 -0.4642311931 0.5444796681
0.08490174264 -0.109374553 0.6877437234 0.2773136795 -0.6851142645 0.6596496105
0.08058293909 -0.1047047824 0.6893871427 0.07672263682 -0.725684166 0.6410040259
0.07501363009 -0.1035418808 0.6968134046 -0.1099631637 -0.6304754615 0.730661273
0.07827961445 -0.1105643585 0.6949304938 0.100123249 -0.5765172839 0.7755075693
0.01147030853 -0.08399036527 0.6833080053 0.1122830585 -0.6978715062 0.7043486238
0.006497296039 -0.08790656924 0.6815584302 0.177259773 -0.6833015084 0.7029126287
0.02091441117 -0.09286360443 0.6755399108 -0.07103737444 -0.6573470831 0.7462537885
0.01916049048 -0.08487533033 0.6825720072 -0.02206110209 -0.6959044933 0.7107889056
0.02493314818 -0.0880811289 0.6803377271 -0.1271971315 -0.6848940253 0.7164803147
0.01571458206 -0.09384787828 0.6738747358 0.01578329876 -0.6594487429 0.7509733438
0.01629367843 -0.08941657841 0.677960813 0.003516329452 -0.6793354154 0.7330015302
0.01962542534 -0.09715797007 0.6699404716 -0.03919150308 -0.6527382135 0.75587219
0.04072044045 -0.1946584582 0.7381023765 0.4577619135 -0.5646529794 0.6854982376
0.03293311968 -0.1909880936 0.7436637878 0.3228493333 -0.5676232576 0.7539801002
0.03993247077 -0.1901934892 0.7421916127 0.443865329 -0.5475033522 0.7067372799
0.01408444718 -0.1873317361 0.7507355213 0.008545487188 -0.5942389369 0.8015784025
0.05367805064 -0.2091730088 0.7129307985 0.6353676319 -0.4866291881 0.5973961353
0.07207754254 -0.1917237192 0.6940992475 0.8409127593 -0.3579417169 0.4056492746
0.06933443993 -0.1866465658 0.7033390403 0.8338185549 -0.3469741046 0.4284643531
0.09028477222 -0.1251581311 0.660600543 0.4173994362 -0.5654199719 0.7076181769
0.08315557986 -0.1362949014 0.655529201 0.2571732104 -0.502341032 0.8198349476
0.08675534278 -0.1299704909 0.6571544409 0.2593536079 -0.4907160401 0.8301083446
0.05948401615 -0.138334319 0.6611895561 -0.5220713019 -0.6036239266 0.5854945183
0.05930367485 -0.1445307285 0.6567826867 -0.4643293023 -0.6264391541 0.5962096453
0.06348311901 -0.1940576881 0.7111300826 0.7917112112 -0.3832542002 0.4755577147
0.06577979773 -0.1947406679 0.7048177123 0.8004711866 -0.375741154 0.466694355
0.06593008339 -0.1894199401 0.7078450322 0.8074119687 -0.3727244139 0.4554568827
0.06410042197 -0.1874019206 0.7149162292 0.7825051546 -0.3912840784 0.4841790497
0.06182587519 -0.1848822236 0.7212171555 0.7596735954 -0.4158269167 0.4997781813
0.06059382483 -0.1991713494 0.7115077972 0.7762820721 -0.3963759243 0.4900718033
0.05899322405 -0.1973075271 0.716021955 0.7433110476 -0.4205814302 0.5195037723
-0.03728745133 -0.1963190734 0.701505065 -0.830514431 -0.2913467884 0.4733215868
-0.03511824086 -0.1947371513 0.707236886 -0.8197918534 -0.3037010729 0.4836913943
-0.03784408048 -0.189544633 0.7059659362 -0.8356874585 -0.2955999672 0.4619538188
-0.04105411842 -0.2028833181 0.6997855306 -0.8192858696 -0.3115454912 0.4811221361
-0.04227413982 -0.1718264371 0.6821681261 -0.06958489865 -0.156044811 0.3153205514
-0.04227340594 -0.1555921435 0.6711007953 0.8344790339 -0.2215309888 0.3462432027
-0.04178042337 -0.1666108966 0.6773332953 0.2575999498 -0.1811443567 0.333671838
-0.04280240834 -0.1806355715 0.6896678209 -0.605897963 -0.1146236807 0.2890836
-0.04327199981 -0.1743783653 0.6898607612 -0.4583784938 -0.09627874941 0.2812969089
-0.04341595992 -0.1787665635 0.6967055798 -0.8916991353 -0.03473397717 0.2579293847
-0.04242831469 -0.191474542 0.6947749257 -0.8785650134 -0.2215343863 0.4007877707
-0.04065689072 -0.1917995661 0.7009005547 -0.8470190763 -0.2872819304 0.4424759746
-0.04203148559 -0.1865773052 0.699390769 -0.899728477 -0.1937717646 0.361196965
0.06339794397 -0.205338195 0.7005141973 0.7981229424 -0.3849888146 0.4624788165
0.02701590955 -0.1396116018 0.6333401203 -0.1809003055 -0.6632586718 0.7227783203
0.01038886234 -0.1344700456 0.6388337612 0.09976682067 -0.683847487 0.7178485394
0.01307904813 -0.129914403 0.6430197954 0.04783475772 -0.6809405684 0.7264680862
0.01438196655 -0.1254214346 0.646797955 0.02297251672 -0.6669936776 0.7425189614
0.005191928707 -0.1308152527 0.6427201629 0.1807236075 -0.6694128513 0.7192109823
0.008342158981 -0.127370894 0.6460277438 0.1192512512 -0.6643919945 0.7341801524
-0.009728840552 -0.1361772716 0.6449323893 0.4226310849 -0.6007127166 0.6745690107
-0.008803043514 -0.138809666 0.6398720145 0.3979733288 -0.6031416059 0.683922708
0.05205427483 -0.1444077045 0.6469253302 -0.5153814554 -0.5116879344 0.6872990727
0.05501307175 -0.1435464919 0.6511854529 -0.5263409615 -0.5268929005 0.6671182513
0.06700652093 -0.1415694058 0.6512077451 -0.12560381 -0.5629876852 0.7462494373
0.06141952798 -0.1438895762 0.6490101218 -0.280899018 -0.5402356386 0.7235793471
-0.006329044234 -0.2107148468 0.7274996638 -0.3139897585 -0.5300015211 0.7870054245
-0.02583749965 -0.210431084 0.7134042978 -0.7027859688 -0.4103954434 0.579082191
-0.03489604965 -0.2047944367 0.7030105591 -0.8035814166 -0.3005255759 0.5135587454
-0.03133993596 -0.2017776966 0.7094423771 -0.7969318628 -0.3153803647 0.5149888992
0.04940396547 -0.2202241868 0.7114546895 0.5617024302 -0.5379027724 0.6263688207
0.04096819833 -0.2224081606 0.7152625918 0.4700768292 -0.5719985366 0.6662014723
0.04542965442 -0.2070830911 0.7215459347 0.5436532497 -0.5269261599 0.6477547288
0.0009293765179 -0.117856212 0.6556117535 0.2393582165 -0.6555439234 0.7113139033
-0.01192977652 -0.1216880456 0.6595811844 0.4572066069 -0.6032614112 0.6434438229
-0.01298610587 -0.1253168881 0.6559119225 0.4607900381 -0.5919144154 0.6589463353
-0.01292461529 -0.1137149036 0.6705717444 0.4987562895 -0.5919567943 0.627769351
-0.0176319629 -0.1181436703 0.6693592668 0.5427600145 -0.5735108256 0.60748142
-0.02467637695 -0.1224745587 0.6707526445 0.6053616405 -0.5449755788 0.5777369738
-0.02245354839 -0.1243217736 0.6653251648 0.5771127343 -0.5604826212 0.5938211083
-0.02078981698 -0.1280006915 0.6604772806 0.5666355491 -0.5525506735 0.6109882593
0.02107111923 -0.1084511429 0.6638500094 -0.09871674329 -0.6489239335 0.7469183207
-0.0005012031179 -0.1041706502 0.6705509424 0.2797540128 -0.6337326765 0.708271265
0.06911701709 -0.1263156384 0.6892924905 -0.3325734735 -0.5254556537 0.7785210013
0.06938961893 -0.1319984645 0.6848402023 -0.3359200954 -0.6124031544 0.7023353577
0.06899054348 -0.1360030472 0.6806412935 -0.3573271632 -0.6737985015 0.634074986
0.0625898093 -0.126266405 0.6776199341 -0.5426700711 -0.5260832906 0.6183721423
0.06136373803 -0.1206754744 0.6784434915 -0.6025782228 -0.4509278834 0.6491065621
0.06569243968 -0.1330338418 0.6758518815 -0.4842545688 -0.6425324678 0.5711575747
0.05716350675 -0.1191786602 0.6740384698 -0.637732923 -0.4858460724 0.5940793157
0.08649136126 -0.1136941165 0.66790694 0.367523253 -0.5943455696 0.6577487588
0.07893658429 -0.1144043282 0.667868495 0.1634562612 -0.5910109878 0.647084415
0.04531427845 -0.116134122 0.6657273769 -0.4751455486 -0.5819150209 0.6563991904
0.06150532514 -0.1236186922 0.6632612944 -0.3541104794 -0.531529367 0.6733326912
0.07004854083 -0.1258184612 0.6612416506 -0.1640366018 -0.5159627199 0.7227567434
0.08276150376 -0.1194114387 0.6637450457 0.2560733855 -0.533061564 0.710844636
0.07297281921 -0.1177529469 0.6655050516 0.02489485778 -0.5464966893 0.6643391252
0.08274757862 -0.1250792891 0.6598900557 0.1637069285 -0.5014001727 0.7857912183
0.06648863107 -0.1202943474 0.6641946435 -0.1873257458 -0.5350589156 0.6816878319
0.07649513334 -0.1239734739 0.6610459089 0.01679749042 -0.5102413297 0.7554715872
0.05682026222 -0.1236502603 0.6704751849 -0.6588587165 -0.4981713593 0.5589848161
0.05102752522 -0.1289354414 0.6598962545 -0.5501964092 -0.5560497046 0.6216260791
0.05129728466 -0.120268397 0.6651651263 -0.5564345121 -0.5511599183 0.6217685938
0.05857945606 -0.1287396401 0.6590544581 -0.3873876929 -0.5373427272 0.6669843197
0.06479139626 -0.1284887195 0.6588337421 -0.2515809834 -0.5261614919 0.7019244432
0.08020867407 -0.1304049045 0.6572037935 0.1178439483 -0.5205453634 0.7930032015
0.06496245414 -0.1335175484 0.6568259597 -0.1847485006 -0.5709437728 0.7108547688
0.07366651297 -0.1305104792 0.6574326754 -0.02666042373 -0.5303531289 0.7562685609
0.0405617319 -0.1074307635 0.6697647572 -0.4100216031 -0.5841314197 0.6980323195
0.03594100475 -0.09920980036 0.6745818853 -0.3188525736 -0.6166066527 0.7190512419
0.03107744642 -0.09069816023 0.6800589561 -0.2298043072 -0.6576351523 0.7130934596
0.04543154314 -0.0963710323 0.6818705797 -0.4746693373 -0.5828409791 0.6556441784
0.03853917122 -0.09355010837 0.6800844669 -0.3745191991 -0.6189898252 0.6876173019
0.0595683828 -0.1038937122 0.6896678209 -0.4852072001 -0.4968890846 0.7187036276
0.06536260247 -0.1211266145 0.6845908165 -0.4940170646 -0.4603175521 0.7340196967
0.04453989863 -0.1039992645 0.6748160124 -0.4659287333 -0.5708534718 0.6754816771
0.04746269435 -0.1092114225 0.6734084487 -0.498211503 -0.5601250529 0.6613659859
0.06054348126 -0.110559769 0.6734784245 -0.3527182639 -0.5507608652 0.6277073622
0.06763910502 -0.1128848344 0.6704031825 -0.1544146687 -0.5790712833 0.631006062
0.07359885424 -0.1128750443 0.6697987914 0.003079137765 -0.5963022709 0.6341833472
0.05351637676 -0.1105593368 0.6742030978 -0.5384736657 -0.5304039121 0.6239635348
0.05820030719 -0.1156583354 0.6685799956 -0.3911083043 -0.5609822869 0.6254026294
0.05081013963 -0.1143190861 0.6701775193 -0.5521857738 -0.5436999202 0.6306484342
0.06506896764 -0.09838031232 0.6934598088 -0.329477191 -0.6616028547 0.6134129763
0.05643624067 -0.09463628381 0.6938074231 -0.4884979427 -0.5655599236 0.663932085
-0.03183343634 -0.1179776266 0.6816902161 0.680809319 -0.5079889894 0.5266951919
-0.03115821257 -0.1223450527 0.6773808002 0.6715955138 -0.5059073567 0.5404828191
-0.02656709217 -0.09486447275 0.6979981065 0.6626883745 -0.5510142446 0.5066017509
-0.01509810425 -0.1095241234 0.6747454405 0.5135389566 -0.5822417736 0.627379775
-0.03175077215 -0.185359627 0.7234286666 -0.7515463829 -0.4142742753 0.5114346743
-0.0346757248 -0.1860153377 0.7169712782 -0.8094990849 -0.3444225788 0.4709341228
-0.02825298905 -0.1938136071 0.7211813927 -0.731051147 -0.4098288715 0.5430184603
-0.03366459161 -0.1803766191 0.7248442173 -0.7548530698 -0.4015198648 0.516900599
-0.0281387046 -0.1905111521 0.7265287638 -0.6767328978 -0.4652949572 0.5689566731
-0.01372602209 -0.1833318323 0.7438994646 -0.4747947752 -0.5241598487 0.7058472037
-0.008403120562 -0.1850779206 0.7464277744 -0.3927045166 -0.5366691947 0.7412668467
-0.01081436593 -0.1894189715 0.741789937 -0.4418570697 -0.5375804305 0.7170697451
-0.0113964295 -0.1785592288 0.7488391995 -0.4147786498 -0.526914537 0.7378614545
-0.006472004112 -0.1795583665 0.7516641021 -0.3521580398 -0.5381371975 0.7624098063
0.04118291289 -0.09041530639 0.6846858859 -0.4088307023 -0.6179386377 0.6652587652
0.0471252054 -0.0914561376 0.6869159937 -0.4904857576 -0.5909563899 0.6394476891
0.06652023643 -0.1037449017 0.6851379871 -0.2555217445 -0.7463489771 0.5224989653
0.07244987786 -0.1038169935 0.6868616343 -0.1293770075 -0.834961772 0.4760322571
0.05321534723 -0.1011886373 0.6846969724 -0.5339095592 -0.5414691567 0.6487833261
0.06219220906 -0.09920594096 0.6885281801 -0.3310914338 -0.6897439361 0.5732113123
0.05571145564 -0.09915038943 0.6891248822 -0.4935331643 -0.5363802314 0.6824777126
0.04170243815 -0.1844023764 0.7421348095 0.4362811148 -0.5343340039 0.7162498832
0.0365646258 -0.1842983365 0.7453370094 0.3619014025 -0.5417708158 0.7571666241
0.04369349033 -0.1940854788 0.7332602143 0.497753948 -0.5456997752 0.6647794247
0.04709426314 -0.185877189 0.740416944 0.5035256147 -0.5335800648 0.678914547
0.01299005095 -0.1930797249 0.7450226545 -0.02882748656 -0.6001411676 0.7960832715
0.001479011844 -0.1929663569 0.7436639667 -0.2405285984 -0.5910081863 0.7660654187
0.008992510848 -0.1893716455 0.7488194704 -0.09430541843 -0.592428267 0.7962201238
0.005741909612 -0.1854049116 0.752329886 -0.1442947388 -0.5872198939 0.7955245376
0.0508165434 -0.2039311975 0.7196999788 0.6224979162 -0.4880819917 0.6113167405
0.05527205393 -0.2027605325 0.715136826 0.6713038087 -0.4630292952 0.5766402483
0.04671580344 -0.1979233325 0.7298352718 0.5476394296 -0.5361641645 0.6380671859
0.04949924722 -0.1999830306 0.7247952223 0.5974874496 -0.5051555037 0.6188620925
0.04441607371 -0.203231886 0.7270272374 0.5188291073 -0.5534023643 0.6475259066
0.04010466114 -0.2174284011 0.7191712856 0.4645621181 -0.5598994493 0.6809292436
0.07610739768 -0.1912773103 0.6757181287 0.9688839912 0.02331705391 0.2214375287
0.07456809282 -0.1913209856 0.6817855835 0.9173123837 -0.1334504038 0.29671821
0.07290359586 -0.1994738132 0.6862690449 0.8432196975 -0.3611406386 0.3908031285
0.08733932674 -0.142152518 0.6580401659 0.2832241952 -0.5079969168 0.8078606129
0.06158865988 -0.1523866802 0.6537518501 -0.3653825521 -0.6514515281 0.6342212558
0.06729759276 -0.148245275 0.6658247709 -0.2782750726 -0.7567876577 0.5867525339
0.06853317469 -0.1397180408 0.6759365201 -0.3490620553 -0.7046092749 0.6149387956
0.06611061096 -0.1424729675 0.6678704619 -0.3722019196 -0.695443511 0.6068512797
0.06467917562 -0.1492040902 0.6601068974 -0.3265063167 -0.7430409789 0.5741505623
0.06589464843 -0.1549208611 0.6581499577 -0.216422677 -0.7602512836 0.5535284281
0.07324203849 -0.1807219386 0.6700632572 0.6311791539 -0.1861004531 0.3081749678
0.07022446394 -0.1699446589 0.6641434431 0.2869183123 -0.4749858975 0.3452482224
0.07382937521 -0.1881220192 0.6884596348 0.8931993842 -0.1949074566 0.3317658603
0.07129043341 -0.167713359 0.6703084111 0.2649586499 -0.5026321411 0.4792618752
0.07081362605 -0.1693049073 0.6768435836 0.3169535697 -0.5408765078 0.4993418753
0.0620037131 -0.1359855086 0.6686395407 -0.4956677556 -0.6144553423 0.5957884192
0.0612222068 -0.1286036819 0.6717672944 -0.6058946848 -0.5670755506 0.5456117392
0.05647217482 -0.130632624 0.664300859 -0.6128284931 -0.5377568603 0.5771052837
0.08178479224 -0.1408592612 0.6691409945 0.09800839424 -0.6035149097 0.7141777873
0.08349569887 -0.1298676133 0.6754951477 0.3004332781 -0.5716509819 0.7040826678
0.09359260648 -0.1216416582 0.6753676534 0.5044638515 -0.4930627942 0.6607370973
0.09422057122 -0.1334175318 0.6662192941 0.4625485241 -0.4979881942 0.7176769376
0.08065661043 -0.1359373629 0.6727364063 0.2263684124 -0.5967489481 0.7345036864
0.08738764375 -0.1314647049 0.6718993187 0.3578906357 -0.5451661944 0.7105149031
0.08847310394 -0.1362653822 0.6676566005 0.3545610309 -0.5412577987 0.7334465384
0.09410617501 -0.1281011403 0.6702448726 0.4842767119 -0.4945583642 0.6919133067
0.09187232703 -0.1405777931 0.6622053981 0.3898834288 -0.5223278999 0.7533162236
0.09757891297 -0.1242450699 0.6699896455 0.5458403826 -0.4797179401 0.6726613045
0.07578271627 -0.124315232 0.6875328422 -0.04635347798 -0.6291811466 0.7005875707
0.07833259553 -0.1195778772 0.6897407174 0.07410918176 -0.6130776405 0.7186652422
0.07394038141 -0.134689346 0.6783033609 0.04127645865 -0.650544703 0.7029826045
0.0907536447 -0.1181531399 0.6811869144 0.4039427936 -0.5393076539 0.6538091302
0.08468148112 -0.1207857728 0.6837345958 0.2343834639 -0.5984095335 0.661334753
0.07586397231 -0.1294055581 0.6830899715 -0.079268381 -0.6690655351 0.6459103227
0.08379015326 -0.1255518794 0.6801422238 0.1479277313 -0.5932371616 0.6383789182
0.08991934359 -0.1136439219 0.6852619648 0.4356869757 -0.5661767721 0.6801245213
0.03082139418 -0.1306933463 0.6449384689 -0.2645205855 -0.6576824784 0.7021104693
0.026449278 -0.1340040714 0.64133358 -0.1943385303 -0.66748631 0.7118606567
0.01715920493 -0.1402978301 0.6360899806 -0.03427756205 -0.6874604225 0.7213293314
0.03002604283 -0.1386177987 0.6397759914 -0.2461671382 -0.6358115673 0.7102652788
0.01836286671 -0.1327415854 0.6403924227 -0.03842347488 -0.6875863075 0.7215381265
0.02360925637 -0.1362209767 0.6369245052 -0.1169157326 -0.6820152998 0.7200067639
0.05839610845 -0.1828474253 0.7272581458 0.6906505823 -0.4518266916 0.5555073619
0.05048786476 -0.1919026822 0.7286163568 0.6073728204 -0.5048578978 0.6066817641
0.05816440284 -0.1891469359 0.7213315964 0.7359260917 -0.4350293875 0.5141020417
0.0549913384 -0.1813898385 0.7322180867 0.6256219745 -0.4843767881 0.6079753041
0.05089617521 -0.1864002198 0.7336162329 0.583709836 -0.5088293552 0.6247969866
0.05529221147 -0.1882884651 0.7274542451 0.672326684 -0.4758038819 0.5631424189
0.0562517792 -0.1949578077 0.7209525704 0.689823091 -0.4670087099 0.5499073863
-0.03144107386 -0.2119294852 0.7095031142 -0.7324265838 -0.375325948 0.5656425357
-0.03126594424 -0.2017942369 0.7155407071 -0.7453854084 -0.3869734108 0.5397455096
-0.03312995657 -0.1961087286 0.7134894133 -0.808611095 -0.3238392472 0.4877043962
0.06848013401 -0.1984486729 0.6930351257 0.8386693001 -0.3652884364 0.4028648734
0.06687967479 -0.2003733814 0.6994578838 0.8235410452 -0.3737116456 0.4249468148
0.06860735267 -0.2035785466 0.694164753 0.837808907 -0.3754665256 0.3963039219
0.07205700874 -0.1944833398 0.6878023148 0.8465366364 -0.3525558114 0.3987939358
0.06848343462 -0.1920640767 0.7000252008 0.8350088596 -0.3549735546 0.4193286598
0.03110225126 -0.1438344866 0.632794559 -0.2774318457 -0.6207966805 0.7175266743
0.02663569897 -0.1453629732 0.6280168891 -0.1606803536 -0.6547737122 0.7290277481
0.01991479658 -0.1443150043 0.6295095682 -0.05691796169 -0.6910268068 0.714027524
0.003327810904 -0.1362867355 0.6399905086 0.2123404741 -0.6584103107 0.7078431249
0.01008086279 -0.1409743279 0.6363434196 0.0908376649 -0.6740939617 0.7157732844
-0.004700643942 -0.1418844759 0.6388447881 0.3448277414 -0.6165397167 0.6920216084
0.004638030659 -0.1420391649 0.6370717287 0.1848761439 -0.651029706 0.7052060962
-0.003261487465 -0.1344571114 0.6428810358 0.3163879216 -0.6383933425 0.6974666715
0.001018165378 -0.1386864036 0.6347742677 0.2112044841 -0.6646991372 0.7161759138
-0.002826782176 -0.1276439279 0.6486400962 0.3263908029 -0.6420089602 0.693223536
0.003776311176 -0.1221038103 0.6509465575 0.2103616893 -0.6557591558 0.7238888144
0.001208199537 -0.2235514522 0.7242666483 -0.1825847328 -0.5595327616 0.8036155701
0.002139677992 -0.2135142237 0.7283675075 -0.1954993755 -0.5607230067 0.8006600142
-0.003328932449 -0.2153524011 0.7241168618 -0.2811126709 -0.5229011774 0.8008483648
0.002456708346 -0.2174463719 0.7249696851 -0.1674776375 -0.5666761994 0.8011367321
-0.02569898963 -0.1993427128 0.7187411785 -0.7001210451 -0.3973958492 0.5767059326
-0.01984542795 -0.1997804642 0.7277711034 -0.5569860339 -0.5083337426 0.6552708149
0.03468361497 -0.2094807774 0.7260134816 0.3684508801 -0.581402719 0.7252578735
0.03236086667 -0.2062238902 0.7313967347 0.3488744497 -0.6013936996 0.7144340277
0.004733824171 -0.1980421394 0.7409973145 -0.1829078048 -0.6116762757 0.7689433694
0.02415621281 -0.191243574 0.7462090254 0.168770045 -0.5829930305 0.7928785682
0.01792948879 -0.1903366297 0.7467392683 0.07154063135 -0.5968333483 0.7950928807
0.02300014347 -0.1870064884 0.7502417564 0.1621200293 -0.5731009245 0.8014591932
-0.006669098977 -0.1189831719 0.6569749117 0.3677066565 -0.6318494678 0.6801446676
-0.01647336222 -0.1213498935 0.6636803746 0.5361779928 -0.5800042152 0.6118422747
-0.01222910453 -0.1178858876 0.6642653346 0.4792050123 -0.5989333987 0.6351209283
-0.00277974247 -0.1140605286 0.6601597667 0.3066902459 -0.6468577981 0.6968488097
0.01841294393 -0.1151904911 0.6563794613 -0.04303494096 -0.6583917737 0.7485756874
0.02408229746 -0.1119284183 0.6594200134 -0.1344900876 -0.6475068331 0.7493352294
0.01511680614 -0.1089216545 0.6613020897 0.01282551698 -0.6535288692 0.7567394376
0.01673062518 -0.1205824763 0.6511683464 -0.0165200755 -0.6599215269 0.749468267
0.02468832768 -0.1193047538 0.6529282928 -0.143579945 -0.6598902345 0.7365202904
0.005891206674 -0.113963455 0.6582304835 0.1577780247 -0.6664043665 0.7268112898
0.003654688131 -0.09963521361 0.6713560224 0.1958980411 -0.6464802027 0.7358159423
-0.003415945219 -0.09984637797 0.6738177538 0.3347303569 -0.6313178539 0.6988947988
0.008395506069 -0.093451038 0.6760481596 0.1316118538 -0.6586714983 0.7334095836
0.04632104561 -0.1326166242 0.6503844857 -0.4936564863 -0.5603473783 0.6647789478
0.04464872926 -0.1273497343 0.6546473503 -0.4689536691 -0.5837998986 0.6624231935
0.04183647037 -0.1289024353 0.6496429443 -0.4456217587 -0.592165947 0.6713188291
0.04917027801 -0.131426692 0.6546840668 -0.5263544917 -0.5525455475 0.6454254985
0.07197096199 -0.1370708793 0.6548675299 0.02141114138 -0.5934581161 0.7590770125
0.05537902191 -0.1324820668 0.6552897692 -0.3791828752 -0.5648185611 0.6738594174
0.05076956749 -0.1380469203 0.6502478719 -0.5148201585 -0.5302145481 0.6730360985
0.05782531947 -0.1379142404 0.651114583 -0.3148438036 -0.5540997386 0.7093288302
0.06316006929 -0.1366742551 0.6527469158 -0.171497941 -0.5749044418 0.7287822366
0.05885865539 -0.1092799678 0.6840254664 -0.5592126846 -0.488533318 0.6686190963
0.05399306118 -0.1078033447 0.6799996495 -0.5718391538 -0.5079461932 0.6426181793
0.06137426198 -0.1158024818 0.6819089651 -0.5551221967 -0.4576231241 0.6904333234
0.05792467669 -0.1150614172 0.6780273914 -0.6031955481 -0.4699357748 0.6430055499
0.06750589609 -0.1073366925 0.6766994596 -0.2123955339 -0.6016073823 0.6161316633
0.07863060385 -0.109649919 0.6726669073 0.1155287102 -0.608255446 0.6343992949
0.08253273368 -0.1065412834 0.6769112349 0.1410501599 -0.7000967264 0.6021179557
0.08874981105 -0.1062017828 0.6773264408 0.2881972492 -0.748642385 0.5901420116
0.07871542126 -0.1053139791 0.6821702123 0.03061618097 -0.7863119841 0.5284067392
0.07407060266 -0.1065325961 0.678094089 -0.06604049355 -0.6706129313 0.5930041671
0.06228496879 -0.1066392511 0.6793267131 -0.3526525497 -0.6209503412 0.5862142444
-0.01868404262 -0.1133488119 0.6720208526 0.5493196845 -0.5711466074 0.6095396876
-0.02081330121 -0.1100184619 0.678006053 0.5681045055 -0.5559561849 0.6064209938
-0.02696841396 -0.1191083565 0.6752682328 0.620981276 -0.5417767167 0.565204978
-0.01635245606 -0.1031851172 0.6796908379 0.5124115944 -0.5829334259 0.6287723184
-0.01081564464 -0.1033705845 0.6763689518 0.437158376 -0.6056367159 0.6578024626
-0.01508274488 -0.09801594168 0.6827466488 0.4964716733 -0.5928624272 0.6322950721
-0.008656084538 -0.09357637167 0.6826947331 0.4286088645 -0.6252169013 0.6503697038
-0.02073586732 -0.1916842461 0.7325955033 -0.578907907 -0.5088390112 0.6344428062
-0.01032022666 -0.1993238032 0.7336947918 -0.4175083339 -0.544837594 0.7225133777
-0.01409191359 -0.1931810677 0.7361554503 -0.4823632538 -0.5298433304 0.6970579624
-0.01732735708 -0.1961434036 0.7311803102 -0.5293387175 -0.5115020871 0.67055583
-0.02332573012 -0.1947717071 0.7282792926 -0.618835628 -0.4996382296 0.604592979
-0.02863338031 -0.1843183637 0.7285408378 -0.6892411113 -0.4428084493 0.5647775531
-0.0153977992 -0.1882408559 0.7386533618 -0.4949781299 -0.5167725086 0.6978213787
-0.02229321748 -0.1860961169 0.7357273698 -0.5670301318 -0.5051894188 0.6479454637
-0.01952222362 -0.1795403063 0.7425587773 -0.5001401305 -0.5172184706 0.6941216588
-0.02635059319 -0.1801633239 0.7364857793 -0.5999373198 -0.4842112958 0.6288252473
0.06782108545 -0.149622798 0.6534494162 -0.1285486966 -0.634066999 0.6952089667
0.07231739163 -0.1443931907 0.6540378332 0.03055005707 -0.6830538511 0.6808365583
0.05733925477 -0.1526757777 0.6476229429 -0.4682705998 -0.5016672611 0.7211019993
0.07803436369 -0.1406352669 0.6554687023 0.1520596892 -0.6054483652 0.7737842202
0.05581338704 -0.1390515417 0.6559291482 -0.5615220666 -0.5344564915 0.6299072504
0.04321946949 -0.1464076936 0.6377985477 -0.4276677966 -0.5731384754 0.6974462867
0.04817567766 -0.1483358443 0.6412371993 -0.4806677401 -0.5437663198 0.6847640872
0.05329266191 -0.1513082534 0.6440596581 -0.516471386 -0.5173851848 0.6812453866
0.03756492585 -0.1434146464 0.6361138821 -0.3751101196 -0.5944315195 0.709736526
0.002965055173 -0.1428100467 0.6299021244 0.1698817313 -0.6707912683 0.7193783522
0.01412116271 -0.144246906 0.6284167171 0.02814963832 -0.6909092665 0.7148177624
0.00397449499 -0.2281937152 0.7219821215 -0.1125176623 -0.584903121 0.801648736
-0.004643786233 -0.2258514464 0.72032094 -0.2752907574 -0.5301229358 0.7905580401
-0.01213833783 -0.2228675187 0.7185755372 -0.4067574143 -0.4779325724 0.7765421271
0.03279720619 -0.2219409049 0.7182655931 0.3653250933 -0.5888589025 0.7170611024
0.03434075788 -0.2176492661 0.7210802436 0.3727333546 -0.5706364512 0.7299212813
0.03088065982 -0.2139561623 0.7254056334 0.3122618794 -0.5883440375 0.7409624457
0.02218529582 -0.2138642073 0.726919651 0.1919743866 -0.6070414782 0.759137392
0.02854471281 -0.2100395262 0.7279225588 0.3143724799 -0.5952060819 0.7358666062
0.01047725696 -0.2273427099 0.7222706676 -0.00902817864 -0.6083149314 0.788636148
0.01485130657 -0.2229207158 0.7233992815 0.05731415004 -0.6239575148 0.7784429193
0.01059630886 -0.2129703909 0.7291103601 -0.04547145218 -0.5976750851 0.795783639
0.008195865899 -0.2209613174 0.7242552638 -0.05184976012 -0.5997576118 0.7948601246
0.01358379237 -0.2173354179 0.7262704968 0.03116479889 -0.614765048 0.7857740521
-0.02527948283 -0.2180267423 0.7147684097 -0.6332707405 -0.4241521358 0.6441702247
-0.02079061605 -0.2137506157 0.7157512307 -0.6132246852 -0.4380027056 0.6475998163
-0.02449952066 -0.1981540918 0.7242014408 -0.6414465308 -0.4655647874 0.6073074341
-0.02474815771 -0.2060111463 0.7190592885 -0.647131443 -0.4184428453 0.6347842216
-0.005005550105 -0.2031749189 0.7337577939 -0.2936240137 -0.5603325367 0.7739425898
-0.003108524252 -0.1978248805 0.7378205061 -0.2895407677 -0.5915250182 0.750328064
-0.001574144349 -0.2084707171 0.7312393188 -0.2665491998 -0.5466070175 0.7928580046
0.00422482146 -0.2080806941 0.7321197987 -0.1665993482 -0.5863033533 0.791110456
0.0021781791 -0.2021221519 0.7373983264 -0.2084936798 -0.593123436 0.7740352154
0.0193474181 -0.1982833743 0.7405863404 0.08867202699 -0.6075203419 0.7794001102
0.01332988869 -0.1980587393 0.7411875725 -0.02141740173 -0.6056135297 0.79198277
0.01028834376 -0.201098606 0.7382758856 -0.06887705624 -0.6127114296 0.7797036171
0.01579326019 -0.2097961754 0.7322149277 0.03251764178 -0.6155001521 0.7872802019
0.01124932151 -0.2065998018 0.7351250052 -0.06396372616 -0.6120870709 0.782222271
0.01305350009 -0.1044068784 0.6665095091 0.04588421062 -0.6579971313 0.7498024106
-0.005716174841 -0.1101484522 0.6688745022 0.3986882865 -0.6173829436 0.6642867327
0.002290853299 -0.1112569645 0.6633626819 0.2453304976 -0.6486257911 0.7050052881
0.009765147232 -0.1110514626 0.6617276669 0.1080711186 -0.6585226655 0.7311877608
0.008853591047 -0.1010647342 0.6698613167 0.1110727489 -0.651635468 0.7471029162
0.01332404092 -0.1152853593 0.6558761597 0.03143808618 -0.6596562862 0.7488060594
0.004705861676 -0.1041663513 0.6671473384 0.1768463999 -0.648465693 0.7387901545
-0.03293464333 -0.1145892516 0.6877980828 0.7072345018 -0.4908263981 0.5075778961
-0.03643010929 -0.1125385687 0.6990228295 0.7262828946 -0.4878019691 0.4840225279
-0.03315904364 -0.1081628054 0.6970911026 0.7131716609 -0.5022701621 0.4883676767
-0.02658999898 -0.09933632612 0.693343997 0.6795728803 -0.5324683189 0.5040425658
-0.03223057464 -0.1023005545 0.6988355517 0.7002127767 -0.5152372122 0.493224442
-0.0304269772 -0.1072228551 0.6914610863 0.7003620267 -0.5090990663 0.4977315068
-0.02682432905 -0.1098049507 0.6848461032 0.6395748258 -0.5248839855 0.5578685999
-0.03529486433 -0.1011287868 0.7086861134 0.6906481981 -0.5284245014 0.4917800725
-0.03659971058 -0.1044100672 0.7035865784 0.7149348259 -0.5033658743 0.4850592017
-0.01433239784 -0.09261202812 0.6869223714 0.48439008 -0.6097747087 0.6264666915
0.06439555436 -0.1088763326 0.6921237707 -0.4157052934 -0.4777513146 0.77147156
0.06770907342 -0.1161108464 0.6919523478 -0.3711026609 -0.4695036709 0.7998149991
0.07271741331 -0.1191397905 0.6925336719 -0.1363129169 -0.5125523806 0.8262978792
0.06909584254 -0.1049197987 0.6994511485 -0.304030329 -0.5239507556 0.7921862006
0.06976395845 -0.1112524047 0.6950567961 -0.2752931416 -0.4877444804 0.8122756481
0.07842710614 -0.1558605582 0.6630814672 0.2418408841 -0.5794401169 0.5906123519
0.08637993038 -0.1471288949 0.6616738439 0.3281879723 -0.5965732336 0.6763008237
0.0772562474 -0.1668000072 0.6661394238 0.4528214931 -0.4582587779 0.404774785
0.07775299996 -0.1845293343 0.6714478731 0.8816632628 -0.2347090542 0.08221992105
0.08058466017 -0.1764694005 0.6694847345 0.7976879478 -0.3016630113 0.2015658915
0.08473964781 -0.1558383852 0.6636881232 0.4830826521 -0.5139781237 0.5279224515
0.08293417841 -0.1678549647 0.6672741175 0.6838712692 -0.3811359107 0.3348937631
0.0815506801 -0.1620720476 0.6645486355 0.532166481 -0.4829808772 0.4336405694
0.0785960108 -0.147598505 0.6572475433 0.1598912328 -0.6396017671 0.7316789031
0.07501929253 -0.1405819654 0.6737518311 -0.1405064017 -0.6819003224 0.6510462761
0.08156655729 -0.1444261521 0.6647413373 0.1186628044 -0.6482211351 0.6965589523
0.0754673183 -0.1442807317 0.6688970923 -0.07510399073 -0.678889215 0.6742758751
0.07353593409 -0.175738439 0.6667778492 0.5405837893 -0.4026697278 0.2096015215
0.06804329902 -0.1630667597 0.6607028842 0.05588364974 -0.6305291653 0.4075385928
0.07470455021 -0.1589084268 0.6604880095 0.2878893316 -0.6362597346 0.5001440048
0.07434924692 -0.1516041011 0.6575769186 0.1383677423 -0.7446748614 0.6234232783
0.07040242106 -0.1446746737 0.6724284291 -0.2245198637 -0.6985964179 0.647651732
0.07162055373 -0.1511034369 0.67353791 -0.03722939268 -0.6134180427 0.5364974737
0.07534541935 -0.1719760895 0.6735284925 0.5407482386 -0.3677558005 0.2333502471
0.07112950832 -0.1520214379 0.6632597446 -0.09749288857 -0.6905240417 0.6874914169
0.07266160101 -0.1573931575 0.6722576022 0.1262867302 -0.5503178239 0.4655732214
0.07319670916 -0.1627536863 0.6656398177 0.2195723951 -0.5438111424 0.4934892952
0.0710754022 -0.1540573388 0.6834430099 0.05790922418 -0.5777478218 0.5161573887
0.07163462788 -0.1742337048 0.6927914023 0.5467541218 -0.439250648 0.4599077106
0.0701526925 -0.145246014 0.6822966933 -0.1662823558 -0.6557118893 0.5857197046
0.07398770005 -0.1802612692 0.6861239076 0.7272851467 -0.3415558934 0.2981267273
0.07221610099 -0.1848506182 0.696467638 0.8085184097 -0.3589734137 0.4112617075
0.07645138353 -0.1834695041 0.6773332357 0.8424857855 -0.2583510876 0.1316879243
0.07139799744 -0.1592788249 0.6850925088 0.1872250289 -0.5373231173 0.4898037314
0.07584041357 -0.1780970544 0.6768437028 0.7050285339 -0.3071337044 0.1773098707
0.07422871888 -0.1725195795 0.6805652976 0.5469032526 -0.3829597235 0.2894949317
0.07108984888 -0.1672236025 0.6881068349 0.3537236452 -0.5089792013 0.4980724752
0.07022821158 -0.1633730531 0.6762972474 0.1690538526 -0.6114774942 0.5380671024
0.07170068473 -0.1809622943 0.691536963 0.6786252856 -0.4170084298 0.4414774477
0.07067959011 -0.1649070978 0.6827006936 0.2572822273 -0.5586301088 0.5183548927
0.07009413838 -0.1560643911 0.6774716377 0.0220934134 -0.639193058 0.5615025163
0.06945569068 -0.1549534053 0.6679390669 -0.08404312283 -0.7120856047 0.5866679549
0.07113030553 -0.175045222 0.685231328 0.4970310032 -0.4907660782 0.476593107
0.02794719674 -0.2218260467 0.7206372619 0.289424926 -0.6057401299 0.7403106689
0.02214310504 -0.2248197347 0.7210207582 0.183280021 -0.6028240919 0.7684602141
0.01655577682 -0.228016749 0.7201935649 0.1012688801 -0.6014174223 0.7666544318
0.02032383531 -0.219459042 0.7241872549 0.1494657993 -0.6110062599 0.7724753618
-0.01707370393 -0.2069177777 0.7246209979 -0.5254111886 -0.4616993368 0.7134313583
-0.01981723681 -0.2222729325 0.7162319422 -0.5324216485 -0.4489658475 0.7117547393
-0.01950235851 -0.2082038522 0.7179920673 -0.5945550203 -0.4314750433 0.642798245
-0.01412973832 -0.2116600275 0.7195674777 -0.4910505414 -0.4608800709 0.7018892765
-0.01308177877 -0.2032682151 0.729658246 -0.466746062 -0.5128102899 0.718354404
-0.01202448737 -0.2160067856 0.7220706344 -0.4321419597 -0.4734749794 0.7646932602
-0.01166637242 -0.2086727917 0.7257660031 -0.4231845438 -0.4925871193 0.7526219487
0.02992301248 -0.2008903772 0.7364382744 0.2966194749 -0.6080646515 0.7346094251
0.02195881866 -0.2090947479 0.730717361 0.1678107381 -0.6060695052 0.7616713047
0.01610141993 -0.2041188926 0.7377842069 0.02005463652 -0.63076967 0.7755042911
-0.03535645083 -0.1222741082 0.6840039492 0.7057747245 -0.4948143363 0.5067648292
-0.03832931444 -0.1173938587 0.6954235435 0.7195795774 -0.4883044362 0.4932874143
-0.04057433084 -0.1066699922 0.7086569071 0.7206159234 -0.4973298907 0.4830108881
-0.0404393822 -0.111976862 0.7048338056 0.7283084989 -0.486271292 0.482738167
-0.0408363305 -0.1105585694 0.7119496465 0.7250770926 -0.4938483238 0.4799473584
0.02497575618 -0.1998769492 0.7403755784 0.1956823319 -0.6155477762 0.7601094246
0.02921850979 -0.1962954253 0.7408179641 0.2680358589 -0.5971940756 0.7530556321
0.02386078611 -0.2052304447 0.7364411354 0.1780542582 -0.6217092872 0.7623491883
