# .PCD v0.7 - Point Cloud Data file format
VERSION 0.7
FIELDS x y z normal_x normal_y normal_z
SIZE 4 4 4 4 4 4
TYPE F F F F F F
COUNT 1 1 1 1 1 1
WIDTH 512
HEIGHT 1
VIEWPOINT 0 0 0 1 0 0 0
POINTS 512
DATA ascii
0.04987616464 -0.06967873871 0.5417509675 -0.5051478148 -0.6522489786 0.5551510453
0.0671563372 -0.07400593907 0.5562707186 -0.5228982568 -0.7148935795 0.4474933147
0.06066377088 -0.07222239673 0.5483464599 -0.5074190497 -0.6826726198 0.5125691891
-0.01563433371 -0.05613420904 0.5442634821 0.4881629348 -0.7300974131 0.4711425006
-0.02575934865 -0.06610015035 0.549751997 0.5513250232 -0.6990480423 0.4549317956
-0.03041126952 -0.06574446708 0.5523338318 0.561822176 -0.6972872615 0.4450696409
-0.01911251061 -0.05347942933 0.5491155386 0.4931690693 -0.7394990921 0.4540138245
-0.02571784146 -0.05912600085 0.5514241457 0.5422027707 -0.7093726397 0.4496859014
-0.02075138874 -0.06004946306 0.5459179878 0.5341253281 -0.7062810659 0.4640136361
-0.01387610193 -0.05067189038 0.5455813408 0.4693724811 -0.7535272241 0.4582098126
-0.007884413935 -0.04915960506 0.5428613424 0.3753728867 -0.7793596387 0.4984869659
0.03233040124 -0.04881016165 0.5459212661 -0.2422490418 -0.7423637509 0.6242287755
0.04151719064 -0.05577222258 0.5446633697 -0.6134456396 -0.6849842072 0.3882717788
0.04179997742 -0.06494042277 0.5374767184 -0.5251120329 -0.6384654045 0.5519096851
0.04092261568 -0.06635603309 0.5326213241 -0.5243391395 -0.6309654117 0.5629170537
0.07598736882 -0.07736301422 0.5670121312 -0.5397827029 -0.7585780025 0.3643303514
-0.03301575035 -0.1170211211 0.5012403727 0.6316046119 -0.4249050319 0.1852197349
-0.0295179598 -0.1129993498 0.4956798553 0.5636581779 -0.5291792154 0.4603959322
-0.03099101037 -0.1343134344 0.5206995606 -0.5012199879 -0.4533061683 0.4500558972
-0.03270722553 -0.1217146814 0.5065849423 0.3442563117 -0.4258795679 0.2366492003
-0.032949958 -0.1296608299 0.5158738494 -0.07961674035 -0.4059422314 0.2589226961
-0.03339073062 -0.1253837347 0.511077404 0.1945579201 -0.4004282057 0.1986098886
-0.03068086505 -0.1475346833 0.5319160819 -0.5818375945 -0.5660508871 0.5832357407
0.06705991924 -0.07541531324 0.5500978231 -0.4768283367 -0.7019315362 0.5158737898
0.05610924587 -0.07142201811 0.544639945 -0.4987504184 -0.6681928039 0.5410226583
0.07916979492 -0.07705666125 0.5602676868 -0.5077385902 -0.7390867472 0.435130626
0.08047304302 -0.08099626005 0.5557553768 -0.4362673461 -0.7432954907 0.4982271791
0.08355317265 -0.07987742126 0.560631156 -0.4746671915 -0.7526600361 0.4483820498
0.07470845431 -0.07699049264 0.5557186604 -0.4856469333 -0.7254286408 0.4751499891
0.08588723838 -0.08420526981 0.5566141605 -0.4008869231 -0.7600454688 0.5093467832
0.07743724436 -0.08367754519 0.5502782464 -0.4546720386 -0.7047560811 0.5183320642
0.0524867177 -0.08638300002 0.5282238722 -0.6855179667 -0.4891420901 0.5203950405
0.05477880687 -0.07867756486 0.5364599228 -0.5569937825 -0.5942617655 0.5504029393
0.05339757353 -0.07375588268 0.5394624472 -0.496786356 -0.6403466463 0.5710544586
0.05965752155 -0.08166833222 0.5378410816 -0.5625109076 -0.5961531401 0.5357458591
0.06702997535 -0.08495677263 0.5409534574 -0.5531309843 -0.6130954623 0.5185821056
0.07275146991 -0.08387491107 0.546395123 -0.4935535491 -0.6678181887 0.519977808
0.05866351724 -0.07744102925 0.5405727029 -0.5093182921 -0.6371597648 0.55338341
0.08180963993 -0.08545230329 0.5522702932 -0.446582973 -0.7168121934 0.5088635683
0.06879388541 -0.07976895571 0.5466737151 -0.4649021029 -0.685502708 0.5386703014
0.06278058887 -0.07568845153 0.5452996492 -0.4524287879 -0.6876813769 0.5583323836
0.06326690316 -0.08653367311 0.5366537571 -0.6047693491 -0.5672037005 0.5141598582
0.05425795913 -0.08282632381 0.5325915217 -0.6207076907 -0.5429421663 0.5338739157
0.07493058592 -0.1207040548 0.5181512237 -0.1077106595 -0.03329499811 0.9861328006
0.05878879502 -0.06618317217 0.5569387674 -0.5811302662 -0.725278914 0.3655364215
0.06515772641 -0.07456514984 0.5656083822 -0.5538752675 -0.7526773214 0.3549844921
0.06552197784 -0.07062641531 0.561425209 -0.5657095313 -0.7397747636 0.3614554107
0.07129437476 -0.07423760742 0.565061748 -0.5530895591 -0.7515535951 0.3582738042
0.06211060286 -0.07204730809 0.5554659963 -0.5357915163 -0.7106339931 0.4362274408
0.05180560797 -0.06274495274 0.551153481 -0.5852499604 -0.7034887075 0.3924959302
0.05478578806 -0.06854875386 0.549796164 -0.5407840014 -0.6894002557 0.4613841176
0.04510264471 -0.06311439723 0.5429779291 -0.5552247763 -0.6655295491 0.4800201952
0.04531569406 -0.05937314034 0.5499708652 -0.6079481244 -0.6984758377 0.376260072
0.05616246909 -0.07025177777 0.5609556437 -0.573966682 -0.7296645641 0.3692817986
0.05368945003 -0.07665490359 0.5608135462 -0.5616436005 -0.7418379784 0.3637394905
0.04400007799 -0.06962632388 0.5397178531 -0.5068907142 -0.6444858313 0.5632238388
0.04640131071 -0.0709298104 0.5454457998 -0.5256862044 -0.6720913649 0.5029658675
0.04597612843 -0.06527380645 0.5491677523 -0.5760012269 -0.6964142919 0.4129242897
0.04995725304 -0.0708457008 0.5556868315 -0.5734381676 -0.7238181233 0.3763360381
0.05644505844 -0.08326923102 0.5625908375 -0.5507867336 -0.7418692112 0.371366173
0.04400231689 -0.07238978148 0.5335213542 -0.5486064553 -0.5889165401 0.5793851018
0.04958061874 -0.07592403144 0.549755156 -0.5259267092 -0.6865170598 0.4799578786
0.04705922306 -0.07773899287 0.5342840552 -0.5962800384 -0.5686520934 0.5405706167
0.05280254409 -0.08226757497 0.5488773584 -0.5886006951 -0.6499099135 0.4422884881
0.05169402435 -0.08304124326 0.5421333909 -0.6191036701 -0.5986158252 0.4688251317
0.04881323129 -0.08236977458 0.5310000181 -0.6511360407 -0.5232782364 0.5254705548
0.04907077923 -0.07811148465 0.5422878265 -0.5722155571 -0.6233405471 0.5005745292
0.05411520228 -0.08118603379 0.5572574735 -0.5495672822 -0.7142248154 0.4101054072
-0.006905920804 -0.125486359 0.5775362849 -0.2438426167 -0.7612210512 0.5942767859
0.004488607403 -0.165690586 0.53948313 -0.009270735085 -0.7130948901 0.685677588
0.04888011143 -0.1366295516 0.5321263075 0.6801794171 -0.3745164573 0.5582726598
0.05210949108 -0.1399431378 0.5253095031 0.663015008 -0.357819587 0.6006372571
0.0580622144 -0.1367023736 0.5238201618 0.5414195061 -0.3377590775 0.6861448288
0.06390151381 -0.1295932084 0.5243717432 0.3858755231 -0.2835068107 0.8093935251
0.05352285504 -0.1319934726 0.527415812 0.5686029196 -0.2719040811 0.7095538378
0.05926382542 -0.1318399161 0.5276129246 0.4769049287 -0.3253419697 0.7189815044
0.04431178048 -0.1500962377 0.5236390233 0.6854165792 -0.4667021334 0.5499961972
0.08772714436 -0.08433575183 0.5619643331 -0.3458659053 -0.7684360147 0.50742805
0.09086981416 -0.08922834694 0.5604932308 -0.2194410861 -0.7800244689 0.5818901658
-0.02827014029 -0.122830607 0.5095584989 0.05708317086 -0.5696882606 0.5897342563
-0.02770736068 -0.1391418725 0.5389616489 -0.5950737596 -0.5575734377 0.5787775517
-0.03173546493 -0.1365447938 0.5258739591 -0.4935332239 -0.4584746063 0.4147282243
-0.03123568557 -0.1402787864 0.5298000574 -0.7192126513 -0.472353816 0.4773830771
-0.02723640576 -0.1528164297 0.5324264169 -0.5407829881 -0.57908535 0.6079974771
0.07878950983 -0.1124217659 0.5287976265 0.03700822964 -0.5014177561 0.7752079368
0.0673564449 -0.1221352518 0.5233775377 0.2798122168 -0.2814149559 0.8548980951
0.07356129587 -0.119531408 0.5245848298 0.1648781747 -0.3610762656 0.846717
0.08404435217 -0.1079130322 0.5313175321 -0.07486818731 -0.6031940579 0.7379993796
0.06298381835 -0.1256551147 0.5214314461 0.3714423478 -0.2001799494 0.8828113079
0.06932953745 -0.07835134864 0.5682005286 -0.5430960655 -0.7611179352 0.354480952
0.05944727734 -0.07597255707 0.566349268 -0.5620657206 -0.7353785038 0.378182888
0.06291753054 -0.0819522962 0.5662721395 -0.5477699041 -0.7541229129 0.3619307876
0.05287843198 -0.08971346915 0.5343498588 -0.6495224237 -0.5295373797 0.5172320008
0.03667534143 -0.06216444075 0.5361092687 -0.3925834 -0.681907475 0.6080279946
0.03550934419 -0.05592883378 0.5400696993 -0.3185485303 -0.7188367844 0.6144570112
-0.003505005967 -0.1560832262 0.547168076 -0.2053319216 -0.6740820408 0.7088705897
0.02227707207 -0.1599135101 0.5394198895 0.3694216013 -0.645378232 0.6441304684
0.01489585452 -0.1634174883 0.5404676795 0.198222965 -0.7114464045 0.6700216532
0.05383681506 -0.1267144829 0.5178510547 0.2539705932 0.1114630252 0.8810890317
0.04878357053 -0.1429040283 0.5187997222 0.6558042765 -0.2812969387 0.6262763143
0.04860334471 -0.1288179308 0.5212088227 0.4574401677 0.04952269793 0.7540719509
0.04919495434 -0.1222972646 0.5214445591 0.3467054069 0.2036140412 0.8305847049
0.04691267759 -0.1363933682 0.5231019258 0.6069273353 -0.1294964999 0.6319012046
0.06822815537 -0.1164824218 0.525110364 0.1571927369 -0.2237605155 0.8387420774
0.05847072974 -0.1177348197 0.5217499733 0.1908716857 0.1198747456 0.9104928374
0.06246811524 -0.1133676246 0.5239703059 0.08791515231 0.05258805677 0.878762722
0.06047257036 -0.09072254598 0.5545613766 -0.3921007216 -0.5879867673 0.4879154861
0.06484898925 -0.1067348942 0.5318552852 -0.05739818141 -0.1587729454 0.7727265358
0.07844657451 -0.09708953649 0.5434110165 -0.2786904275 -0.711730063 0.5912550092
0.06581629068 -0.1001293436 0.5408598185 -0.1988334656 -0.386120826 0.6535412073
0.08174787462 -0.09984573722 0.5391696095 -0.224166736 -0.6840593219 0.6387239695
0.07082524896 -0.105837442 0.5323147178 -0.08369874954 -0.295661509 0.7529656887
0.07000073045 -0.09502332658 0.5473710299 -0.3123271167 -0.6241856217 0.5593143106
0.06077135727 -0.1091236323 0.5290861726 -0.001732852892 -0.008951192722 0.818102777
0.07655537128 -0.1012030318 0.537972033 -0.1890518367 -0.5467791557 0.6662623286
0.0599860698 -0.1024756357 0.5383784771 -0.1419450939 -0.205862835 0.6992251873
0.07181896269 -0.1027263626 0.536485374 -0.1509641111 -0.4124971032 0.6965033412
0.07170695812 -0.09804214537 0.5429750681 -0.2502933443 -0.5592455864 0.6124721766
0.06059888378 -0.09811483324 0.544326365 -0.2352854759 -0.3554841578 0.6205581427
0.0603528209 -0.08700922877 0.5597099662 -0.4708044529 -0.7037572861 0.421320349
0.06497430801 -0.08856038749 0.5569617748 -0.4434689283 -0.7383034229 0.4463483393
0.06330876052 -0.09406043589 0.5495766401 -0.3246615529 -0.5334051847 0.5461120009
0.06762045622 -0.1097375378 0.5273424387 0.003000756726 -0.1136657968 0.8249436021
0.05806280673 -0.1053569168 0.5346469879 -0.07843250781 -0.07946801931 0.7521292567
0.05487471074 -0.1114804819 0.52659899 0.05546004325 0.1728465855 0.8640167117
0.07664646208 -0.1044095308 0.5335277319 -0.1210750937 -0.4465864301 0.7237757444
0.04553382099 -0.1106868088 0.5602908731 0.09368185699 -0.706974864 0.447088331
0.05143876001 -0.0986148417 0.5611717105 -0.1987360716 -0.7277903557 0.40668872
0.04343337566 -0.1186741963 0.5568424463 0.2631340623 -0.6881215572 0.4709645808
0.03994248062 -0.124463439 0.5574654937 0.4121319354 -0.6799929738 0.4913799465
0.04820189998 -0.1037038937 0.5617092252 -0.06791612506 -0.7191978097 0.4261524379
0.04825783521 -0.1027972102 0.5531376004 -0.1646776348 -0.6577137113 0.4655452073
0.046154432 -0.1065516844 0.5407586098 -0.1784447581 -0.5651451349 0.535150826
0.05247430503 -0.09373410791 0.5609977245 -0.3220944107 -0.7214687467 0.4045775235
0.04723622277 -0.1047203094 0.5482236743 -0.1593776345 -0.6206452847 0.4942622781
0.05325850844 -0.09007453173 0.5406835079 -0.5889972448 -0.5768814087 0.4941422939
0.04866216704 -0.1007342562 0.5407210588 -0.323490262 -0.5692085624 0.5207260847
0.0515191108 -0.09322506934 0.5309519768 -0.5948691368 -0.5039617419 0.5493614078
0.05043801293 -0.09625996649 0.5367815495 -0.4689023197 -0.5439747572 0.5286424756
0.05088756606 -0.09600283951 0.5454428196 -0.4003165662 -0.6069765687 0.485891521
0.04373535514 -0.1134327129 0.5547971129 0.114268221 -0.6618209481 0.4841833711
0.04310208187 -0.1142231375 0.5473200679 0.06920166314 -0.6070098281 0.5225163102
0.05325841904 -0.0907593742 0.5482361317 -0.5065760016 -0.6311413646 0.4591461122
0.04904664308 -0.09909544885 0.5324757695 -0.4356400967 -0.5106363893 0.5566942692
0.05510500818 -0.087027587 0.5542970896 -0.5469409823 -0.677875638 0.4203115404
0.04553278536 -0.1089888811 0.5517456532 -0.0226980187 -0.6430044174 0.4878591895
0.03898441419 -0.12793836 0.5524871945 0.5003730059 -0.5386386514 0.5603749752
0.04887532815 -0.1064639539 0.5279256701 -0.1625055522 -0.186452955 0.6913734078
0.04814984277 -0.1125191152 0.5281462073 0.0662201941 -0.01510479115 0.7609582543
0.05075489357 -0.09658041596 0.5253371 -0.5233871341 -0.3797777891 0.6117379069
0.05006384104 -0.1092095226 0.5231624842 -0.03161319718 0.07969038188 0.7969979644
0.04531502351 -0.1132917628 0.5369627476 0.04628460854 -0.3337911963 0.6359788179
0.04691838846 -0.108420752 0.5335171819 -0.1194448024 -0.3449900448 0.6297799349
0.04330560938 -0.1168937162 0.5421506763 0.1540796608 -0.4278123379 0.6003512144
0.04693989828 -0.1176496297 0.5302407146 0.2493562847 0.05615673587 0.7908614278
0.05026955158 -0.1104159504 0.5467221141 0.0500199236 -0.4024608731 0.5858601928
0.04306597635 -0.1251730025 0.5508471727 0.3872360885 -0.6197026372 0.5130821466
0.0557148084 -0.09708680212 0.5473229289 -0.250593245 -0.3320122361 0.591486454
0.05375770852 -0.108144179 0.5363875031 -0.01080110949 -0.08706272393 0.7318167686
0.05370858312 -0.1043127775 0.5431416035 -0.09116655588 -0.2581253052 0.6420012116
0.05155604705 -0.1113739237 0.5398386717 0.06534277648 -0.2086856067 0.6804853082
0.04452141374 -0.1250625104 0.5451025963 0.3794635534 -0.4519871473 0.5930048227
0.05228578672 -0.1164037883 0.5282597542 0.1683556288 0.09472181648 0.8360729218
0.05361378193 -0.09734228253 0.5554514527 -0.2373554409 -0.5699823499 0.4782925248
0.05591043085 -0.08971552551 0.5591344237 -0.4062953889 -0.6267369986 0.4351224899
0.0483920984 -0.1187093481 0.5401899219 0.2314053923 -0.267277956 0.6679154038
0.04598614946 -0.1180989221 0.5510427356 0.2275806218 -0.5787285566 0.5177817345
0.05149450898 -0.1144709438 0.5347918868 0.1306832284 -0.08241043985 0.7473508716
0.04697842896 -0.1192058176 0.5451039672 0.2471359968 -0.413397342 0.5991261005
0.04726778716 -0.1236239746 0.5363668203 0.3389375508 -0.1885602772 0.7158761621
0.05480314046 -0.1088940203 0.5308427811 0.001048767124 0.06916813552 0.8080606461
0.04963122308 -0.1060719118 0.5567551851 -0.0389168486 -0.6654577255 0.4510285854
0.05045749247 -0.1270946115 0.533619225 0.416015774 -0.2734181881 0.7381442189
0.05427584797 -0.1233875751 0.5263628364 0.3257368803 -0.05528505892 0.8413484693
0.04670516029 -0.1286334246 0.5393212438 0.4555119276 -0.3883256316 0.6625890732
0.05767187104 -0.1274266243 0.5248907804 0.417055428 -0.2080257684 0.8429607749
0.04366129264 -0.1312823594 0.5448978543 0.5203165412 -0.5477415919 0.5840818882
0.04664102569 -0.1333497763 0.5368428826 0.6095101833 -0.423311621 0.5971915722
0.04482301697 -0.1397518069 0.5269466639 0.6576942801 -0.2779185474 0.568294704
0.04216163605 -0.143932119 0.5319095254 0.7038159966 -0.4918547869 0.5019203424
0.04619006068 -0.1317272931 0.5258501768 0.5107001662 -0.08422311395 0.6815880537
0.04685619101 -0.1262433082 0.5257715583 0.4095602036 0.03226841986 0.7560216188
0.04416953772 -0.135334909 0.529697597 0.5646495819 -0.2537655234 0.6197969913
0.07153525949 -0.08423038572 0.5670384765 -0.4810962379 -0.766366899 0.3962455988
0.07751283795 -0.08430363238 0.567522347 -0.4602203667 -0.7678979039 0.4175667465
0.08264431357 -0.08407582343 0.5643877387 -0.4508678317 -0.7570879459 0.4617268741
0.09235540777 -0.09166879952 0.5540270209 -0.2107420564 -0.7778242826 0.5891854167
0.09142427891 -0.08674036711 0.5556644201 -0.3171958625 -0.762693882 0.5595589876
-0.0131587591 -0.1619805098 0.5394803882 -0.4240165949 -0.6265016198 0.6501941085
-0.03037814051 -0.1060400084 0.5054157972 0.4630428851 -0.5997692347 0.5431315303
-0.03294757009 -0.1109146997 0.5036176443 0.6814101934 -0.4650546014 0.2462036312
-0.03054832481 -0.1258539855 0.5207253098 -0.1362563968 -0.5638778806 0.5386992097
-0.02976009622 -0.1195466965 0.5164681673 0.04183328524 -0.5811444521 0.5533504486
-0.03117383644 -0.1165831909 0.5113364458 0.3092059493 -0.5248659253 0.4092985094
-0.03296467662 -0.1097537503 0.4982566535 0.7337857485 -0.4752692878 0.2887786925
0.02396458946 -0.05821130797 0.5324701071 -0.243582502 -0.7325667739 0.6261532307
0.01358752139 -0.05746062845 0.5307089686 -0.04614149034 -0.7506790757 0.6258342266
0.00737911649 -0.04916698113 0.5373147726 0.07816251367 -0.7779802084 0.6147931218
0.01877492853 -0.04964238778 0.5402396321 -0.1136362925 -0.7600698471 0.6136891246
-0.02803789824 -0.0967085436 0.5057227015 0.5641974807 -0.6210279465 0.5422421694
-0.01839925162 -0.05953343213 0.5395749807 0.5221763849 -0.7051565051 0.4792251587
-0.02580985986 -0.06870601326 0.5435741544 0.5801230669 -0.6735671163 0.4554472864
-0.02591163479 -0.06957159191 0.5382114649 0.6017926931 -0.655046463 0.455080092
0.07278043777 -0.09870091826 0.5282914042 -0.4365494549 -0.5777075291 0.6271634698
0.08578518033 -0.1021224856 0.5334903002 -0.2099867016 -0.6879013181 0.6776483655
0.06242192909 -0.09356284887 0.5272781253 -0.5675036311 -0.5233205557 0.5695368052
0.08234204352 -0.1046596915 0.5276503563 -0.3406209946 -0.6110849977 0.6891334653
0.06670597196 -0.09765599668 0.5256285071 -0.5367625952 -0.5253768563 0.6136519313
0.01132964808 -0.06738866866 0.515389502 -0.0542336069 -0.7521597743 0.6474860907
0.005966673139 -0.06830812246 0.5152203441 0.07362285256 -0.7528378367 0.6493798494
0.07409599423 -0.09122042358 0.5521029234 -0.3621569872 -0.7590561509 0.4899057448
0.07692868263 -0.0962266624 0.5337082744 -0.3498910964 -0.6587648392 0.593390584
0.08072013408 -0.09994991869 0.5325503349 -0.2812628448 -0.6565897465 0.6518121958
0.06940067559 -0.09488172829 0.5304326415 -0.4561222196 -0.58839643 0.5843470693
0.0881536752 -0.09760124236 0.5399749279 -0.2104568183 -0.7531445026 0.6110138297
0.07880879194 -0.08778958768 0.546923399 -0.452139914 -0.6859966516 0.5228119493
0.07071755826 -0.08973097056 0.5382150412 -0.5086621046 -0.6158297062 0.5335425138
0.06638804078 -0.09058398753 0.5338174701 -0.5416253805 -0.5784983635 0.5377338529
0.08066248894 -0.09492728859 0.5382208228 -0.3282240033 -0.6933339238 0.583632946
0.08021117002 -0.0916274786 0.5425433517 -0.3812530041 -0.6933475733 0.5557892323
0.075335823 -0.09241273254 0.5378386378 -0.4209375978 -0.6515117288 0.5590459704
0.05729665607 -0.08921729773 0.5290384293 -0.657058537 -0.5037468076 0.5201807022
0.06142886356 -0.08927660435 0.5320032835 -0.6128148437 -0.5383703113 0.5234697461
0.08276021481 -0.09357877821 0.5500013828 -0.2680782378 -0.7643302083 0.5535917282
0.08659362048 -0.09243251383 0.5557147264 -0.210967049 -0.7757198811 0.5853636265
0.08479075134 -0.0958430469 0.545155704 -0.237473771 -0.7615579963 0.5781770945
0.07522252947 -0.08848602325 0.5589078665 -0.3812799752 -0.7644631863 0.4712740481
0.08296915889 -0.08930797875 0.5618498325 -0.2654826343 -0.7778558731 0.543956399
0.07980318367 -0.09091410786 0.5553233624 -0.312569201 -0.7664270997 0.5194974542
0.06982948631 -0.08592297882 0.5623175502 -0.4621404111 -0.7612443566 0.4152967036
0.09367343783 -0.09283358604 0.5462759733 -0.2441722006 -0.7685964704 0.5845624804
0.09523934871 -0.09769406915 0.5400574207 -0.1762993634 -0.7755316496 0.6061705947
0.08993716538 -0.09447509795 0.5505430102 -0.1853216439 -0.7758565545 0.6027017236
0.005376101006 -0.1591279954 0.5426465273 -0.02010907419 -0.6873742342 0.6940823793
9.56955264e-05 -0.1594098806 0.5448592305 -0.1390102208 -0.687666595 0.7073144317
-0.001021568663 -0.1637270153 0.5414367318 -0.1492860913 -0.6820283532 0.7081936002
-0.004861244466 -0.1495649815 0.5485273004 -0.290928632 -0.6358450055 0.6742655635
0.01384599507 -0.1506631076 0.5480644703 0.1830181181 -0.6705597639 0.677936554
0.008060286753 -0.150729984 0.5479645729 0.04032782093 -0.6618763208 0.6788586974
0.003276593518 -0.1530939937 0.5465019941 -0.05555567145 -0.666356504 0.6913068295
0.03850778937 -0.149102971 0.5333033204 0.6468590498 -0.548368454 0.5296214819
0.03157396987 -0.1583564728 0.5342791677 0.5585645437 -0.5856201053 0.5846947432
0.02751542442 -0.15729101 0.539075315 0.4990660548 -0.6034398079 0.620644033
0.02321561426 -0.1555945873 0.5428310037 0.4015723765 -0.643489182 0.6387058496
0.02912112139 -0.1626401395 0.5317755342 0.5023421645 -0.6264380217 0.5805965662
0.02165676095 -0.1645398438 0.5358516574 0.3781360388 -0.6652953625 0.6298484206
0.06004260108 -0.1290510893 0.5176213384 0.2425967753 -0.09490931034 0.8857155442
0.05422813445 -0.1329458505 0.5179174542 0.3773243427 -0.08216570318 0.8014057279
0.05607157201 -0.1396774799 0.5200212598 0.5708589554 -0.3035771549 0.6811788082
0.06989042461 -0.1306889802 0.5200708508 0.2998256683 -0.2920391858 0.8591976166
0.07492347062 -0.1262150407 0.5197743773 0.1647141129 -0.256510675 0.9462093115
0.06309654564 -0.1340722442 0.5197749734 0.4016633034 -0.2706753314 0.7908145785
0.06410241127 -0.1162747145 0.5173523426 -0.1970605999 0.05662633851 0.9617046118
0.06894818693 -0.1116785109 0.5195900798 -0.3416804075 -0.0935734883 0.8745871186
0.06960006803 -0.1170242429 0.517809391 -0.219081521 0.03617531434 0.9639313221
0.06247798353 -0.1078341827 0.5200861692 -0.3863189816 -0.1439836919 0.82177037
0.06120921671 -0.102098383 0.5220214725 -0.5115767717 -0.2842347622 0.7293505073
0.05762388557 -0.09528170526 0.5243936181 -0.6102730632 -0.4728283584 0.6102735996
0.07701484859 -0.1051421314 0.5252021551 -0.396591872 -0.5085433722 0.7176846862
0.07111634314 -0.102520749 0.5247604251 -0.4587956071 -0.4815602303 0.693629384
0.07708197832 -0.1118407696 0.5217533112 -0.346568644 -0.2245068401 0.8699803948
0.07254393399 -0.1079328954 0.5223929286 -0.4084099233 -0.2843797207 0.8083638549
0.08182809502 -0.1093837321 0.5244736671 -0.3302849233 -0.4409148395 0.7852431536
0.06761337072 -0.1226014793 0.5173861384 0.02761264704 -0.02288633585 0.9967330694
0.04182113707 -0.1366449594 0.5386863351 0.6775324941 -0.4625078738 0.5112062693
0.04488906264 -0.1281436086 0.5322532058 0.4809443653 -0.1480321437 0.6775248647
0.03591190651 -0.1590623856 0.5293033719 0.5966925621 -0.5885397196 0.5446209311
0.04792135954 -0.1451960951 0.5241007805 0.7197125554 -0.4071878195 0.5555470586
0.04239523038 -0.1492216587 0.5298344493 0.6666452885 -0.5170378685 0.5301725268
0.09148592502 -0.1003563479 0.536326468 -0.1723176837 -0.7460755706 0.6423836946
0.09035468102 -0.1066152304 0.5300686955 -0.1699822694 -0.7089440823 0.6843990684
-0.02131102979 -0.1561721116 0.5366111994 -0.5149164796 -0.5861900449 0.6247462034
-0.0156939216 -0.1578088403 0.5374104381 -0.4351810515 -0.6156480312 0.6409448981
-0.006044600625 -0.1626992077 0.5387852788 -0.2607364058 -0.6716687679 0.6895561218
-0.02596989647 -0.1036699489 0.4963514805 0.5118185878 -0.6025332808 0.6088318229
-0.02857089415 -0.1012819484 0.500985384 0.5777335167 -0.6047249436 0.547113657
0.0250574369 -0.07420871407 0.5122801661 -0.316501379 -0.7040141821 0.6356232762
0.01943803206 -0.07139492035 0.5116636157 -0.2314872146 -0.7308034301 0.6395424604
0.04280170053 -0.07367068529 0.5271942019 -0.5584619641 -0.5781823397 0.5817229152
0.04349507764 -0.07917949557 0.5227695107 -0.5902404189 -0.5787411928 0.5513036251
0.04666697234 -0.08346942812 0.5250061154 -0.6777098179 -0.492277354 0.5373679399
0.03422342241 -0.06945160776 0.5254715085 -0.4679414928 -0.6471751332 0.595315814
0.03029828519 -0.06459002197 0.5286931396 -0.3695678115 -0.6894975901 0.6161922216
0.03561004624 -0.06599160284 0.531062901 -0.4435755908 -0.6498310566 0.6120152473
0.03911484778 -0.06913642585 0.5265874863 -0.4963689446 -0.6217092872 0.6040195227
-0.001926845405 -0.0467851758 0.5435256958 0.2569518983 -0.7972231507 0.5325859189
0.004896804225 -0.04513224214 0.5432223082 0.1189868301 -0.8050112724 0.5804747939
0.001610835199 -0.04932771623 0.5385944247 0.1913347691 -0.7785177827 0.5824007392
0.03018317558 -0.05564481765 0.5365953445 -0.2886188626 -0.7357979417 0.6122425795
0.03112692013 -0.05247820914 0.5414928198 -0.2798554003 -0.7341985703 0.6184989214
0.02382357791 -0.05231114477 0.5378644466 -0.2175661772 -0.7464346886 0.6232601404
0.02893505804 -0.06055349112 0.5330355167 -0.3161697388 -0.7131782174 0.6253855824
0.008223433979 -0.05954230204 0.5267246962 0.04615518451 -0.7529783845 0.6402707696
0.01402256917 -0.06148118526 0.5269775987 -0.05596424639 -0.7418529391 0.6350751519
0.007017170545 -0.05504896492 0.5298979282 0.06479530036 -0.7737229466 0.6235782504
0.001670545083 -0.08243457228 0.4982001483 0.1448863149 -0.7397045493 0.6525988579
-0.009859145619 -0.09181090444 0.491809696 0.3398086131 -0.6446689367 0.6778829694
-0.01029205788 -0.08801075816 0.4959110022 0.3568402231 -0.6733143926 0.6427058578
0.04502949119 -0.09149830788 0.513181746 -0.7015323639 -0.4243902862 0.569278419
0.05105329677 -0.0908312127 0.5242536068 -0.6937820315 -0.4547609091 0.5568903685
-0.006343614776 -0.08134131134 0.5071927309 0.238575235 -0.7202914953 0.6080584526
-0.01482967194 -0.08153668046 0.5102898479 0.3971981704 -0.6889719367 0.5894728899
-0.02539288253 -0.0899887383 0.5093934536 0.5411651134 -0.638123095 0.5455431342
0.00180752133 -0.07472242415 0.507789731 0.1539560109 -0.7523989677 0.6374673843
-0.0005802238593 -0.07896028459 0.5027100444 0.178566888 -0.7429719567 0.6398966312
-0.005095085129 -0.08345066756 0.4982888997 0.2566867173 -0.7144758701 0.6492830515
-0.02273592167 -0.06331899017 0.5417661667 0.5619723201 -0.6854466796 0.4620075822
-0.02093557268 -0.1273749322 0.5617913008 -0.4586616457 -0.6752084494 0.5774114728
0.08162303269 -0.1162133217 0.5212100148 -0.2561365366 -0.2157268822 0.920527041
0.07927475125 -0.1212396696 0.5222277045 0.03402846679 -0.3628165722 0.8951414227
0.08937550336 -0.11108578 0.5254467726 -0.277249366 -0.5973259807 0.7442826629
0.01319966186 -0.07312053442 0.5082733631 -0.1166503355 -0.7564754486 0.6381417513
0.007846030407 -0.07226032019 0.5098919868 0.02567220293 -0.7573483586 0.6420506835
0.009810954332 -0.07729011774 0.5035569072 -0.04116175324 -0.7596817017 0.6365730166
0.006216021255 -0.08474104851 0.4946722686 0.07083721459 -0.7461472154 0.6570100188
0.00873234868 -0.08120332658 0.4988371134 -0.002759231022 -0.7520279884 0.6468762755
0.03920323402 -0.1346613914 0.5452927351 0.5711972117 -0.5363007784 0.5444471836
0.04875390977 -0.1179639027 0.5244609714 0.2747241557 0.2447735965 0.8641645312
0.03867514804 -0.1393151581 0.5420252085 0.6766983271 -0.5175747275 0.5078514218
0.01226908993 -0.08606950194 0.4951875806 -0.1078165844 -0.7539131045 0.6382721663
-0.0002567420888 -0.08694738895 0.4961676598 0.1620079428 -0.7134907842 0.660592556
0.004072654061 -0.08962716162 0.4893793166 0.1038554236 -0.7076070905 0.6908460855
-0.02497878857 -0.1492474079 0.5384008884 -0.5599340796 -0.5725547075 0.5981140137
-0.0246963203 -0.1383573115 0.5439146757 -0.5901976824 -0.5576129556 0.5835745335
-0.02266976982 -0.1442269385 0.5433313847 -0.5918787122 -0.5593960881 0.5799042583
0.02771068551 -0.1288086921 0.5723999143 0.2968218029 -0.7620280385 0.573312521
0.03152547404 -0.1289921701 0.568317771 0.3641239107 -0.7484665513 0.5495687127
0.0576912649 -0.1211365238 0.5170474052 0.05202481151 0.1972151548 0.9713644385
0.04633755982 -0.1042776927 0.508736372 -0.3845456541 -0.1612638086 0.7494154572
0.04257061705 -0.097230874 0.5055779219 -0.5779201984 -0.3065810502 0.6651813388
0.05017868802 -0.1126801223 0.514083147 -0.08914917707 0.06812442839 0.8523293734
0.05310011655 -0.1178240329 0.5163548589 0.04654477909 0.1742811948 0.9157634377
0.047587201 -0.1080530435 0.5119463801 -0.2149830908 -0.03069342487 0.7950978279
0.05823719129 -0.1118284985 0.5137764215 -0.284969151 -0.02479786426 0.8940961957
0.04764503986 -0.09879288077 0.510211587 -0.5630006194 -0.3008074164 0.6909496784
0.05614547059 -0.1054286286 0.5170479417 -0.4166375399 -0.1689710468 0.791457355
0.05251969397 -0.1028189212 0.513884306 -0.4748704731 -0.2202016562 0.7522365451
0.0542152524 -0.1071284637 0.5118971467 -0.3888989091 -0.1262222975 0.821660459
0.05565756932 -0.1011455804 0.5210345387 -0.4992375672 -0.264989078 0.7211612463
0.05190113932 -0.0979064554 0.5183576345 -0.5697492361 -0.330201447 0.6716738343
0.03789208829 -0.1449433565 0.5376090407 0.6574754715 -0.5362588763 0.5243131518
0.03964182362 -0.1540293396 0.5311418772 0.6261377931 -0.5633677244 0.5389004946
0.03176529706 -0.1466706097 0.5469880104 0.5592105985 -0.6230121851 0.5438492894
0.03478471935 -0.1468145847 0.5415586233 0.6150715351 -0.5620641708 0.5511655211
0.03454091772 -0.151641041 0.5384265184 0.6017261744 -0.5696072578 0.5588467717
0.02677871659 -0.1506497115 0.5455704927 0.493458122 -0.6188886762 0.6089087129
0.02943498641 -0.1530720741 0.5415229797 0.5354762077 -0.5980110168 0.5914245248
0.02362528816 -0.0692313984 0.5152486563 -0.3190096617 -0.7004380822 0.633898139
0.02795290574 -0.0662252605 0.5228119493 -0.3647598624 -0.6860072613 0.6253835559
0.03018767945 -0.07549419254 0.5147746801 -0.4423967004 -0.6607930064 0.5965364575
0.0300869178 -0.07065715641 0.5201855898 -0.4045531154 -0.670807004 0.6131688356
0.03529800102 -0.07673315704 0.517252326 -0.5209020972 -0.6348336339 0.5705808401
0.01345515717 -0.07882091403 0.506837666 -0.1073018909 -0.7396693826 0.629503727
0.02289351076 -0.07841861993 0.5103856325 -0.276915431 -0.7029857635 0.6169618368
0.01772580482 -0.07636674494 0.5107901096 -0.1641918868 -0.7174271345 0.6252551675
0.02256952226 -0.0778221041 0.5039650798 -0.3063253462 -0.7300950289 0.6094889045
0.01138152555 -0.04524393007 0.542042613 -0.00869611185 -0.8008067012 0.5933771133
0.01052370854 -0.05179190263 0.5336093903 -0.007361872587 -0.7784439325 0.6179807186
0.02006802149 -0.06174993142 0.5263476372 -0.1951864362 -0.7352856994 0.6371908188
0.01876287535 -0.06693771482 0.5162068009 -0.2191888988 -0.7285944223 0.6434931159
0.01550923008 -0.06425306201 0.5192850232 -0.1462908685 -0.7477235794 0.6452795863
0.02106492594 -0.06495916843 0.5207545757 -0.2417843342 -0.7219621539 0.6391556263
0.02029517852 -0.05691217631 0.5283592343 -0.2281366289 -0.7340841293 0.6338743567
-0.01529727969 -0.09401722997 0.4934847951 0.409522891 -0.6450566649 0.6448470354
-0.00413267035 -0.09227087349 0.4908593893 0.254804343 -0.6783655882 0.6779233813
-0.0260627009 -0.1098109707 0.4926485419 0.4654750228 -0.5988462567 0.6516128778
-0.02148094028 -0.09977207333 0.4929424822 0.4841654003 -0.6014354825 0.6349148154
-0.01968900114 -0.1036431715 0.4891569912 0.4634168148 -0.5985593796 0.6534305215
0.001120856963 -0.09496546537 0.486758858 0.1458411813 -0.6736949682 0.6950227022
-0.009595657699 -0.09838077426 0.4887940586 0.3182781637 -0.6424565911 0.6686708331
-0.01546332985 -0.09980064631 0.488748461 0.4194564521 -0.6008851528 0.6734519005
-0.00433058897 -0.09624338895 0.4874596894 0.2376366854 -0.6477332115 0.6903799772
0.01770812832 -0.08748605102 0.4938394427 -0.1958421767 -0.7491263151 0.6321474314
0.03796328604 -0.09377830476 0.5085141063 -0.3294395804 -0.4186355174 0.6619182229
0.04705575481 -0.1109049991 0.5184069872 0.1060478464 0.1682975292 0.8481169939
0.03563494608 -0.09574674815 0.5026741624 -0.2927125096 -0.5101931691 0.6602323651
0.04089213908 -0.1035224721 0.5096045732 -0.09471462667 -0.176281333 0.7557569742
0.03261276707 -0.09156364948 0.4989027679 -0.3961558938 -0.6830080152 0.6118955016
0.03360265121 -0.08599058539 0.5053490996 -0.4857621789 -0.6391963363 0.5947594643
0.02336983196 -0.08227445185 0.500372231 -0.2890249193 -0.7246735096 0.623785615
0.02766507491 -0.08694539219 0.5005748272 -0.3434973955 -0.7033956647 0.6203042269
-0.02300138772 -0.1348852217 0.5516978502 -0.5746467113 -0.5977847576 0.5576108694
-0.02159009688 -0.1329462975 0.5561546683 -0.5462949276 -0.6332228184 0.5460041761
-0.01823816448 -0.1324236393 0.5603210926 -0.4686198533 -0.6765589714 0.5607020259
-0.01610888354 -0.1381291747 0.555998683 -0.4651449025 -0.6524529457 0.5967258811
-0.01922702417 -0.1405306756 0.5521221161 -0.5501862764 -0.5901093483 0.5847761631
-0.02044244483 -0.1498346925 0.5428392887 -0.5349226594 -0.5761488676 0.6166509986
-0.01937234402 -0.144894287 0.5482084155 -0.5375145078 -0.5816723704 0.6055440903
-0.01781103946 -0.09186507016 0.4992251992 0.4644832909 -0.627886951 0.6216992736
-0.01068631653 -0.08634043485 0.5007898211 0.3539355695 -0.6777291894 0.6345638037
-0.02386736311 -0.09766019881 0.4984717667 0.526576519 -0.6075600982 0.592433393
-0.02241878957 -0.09358641505 0.5015807152 0.5373089314 -0.6116524935 0.5776308775
-0.0101785548 -0.08113905042 0.5039248466 0.3397343159 -0.7064687014 0.6174892783
-0.008903361857 -0.07273239642 0.5129913688 0.3198299706 -0.7239483595 0.6097580194
-0.002023811685 -0.0727969259 0.5129286647 0.2234098017 -0.7384464145 0.6231572628
-0.01293448266 -0.07304678857 0.5190415382 0.3737662435 -0.7193327546 0.5716000795
-0.01207735203 -0.07728470117 0.5128198266 0.3665200472 -0.7048515677 0.5943292379
-0.02290005051 -0.07743531466 0.5236111283 0.5860873461 -0.6481460929 0.4825316072
-0.02212223783 -0.08100777864 0.5177218318 0.5331289768 -0.6592786908 0.5264204144
-0.01787878014 -0.0780140385 0.5141727924 0.4404111803 -0.6884605885 0.5736934543
-0.01271005068 -0.06089540571 0.5364412665 0.4377854764 -0.7205775976 0.5214504004
-0.008269910701 -0.05948423967 0.5288305283 0.3696549237 -0.7243529558 0.5760887265
-0.01308497041 -0.05553600937 0.5385482907 0.4959971607 -0.7251483202 0.4763833582
-0.00832625106 -0.05360385776 0.5385406613 0.3872492015 -0.7558313608 0.5238960981
-0.002889119089 -0.05724558234 0.5301933885 0.2660146058 -0.7530380487 0.6008719206
0.002704090439 -0.05275872722 0.533213377 0.1586491913 -0.7807685733 0.6000518203
-0.002101423219 -0.05256295949 0.5359284878 0.2671565115 -0.764796257 0.5755753517
-0.00612654537 -0.05540021509 0.5337802172 0.3450106084 -0.749102056 0.563765347
-0.01315356698 -0.1367726922 0.5611146092 -0.3939039707 -0.6918091774 0.6018898487
-0.00890120957 -0.141433388 0.5585478544 -0.3595382571 -0.6804284453 0.6314836144
0.02642622031 -0.08261897415 0.5052524209 -0.3583520055 -0.7043072581 0.6119717956
0.01789526269 -0.08164918423 0.5044285655 -0.2064623535 -0.7326558828 0.6231846213
0.03648921102 -0.1380121708 0.5483626127 0.5875605941 -0.6226823926 0.5146524906
0.007152065169 -0.1567936987 0.5472280979 -0.003354806686 -0.7013595104 0.7077463865
0.01151187066 -0.1603550762 0.5437902212 0.1075837761 -0.7107949853 0.6874619722
0.02139847167 -0.1516904235 0.5466258526 0.3601229489 -0.6610096693 0.6529476047
0.01653793827 -0.155671984 0.5472660661 0.210919708 -0.6953507066 0.6776407957
-0.01232734974 -0.1265248209 0.5728894472 -0.3134132028 -0.739887476 0.594830513
-0.01647086069 -0.127291739 0.567030549 -0.4010404944 -0.7033085227 0.5860671997
0.0004006075324 -0.1299684048 0.5767717361 -0.1490321606 -0.7719572186 0.6083219647
-0.002676607808 -0.1333932281 0.5718938112 -0.2356769443 -0.7496680617 0.6131221056
-0.006529497914 -0.1335675418 0.5664022565 -0.2734344602 -0.734880507 0.602619648
-0.01093728468 -0.1304231584 0.5665637255 -0.3200932741 -0.719856143 0.5972297788
-0.003138947999 -0.1374785751 0.5669281483 -0.2667580843 -0.7393800616 0.6179456115
0.0224451907 -0.12690036 0.5781149268 0.1928985268 -0.7912074924 0.5781319141
0.007565045264 -0.1479823738 0.5533094406 -0.01467044558 -0.7126109004 0.6627054214
0.002329869894 -0.1487735659 0.5508066416 -0.1280327439 -0.6736026406 0.6684617996
0.008139086887 -0.1407088786 0.5621111989 -0.01025566924 -0.7766630054 0.6003739834
-0.003440669505 -0.1397660524 0.5602024794 -0.2651460469 -0.7302642465 0.6063706875
0.002928882139 -0.1423143893 0.5623724461 -0.1086659729 -0.7745450735 0.6158988476
0.01126439311 -0.1387107223 0.5665041208 0.07547391206 -0.7827582955 0.6058632135
0.005904482678 -0.138418749 0.5667821169 -0.05022924393 -0.7775626183 0.6210722923
-0.02352553234 -0.144193247 0.537379086 -0.5715378523 -0.5599049926 0.5979011655
-0.02812215127 -0.1413903087 0.5334997177 -0.594507277 -0.5574051738 0.5790742636
-0.006830715109 -0.1574283391 0.5426866412 -0.2897675633 -0.6520728469 0.691678226
-0.01372752991 -0.154402405 0.5451318026 -0.4494068623 -0.6132161021 0.6485386491
-0.01412335318 -0.1444838345 0.5527044535 -0.4320128262 -0.6227235198 0.6522057056
-0.0140618654 -0.1491874456 0.5491214991 -0.4415985048 -0.6179283261 0.6498864293
0.03586059436 -0.07388398051 0.521560967 -0.5195207596 -0.6293703318 0.5779036283
0.04274878651 -0.09761305153 0.5185292959 -0.1547831148 -0.1934472919 0.7306230068
0.03699059412 -0.08282712847 0.5160844922 -0.4687093794 -0.6270336509 0.5913639665
0.03760162741 -0.08923179656 0.5157840848 -0.3020514846 -0.4367737472 0.6614798307
0.04086420685 -0.09293393046 0.5177106261 -0.2531118095 -0.3305780888 0.6868776679
0.03211718798 -0.08662652969 0.512126565 -0.2845500708 -0.5073617697 0.6601902246
0.04416482523 -0.1061624214 0.5173487067 0.03268935904 0.04321142659 0.8133485317
0.03916285932 -0.09731342643 0.513574779 -0.1545289457 -0.2304438204 0.7305121422
0.04819910973 -0.09958998859 0.5217325687 -0.2681748867 -0.1735350937 0.7099097967
0.04578725249 -0.09166610241 0.5209658742 -0.4384197891 -0.4031479061 0.6334738731
0.04332534969 -0.08703279495 0.5162568688 -0.6719565988 -0.4734550118 0.5628709197
0.02899734676 -0.07813792676 0.5099718571 -0.4289368093 -0.6746668816 0.5892558098
0.03269153088 -0.08115924895 0.5132213831 -0.4429789782 -0.6660244465 0.5955606103
0.0365709886 -0.08451931924 0.5104312897 -0.5609222054 -0.5705804229 0.5883214474
0.008761906065 -0.08752420545 0.4910554588 0.01549674664 -0.7467466593 0.6594464183
0.01468787342 -0.08160153031 0.4989255369 -0.1611766219 -0.7569665909 0.6325209141
0.009446040727 -0.09176549315 0.4861934185 0.008052643389 -0.7097499371 0.7029447556
0.01863336377 -0.09189600497 0.4888556004 -0.1713521034 -0.7583127022 0.6273228526
0.01695675217 -0.05040783063 0.5350976586 -0.1379583031 -0.7677941918 0.6243909597
0.0206594374 -0.05302373692 0.5328457355 -0.2133483887 -0.7445588708 0.6286250949
0.01617760584 -0.04472200572 0.5432471633 -0.09111602604 -0.7932560444 0.5980104208
0.02417556942 -0.04745078459 0.5417055488 -0.1915617138 -0.7411735654 0.642675519
0.02220890671 -0.08999898285 0.493157059 -0.2321007699 -0.7372472286 0.6308810115
0.02786665782 -0.09110571444 0.4952246249 -0.310736686 -0.7045587301 0.6338088512
-0.00883479137 -0.06878836453 0.5169690847 0.3291195929 -0.7180404067 0.6116505861
-0.007870743051 -0.06753483415 0.5220629573 0.3250905573 -0.7332756519 0.5837649703
-0.002375139389 -0.06680086255 0.5173736811 0.2240372002 -0.7307025194 0.640841186
-0.0007246633759 -0.06427007914 0.5219920278 0.2255510241 -0.7488139868 0.611651957
0.004526298027 -0.06392650306 0.5210031867 0.1102155894 -0.7582445145 0.6408455372
-0.004663417116 -0.07473066449 0.5083370209 0.2526434362 -0.7352021337 0.6288790703
0.002004040638 -0.05867940187 0.5269266367 0.1609466821 -0.752763927 0.6326223016
-0.003267705906 -0.06129569188 0.5261797309 0.2796728015 -0.7474929094 0.598151505
-0.01109866891 -0.06360335648 0.5242347121 0.4011564255 -0.7109301686 0.5758569241
-0.01856276952 -0.0734411031 0.5230792165 0.4841646254 -0.6918792129 0.5254319906
-0.0128947692 -0.06918402761 0.5233619809 0.4080039263 -0.7176279426 0.5559409261
-0.02279363759 -0.07431489974 0.5273740292 0.6038879752 -0.6474399567 0.463806659
-0.02246674709 -0.0704575479 0.5317434072 0.5954086781 -0.6562395096 0.4623126388
-0.01554747298 -0.06667105108 0.527132988 0.4752482474 -0.7012728453 0.5256983638
-0.02232695557 -0.0663325116 0.5365177393 0.5899735093 -0.6639778614 0.4593445063
-0.01792330295 -0.06317687035 0.5331547856 0.5337172151 -0.6900299788 0.4874684811
-0.01809447445 -0.0879072845 0.5039818287 0.4759028554 -0.6492398381 0.5908557177
-0.02107733674 -0.08661501855 0.5080499053 0.5239223838 -0.6489380598 0.5511391759
-0.02067530341 -0.08346283436 0.5127923489 0.4932198822 -0.6665552855 0.5579340458
0.03149993718 -0.1409333795 0.5483692288 0.50822258 -0.6318417192 0.5635548234
0.0318996422 -0.138227731 0.5528123975 0.4950536788 -0.6648030281 0.547352314
0.02718688175 -0.1446864158 0.5527576208 0.475802809 -0.6686707735 0.5681179762
0.01474123355 -0.1477324963 0.5531557202 0.1695194691 -0.7104104757 0.6628570557
0.01405407302 -0.1442632973 0.559191823 0.1273039132 -0.767611146 0.6250222325
0.008565975353 -0.1459817588 0.5586435199 0.02180659026 -0.7572119236 0.6442465782
0.03589638323 -0.1304640323 0.5591726303 0.4978730977 -0.6950788498 0.5132450461
0.03642851859 -0.1333994418 0.5543363094 0.5427705646 -0.6653960943 0.5124098659
0.020385582 -0.1309739202 0.5739020109 0.1836861372 -0.7809556723 0.5919929743
0.005650025792 -0.1296381503 0.5785951614 -0.04847631231 -0.7897619009 0.6084957123
-0.008361024782 -0.1470334232 0.5518791676 -0.3628097475 -0.6465737224 0.6689918041
-0.001801429898 -0.1484898627 0.5542562008 -0.1961015016 -0.6942806244 0.6874448061
-0.002214427339 -0.1447278708 0.558385849 -0.2374384999 -0.7167241573 0.6520184875
0.02439244278 -0.1398150325 0.5566859245 0.3344754577 -0.7162066102 0.5737142563
0.03292062879 -0.1363849491 0.5574741364 0.4800896943 -0.7016106248 0.5197827816
0.02029081061 -0.1461614817 0.5523807406 0.2954813838 -0.6934999824 0.6435949206
0.01666958071 -0.1285900772 0.5793177485 0.1192822754 -0.8006288409 0.5860284567
0.0110377986 -0.1337102503 0.5737674832 0.02241027914 -0.7893083096 0.6059699059
0.005556886084 -0.1355534196 0.571280539 -0.07588303834 -0.782738328 0.614757061
0.01507146936 -0.1360899508 0.5701003671 0.1334140748 -0.7881322503 0.5993891954
0.02745970711 -0.1376161128 0.561057806 0.4317017496 -0.7202513218 0.5407497287
0.02984646335 -0.1330057383 0.5627390742 0.4355765879 -0.7160391212 0.5371430516
0.02616056241 -0.1330451965 0.5683226585 0.3472184837 -0.7510570288 0.5602750182
-0.003036557464 -0.1256650686 0.5818434358 -0.2050694078 -0.7752729058 0.5959295034
-0.005301395897 -0.1302434504 0.5753093958 -0.2541773915 -0.75361377 0.6055628061
0.002415735042 -0.1267704517 0.5820459723 -0.1323566884 -0.7866623402 0.5999113321
0.01163781062 -0.1267328411 0.5820544958 0.03452006355 -0.7995544672 0.5926374197
0.0169980824 -0.1398825794 0.5641432405 0.2079506367 -0.7745503783 0.5884690881
0.02301367372 -0.1398672611 0.5624690056 0.3606565297 -0.7385056615 0.569170177
0.02020506002 -0.1353382766 0.5686768293 0.2544074357 -0.7714161277 0.5775713921
0.01902725175 -0.1440883875 0.5584126711 0.2689931393 -0.7312614322 0.616786778
