# .PCD v0.7 - Point Cloud Data file format
VERSION 0.7
FIELDS x y z normal_x normal_y normal_z
SIZE 4 4 4 4 4 4
TYPE F F F F F F
COUNT 1 1 1 1 1 1
WIDTH 512
HEIGHT 1
VIEWPOINT 0 0 0 1 0 0 0
POINTS 512
DATA ascii
0.01145592704 -0.1310393363 0.6278089285 -0.1509982198 -0.7015273571 0.6940377951
-0.04367458075 -0.08999738842 0.6962920427 0.6925157309 -0.4921551645 0.5272068977
0.05463836715 -0.1922299266 0.6986710429 0.7315992117 -0.4140790999 0.54153651
-0.006828183308 -0.06743901223 0.6871567965 0.1409572959 -0.6984961033 0.6975498796
-0.01841827482 -0.07158000022 0.6880674958 0.3746182323 -0.6426293254 0.6624231339
-0.05025571212 -0.1018419713 0.6973921657 0.7202295661 -0.4650461376 0.5147753954
-0.04880108312 -0.09615394473 0.6995488405 0.707880497 -0.472648114 0.5246882439
0.07859939337 -0.1026787832 0.6638675928 0.6240531802 -0.4943437874 0.6040227413
0.05265722796 -0.167220071 0.7165560722 0.7522324324 -0.4051690996 0.51853019
0.04971151426 -0.1807744205 0.7133685946 0.7555829287 -0.4008393884 0.517873466
0.002713012975 -0.1847603917 0.7437594533 0.003044630401 -0.6128972769 0.7853804827
0.05126904324 -0.1744674742 0.717659533 0.7556124926 -0.4079816639 0.5123260617
0.04544010013 -0.1694575548 0.7288749814 0.682939589 -0.4654760957 0.5571510196
-0.05074927583 -0.09454184026 0.7057340741 0.7019867301 -0.4828194678 0.523180902
-0.04677845538 -0.09042558819 0.7018888593 0.6933871508 -0.4879025817 0.5301231742
-0.04536552727 -0.08444739878 0.7036338449 0.6816775203 -0.4980944991 0.5356173515
-0.04889146984 -0.08905624598 0.7083004713 0.6864067316 -0.4989673197 0.5287312269
-0.04067511111 -0.08148955554 0.7000254393 0.6583886147 -0.5279878378 0.5360230803
0.04140684381 -0.1902693808 0.7172461748 0.6696033478 -0.4524863064 0.5788308978
0.04330056906 -0.1842020154 0.7212313414 0.6996958852 -0.4395555258 0.5616451502
0.008094242774 -0.1890407652 0.7416497469 0.1099511907 -0.6167442799 0.7761964202
0.003604027908 -0.2078911066 0.7327873111 0.07431539148 -0.6144109368 0.7816488147
-0.02404535189 -0.1803237498 0.7374231219 -0.4536685646 -0.5466217995 0.7005388737
-0.03617816046 -0.08165624738 0.6936336756 0.6359658241 -0.5349068046 0.554626286
-0.02660363726 -0.07513328642 0.6898877621 0.5001612306 -0.6145504117 0.6074658632
-0.03694637492 -0.1831140071 0.7250124216 -0.6587037444 -0.4402025044 0.6095297337
-0.03116285428 -0.07724274695 0.6920580864 0.5664179325 -0.5836232901 0.5776031613
-0.03078892082 -0.08372114599 0.6853960156 0.5623487234 -0.5605993867 0.6043285728
-0.04233781621 -0.09533412009 0.6890637875 0.6998621225 -0.4767481685 0.5318282247
-0.04602868855 -0.09566225857 0.693924129 0.706712842 -0.4764102995 0.5230095983
0.03909890354 -0.1769316494 0.7304964662 0.6189669371 -0.5031459928 0.5952814817
0.0404804498 -0.1814220399 0.7264326811 0.6456827521 -0.4801107049 0.5882556438
0.0426662229 -0.1729163826 0.7321972847 0.6552309394 -0.4925345778 0.5724267364
0.0499930419 -0.1688553691 0.7234736085 0.7400376201 -0.4240628183 0.5214872956
0.04555835947 -0.1780812591 0.7234954238 0.699360311 -0.4498350918 0.5541599393
0.03375830874 -0.1822887063 0.7323879004 0.5546104908 -0.5386862755 0.633872807
-0.01509284507 -0.1961784065 0.7303633094 -0.3110260665 -0.5454476476 0.7775593996
-0.04901826009 -0.1843020171 0.7047415972 -0.7924205065 -0.3651671708 0.4800461531
-0.05249930918 -0.1866775602 0.6995369792 -0.7674393654 -0.3912994564 0.5078085661
-0.04214332625 -0.1931820363 0.7117495537 -0.7337397337 -0.4014367163 0.5449003577
-0.03964305669 -0.1897765249 0.7155730128 -0.7035551667 -0.4164885581 0.5716426373
0.04405248165 -0.1973039061 0.7084175348 0.6723896861 -0.4519490302 0.577436924
0.03559435904 -0.2021402419 0.7168830037 0.5854574442 -0.5093137622 0.6296654344
0.04110117629 -0.2011107653 0.713255465 0.6328218579 -0.482522577 0.6026608944
0.03804279864 -0.1945519447 0.7204146981 0.6172110438 -0.4886559248 0.6158981919
0.02265855484 -0.2029923946 0.7261226177 0.3579138517 -0.5596280694 0.7471604943
-0.05514997989 -0.1441045254 0.6707247496 0.9052860141 -0.2181113064 0.335949719
0.01147837751 -0.1263743043 0.6322236061 -0.1588569283 -0.6926035881 0.7002641559
0.009023150429 -0.1184673533 0.6447444558 -0.1350726336 -0.6792016029 0.7177882195
0.05765372887 -0.1671247333 0.6813980937 0.3499411941 -0.07059740275 0.4650163949
0.05565026402 -0.1481981874 0.6660634279 -0.1366879791 -0.3615442514 0.8076689243
0.05551229045 -0.1539254934 0.6622589827 -0.3396781385 -0.04745772853 0.7808762789
0.05891102552 -0.1715449691 0.693936646 0.8350909948 -0.2424070835 0.3034288287
0.05726248026 -0.161164403 0.6792885661 0.309489429 -0.2350197136 0.5481598973
0.05952662602 -0.1653309464 0.6877704859 0.6438153386 -0.2291325778 0.3816482425
0.05654614419 -0.154960528 0.6689887047 -0.06418337673 -0.1660706401 0.695340991
0.05733988807 -0.1572404504 0.6741676331 0.1355262697 -0.2054066509 0.6153241396
0.05558872968 -0.1609014422 0.6595474482 -0.5063524246 0.2879427969 0.7283005118
0.05676496029 -0.1747645289 0.7047193646 0.7873334289 -0.3680610359 0.4711712301
0.05765617266 -0.1874965131 0.6955802441 0.6928350329 -0.3850494325 0.5385549068
0.05590740591 -0.165861547 0.6657370925 -0.303617537 0.1876237839 0.6908820271
0.05811868235 -0.1756760925 0.6897178292 0.6031021476 -0.1755678803 0.4191551805
0.05682543293 -0.1778466702 0.6818956137 0.2321174145 -0.1259199381 0.6137477756
0.05744538456 -0.1654442549 0.6722089052 -0.01104316395 0.1458647698 0.5483583212
0.057637766 -0.1815372109 0.6894425154 0.5104888082 -0.2429431677 0.5375461578
0.05905227736 -0.1713187397 0.6857027411 0.4974500835 -0.05195983127 0.3967275321
0.05688745156 -0.1720311791 0.6762783527 0.070619829 0.009883016348 0.6051214337
0.05339138582 -0.1749681234 0.710349381 0.7771703005 -0.382537663 0.4917269349
0.05540711805 -0.1811773926 0.7037705183 0.7725259066 -0.3846633732 0.4883729815
0.05836088583 -0.1821368486 0.6984187961 0.8032227755 -0.344511807 0.4409573972
0.05886440724 -0.1765591055 0.6997392774 0.8566098809 -0.2871500552 0.3644921482
0.05046371743 -0.1915628463 0.7036936283 0.7332196832 -0.4130277336 0.539390862
0.05281485617 -0.1872549206 0.7011027932 0.7970715761 -0.3552940488 0.4496687353
0.0777829513 -0.1006141752 0.674943924 0.639370203 -0.3925434649 0.6406602859
0.08174280077 -0.1001342833 0.6687428951 0.6411367655 -0.4847725928 0.5931939483
0.06425108761 -0.1070284098 0.68759799 0.09013619274 -0.37941131 0.6483923197
0.06981043518 -0.1027953997 0.6844331622 0.4562779963 -0.375850141 0.6656448245
0.07727640122 -0.1063741073 0.6709871292 0.5929614902 -0.4414688051 0.6259100437
0.06915109605 -0.1109341905 0.6774112582 0.2762503624 -0.5515927076 0.5995017886
0.06490959972 -0.1108618826 0.6831462383 0.1596472859 -0.5564152002 0.6059221625
0.06266178191 -0.116074577 0.6810869575 -0.006459753029 -0.6717177033 0.5660661459
0.07582183927 -0.111786373 0.6676746607 0.4449658692 -0.5598641038 0.5833206177
0.07307883352 -0.1041997522 0.6787044406 0.519338727 -0.4010911286 0.6495871544
0.05593125895 -0.1424729824 0.6676234603 -0.1726321429 -0.470392406 0.78851825
0.05714672059 -0.1438709199 0.6751816869 0.003387726145 -0.4814138114 0.6396350861
0.05664751306 -0.1382735968 0.6726640463 -0.1492565274 -0.5495396256 0.6915550828
0.05911740661 -0.1473422348 0.6872954965 0.3080479205 -0.4818578064 0.4004580975
0.06007286534 -0.159683913 0.6919238567 0.6262537241 -0.3279120624 0.3040780127
0.05853800476 -0.1363019198 0.6849040985 0.05819994211 -0.6266471148 0.4523705244
0.05518592149 -0.1481131017 0.6729753613 -0.03934995458 -0.4275105 0.7988096476
0.05545741692 -0.154016912 0.7026401758 0.4551897049 -0.5032314658 0.5281994939
0.05621090159 -0.141227141 0.6877310872 0.07513721287 -0.5935047269 0.594090879
0.05511289835 -0.1537993401 0.6892409325 0.264601022 -0.4370324314 0.6679121852
0.05560842156 -0.1463112533 0.6825125813 0.07011055946 -0.5001931787 0.6853985786
0.05610764027 -0.1402475685 0.6806675196 -0.03691313043 -0.5699064732 0.6615687609
0.05485842004 -0.1627626717 0.709753871 0.6719152927 -0.425624907 0.5156279206
0.05607319251 -0.1442794502 0.6928383112 0.1875357479 -0.5799430609 0.5620333552
0.05673070624 -0.1326654702 0.6783176661 -0.1713352501 -0.6568564773 0.6322223544
0.05912410468 -0.1682792455 0.7003191113 0.8408931494 -0.2622587681 0.3046606183
0.0556727089 -0.1589924544 0.705855608 0.5930273533 -0.4498776793 0.4895062745
0.05699639395 -0.1684857756 0.7066438794 0.8290223479 -0.3115346432 0.3983355463
0.05895555019 -0.1534319967 0.6935240626 0.4867999554 -0.4325163066 0.3628952503
0.05718903244 -0.1304337531 0.6874019504 -0.07355815917 -0.7327435017 0.519877851
0.0561899133 -0.1465074867 0.6982144117 0.3004684746 -0.577069819 0.5092459917
0.05785367638 -0.1253912598 0.6829827428 -0.1881245822 -0.7730646729 0.5076342225
0.05671548843 -0.1378676295 0.6924360991 0.09933362156 -0.6610245705 0.5154693127
0.05811204016 -0.1650585979 0.693765521 0.6550385952 -0.2801342905 0.4291782975
0.0554055348 -0.1599054039 0.6950848103 0.4592912495 -0.381531328 0.6020318866
0.05512934178 -0.1617699564 0.7002273798 0.5451022387 -0.3857690692 0.5783330202
0.05590252951 -0.1549876481 0.682557404 0.235726729 -0.377899766 0.6716997027
0.05699150264 -0.1595249176 0.6871883869 0.4235236347 -0.3308049142 0.5595428348
-0.01508388203 -0.1581711173 0.7611141205 -0.2581248581 -0.6077241898 0.7502911687
-0.02080576867 -0.1596585065 0.7595133781 -0.321074754 -0.5902174115 0.7389996648
-0.007812287658 -0.1584285349 0.7604210377 -0.1488149017 -0.6208449006 0.7670915127
-0.01055766921 -0.1622550488 0.757480979 -0.2152720094 -0.6051681042 0.7605279684
-0.004146106541 -0.2107148468 0.7246567607 -0.09941051155 -0.597658813 0.7908689976
0.001308203442 -0.2104967684 0.723700881 0.003471143311 -0.5911681056 0.78698349
0.02075998299 -0.1954593211 0.729249239 0.3700866401 -0.5467857718 0.7456437945
-0.01047300175 -0.168135345 0.7555322647 -0.1862780303 -0.6122706532 0.7631306052
-0.01661358029 -0.163029328 0.7586791515 -0.2630880475 -0.6013077497 0.7483094335
-0.00633331202 -0.1746397167 0.7507245541 -0.1664658338 -0.6081566215 0.7749915719
-0.0005520575796 -0.2015728056 0.7354035974 -0.03089191392 -0.6038107872 0.7942345738
-0.0009834876982 -0.2112727463 0.7304193377 -0.01522281114 -0.6038509607 0.7913345098
-0.00434349291 -0.2008267641 0.7307047844 -0.1144727245 -0.5875476003 0.8007380962
0.0004394679272 -0.1954387575 0.7386663556 -0.0311905425 -0.6093136072 0.7909479737
0.005823438056 -0.2004822195 0.7363598347 0.09648238868 -0.6162099838 0.7775883079
0.00903457962 -0.1984772235 0.7311980724 0.1718724221 -0.5710936785 0.7920250893
0.01181833912 -0.1932656318 0.7374655604 0.2085336 -0.6010055542 0.771028161
-0.01154743042 -0.1934247911 0.7338947058 -0.2439183295 -0.5603234172 0.7877787948
-0.004296823405 -0.1920577288 0.7363781333 -0.1075781137 -0.5799365044 0.802631855
0.0008609781507 -0.18938905 0.7389201522 -0.003915417008 -0.6114516854 0.786147356
-0.02989926003 -0.1786257327 0.7340143919 -0.5445011854 -0.5081850886 0.6590588689
-0.04944977909 -0.1095469594 0.6888495684 0.7283578515 -0.4542288184 0.5129155517
-0.04599769041 -0.1003525928 0.6893441677 0.7066273689 -0.4744801819 0.5248396397
-0.04287835211 -0.1017030552 0.6842674613 0.7005284429 -0.4765641987 0.5310385823
0.01055098325 -0.1776147783 0.74914217 0.1494971216 -0.5907911062 0.7890345454
0.04408600926 -0.1952069402 0.7147802114 0.6793126464 -0.4576489627 0.5732328296
0.0480273962 -0.191516906 0.7108520269 0.7058103681 -0.4386871457 0.5549096465
0.04618391022 -0.187959969 0.7150851488 0.7294915318 -0.4202544391 0.5382713079
0.05205297843 -0.1839542687 0.7086268067 0.7506058216 -0.4063422382 0.5206323862
-0.04367065057 -0.1855399907 0.7140689492 -0.7464086413 -0.3970455229 0.5316057801
-0.02686286904 -0.1842616796 0.7320538163 -0.512090385 -0.5178776383 0.6810033917
0.02207640372 -0.2104434371 0.7226499319 0.3250252008 -0.5675284266 0.7537369132
0.004730406217 -0.2126621157 0.7289171815 0.08640056103 -0.6062018275 0.7818552852
0.01283004694 -0.2054629922 0.7280138731 0.2177559584 -0.58382231 0.7754151821
0.01300860289 -0.2112182379 0.7260525823 0.2015268207 -0.5874753594 0.768854022
0.01768771373 -0.2076960206 0.7253217697 0.2753511369 -0.5749932528 0.7644425631
0.007103560492 -0.2113550305 0.7239447236 0.1460117251 -0.592038691 0.7887352705
-0.02196653187 -0.2055538297 0.7218427658 -0.4186282754 -0.5163531303 0.7406432629
-0.01057393849 -0.2000127435 0.7287344933 -0.2271892279 -0.562035501 0.7861898541
-0.01541074831 -0.2041469067 0.7247024775 -0.3054078221 -0.5131449103 0.801864326
0.02861300297 -0.2064776421 0.7196394205 0.472127825 -0.5368102789 0.6964457035
0.03193339333 -0.1954126507 0.7232883573 0.5331470966 -0.5137452483 0.6698454022
0.03438559175 -0.1883319467 0.7261298895 0.5707241297 -0.4966618717 0.6494935155
-0.002629898489 -0.1212529391 0.6399255395 0.07677453011 -0.658133626 0.743991673
0.003665400436 -0.1221629679 0.6376193166 -0.03061074391 -0.6748239994 0.730655849
-0.0003922706237 -0.1170322672 0.6439632177 0.02924739011 -0.6530074477 0.7509867549
-0.02157326415 -0.1299483627 0.6399483681 0.3876065612 -0.5771861076 0.714673996
-0.02374336123 -0.1252650023 0.644492507 0.4317533374 -0.5771064758 0.6917361021
-0.0480199419 -0.1351108849 0.6656293869 0.699885726 -0.4767032564 0.5314429998
-0.05590221286 -0.1386930496 0.6650231481 0.7602923512 -0.4031713903 0.473692894
-0.05060821772 -0.1338715702 0.6711726189 0.7780534029 -0.3949014246 0.4542862773
-0.05055829138 -0.1412681639 0.6653931141 0.7384704351 -0.4198656678 0.4966491759
-0.03330223635 -0.113520205 0.6628772616 0.6112145782 -0.5198261142 0.5900573134
-0.02914485522 -0.1149198711 0.6567100883 0.5032779574 -0.5663807392 0.6498147845
0.08102975041 -0.1086421832 0.6619058847 0.617728889 -0.5217814445 0.5866851211
-0.0250095129 -0.1037266254 0.6653340459 0.4451999068 -0.5900641084 0.6549602151
-0.03086060099 -0.1034530848 0.668540597 0.5481410027 -0.558622539 0.6212485433
-0.02988496609 -0.1085419208 0.6637586355 0.5417944193 -0.558639586 0.6225104332
-0.01842063293 -0.1009102091 0.6623767614 0.3360348046 -0.6198138595 0.7058714628
-0.02383551188 -0.1073721573 0.659475565 0.4273106456 -0.5919904113 0.6820982099
0.04810404405 -0.1426281929 0.6546169519 -0.5124195218 -0.2808325291 0.7795193791
0.04877698794 -0.1488972753 0.6535255313 -0.5630454421 -0.03395774215 0.7317795157
0.05278253928 -0.1558358222 0.6557397246 -0.5658528805 0.1753334999 0.7468138933
0.05334840342 -0.1494637579 0.6493204832 -0.4437220693 -0.04372176528 0.8664517999
0.06407915801 -0.1038992777 0.6941862702 -0.07563616335 -0.2076805085 0.7518908381
0.07874319702 -0.09539937973 0.6709117889 0.6350762844 -0.4814636409 0.60343045
0.0719306767 -0.1153533161 0.6693739891 0.2689888775 -0.6404706836 0.5611975193
0.06931070983 -0.1222606376 0.6677126884 0.2389666885 -0.624566555 0.6386061907
0.06643243879 -0.1193988845 0.6724837422 0.09290740639 -0.696788013 0.5720331073
0.07850715518 -0.115845181 0.6613295078 0.5554673672 -0.5289129615 0.6328297257
-0.01705883257 -0.1676481813 0.7519904375 -0.320695132 -0.5866307616 0.7397918701
-0.02368164435 -0.1652408391 0.7505018115 -0.4081438184 -0.5572830439 0.7209520936
-0.01956006885 -0.1716595292 0.7473885417 -0.3684902191 -0.5818540454 0.7176944613
-0.02473154664 -0.1690727621 0.7461886406 -0.438672632 -0.5600565076 0.7008513212
-0.01372050494 -0.172602728 0.7504252195 -0.2720471323 -0.6057609916 0.7468565106
-0.004201020114 -0.1644527763 0.7598914504 -0.07477479428 -0.6192551851 0.7806202173
-0.01602884755 -0.1837514937 0.7410768867 -0.3383648694 -0.5810594559 0.7382462621
-0.01883727126 -0.1778183579 0.7424992919 -0.3625482917 -0.5840309858 0.7165642977
-0.01111200638 -0.1800878495 0.7447227836 -0.241526708 -0.6130899191 0.7473205328
-0.005627203733 -0.1873160452 0.741871655 -0.1539359689 -0.5992125869 0.7772711515
-0.005674186163 -0.1807254404 0.746214211 -0.168911919 -0.6123299599 0.7716964483
-0.01452377997 -0.1885890067 0.7366970181 -0.2950253189 -0.5839885473 0.7534473538
-0.01024207752 -0.2113263309 0.7256809473 -0.1928169131 -0.5823622942 0.7816770673
0.004984034691 -0.2050151825 0.7280930281 0.07092748582 -0.5941548347 0.8006359339
-0.009175813757 -0.2055187076 0.7250805497 -0.1901022792 -0.535608232 0.8036875129
-0.03311984986 -0.1657952815 0.7421781421 -0.577609241 -0.497086376 0.6451399922
-0.03720143065 -0.1659133136 0.7378582358 -0.6149519682 -0.4943133295 0.6136093736
-0.04826135188 -0.1791053712 0.7126504183 -0.7754286528 -0.3878830373 0.498141408
-0.04846308753 -0.1912511736 0.7059907913 -0.7623353601 -0.3972106576 0.5108813047
0.04243247956 -0.1682814956 0.7357304096 0.6300554276 -0.5016060472 0.5923437476
-0.004427287262 -0.1704036146 0.753945291 -0.1217959076 -0.6064264178 0.7844768763
0.002018125262 -0.1699139327 0.7567135096 0.007009557914 -0.5874277949 0.8032190204
-0.03245918453 -0.2039811909 0.7175505161 -0.5564776063 -0.496856302 0.6652672887
-0.04054226354 -0.1855651289 0.7197813392 -0.6926871538 -0.4214203954 0.5828080773
-0.0348855257 -0.1951331049 0.7199992537 -0.6143788695 -0.4589563906 0.6359377503
-0.03902228922 -0.1975407004 0.7139084339 -0.6791244745 -0.4317064881 0.5832138658
-0.03240988031 -0.1858201027 0.7283181548 -0.5856635571 -0.488833338 0.645619154
-0.02827755176 -0.193895489 0.7242439985 -0.518243432 -0.4826338887 0.6977196336
-0.03266070783 -0.1888857484 0.7233459353 -0.6051822901 -0.4536920786 0.6449650526
-0.02746146917 -0.2019226998 0.7215560675 -0.5011183023 -0.5017979741 0.7042922974
0.01711929403 -0.2015159577 0.7267149687 0.3230502009 -0.5579032302 0.7630558014
0.02693459019 -0.1980220526 0.724416554 0.4266245961 -0.5466654897 0.7163479328
0.03115421906 -0.2013649493 0.7200525999 0.52606529 -0.5222859979 0.6709670424
0.02667967975 -0.1931594461 0.7275041342 0.4378046691 -0.5341533422 0.7206870317
0.01694116369 -0.130891934 0.6326052547 -0.242059201 -0.6987333894 0.6719559431
0.02273282036 -0.1311404556 0.635576725 -0.3743190765 -0.6283168793 0.6762785316
-0.01149613876 -0.07522048056 0.6815394163 0.2322273701 -0.6531669497 0.7175064087
-0.01150086522 -0.06987769157 0.6859890223 0.2356581241 -0.6714497209 0.6990359426
-0.00600962434 -0.07439623773 0.6817656159 0.1200139895 -0.6675884128 0.732232213
-0.01691144891 -0.0770881176 0.6823126078 0.3403824866 -0.6235129833 0.6970243454
-0.01391040161 -0.1179545596 0.6467384696 0.2507846057 -0.6229453683 0.7392850518
-0.007336433046 -0.1152731776 0.6478309631 0.1336005926 -0.6334306002 0.7508099675
-0.01646335609 -0.1256165802 0.6404825449 0.3122154474 -0.5971409678 0.7359626889
-0.01095740497 -0.1217548847 0.6419707537 0.2140699178 -0.6180750728 0.751106739
-0.01190994307 -0.1292011738 0.6355747581 0.2420976162 -0.6108202934 0.7438168526
-0.006677011028 -0.1302529573 0.6343247294 0.1489470303 -0.6379473209 0.7357910872
-0.03556462377 -0.1199973226 0.6584892273 0.6043753028 -0.5189947486 0.6001868248
-0.02815710008 -0.121233061 0.6512406468 0.489272207 -0.5733325481 0.6569860578
-0.05044234544 -0.1178516969 0.6825352907 0.7296071053 -0.4584941268 0.5072461963
-0.05108249187 -0.1279516667 0.6751478314 0.7243632078 -0.4680979848 0.506058991
-0.05031409487 -0.1233263165 0.6782147884 0.7258476615 -0.462921381 0.508660078
-0.03992637247 -0.1212457195 0.6637233496 0.6786756516 -0.4867224395 0.5491642356
-0.02079357952 -0.118819572 0.6489657164 0.3845516443 -0.6031384468 0.6982676983
-0.01279867627 -0.1114659831 0.6503959298 0.1986907423 -0.6352651715 0.7426981926
-0.01718680002 -0.1077694297 0.6564226151 0.3061533272 -0.6219072938 0.7166342735
-0.02301770262 -0.1112074628 0.6557704806 0.4051793218 -0.5935361981 0.693356216
-0.01943918504 -0.1139242798 0.6524505615 0.339864552 -0.6086602211 0.7110766172
0.008119579405 -0.1110244617 0.6479911208 -0.09712040424 -0.6398988366 0.7609687448
0.01270055957 -0.1217492297 0.6374226809 -0.1757603288 -0.6787880659 0.7096973062
-0.0004106995766 -0.1125250757 0.6474149823 0.01012494974 -0.6537147164 0.7524893284
0.01360002439 -0.1137202606 0.6491743922 -0.1857272834 -0.6501650214 0.7338908911
0.00393329747 -0.073425062 0.6817422509 -0.03202959895 -0.6713172197 0.7388361692
-0.001661330462 -0.07161159813 0.6837152839 0.05371945724 -0.680313766 0.7287724018
0.001435562852 -0.06728151441 0.6866111755 0.02792497911 -0.7003960013 0.7112763524
0.03101323545 -0.1198366731 0.6530993581 -0.462022841 -0.5675942302 0.6783620119
0.05175053328 -0.1391892135 0.6608963013 -0.3294877112 -0.4664315283 0.8051604033
0.05516463518 -0.1056527272 0.6910421848 -0.5675441623 -0.2948771119 0.7509011626
-0.04278748482 -0.1105000526 0.6771202087 0.6986569762 -0.4829208255 0.5275775194
-0.04521238431 -0.1086168587 0.681933105 0.7120409012 -0.472047776 0.5195697546
-0.02571056411 -0.09058033675 0.6752200723 0.4534873068 -0.5895290971 0.6683360338
-0.02837339602 -0.08797539026 0.6796742678 0.4980848432 -0.5746338367 0.6461188793
-0.03572253138 -0.1763265431 0.7313306332 -0.6347200274 -0.4711479247 0.6109198928
-0.02969965898 -0.1747302413 0.7387570739 -0.5323204398 -0.5234383345 0.6643156409
-0.03524359316 -0.1711273789 0.736131072 -0.6114701629 -0.4921574295 0.6190405488
-0.05321855471 -0.1743563712 0.69940871 -0.8865017295 -0.2693908811 0.3697072268
-0.04930679128 -0.1775701493 0.7056278586 -0.8449363708 -0.3027555346 0.4236176014
-0.05254990608 -0.1799213737 0.7020287514 -0.7747510672 -0.3827950954 0.5031235218
0.03082991578 -0.1780554503 0.7390427589 0.4796031713 -0.5731956363 0.6621580124
0.03681843728 -0.1748880744 0.7368234992 0.5674180984 -0.5377914906 0.6232595444
0.01269096974 -0.1812475026 0.7440854907 0.2009849995 -0.6159825325 0.7583357096
0.0051812483 -0.1731856763 0.7521610856 0.05447098985 -0.5934881568 0.8027485013
0.0003591718269 -0.1780889034 0.748077631 -0.04338184744 -0.6131765842 0.780413866
-0.0006315943901 -0.1740352958 0.7524995208 -0.06020430103 -0.6001428962 0.7882509828
0.006042842288 -0.1807485521 0.7464265227 0.07135618478 -0.6094584465 0.7883010507
0.0113815302 -0.172035262 0.7534934878 0.1654638648 -0.5804329515 0.7944325209
0.0187603645 -0.1879553944 0.7366633415 0.2872291505 -0.596813798 0.742074132
0.02740158327 -0.1879178733 0.7320745587 0.4395315349 -0.5525201559 0.705968678
0.01758009568 -0.193231523 0.7335734367 0.2901043892 -0.5742554665 0.7629321218
0.0230121389 -0.1908977777 0.7331849933 0.3764925003 -0.5641444921 0.7331411242
0.01259943005 -0.186822027 0.7398056388 0.1935998946 -0.6148010492 0.7606145144
0.005285586696 -0.1934886426 0.7358833551 0.09360659868 -0.5834061503 0.8056434989
-0.023485085 -0.1988909841 0.7251364589 -0.4537141621 -0.5077143908 0.7318519354
-0.02061399631 -0.193804726 0.7294948697 -0.4090970755 -0.520612061 0.7477007508
-0.02118669264 -0.1890465915 0.7326666713 -0.4177818298 -0.534853816 0.729567945
-0.02050721459 -0.1857414544 0.737106204 -0.417624265 -0.5502902865 0.721590519
-0.02600605227 -0.1897947192 0.7297234535 -0.492407769 -0.5062764883 0.7036722898
0.007217062172 -0.1295704544 0.634583056 -0.07975453883 -0.6864119768 0.711558938
0.01184897777 -0.1280181259 0.6379558444 -0.1618666947 -0.6931861043 0.6912330389
-0.0005806904519 -0.1270536482 0.6362160444 0.05791853741 -0.6710996032 0.7349030972
0.03373598307 -0.1324621886 0.6436528563 -0.4986759424 -0.5381791592 0.6774964333
0.02075041272 -0.126743257 0.6415398717 -0.3346500993 -0.6435191631 0.6790950298
0.02857455052 -0.1222772226 0.6481430531 -0.4442191124 -0.5832829475 0.679045856
-0.02551828139 -0.08128900081 0.6828628182 0.465007931 -0.5962509513 0.654238224
-0.02973513864 -0.1309610307 0.6446163058 0.5181058049 -0.5455720425 0.6547125578
-0.03146222979 -0.1255555153 0.650486052 0.5462172031 -0.5387781262 0.6374644637
-0.03594319522 -0.1313942969 0.6491627097 0.6012177467 -0.5090363622 0.6150815487
-0.03605743125 -0.126500532 0.653334856 0.6105996966 -0.5035192966 0.6110243797
-0.04699329287 -0.1260263622 0.6701508164 0.7167921662 -0.4737045169 0.5115808845
-0.04741846025 -0.1209002957 0.6736325622 0.7195549011 -0.4756190777 0.5057987571
-0.04632375017 -0.1147775576 0.6783656478 0.720533371 -0.4673825502 0.5119285583
-0.05145055801 -0.1289412081 0.6679745913 0.7132378817 -0.4743201435 0.5156367421
-0.04453878105 -0.1780163497 0.7185807228 -0.7422488928 -0.4019375443 0.5325485468
-0.0411840342 -0.1783825755 0.7237880826 -0.7021639347 -0.4234959781 0.5708312988
-0.04235830531 -0.1729801148 0.7264726162 -0.7126969099 -0.4267005324 0.554846108
-0.04200506955 -0.1676972806 0.7316528559 -0.6872414947 -0.4482958913 0.5712282062
-0.05223827809 -0.1692473143 0.7058502436 -0.8800405264 -0.2414088845 0.3970800042
-0.01011089422 -0.08446645737 0.6743248105 0.2279978395 -0.6211480498 0.7458544374
-0.005682734307 -0.079431355 0.6770765781 0.1447204649 -0.6515495181 0.7423422337
-0.01315926015 -0.08073695004 0.6774867177 0.2672435641 -0.6282297969 0.7297068238
-0.02042633295 -0.08218918741 0.6800317764 0.3796234429 -0.6053160429 0.6940901279
0.01496493444 -0.1085209623 0.6534478068 -0.190129146 -0.6294664145 0.7525913119
0.006895955652 -0.07673315704 0.6782851219 -0.05895027518 -0.6448451281 0.7592234015
0.01039768662 -0.07342600077 0.6823217273 -0.1227440909 -0.6612910628 0.7368158698
0.02201726101 -0.1223389804 0.6449021697 -0.3541952968 -0.6413624883 0.6764369607
0.01696320623 -0.1186212078 0.6449536085 -0.2510215938 -0.6621796489 0.7021647692
0.01806170493 -0.1243255511 0.6377001405 -0.2729600072 -0.6693819165 0.6857720017
0.05657145381 -0.1459138393 0.6612238884 -0.2089177519 -0.396371156 0.8675159216
0.05574656278 -0.1441699266 0.6497822404 -0.2680383623 -0.1914128363 0.8903008699
0.06269434094 -0.1369846612 0.6581528783 0.1086583883 -0.374017328 0.8428660631
0.05646714941 -0.1515407413 0.6559119821 -0.3072601855 -0.2975836098 0.8679756522
0.06025696173 -0.1432203501 0.6576247215 -0.05932877958 -0.3498862684 0.851539731
0.06678170711 -0.1273005307 0.6656683087 0.2452531606 -0.5515636802 0.7286654711
0.0603793785 -0.1235108525 0.6772702932 -0.1226042137 -0.7410901189 0.5770086646
0.06755793095 -0.1307690442 0.65946275 0.2875864804 -0.4400716722 0.7949938178
0.06115665287 -0.1383913457 0.6530941129 -0.0514932014 -0.2915994525 0.8397063017
0.07252565771 -0.1237930879 0.6580907106 0.4206042588 -0.51713413 0.730429709
0.07465817034 -0.105481334 0.6615773439 0.5434269905 -0.5116595626 0.6600738764
0.05559327081 -0.1215823367 0.6788938642 -0.2911354005 -0.7346093059 0.581050992
0.05507625267 -0.1166776046 0.6821866632 -0.5491594076 -0.4513134062 0.6513334513
0.06076018885 -0.10427057 0.703178525 -0.2747736573 -0.3251986802 0.8996600509
0.06386490166 -0.1008283868 0.6991867423 0.04813914374 -0.242670238 0.8831405044
0.06733284146 -0.09759016335 0.6948563457 0.3515160084 -0.2148418874 0.8127453327
0.05841470137 -0.1106438264 0.6934293509 -0.6329552531 -0.1593387723 0.7148400545
0.05963427946 -0.1078617349 0.6982238293 -0.455884248 -0.2541262805 0.8060905933
0.01584773883 -0.1689271927 0.7522522807 0.2121749818 -0.5739196539 0.7786505222
0.02309306152 -0.1741394401 0.7465701699 0.3651023507 -0.578745544 0.7272231579
0.03677209467 -0.1694427729 0.7404541969 0.5550180078 -0.5245354176 0.6397454739
0.03211018816 -0.1729117185 0.7422895432 0.5086948872 -0.5471038818 0.6591370702
-0.03331597894 -0.09309864044 0.6801348925 0.602144599 -0.5252571106 0.599864006
-0.03702540323 -0.09033470601 0.6868584156 0.663980782 -0.4963466227 0.5569061637
-0.03679419309 -0.09952615201 0.6791035533 0.6487693787 -0.4993667901 0.5715164542
0.01896594279 -0.07353771478 0.6840078235 -0.2626105845 -0.6360085607 0.7183295488
0.02170366049 -0.0692538321 0.6873640418 -0.2826251984 -0.6487901807 0.7058714628
0.01485145185 -0.06958189607 0.6856415868 -0.1828984469 -0.6747424006 0.7143644691
0.02488476597 -0.07507046312 0.6848804355 -0.3793315291 -0.6046181321 0.7000315785
0.02476151101 -0.1797403395 0.7410622835 0.3905952275 -0.5882688165 0.7036266327
0.02026024833 -0.1783619672 0.7439467907 0.3189482689 -0.5938216448 0.7327694893
0.02458871342 -0.18511042 0.7371941805 0.3923416734 -0.586858809 0.708080411
0.01908774674 -0.1832235456 0.7407985926 0.3108482063 -0.602288723 0.731133759
-0.04441352561 -0.1309194714 0.6615650058 0.6878846288 -0.478607446 0.5453386307
-0.04015481845 -0.1261017919 0.6587104201 0.6622582078 -0.4862489402 0.5676600933
-0.0565056093 -0.1377397627 0.6591275334 0.6946625113 -0.4778445363 0.5376307368
-0.04428755119 -0.1260842979 0.6643440127 0.7016333938 -0.4790548086 0.5273580551
0.03274231032 -0.12596111 0.6492053866 -0.4912675321 -0.5581260324 0.6670482159
0.02693694271 -0.1304563582 0.6415177584 -0.447103709 -0.5911773443 0.6710506082
0.04690703377 -0.1371744126 0.6561512947 -0.4927361012 -0.4042609036 0.7623310685
0.04396641627 -0.1274890602 0.6598098278 -0.4966932833 -0.5176843405 0.6855380535
0.03690134361 -0.1236299872 0.6542829275 -0.5232560635 -0.5342359543 0.6633847952
0.04038314521 -0.1291032732 0.6544374228 -0.5158873796 -0.4763791263 0.7041220665
0.0426579155 -0.1351065487 0.6516743898 -0.526358068 -0.4265864193 0.7308445573
-0.05029194802 -0.1716525704 0.7157767415 -0.7800992727 -0.3765954375 0.4995875359
-0.05182010308 -0.1679200828 0.7118250132 -0.8290426731 -0.3068457842 0.4502980113
-0.05055408552 -0.1659892648 0.7195628881 -0.7798184752 -0.3649915755 0.5017887354
-0.04584442079 -0.1681132019 0.7258372903 -0.7347425818 -0.4096139073 0.5389022231
0.05131288618 -0.09917418659 0.6673226357 -0.008227507584 -0.5158741474 0.6698652506
0.05718361959 -0.1049926579 0.6623562574 0.131061554 -0.5415017009 0.6985679269
0.06441485882 -0.10144227 0.6645468473 0.3134081066 -0.5071448088 0.6690177321
0.06716568768 -0.1068168879 0.6607959867 0.3545736074 -0.5314096212 0.6948151588
0.04335579649 -0.1016751081 0.6650564075 -0.1752474159 -0.5510935783 0.6994129419
0.05756869167 -0.09980671108 0.6658789515 0.1617250443 -0.511932373 0.6694744229
0.04689892754 -0.1068308875 0.6632024646 -0.1879123598 -0.5313957334 0.6882632375
0.03367585689 -0.09981355816 0.6667172313 -0.3951011002 -0.5583994985 0.7008860707
0.03042187169 -0.1061215177 0.6625279188 -0.4436268806 -0.5531424284 0.7000982761
0.01275399514 -0.1612548381 0.7576291561 0.1580580175 -0.576931715 0.7892494798
0.004802841228 -0.1591473073 0.7609333396 0.05045032501 -0.5883131623 0.8056898117
0.02027281746 -0.1633917689 0.7546973825 0.258495003 -0.5660888553 0.7747271061
0.008521036245 -0.1635584384 0.7610028386 0.0860068351 -0.5827642083 0.8069451451
0.009965457022 -0.16599828 0.7554719448 0.1196613908 -0.5820448995 0.7951937914
-0.002323944122 -0.1594237685 0.7610883117 -0.06351101398 -0.6153860092 0.7828657627
0.01538479608 -0.0854350403 0.6728383899 -0.2147714198 -0.6177396178 0.7561064363
0.0172783006 -0.09107077867 0.6693910956 -0.2386092693 -0.6125761867 0.7496047616
-0.01395687182 -0.08991783112 0.672720015 0.2831391692 -0.6094132066 0.7279514074
-0.01932377554 -0.08950276673 0.675550878 0.3728967607 -0.5908204913 0.6965824366
-0.03108833544 -0.09841126204 0.6733118296 0.5537359118 -0.5455663204 0.6274162531
-0.02401418798 -0.09536796063 0.6718258858 0.4334145486 -0.5825915933 0.6727218032
-0.02026693523 -0.09644699097 0.6672321558 0.3525417149 -0.6170968413 0.7013823986
-0.01324286405 -0.09747090936 0.665091157 0.2498117685 -0.6345738769 0.7302727699
0.00287339231 -0.1100623831 0.6516737342 -0.04671067372 -0.6408857107 0.764781177
-0.002898654202 -0.1043161154 0.6564947367 0.0889236778 -0.6523201466 0.7474880815
0.002831666032 -0.1011726037 0.6599773169 -0.01702648774 -0.6523093581 0.7494447231
0.0275394395 -0.07131726295 0.6894187927 -0.4047779441 -0.6224644184 0.667994678
0.05932328478 -0.08636058122 0.7001806498 0.1277538985 -0.05106355995 0.9145879149
0.06327454746 -0.08692506701 0.6946203113 0.2778049409 -0.1686300188 0.8406190276
0.0671210438 -0.09118319303 0.6930494905 0.4665738344 -0.1713936776 0.7889097929
0.05484845489 -0.08678734303 0.7036984563 -0.1668635011 -0.09374195337 0.9520119429
0.02362382971 -0.168763563 0.7501680255 0.3597726226 -0.5600685477 0.745433569
0.03124166094 -0.1638255268 0.7513839602 0.4143225849 -0.56394279 0.7139943242
0.03279889002 -0.1682345718 0.7452635765 0.4876906872 -0.5434175134 0.6807596684
0.02789048105 -0.1711163223 0.7464931011 0.4259786308 -0.555105269 0.7121096849
-0.04096806794 -0.1329261363 0.6531441808 0.6470642686 -0.4890770316 0.5839163065
-0.05177250504 -0.1347782463 0.6584873796 0.6880877614 -0.4779551327 0.5457718372
-0.04656590521 -0.1346028596 0.6562246084 0.6764349341 -0.4743870497 0.5630783439
-0.04744236544 -0.1398566663 0.6611440182 0.6761603355 -0.4829818904 0.555087626
0.02690565214 -0.1018802151 0.6639860868 -0.380263716 -0.5780360699 0.7209841013
0.02142466232 -0.09841706604 0.6645038128 -0.2732614875 -0.6083251238 0.7409430146
0.02061990276 -0.1037442386 0.6601729393 -0.274223268 -0.6063703299 0.7401490211
0.04932544753 -0.1180018783 0.6724303365 -0.4875784218 -0.6203081012 0.579446435
0.04473580793 -0.1163814142 0.6688938141 -0.6164660454 -0.5216987729 0.5831242204
0.0503628552 -0.1273951977 0.6660320163 -0.3434345126 -0.6503823996 0.6675480604
0.05296225101 -0.09788999707 0.6946517229 -0.4397138953 -0.4161616564 0.7828623652
0.05091129243 -0.08940606564 0.6976351142 -0.4583437741 -0.4647909999 0.7463307381
0.05417505652 -0.09349813312 0.7001774907 -0.3967396617 -0.4224657118 0.7988698483
0.056353122 -0.1001290381 0.6991871595 -0.3477198184 -0.388364315 0.8407498598
0.008518543094 -0.1050561443 0.6551861763 -0.1056008115 -0.6326477528 0.7647417188
0.01512737945 -0.1010105684 0.6606377959 -0.1619335115 -0.6328455806 0.7566609979
0.01037053484 -0.08810821921 0.6691283584 -0.1098812446 -0.6295964122 0.7677359581
0.009163921699 -0.0811579451 0.6751208901 -0.09642039984 -0.636793375 0.7623175979
0.004258982372 -0.08889915794 0.6682491302 -0.0182749331 -0.641405046 0.7646227479
-0.008707127534 -0.0901260525 0.6704238057 0.1968216747 -0.6267772913 0.7534197569
-0.003944675904 -0.08445335925 0.6730215549 0.1288714558 -0.6353788972 0.7591323853
0.001882861601 -0.08327623457 0.673079133 0.01995576359 -0.6336502433 0.768751204
0.0005684332573 -0.07884339988 0.6766155958 0.03983899206 -0.648499012 0.7561999559
0.005771902855 -0.09400004148 0.6641132236 -0.04886820912 -0.6443250775 0.7623663545
0.009413527325 -0.0998371318 0.6613397598 -0.1198146418 -0.6458877325 0.7535672784
0.01327557862 -0.09615853429 0.6638357043 -0.1663671285 -0.6297786236 0.7565421462
0.0004520963412 -0.09651155025 0.6641446948 0.03012072481 -0.6404822469 0.7543836832
-0.002247866709 -0.09021612257 0.6688459516 0.08903087676 -0.6343707442 0.7583462596
0.06476751715 -0.08605904877 0.6891537905 0.2085010707 -0.5163357258 0.5721471906
0.07557603717 -0.08990202099 0.6771041751 0.5353873968 -0.5656483173 0.6127803922
0.06082253531 -0.09246645123 0.6994608641 0.1163157225 -0.09910403192 0.9368456602
0.07615809143 -0.09429670125 0.6809783578 0.6331787109 -0.3645687401 0.6612975001
0.07223752886 -0.09123256058 0.6851043701 0.6062653661 -0.3541772366 0.6931923032
0.05519903451 -0.1116206348 0.6862068772 -0.6930858493 -0.2680072188 0.6614605784
0.04302297533 -0.111080572 0.6697589755 -0.6230224371 -0.5051526427 0.5947332978
0.0408029668 -0.1068996564 0.6639773846 -0.3518978357 -0.5310124159 0.6831621528
0.04261057079 -0.1120797768 0.6619149446 -0.3652314246 -0.5335006714 0.6651850939
0.0517693311 -0.1093499884 0.6616838574 -0.08825430274 -0.5325366259 0.68272686
0.03190365806 -0.1147357374 0.6568897367 -0.4847914875 -0.545312047 0.680983901
0.03489587083 -0.1091728583 0.6635302305 -0.5053924322 -0.5365581512 0.6737474203
0.02510051057 -0.108209759 0.6582984328 -0.369907409 -0.5831329226 0.7195421457
0.03622097522 -0.1158557758 0.6606065631 -0.5200089216 -0.5422160029 0.6569503546
0.02644637227 -0.1145595387 0.6542896032 -0.3954124749 -0.5885164738 0.7032442689
0.02116172016 -0.08859816194 0.6727827191 -0.3021887541 -0.6010035872 0.7390201688
0.02288940363 -0.09387739748 0.6688520312 -0.3146347702 -0.5981425643 0.7363740802
0.02840575762 -0.09793742001 0.6685088873 -0.3903048337 -0.5730664134 0.7134618759
0.07249397784 -0.1102217957 0.6587741971 0.4634230435 -0.5331973433 0.7064448595
0.06573928148 -0.1164954454 0.6569576859 0.2729026079 -0.5296769738 0.7625058293
0.04897485673 -0.1140754893 0.6573194265 -0.1192066446 -0.5358508825 0.6909119487
0.04116602615 -0.1157760099 0.656742394 -0.314438045 -0.5366529822 0.688995719
0.06067107245 -0.1124951616 0.6579288244 0.168911159 -0.5339404941 0.7045280933
0.0716298297 -0.1177214384 0.6576555967 0.4160714149 -0.5328778028 0.7337316871
0.04409693182 -0.1207628399 0.6550608277 -0.3017216325 -0.5347903967 0.6953493953
0.04977528751 -0.1196784824 0.6555739641 -0.1489942074 -0.5332700014 0.7167556882
0.0540656969 -0.1250687242 0.6517981887 -0.06663747132 -0.5128059387 0.7392022014
0.04243231937 -0.1305015236 0.6476283073 -0.3695468903 -0.5102915168 0.7020677924
0.04764289781 -0.1242875308 0.6504461765 -0.1740052551 -0.5375785232 0.7151555419
0.05566950887 -0.1200841293 0.6553661823 -0.006024828646 -0.5320880413 0.7354049683
0.03962027282 -0.1248776838 0.6488503218 -0.3485346437 -0.5498613119 0.6881725192
0.0481644161 -0.1222632378 0.6673592329 -0.4311307669 -0.6521062851 0.6170415878
0.04141646251 -0.1215920076 0.6618789434 -0.5328975916 -0.5524418354 0.636549294
0.05280973762 -0.1261108369 0.671199441 -0.2707440853 -0.6944604516 0.6501920819
0.05045259744 -0.133450374 0.6620526314 -0.3448612988 -0.5589982271 0.7421860695
0.05570821092 -0.1324748695 0.6717068553 -0.2408493161 -0.6217748523 0.7043861151
0.06030099839 -0.1275510937 0.6729382277 -0.06480097026 -0.6496046782 0.6606971622
0.05788936839 -0.1362957805 0.6675470471 -0.1365811527 -0.5285636187 0.776211977
0.06245752051 -0.133822307 0.66380018 0.1199653521 -0.4782266319 0.8093567491
-0.00430651661 -0.0937037617 0.6647474766 0.1040181816 -0.642390132 0.7590465546
-0.002491338877 -0.1075699553 0.6513961554 0.03979444504 -0.6498057842 0.7558178306
0.002698928118 -0.1048331633 0.6544027328 -0.02954944223 -0.6437597275 0.7624109387
-0.008610454388 -0.1077773049 0.6523424983 0.1426595002 -0.6487804055 0.7434201241
-0.006341372151 -0.1005861759 0.6589240432 0.1277217567 -0.6577666402 0.7399269342
-0.0114907492 -0.1024262905 0.6601803303 0.2056905925 -0.6482110023 0.7283976078
0.05684841424 -0.08396372944 0.6953809857 -0.1867535859 -0.5617477894 0.5614895225
0.05128931254 -0.08113972098 0.6934731007 -0.3138730526 -0.6938947439 0.5089053512
0.04450741038 -0.07987815887 0.6960944533 -0.4838623703 -0.5509077311 0.678199172
0.03950046375 -0.07583174855 0.6939879656 -0.461849153 -0.5897502899 0.6575230956
0.0446960777 -0.07900743932 0.6909998655 -0.3396906555 -0.6975035071 0.5709304214
0.07315763086 -0.09332619607 0.6733780503 0.5283885002 -0.5119273663 0.5919085741
0.06928561628 -0.08972386271 0.6799455285 0.2690273225 -0.7804090381 0.3425319791
0.05600593612 -0.08947220445 0.6815710664 -0.12266583 -0.846929729 0.315793097
0.06251038611 -0.08934177458 0.6812129021 0.05875254422 -0.8322541118 0.3115229905
0.05772668123 -0.09239593893 0.6763682365 0.04700711742 -0.6342440248 0.5171747804
0.0452362746 -0.0970614627 0.6830897331 -0.5357434154 -0.4738825262 0.692014873
0.07467899472 -0.09773392975 0.6673673391 0.5577939749 -0.4736200571 0.6328063011
0.05480686948 -0.09609916061 0.6710100174 0.02828004397 -0.507702589 0.6518085599
0.06644215435 -0.09569109976 0.6706888676 0.3436196148 -0.4966276288 0.629532814
0.06082607433 -0.09633862227 0.6702460051 0.1896618158 -0.4990424216 0.6439644694
0.0377615504 -0.1012005955 0.6722082496 -0.532228291 -0.5190253854 0.6685632467
0.04646808282 -0.1007598117 0.6704276204 -0.264762193 -0.5091637373 0.6620272398
0.03547773883 -0.09555341303 0.673751235 -0.496689409 -0.5366306901 0.6739681363
0.04373445734 -0.09619589895 0.6722186804 -0.2758564949 -0.5224102736 0.6663361192
0.023752179 -0.08415323496 0.6772593856 -0.3399878442 -0.5975298285 0.725472033
0.02090326324 -0.07842348516 0.681165576 -0.2919603288 -0.6177476048 0.7201806307
0.0156314075 -0.07711199671 0.6796382666 -0.194176212 -0.6414535046 0.7403470278
0.02636680007 -0.07978775352 0.6822018623 -0.3981642425 -0.5922569633 0.7002490163
0.06561166048 -0.1237922758 0.6579412222 0.306896925 -0.4760516882 0.8227838874
0.05257685483 -0.1375084817 0.6503447294 -0.2652498484 -0.3135648668 0.8269184232
0.05824086815 -0.1338232905 0.6530493498 -0.04496444017 -0.3409698606 0.8474766612
0.04616512731 -0.139057532 0.6482648253 -0.4706912637 -0.332236141 0.7832565308
0.04890743643 -0.1309727728 0.6511222124 -0.2888144851 -0.4575010836 0.7396156192
0.05932050571 -0.1247965172 0.6546139717 0.05918319896 -0.4850881994 0.7749212384
0.06353378296 -0.1302536428 0.6550292373 0.1384133697 -0.3886111379 0.8290380836
0.04623319954 -0.09372085333 0.6872481704 -0.4982021153 -0.4940883517 0.7109416127
0.05089019984 -0.10142795 0.6867542267 -0.6390229464 -0.3111892641 0.7001153231
0.04672143981 -0.08705866337 0.6932570934 -0.4995848238 -0.5037840009 0.7046429515
0.04902211204 -0.08285235614 0.6990604997 -0.501996994 -0.4954050183 0.7089211345
0.04031696171 -0.1060495302 0.6710010767 -0.5769372582 -0.5127714276 0.6316232681
0.04533618689 -0.1074774712 0.6754488349 -0.6597918272 -0.4654040337 0.5889086723
0.05088944361 -0.1115076542 0.6803155541 -0.6594811678 -0.3996120989 0.6308644414
0.04475966841 -0.1018824726 0.6785318851 -0.6291027069 -0.4432379007 0.634984374
0.04969923943 -0.1053659245 0.6822346449 -0.6846113205 -0.3467773795 0.6370087862
0.03822832927 -0.08178646117 0.6885238886 -0.4672126174 -0.5621430874 0.6820315719
0.03543418646 -0.08435830474 0.6840646863 -0.4880147278 -0.5570469499 0.6719139218
0.04217374697 -0.08480385691 0.6852849722 -0.3772542775 -0.6593561769 0.5938264728
0.04135904834 -0.09782865644 0.6776744723 -0.5711050034 -0.4913897812 0.6566140056
0.0491123125 -0.09098837525 0.6797573566 -0.2561921179 -0.7398210168 0.4400562644
0.02794151753 -0.09148174524 0.6735653877 -0.3908440769 -0.5778699517 0.7136909366
0.03278144449 -0.08881992102 0.6781851053 -0.4764350951 -0.5526589751 0.6834232807
0.03791607916 -0.09238336235 0.679422915 -0.5081962943 -0.5356020927 0.6744323969
0.04865221307 -0.08632622659 0.6852306724 -0.2645349205 -0.7631226778 0.5127941966
0.05465246364 -0.08695585281 0.6861413717 -0.1683011055 -0.8525477052 0.4430558085
