# .PCD v0.7 - Point Cloud Data file format
VERSION 0.7
FIELDS x y z normal_x normal_y normal_z
SIZE 4 4 4 4 4 4
TYPE F F F F F F
COUNT 1 1 1 1 1 1
WIDTH 512
HEIGHT 1
VIEWPOINT 0 0 0 1 0 0 0
POINTS 512
DATA ascii
-0.02554911561 -0.1895236969 0.7257999778 -0.8242412806 -0.2611032724 0.4901159406
-0.02502831072 -0.1830095798 0.7292300463 -0.8378085494 -0.2452844381 0.477956295
0.09218493104 -0.1066311598 0.6715647578 0.8942257762 -0.2123023868 0.3417845964
0.08428897709 -0.1193212196 0.6887930036 0.7356105447 0.3380266726 -0.2391006649
0.09069169313 -0.112431787 0.6723760962 0.8522356153 -0.1740484834 0.2576568425
0.08748203516 -0.1158075631 0.6806618571 0.7940465212 0.08415996283 0.008045158349
-0.0217882134 -0.09466960281 0.7309545875 -0.6646223068 0.4558027387 -0.5919756293
0.09055367112 -0.1143332124 0.6665721536 0.8342439532 -0.3285093904 0.4275817573
0.0109248478 -0.1401709616 0.6563728452 -0.2791859806 0.6387903094 -0.7135590911
0.09111815691 -0.09966737777 0.6731699705 0.8682850003 -0.235653758 0.4271350503
0.04238809273 -0.1692920178 0.7722619772 0.26657179 -0.5222349763 0.7839866877
0.02669491991 -0.169727385 0.7802842259 0.005943704862 -0.5572034121 0.8080137372
0.04004234076 -0.17247352 0.7798580527 0.1601085365 -0.5259945989 0.8255978823
0.05328890309 -0.09902593493 0.6947393417 0.3250813782 0.5600523353 -0.7610993981
0.09002119303 -0.09241722524 0.6887061596 0.9006233811 -0.04460819066 0.3162123561
0.09132584929 -0.09147656709 0.6783348918 0.892850101 -0.2139534652 0.3927078247
0.08852206916 -0.09650208801 0.7028832436 0.9083667994 0.2161617726 0.2118138522
0.04636386409 -0.1739437282 0.7776375413 0.2581448853 -0.5062525868 0.8162813187
0.04397090524 -0.1745245457 0.7689677477 0.2774849832 -0.5254507661 0.7843914628
0.04042504728 -0.1793870032 0.7689597011 0.2092863023 -0.5401924849 0.7937497497
0.01308298018 -0.2203589231 0.7473573089 -0.222914055 -0.5575303435 0.7983813882
0.009948078543 -0.2196382284 0.739587307 -0.2452656925 -0.5503284335 0.7853962779
0.0009579008329 -0.2167240232 0.7397982478 -0.3720310926 -0.5216152072 0.7365252376
-0.003183661494 -0.2139633149 0.7354066372 -0.4539022744 -0.4707239568 0.6893779039
-0.01638006233 -0.2084830403 0.7325391769 -0.6642244458 -0.3991851509 0.5972387791
-0.009861725383 -0.2118436545 0.7361484766 -0.5503733158 -0.4523826241 0.6542000771
0.007842632942 -0.2191639394 0.745816052 -0.3165020347 -0.5385667086 0.7768729329
0.01842032373 -0.1696909666 0.7822260261 -0.1218643337 -0.5706009269 0.8071306944
0.008116721176 -0.1719017178 0.7810309529 -0.2772268653 -0.5706069469 0.7671265602
0.002852585865 -0.17180489 0.7763468027 -0.3606300652 -0.5576463938 0.7396842837
0.02475403436 -0.1827865392 0.7706930637 -0.08182076365 -0.5703781843 0.7934085131
0.03500780091 -0.180751577 0.7689103484 0.1076790839 -0.5519524217 0.794060111
0.03571370244 -0.1744623631 0.7705926895 0.1258837432 -0.5369660854 0.779946208
0.0250991974 -0.1884811372 0.7689413428 -0.08027682453 -0.5826146603 0.8067003489
0.03014099784 -0.1837586612 0.774387598 0.03647628799 -0.5580319166 0.8227283955
0.01297964994 -0.1752488762 0.7806990147 -0.2161750644 -0.5788623691 0.7819040418
-0.02733926661 -0.1712460816 0.7151721716 -0.8741336465 -0.008897090331 0.08706689626
-0.02767617814 -0.1652417779 0.71380198 -0.8538790941 0.02566645667 -0.01847530715
-0.02657623589 -0.176228866 0.719537735 -0.8752354383 -0.08106348664 0.2288680077
-0.02914644405 -0.1575075835 0.7051165104 -0.8614578843 0.163397789 -0.27063936
-0.02562651411 -0.1771996468 0.7257379293 -0.8494235277 -0.16717574 0.3463297784
-0.03015560284 -0.1696125269 0.7083871961 -0.9086762667 0.08982236683 -0.03060047328
-0.02850186266 -0.1835914403 0.7180524468 -0.9248325825 -0.07769108564 0.3249175251
-0.03004516475 -0.1515964568 0.7006875873 -0.8570332527 0.2390849441 -0.4251414835
-0.02604351379 -0.1713772863 0.7254647017 -0.8258942962 -0.1474598497 0.2643455863
-0.0284971837 -0.1604731828 0.7108545899 -0.8482185006 0.07861721516 -0.1305981874
-0.03057383746 -0.1797603965 0.7120476365 -0.9423351288 0.01528605539 0.1829735935
-0.0267437622 -0.1667034477 0.7205525041 -0.8281450272 -0.0689906925 0.1161487028
0.05688044429 -0.1733210534 0.7690961957 0.4517026246 -0.471440196 0.7467793226
0.07147683948 -0.1729887426 0.7628817558 0.6259015203 -0.4225845933 0.6514484882
0.05318623409 -0.1793603897 0.7713460326 0.3817064762 -0.4960924983 0.7761505842
0.08198978752 -0.1252299994 0.6668396592 0.6731285453 -0.3040908575 0.5414028168
0.08959281445 -0.1181435883 0.6716051102 0.8395442963 -0.1865494251 0.2030850947
-0.01652399637 -0.1840570867 0.7431848645 -0.7531078458 -0.3360403478 0.5582465529
-0.01861628145 -0.1788203716 0.7458181381 -0.7600798011 -0.3582820892 0.5384055972
0.07405858487 -0.1290212721 0.6914654374 0.6785082817 0.544293046 -0.4192591012
0.08375710249 -0.141353637 0.6933783889 0.9180465937 0.2634540498 -0.2540332675
0.08798772097 -0.1239812374 0.6747832894 0.8534860015 -0.1130756736 0.08880418539
0.08559849858 -0.1243138611 0.6823154092 0.79464221 0.1234555691 -0.1076783612
0.08494791389 -0.1375994831 0.6885001659 0.9112941027 0.154608205 -0.1571897864
0.08314925432 -0.1250182539 0.6901505589 0.7379744053 0.3650123775 -0.3089864552
0.08499920368 -0.1310441643 0.6862870455 0.8467160463 0.1660332978 -0.1549520642
0.08233274519 -0.1292001754 0.6939991117 0.7587707043 0.43559286 -0.374903053
-0.02240148187 -0.1769243628 0.7400890589 -0.8020423055 -0.3011763394 0.5157679915
-0.02277403511 -0.1812141091 0.7357037663 -0.8041684628 -0.2886231542 0.5194271207
-0.02052393369 -0.1890091002 0.7338272333 -0.7952595353 -0.2899573743 0.5284554362
-0.01984563656 -0.1879577339 0.7402310967 -0.7845649123 -0.3019707799 0.5410391688
-0.02361698262 -0.2045508176 0.7284989357 -0.7546775937 -0.3541293442 0.5521458387
-0.02469117753 -0.1970126927 0.7265869975 -0.7681916952 -0.3363893032 0.5442399979
-0.01739662513 -0.2019219846 0.7338901758 -0.7274863124 -0.3503042459 0.5887372494
-0.02139718644 -0.1952644289 0.7314989567 -0.769980669 -0.3283757269 0.5469539762
0.003374269232 -0.2125020325 0.74201864 -0.3795731068 -0.5172393918 0.7409544587
-0.002740254859 -0.209711507 0.7399981618 -0.488701582 -0.4648968279 0.6959017515
0.08479367942 -0.0889737457 0.6783559322 0.7684468031 -0.4053272605 0.4548360705
0.07727964222 -0.08785961568 0.6967625022 0.6219078302 0.5491204262 0.4976704717
0.07562274486 -0.08968098462 0.7112970352 0.642365396 0.6387697458 -0.2163404822
0.0800730139 -0.09156966954 0.7073790431 0.7293073535 0.5215526819 0.124873966
0.07672095299 -0.08865696937 0.7026123405 0.6326396465 0.5826882124 0.2143153548
0.005669131875 -0.1370846778 0.6644517183 -0.4202928841 0.5924678445 -0.6856042743
0.0005559226265 -0.1421007067 0.6643854976 -0.4560563862 0.5655676126 -0.6815692186
0.005462656729 -0.1421963274 0.6583930254 -0.3570866883 0.6158755422 -0.7000649571
0.06920210272 -0.08616286516 0.7116296291 0.516043663 0.7485320568 -0.4002380967
0.05890295282 -0.08230363578 0.7105828524 0.1882156879 0.6012006402 -0.7446703315
0.06835126877 -0.08489088714 0.7030967474 0.4264195263 0.6020505428 -0.06379721314
0.0487613529 -0.1790420711 0.7745969296 0.2966161072 -0.5119490623 0.8026341796
0.03887703642 -0.1847138554 0.7731012106 0.1877405196 -0.5407502651 0.816914022
0.04041206837 -0.1776805073 0.7780572772 0.1721993685 -0.5268828273 0.8314983249
0.02003369667 -0.181588769 0.7753300667 -0.1410002261 -0.5814603567 0.7968927026
0.02214068361 -0.1734942645 0.7761977315 -0.10384202 -0.560652256 0.7865738869
0.03288054094 -0.1707306653 0.7748807669 0.09820333868 -0.5411968231 0.7884755731
0.02688518539 -0.1737423539 0.7734947801 -0.02986855991 -0.5495220423 0.778398931
0.01540596224 -0.1765828133 0.7750661969 -0.2446435988 -0.5705125928 0.7770621777
0.0331758894 -0.1751900911 0.7799503803 0.07782445103 -0.5457844734 0.8327206373
0.02720655128 -0.1790209711 0.7773342729 0.0002161877928 -0.5530123711 0.8298326731
0.01497592591 -0.1365034133 0.6597399116 -0.2403357327 0.6309532523 -0.7368770838
0.08472227305 -0.1005628407 0.6697950959 0.7131230235 -0.3389879465 0.6074392796
0.08270449936 -0.1059159562 0.6663425565 0.6534301043 -0.3128537834 0.6839328408
0.08791087568 -0.1093601882 0.6669561267 0.7802516222 -0.3058320284 0.5309672356
0.06249457598 -0.1106846854 0.6726626158 0.4157776833 0.1564141512 -0.01000631414
0.06949382275 -0.1093552858 0.6694076061 0.4842171669 -0.02514086105 0.2994440496
0.05596916378 -0.1123746783 0.6751557589 0.3484460711 0.3237832785 -0.2927167714
0.07753119618 -0.1176158488 0.6644892693 0.5166557431 -0.237362057 0.8180352449
0.08805069327 -0.1216863766 0.6660866141 0.8490146995 -0.3786273301 0.3410000801
0.0835461244 -0.1145900637 0.6648099422 0.6754189134 -0.3027742207 0.6636528969
0.05997304246 -0.1182916835 0.6848993897 0.4194833934 0.6258736253 -0.6401769519
0.0555646196 -0.1154268906 0.6833019853 0.3652966619 0.599390626 -0.708779037
-0.02711382695 -0.1489454657 0.7067173123 -0.7833958268 0.2998540401 -0.3205529451
-0.02456176654 -0.1751523167 0.7328671813 -0.8048813939 -0.2548331022 0.4387777448
-0.02648547478 -0.1533197016 0.7116132379 -0.7824202776 0.2084901035 -0.1823546886
-0.02785705216 -0.1467412114 0.6982569098 -0.7688348293 0.4066653848 -0.489155978
-0.004060158972 -0.08848191053 0.7126323581 -0.5758794546 0.5522190928 -0.601765275
0.001803103485 -0.08483481407 0.7119402289 -0.4934388697 0.5893210769 -0.6351842284
-0.01481579617 -0.1855042577 0.7490932941 -0.7191105485 -0.3704795539 0.5848854184
-0.01108494401 -0.1893011779 0.7503418326 -0.6728288531 -0.4058390558 0.6169353127
-0.007927493192 -0.1950428784 0.7489607334 -0.6468836069 -0.3996155262 0.6478441358
-0.00474712532 -0.1927712113 0.7534433007 -0.5699181557 -0.4650994837 0.6762114167
-0.007932126522 -0.1864860803 0.7552771568 -0.599722445 -0.4711365104 0.6457743645
-0.01627277397 -0.1792475432 0.7514949441 -0.7163679004 -0.3807346523 0.5798293948
-0.01320620999 -0.1769969612 0.7575140595 -0.6656117439 -0.4244451523 0.6129419804
0.0836423859 -0.09280934185 0.703368187 0.8411280513 0.3312793374 0.329559207
0.08667840064 -0.09566823393 0.70909518 0.9060865641 0.3240656853 0.1925416887
0.08424113691 -0.09040924907 0.6926169395 0.8600493073 0.1102172956 0.4332921207
0.08533985168 -0.08855570853 0.684704721 0.8438386321 -0.110571444 0.470384717
0.07913317531 -0.08615391701 0.6895805597 0.6489186287 -0.04426591843 0.5138864517
0.05517181754 -0.0841562748 0.6981399655 0.2766723931 0.2769446671 -0.4081877172
0.07359948009 -0.08359628916 0.6874718666 0.4781439304 -0.4675025046 0.2306681275
0.06715540588 -0.08312387019 0.6922158003 0.396513015 -0.1779925823 -0.02498315088
0.05432362854 -0.07990163565 0.7051218152 0.1958042085 0.4981205463 -0.644143939
0.04266960174 -0.08313614875 0.7032926679 0.156354636 0.6543190479 -0.7380887866
0.07106162608 -0.09069176763 0.7151799202 0.5622860789 0.6239451766 -0.487234205
0.0790803805 -0.1022091955 0.7152289748 0.7321090698 0.3726892471 -0.5566217303
0.07604490221 -0.09749885648 0.7155726552 0.6625145674 0.4756554365 -0.5281863213
0.08223707974 -0.09756415337 0.7207587361 0.6800590754 0.4320054054 -0.5765650272
0.08660370111 -0.09813489765 0.7145575285 0.8849303126 0.3704409599 0.004972449038
0.08715631068 -0.1123688743 0.6863688827 0.8177021742 0.08385445923 -0.08417919278
0.08326785266 -0.118248269 0.6960178018 0.7476893067 0.3202832937 -0.3890753686
0.08927864581 -0.1086284295 0.6822626591 0.8636717796 -0.07104606926 0.06433349848
0.09036513418 -0.1017758474 0.680711627 0.8725445867 -0.1371379495 0.2064826787
0.08679716289 -0.1087361202 0.6922842264 0.8374841809 0.003919824958 -0.1600028276
0.08450168371 -0.1131069437 0.699757874 0.8147491813 0.09454946965 -0.3947226405
0.08944030106 -0.0965507403 0.6957444549 0.9016212225 0.1048386469 0.2592796087
0.08580611646 -0.1060835943 0.7022610307 0.8473073244 0.1542903334 -0.1737413853
0.0830052495 -0.1139452159 0.7060568333 0.8009578586 0.1701142788 -0.5209484696
0.08751653135 -0.102655068 0.6966722012 0.8636394739 0.08519116044 0.002350372961
0.08667757362 -0.1016424298 0.7058353424 0.8791335225 0.2357756048 -0.01346590836
0.08840476722 -0.1033021584 0.6879838109 0.8509432077 -0.055830881 0.0302259475
0.08283650875 -0.1356858611 0.6963721514 0.8814992905 0.2654536664 -0.3399224877
0.07825168222 -0.1227217838 0.6977238655 0.7171782851 0.4203982055 -0.5099545121
0.08284500986 -0.1274873912 0.7001642585 0.8344417214 0.25529176 -0.437014997
0.08269163966 -0.1209347397 0.7038709521 0.8152348995 0.2018738389 -0.5176898241
0.04452827573 -0.18398799 0.7721342444 0.2847118974 -0.5338603854 0.7956753373
0.002226484008 -0.1895010322 0.7614191175 -0.4529126585 -0.5222767591 0.7165379524
0.004244630225 -0.1855159402 0.7661998868 -0.4177258909 -0.5491152406 0.7235758901
0.01940582879 -0.1862424612 0.7710056305 -0.1665962934 -0.5850519538 0.7887217999
0.00071828824 -0.1747138202 0.7715911865 -0.4062951207 -0.5516662598 0.7260383368
0.0473421663 -0.09976147115 0.6915228367 0.2777314782 0.5830246806 -0.7631160021
0.04871127382 -0.09540472925 0.6956385374 0.2704603672 0.5756835341 -0.7707558274
0.05942931026 -0.0903532654 0.6896861792 0.3679016531 0.043439392 -0.2644894719
0.0654399395 -0.08761956543 0.6883992553 0.4168275297 -0.1834232807 -0.0475349389
0.05469783023 -0.08929668367 0.6926115155 0.3134990335 0.2074832022 -0.3952190578
0.04942391813 -0.09577930719 0.6871922612 0.245119065 0.3096942902 -0.4999630451
0.04278144613 -0.09451953322 0.6936007738 0.1968820393 0.6092730761 -0.767126143
0.0602770187 -0.1108151525 0.6902073026 0.4767646492 0.5568835139 -0.6799122691
0.06527926773 -0.1110559478 0.6938308477 0.490999192 0.5031807423 -0.7092426419
-0.02289577015 -0.1073881015 0.7231241465 -0.7188307643 0.4214017689 -0.5520367622
-0.02243522555 -0.1004157513 0.7278782725 -0.6875511408 0.4412173927 -0.5750306845
0.0122207664 -0.1304372251 0.6682146192 -0.311686486 0.6344845891 -0.6999322176
0.03463666886 -0.122647129 0.6708034873 0.07172200084 0.6357663274 -0.7678341866
0.0305088684 -0.126084432 0.6679643393 0.006453793496 0.6517233849 -0.7530155182
0.02134122513 -0.1311656237 0.6644281745 -0.1414545625 0.6635624766 -0.7297539115
0.0232060235 -0.125915274 0.6685041189 -0.1226018444 0.6554216146 -0.7424951196
0.02828941122 -0.11625956 0.6763406396 -0.03433558345 0.6257539392 -0.7760646343
0.03355996683 -0.1174703017 0.6752488613 0.04492713511 0.6161057353 -0.7842702866
0.01757494733 -0.119105041 0.6758676171 -0.2159847021 0.6236978173 -0.7484499216
0.02331348322 -0.1191652119 0.6746245027 -0.1180953234 0.6345825791 -0.7612994909
-0.01456956565 -0.2102134526 0.7387800813 -0.614908576 -0.4504974782 0.6373074651
-0.01543026324 -0.1912448406 0.7435126305 -0.7233265638 -0.3376191854 0.5989153981
-0.01393161248 -0.2028931528 0.7409646511 -0.6524886489 -0.4072132409 0.6277720928
-0.01143442933 -0.1981721073 0.7447684407 -0.6592917442 -0.3896321654 0.639234364
-0.01550455485 -0.1978059113 0.7375956178 -0.7305611968 -0.3471365273 0.5786820054
0.04112818092 -0.07847347856 0.7069821358 0.1147525311 0.6826708317 -0.718526721
0.04893722758 -0.07960011065 0.7080454826 0.1609430015 0.6447635293 -0.7462264299
0.0478349328 -0.08436676115 0.7047642469 0.1747405976 0.6470121741 -0.7414729595
0.0604464747 -0.0806972459 0.7005710006 0.2801046371 0.2525395453 -0.3820059299
0.06590039283 -0.08274437487 0.6983420849 0.3850859404 0.3320065141 -0.06395408511
0.07133685797 -0.08497010916 0.696470201 0.4940562844 0.4614950418 0.2652823031
0.08090743423 -0.09407614172 0.7152523994 0.7213944793 0.5062096715 -0.2698269486
0.08366497606 -0.1047312021 0.7195350528 0.759090662 0.3196910918 -0.5646309257
0.05227798596 -0.08911200613 0.7027302384 0.2436578274 0.587469101 -0.7714903355
0.06481114775 -0.1733063012 0.7605742812 0.5743479729 -0.4387227595 0.668495059
0.05993570015 -0.1713937968 0.7648088932 0.5039892197 -0.4638184905 0.7093734741
0.05873991922 -0.1800782531 0.7664223909 0.4758815467 -0.4812586904 0.7257730961
0.01049289666 -0.1795761585 0.7753577232 -0.2783869803 -0.5733237267 0.7695736885
0.007614444476 -0.1810119748 0.7705549002 -0.3532482386 -0.5523580909 0.7546613812
0.005364695564 -0.1766693145 0.7748273015 -0.3422321677 -0.5633425117 0.7481913567
-0.003450886579 -0.1835142374 0.7627919912 -0.5429620743 -0.5115634799 0.6655577421
-0.008884087205 -0.1779185236 0.761022687 -0.6146475077 -0.4527587891 0.64489609
-0.002412501723 -0.1789537668 0.7660237551 -0.507733345 -0.5134037137 0.6869148612
-0.01837214082 -0.1418785155 0.6853912473 -0.7268044353 0.4303904176 -0.5342410803
-0.02419903874 -0.1423701346 0.6966679692 -0.7574276328 0.432033807 -0.4893444479
-0.02114226855 -0.1394307017 0.6910948157 -0.7437002063 0.4339835346 -0.5076206923
0.0100629637 -0.139962092 0.6631931067 -0.3125611544 0.6171556711 -0.6971150637
0.02391247824 -0.1356461495 0.6600153446 -0.0785991624 0.6561546326 -0.7464240193
0.0193154756 -0.1400737613 0.6553009152 -0.1496734321 0.6404631138 -0.7497937083
0.04020309448 -0.09054151922 0.6969066262 0.1450193971 0.6267558932 -0.7627013326
0.04648494348 -0.0904347226 0.6999120116 0.222383678 0.6018769741 -0.7637387514
0.03758482262 -0.08609829098 0.7009103894 0.08858055621 0.651442349 -0.7484930754
0.01024786849 -0.08793279529 0.7039185166 -0.3784077764 0.5990312099 -0.699213326
0.05327303708 -0.1043571606 0.6910228133 0.3584443629 0.5708760619 -0.7361140251
0.08363715559 -0.09359045327 0.6748846173 0.6829714179 -0.4387530386 0.5474916101
0.05293635279 -0.1099050939 0.6865202188 0.372777611 0.5713159442 -0.7259179354
0.05610945076 -0.0971481055 0.6881998777 0.3538361192 0.2377306223 -0.4376235008
0.05084687844 -0.1045415998 0.6833410859 0.3010458946 0.4149864912 -0.517401576
0.06009583548 -0.1013339236 0.6807134151 0.3858101964 0.1188250259 -0.1642743945
0.07334004343 -0.08957313001 0.6826446056 0.4933666587 -0.4354858994 0.248258248
0.06687293202 -0.1053408682 0.6737376451 0.4601813853 0.01731375232 0.1770839393
0.07873760164 -0.08535923064 0.6829715967 0.5383172035 -0.6508691907 0.4239071608
0.07167033106 -0.09736138582 0.6773918867 0.4919678271 -0.2510454357 0.2781839669
0.06652911752 -0.09252838045 0.6841084361 0.4320901632 -0.2066171169 -0.004077535123
0.06644258648 -0.1007739305 0.677606523 0.4471416473 -0.05458851159 0.09937102348
0.07218772173 -0.1019610837 0.6734483242 0.5059266686 -0.1807867289 0.3600381315
0.07685898244 -0.09442130476 0.6768238544 0.5373207927 -0.437913388 0.4614674151
0.06049040332 -0.1065243408 0.6764817238 0.3993849456 0.1976842731 -0.08722411096
0.04685305059 -0.1095396951 0.6827494502 0.2682018578 0.5547029972 -0.6965424418
0.05174578354 -0.1108543873 0.6793181896 0.3178652525 0.4362255931 -0.4932012856
-0.02090548724 -0.1244324967 0.7084982395 -0.7631131411 0.4181364179 -0.4926139414
-0.01247618534 -0.117649138 0.7017126679 -0.7082018256 0.4672852159 -0.5253898501
-0.01880012453 -0.1289305985 0.7031921744 -0.7663276196 0.4354425669 -0.4719926119
-0.0190326497 -0.1015709341 0.7226391435 -0.6884646416 0.4469693601 -0.5688703656
-0.01393233612 -0.09779263288 0.7168426514 -0.6611848474 0.4676431417 -0.5860772729
-0.01668626256 -0.09488327056 0.7232572436 -0.6609838605 0.4654452205 -0.5885152221
0.04018943384 -0.1206005439 0.6738190055 0.1466174275 0.6212138534 -0.7654660344
0.06836461276 -0.1175435483 0.6663383245 0.4383639097 -0.009803511202 0.3417463303
0.07752830535 -0.1114208549 0.6648975611 0.5451326966 -0.2461300343 0.7105411291
0.06054039672 -0.1151695177 0.6700482368 0.3852995038 0.2165196091 -0.08441454917
0.05213544518 -0.1180892885 0.6725984216 0.2961576581 0.4333316684 -0.445677042
0.006514513865 -0.1314888149 0.6679346561 -0.3938885629 0.5954127312 -0.6984902024
0.01066831313 -0.1338218153 0.6627820134 -0.312566638 0.6257384419 -0.7139772177
0.007334759925 -0.1270748377 0.6731801629 -0.388844341 0.5976739526 -0.6969190836
0.01464590058 -0.1257796288 0.6708413959 -0.2707845867 0.6385039687 -0.7188619375
0.03842775896 -0.1338802576 0.6616175175 0.1402725726 0.6403406262 -0.7529316545
0.04530137777 -0.1347612292 0.663664639 0.2290752381 0.6097716689 -0.7565445304
0.03304197267 -0.1317386925 0.6629462242 0.06360533834 0.656539917 -0.7486881018
0.02676829882 -0.1307537258 0.6633044481 -0.04572587833 0.6600962281 -0.7467552423
0.03011828102 -0.1353469193 0.659539938 0.0222806409 0.6514822841 -0.7541632056
0.004645997193 -0.1229413673 0.6787317991 -0.433077693 0.5757794976 -0.6870214939
-0.005328392144 -0.2011971921 0.7472865582 -0.5759629011 -0.4448460042 0.6811064482
-0.008607177995 -0.2124339491 0.7428112626 -0.5415362716 -0.4922982454 0.6808418632
-0.00583322905 -0.2082243115 0.7457122207 -0.5314112306 -0.4819810987 0.6957887411
-0.001032133703 -0.1980014294 0.7524819374 -0.5082676411 -0.4786452055 0.7117152214
-0.002800555667 -0.1887093037 0.7578383088 -0.523645699 -0.4976585209 0.6837100983
0.04712409154 -0.1806175113 0.7675538659 0.3409892619 -0.534822464 0.7717474103
0.04246513546 -0.1891032308 0.7677001357 0.2527063191 -0.5566360354 0.7860118747
0.02090714313 -0.07920241356 0.7063398957 -0.1936415583 0.6624250412 -0.7214764357
0.01516031008 -0.0849570781 0.7041754127 -0.2778594494 0.620578289 -0.7327269316
0.01308364887 -0.08079015464 0.709050715 -0.3055271506 0.6343094707 -0.7091306448
0.03375980631 -0.07831633836 0.7066358924 0.01316250954 0.7085057497 -0.7042145133
0.02545825951 -0.08200442046 0.7036944032 -0.1093860194 0.6783770919 -0.7251332402
0.03122435883 -0.08370152861 0.7021979094 -0.0134475138 0.6719703674 -0.7360593081
0.08398289233 -0.1090920269 0.709700942 0.8388856649 0.2202879637 -0.3681279123
0.06906449795 -0.1194719896 0.6918244958 0.5587800145 0.5750160217 -0.5766305923
0.0629273653 -0.08590168506 0.7099574804 0.3363229334 0.6419528127 -0.6591486335
-0.01461517531 -0.1440861374 0.6786795259 -0.7067092657 0.4310392141 -0.5609232187
-0.01423946209 -0.1374231875 0.6829031706 -0.6966730356 0.4496453404 -0.5583804846
-0.02195805684 -0.1460938752 0.6856005192 -0.7307428122 0.4163082838 -0.5409548283
-0.02413027175 -0.1289421171 0.7059803009 -0.7652864456 0.4258806705 -0.4820638001
-0.02402361855 -0.1366123855 0.6990426779 -0.7597976327 0.4357680082 -0.4820964038
-0.02727849782 -0.1394275129 0.7030846477 -0.7695478201 0.4282549918 -0.4734619856
-0.02976852469 -0.1326732785 0.7100868225 -0.7795350552 0.4145486951 -0.4694109857
-0.02607239224 -0.1552209705 0.7232030034 -0.7919181585 0.05004983395 0.03220297024
-0.02537436411 -0.1684300303 0.7305447459 -0.7979015112 -0.1562789679 0.3161273897
-0.02529330365 -0.1617850959 0.7261758447 -0.7940716743 -0.04572086781 0.1650083214
-0.02613797225 -0.1496569067 0.7199892998 -0.7892496586 0.1375267655 -0.08795719594
-0.0269734282 -0.1380486339 0.7134693861 -0.7839108109 0.3206708729 -0.3399323523
-0.02656458132 -0.144121334 0.7162547708 -0.7859477401 0.23296161 -0.2184113264
-0.02980147488 -0.1436897814 0.7082318068 -0.773945868 0.3580486476 -0.3966865838
-0.02779927664 -0.1555554271 0.7179737687 -0.7839941382 0.1247453317 -0.07380606234
0.04405650496 -0.1047199965 0.6868050098 0.2271942943 0.5936216116 -0.7685153484
0.02785147727 -0.09702857584 0.691675663 -0.07432202995 0.6053216457 -0.7884274125
0.0365476124 -0.104183577 0.6863715649 0.08129137754 0.6026828885 -0.7896379232
0.03832927719 -0.09852235764 0.6905832291 0.1126626953 0.6084610224 -0.7786818743
0.004398817196 -0.08912955225 0.7056325078 -0.4785328209 0.5782257915 -0.6600643396
-0.004575441591 -0.09470933676 0.7087920904 -0.5855811834 0.5276246667 -0.6126554608
0.01586975157 -0.09392252564 0.6963463426 -0.2701191902 0.6101374626 -0.7442949414
0.02210517041 -0.08933582902 0.6979977489 -0.1700538248 0.6316006184 -0.7531856894
0.02851474471 -0.09136300534 0.6959874034 -0.05643987283 0.6245891452 -0.7740867734
0.03438483179 -0.08999088407 0.6967796087 0.04764698073 0.6356796622 -0.7692169547
-0.01071805228 -0.1114604846 0.7021331787 -0.6856863499 0.4760662019 -0.5501360297
0.01039109658 -0.1126615927 0.6832031608 -0.3367600739 0.6007155776 -0.7216079831
0.00460373424 -0.1124984175 0.6865679622 -0.439149648 0.5835077167 -0.6762381792
-0.02433539368 -0.118221201 0.7168393731 -0.7474990487 0.4113433659 -0.5209999681
-0.02813315205 -0.1269840449 0.7136038542 -0.7670260072 0.4130566716 -0.4895819426
0.03973716497 -0.1153799519 0.6778416634 0.1430672556 0.6099758148 -0.7759309411
0.03909046948 -0.1105902642 0.6818750501 0.1412983537 0.604667604 -0.7783674598
0.03208754212 -0.1122563034 0.6796470881 0.026647605 0.619146347 -0.7805885077
0.02563658357 -0.1119802147 0.680110395 -0.09722547233 0.6232312918 -0.774197042
0.04368766025 -0.1297031194 0.6684218049 0.2037139833 0.627063036 -0.7455562353
0.03701253608 -0.128550902 0.6662721038 0.1146689653 0.6488320827 -0.749102354
-0.009230472147 -0.1415830404 0.6750310659 -0.6263621449 0.4885588586 -0.6034114361
-0.004378164653 -0.1376326978 0.672608614 -0.5584834218 0.5282902122 -0.6386340857
-0.004440172575 -0.1425011009 0.6696084738 -0.5393702984 0.5358621478 -0.6484426856
0.001980755478 -0.1341433227 0.6712070107 -0.4671708345 0.5808643699 -0.6641158462
-0.01979279146 -0.1315737069 0.697070837 -0.7487456203 0.4432314932 -0.49270913
-0.004868655 -0.1056712717 0.7002622485 -0.5843818784 0.5221284032 -0.6185394526
0.001020334428 -0.1088817194 0.6917750239 -0.4912191927 0.5730646253 -0.6532098651
0.05727239326 -0.1440064907 0.6608917713 0.3126122355 0.3025000989 -0.8521407247
0.06336888671 -0.1405915618 0.6621134877 0.2350253761 0.3198393583 -0.3589008152
0.07154043019 -0.1350505799 0.6649025083 0.1649232656 0.2342520207 0.4061619639
0.06000794098 -0.1340771914 0.6600123048 0.330694139 0.2461014986 -0.3436796665
0.0548661612 -0.1387012303 0.6590989232 0.2716302276 0.4044216573 -0.6449945569
0.06609075516 -0.1314320266 0.6619355679 0.3988208473 0.08198133111 0.03721116111
0.07596088201 -0.1240071133 0.6664530635 0.487380147 -0.1183863133 0.8388594389
0.02781032026 -0.1403297037 0.6549445987 -0.01707408763 0.6445198655 -0.7603737116
0.03463847563 -0.1397785395 0.6561619043 0.09915985167 0.6357984543 -0.7639705539
-0.00411002757 -0.1326280236 0.6766264439 -0.5558606386 0.520825386 -0.6444943547
0.0126032168 -0.1220693514 0.6745682955 -0.298086226 0.6194771528 -0.7245048881
0.009797610343 -0.1176804528 0.6790164113 -0.3376939595 0.598596096 -0.7243062854
0.004733902868 -0.1164671704 0.6826092601 -0.4201003909 0.5808877945 -0.6962454319
0.0008291992708 -0.2096516192 0.7470691204 -0.4412141144 -0.5050761104 0.7383267879
0.0002002376423 -0.2041228414 0.7493284941 -0.4731430709 -0.4828203022 0.7334398031
0.03883737698 -0.2189467698 0.7475689054 0.1533173025 -0.5657904148 0.8011561036
0.03350258991 -0.2208048701 0.7442975044 0.09455343336 -0.5600149035 0.7944539785
0.02066744678 -0.2209635526 0.7411302328 -0.08993173391 -0.5631188154 0.802539289
0.02740717493 -0.2210077643 0.7431871891 0.002010247437 -0.5650542974 0.798996985
0.005679725669 -0.195014134 0.7595978975 -0.3933720291 -0.5309764147 0.7480893135
0.0107743172 -0.1971909553 0.7611407638 -0.3138228357 -0.5374512672 0.7754714489
0.01545159332 -0.1905646473 0.7669398785 -0.2271845043 -0.5813335776 0.7796709538
0.02113199234 -0.1920859069 0.7663760781 -0.1374934614 -0.5799312592 0.7999516129
0.05561173335 -0.1861869097 0.76471591 0.4468383491 -0.5087399483 0.7290340662
0.05128638819 -0.1848285347 0.7689625025 0.3671884835 -0.5213612914 0.7681331635
0.05010183901 -0.1907306761 0.764030993 0.3912644982 -0.5461800098 0.737452507
0.03066762164 -0.1921424866 0.7668700218 0.0303789787 -0.5873832107 0.802580595
0.03275249153 -0.188395232 0.7708961368 0.08122488111 -0.5567015409 0.8214589953
0.08857572079 -0.16893062 0.7006271482 0.9562894106 0.1380835325 0.03334534168
0.08668625355 -0.1757541299 0.7233973145 0.865372479 -0.2404024899 0.3527941704
0.0851053521 -0.1531752497 0.7003743649 0.9242177606 0.1456502825 -0.09288089722
0.08547496796 -0.1620011479 0.7110326886 0.8935434222 -0.03272121772 0.1007127687
0.08427660912 -0.1467705369 0.6963840723 0.9291605353 0.2130953819 -0.1896177828
0.09027381241 -0.1795496643 0.705078721 0.9581048489 0.06209683791 0.1684453487
0.08712062985 -0.1671017259 0.7076265216 0.92005831 0.02258243971 0.1008207798
0.08707481623 -0.1626600921 0.701326251 0.9398264885 0.1278537512 -0.007547518704
0.08704550564 -0.1735198349 0.7176743746 0.887127459 -0.1451643705 0.268442452
0.08857687563 -0.1763751358 0.7116920948 0.9208198786 -0.04672452807 0.2208823115
0.08664853126 -0.1601096392 0.6960994005 0.9511036873 0.1774554849 -0.1072464809
0.08448848128 -0.1612211615 0.6881793737 0.9479370713 0.09815494716 -0.2957682014
0.0850314647 -0.1573978513 0.7071142793 0.9018942118 0.03284750879 0.01876215823
0.08577215672 -0.1670801491 0.7138909698 0.8862796426 -0.104878962 0.1620264798
0.08757039905 -0.1744268835 0.6968973279 0.9630014896 0.09566200525 -0.02719271556
0.08602348715 -0.1684243083 0.6926703453 0.9558557272 0.09404660761 -0.1564467698
0.09151720256 -0.1853826791 0.7037376761 0.9742184281 0.07133361697 0.1983578503
0.0889787674 -0.18246378 0.716463685 0.9093575478 -0.137990728 0.3242222369
0.0874280706 -0.1845460385 0.7087597847 0.950350225 -0.01681780443 0.2357226014
0.08532493562 -0.1748511642 0.7038259506 0.9280306101 -0.08270714432 0.05136322603
0.07905971259 -0.2008325756 0.7262999415 0.8170338273 -0.3730075359 0.4386690557
0.07011325657 -0.190421313 0.7468000054 0.7081145644 -0.4216364622 0.564524591
0.07492685318 -0.1908748895 0.7402052879 0.7743525505 -0.3727487624 0.5087433457
0.0545623973 -0.1766160876 0.7645689845 0.4532128572 -0.4893405437 0.7368013263
0.07026577741 -0.113045007 0.6972163916 0.6074303389 0.3640683889 -0.666654706
0.07361464947 -0.1183654815 0.6971096396 0.6726621985 0.3795738518 -0.5713765621
0.07778565586 -0.1152042001 0.7029319406 0.7646496296 0.1803416014 -0.6056024432
0.07246023417 -0.09876850247 0.7096524239 0.5480397344 0.4038746655 -0.6597042084
0.06188187003 -0.09097840637 0.7054305673 0.2857281864 0.5502265692 -0.7795878649
0.06209554523 -0.1814552397 0.7588544488 0.5560474396 -0.4599104822 0.6828957796
0.07047801465 -0.1813218594 0.7538961172 0.659570694 -0.4411697388 0.6079748869
0.06930217147 -0.1778052449 0.7606175542 0.6180688739 -0.4325103462 0.6551926136
0.007838705555 -0.09961873293 0.6961940527 -0.4130526483 0.5884999037 -0.6936070323
0.01026558224 -0.1044213027 0.6904867887 -0.3556337357 0.5989502072 -0.715993762
0.02170767263 -0.09795031697 0.6907295585 -0.1768288761 0.6151209474 -0.7640290856
0.01520657167 -0.1001854464 0.6922684312 -0.2810374796 0.6035339832 -0.7420772314
-0.008367204107 -0.1016835943 0.7081330419 -0.6501052976 0.4811765552 -0.5870632529
-0.002108390676 -0.1001866087 0.7029992342 -0.5632057786 0.531901598 -0.6283267736
0.0009886205662 -0.1023639888 0.6985086799 -0.5108297467 0.5555402637 -0.6528984308
0.00339051825 -0.09586846828 0.7018480301 -0.4707859755 0.5697369576 -0.6723811626
-0.01596858539 -0.1135778651 0.7075975537 -0.7304309011 0.4243109524 -0.5348690748
-0.01261489373 -0.1091915295 0.7070185542 -0.702506423 0.4495974481 -0.5512143373
-0.0182532426 -0.1192754805 0.7063114643 -0.7453126907 0.4264782369 -0.5119504333
-0.02105977945 -0.1194027439 0.7122315168 -0.7514515519 0.4163424373 -0.5116965771
-0.01780249737 -0.1074957401 0.7141126394 -0.7189563513 0.4234127104 -0.5507956743
-0.021019198 -0.1110205799 0.7186277509 -0.7279971242 0.4193831682 -0.5420174599
-0.01972336881 -0.1129857674 0.7128184438 -0.7367572188 0.4124182761 -0.5356855989
0.05521965772 -0.1216430813 0.6691078544 0.3134888411 0.3473179638 -0.2641320229
0.04612789676 -0.1237043366 0.6720522046 0.230516538 0.6050965786 -0.7061764598
0.06225538254 -0.1200084016 0.6668975949 0.3778492808 0.1485181153 0.07659632713
0.04930850491 -0.1296587288 0.670689404 0.2715670764 0.6148284078 -0.7400112748
0.05285233632 -0.1237530559 0.6754071712 0.2543874681 0.6481833458 -0.7168857455
0.05571423098 -0.1205696687 0.6795411706 0.2861320674 0.6766253114 -0.6750378609
0.08214220405 -0.1571628898 0.683788538 0.8590973616 0.05355864763 -0.449673146
0.08130710572 -0.135254249 0.6694357395 0.1771900803 0.2220815867 0.6280261874
0.07807030529 -0.1481952667 0.6754971743 0.5824846029 0.02401871048 -0.4221995473
0.07707883418 -0.13792108 0.6872169375 0.7673527598 0.3866563737 -0.4430228174
0.04636932164 -0.1385573298 0.6588768363 0.2097866386 0.596596837 -0.774538815
0.05390398577 -0.1317865998 0.6615937352 0.277349472 0.4182050526 -0.4329560101
0.07153010368 -0.120738849 0.6626933217 0.4516181946 -0.0787665844 0.4390782714
0.06569984555 -0.1245574728 0.6622542739 0.3927397132 0.08772820234 0.1452024728
0.04847150296 -0.1291049868 0.6644742489 0.2453397512 0.5098876953 -0.5454440713
0.05646742508 -0.125963226 0.6639056206 0.3221203387 0.3002886176 -0.1896734685
0.0514764674 -0.1369342208 0.6645648479 0.2604389489 0.5342913866 -0.7975282669
0.05041509494 -0.1433873922 0.6572991014 0.244110778 0.4828377068 -0.8309226036
0.07584633678 -0.1306164414 0.667753756 0.1843177527 0.04626876488 0.9417346716
0.007209144067 -0.2003528178 0.7557752728 -0.3572098911 -0.5324273705 0.7618803978
0.01343172602 -0.2127103359 0.7474696636 -0.2210210562 -0.5560677648 0.7993094325
0.007054301444 -0.2123295516 0.7487843633 -0.339055419 -0.5280207992 0.7764561176
0.006568003912 -0.2052947581 0.7520920634 -0.3674776554 -0.5218666196 0.7680603266
0.04826644063 -0.2070733905 0.7508211136 0.339810133 -0.5318105221 0.7738121152
0.01936423033 -0.2165042311 0.7464832664 -0.1252617687 -0.5651624799 0.8129187226
0.05129554495 -0.20069094 0.7549757957 0.4037868381 -0.5303084254 0.7441633344
0.05174860731 -0.2116460353 0.7482415438 0.3874075413 -0.5249599814 0.7534025311
0.04508355632 -0.2055658847 0.7551105618 0.2981204093 -0.5253608227 0.796905756
0.05392795429 -0.2169796973 0.7440298796 0.4141341746 -0.531667769 0.7240036726
0.04817991331 -0.219952181 0.7459131479 0.3125683665 -0.5481655002 0.7643498778
0.0602456741 -0.214987874 0.7403287292 0.5199550986 -0.5031911135 0.6712640524
0.04449024796 -0.1993020624 0.7587144971 0.295940727 -0.559989512 0.7638404369
0.04174730927 -0.1952777058 0.7633635402 0.2389838994 -0.5831766725 0.7706032395
0.08667751402 -0.191824168 0.7135135531 0.9139276147 -0.2175363898 0.3281661868
0.08308707178 -0.1991440505 0.7193383574 0.8517045975 -0.3348849118 0.3971942663
0.08233813941 -0.1927227974 0.720910728 0.8777610064 -0.2854640484 0.3767983913
0.09007520229 -0.1918473095 0.707185626 0.9520431757 -0.07854754478 0.2842695117
0.07689685374 -0.1927965134 0.7342697382 0.8002259731 -0.3598118722 0.4782587886
0.08015483618 -0.1945199817 0.7278840542 0.8199046254 -0.351534605 0.4490460455
0.08472561836 -0.1787846982 0.7306589484 0.8509501219 -0.317966342 0.4177513719
0.0815814957 -0.1851278991 0.7314985991 0.8426704407 -0.3230506778 0.4306613505
0.08417449147 -0.1880475283 0.7255725265 0.8470290899 -0.3246507049 0.4204126596
0.08661153167 -0.1832849979 0.7219936252 0.8801960349 -0.2705724239 0.3848890662
0.08643497527 -0.1886248142 0.7196494341 0.8803384304 -0.2802052498 0.3783932328
0.07262039185 -0.2007403672 0.7354801893 0.7207737565 -0.412019074 0.5439125299
0.07476212829 -0.2044437528 0.731264472 0.767550528 -0.3890616596 0.5066375732
0.07260140777 -0.2104662657 0.732467711 0.7195263505 -0.4354243279 0.5404494405
0.06847651303 -0.211353749 0.7359939814 0.6503975987 -0.466779381 0.5959217548
0.06983540952 -0.2057270408 0.737318635 0.6678715348 -0.4447245598 0.5924598575
0.07222649455 -0.1844899058 0.7478761077 0.7165790796 -0.415545851 0.5572462678
0.07629866898 -0.1848222017 0.7423601747 0.7630475163 -0.3935149014 0.5094993114
0.07860720158 -0.1862235516 0.7371151447 0.8105843067 -0.351749599 0.4676622748
0.07872699201 -0.1800081432 0.7407063246 0.7885729074 -0.3705765605 0.4898266196
0.07473763824 -0.1778875589 0.7505943179 0.7184703946 -0.3952313662 0.5700613856
0.07225708663 -0.1962320954 0.7390145063 0.7311822772 -0.3983570933 0.5442573428
0.06780803949 -0.2019644529 0.7423104048 0.6447290778 -0.4531935155 0.61510849
0.05394063517 -0.1923195273 0.7596131563 0.4370471537 -0.5214259028 0.7315722108
0.06815692782 -0.1007176489 0.7039172649 0.4702662528 0.3705172241 -0.7739092112
0.07362739742 -0.1048700362 0.7056535482 0.6864871383 0.2513700724 -0.6701424718
0.05613620952 -0.09488081932 0.7002158761 0.2675357759 0.5537381172 -0.7862411737
0.06014524773 -0.1026062593 0.6966560483 0.4012306333 0.4977963865 -0.763461113
0.06190351397 -0.09723690152 0.7020237446 0.338781327 0.456254065 -0.8055507541
0.07369510084 -0.1109410599 0.7022411227 0.6865309477 0.2167412341 -0.6678289175
0.06874356419 -0.1056995094 0.7011646628 0.5631501079 0.3232120872 -0.7413098812
0.01592655852 -0.1056340411 0.6865316629 -0.2664979398 0.6001849174 -0.7527365088
0.02561318316 -0.1062412784 0.6844637394 -0.1016425565 0.617333591 -0.7792978287
0.0329659842 -0.1079446375 0.683180213 0.02535322309 0.6108170748 -0.7879727483
0.030597765 -0.1016291231 0.6863812804 -0.02181397751 0.6194529533 -0.7797228098
0.07221120596 -0.1477995962 0.6723459363 0.5351186991 0.01226128545 -0.7197387218
0.07118804008 -0.1408530027 0.6682094336 0.3214585483 0.1434263438 -0.2919645011
0.07850519568 -0.1403111666 0.6709418893 0.322563231 0.1335369647 0.1292703003
0.07903043181 -0.1470843256 0.6818782091 0.8088148832 0.228439793 -0.5335683227
0.08414913714 -0.1552338749 0.6896332502 0.9429607391 0.1468095332 -0.2875766456
0.08212508261 -0.1502672583 0.6860474944 0.9262720346 0.1550697982 -0.3288196027
0.08411627263 -0.1396738887 0.6833276153 0.9245765209 0.07568713278 -0.1581436843
0.08247609437 -0.1444804966 0.6876507998 0.9340336919 0.1841029376 -0.2735013068
0.08563315123 -0.1347405314 0.6771262884 0.9143537879 -0.06146479771 -0.03530609608
0.08658938855 -0.1409908235 0.6772577763 0.8980372548 -0.07975760847 -0.1392158717
0.0884410888 -0.1274926215 0.6690735221 0.7751053572 -0.1973690838 0.2758675814
0.0850148946 -0.1460770816 0.6792041063 0.7841277719 0.04758521542 -0.1228577122
0.02458828501 -0.2127609998 0.7523295283 -0.06413339078 -0.5671679974 0.8207553625
0.01823556796 -0.212823838 0.7516307235 -0.1682992429 -0.5589160323 0.810469985
0.03269984201 -0.2102813721 0.7535837889 0.08139741421 -0.5392768383 0.8349830508
0.02794828638 -0.2080889493 0.7562373877 -0.02309206314 -0.5491297245 0.831982553
0.03644311056 -0.215692699 0.7525067329 0.09431720525 -0.5695058703 0.8142015338
0.03224400431 -0.2208520323 0.7498697639 0.02075318061 -0.5796332955 0.8090854287
0.02446220443 -0.2208970636 0.7492223978 -0.08098948002 -0.5689902306 0.8181213737
0.03022279777 -0.2158780545 0.7524084449 -0.003692252794 -0.5684975386 0.8178384304
0.04427112266 -0.2146799862 0.7481675148 0.285640806 -0.5434200168 0.7852528095
0.04227846488 -0.2113366127 0.754899323 0.2307649702 -0.5640925169 0.7910436988
0.03983877227 -0.2062180787 0.7578089833 0.1925721765 -0.548071146 0.8109052181
0.03888540342 -0.2009491026 0.7610795498 0.1966690868 -0.550398767 0.8090212941
0.04823806509 -0.1955910921 0.7616732121 0.3548142612 -0.5533803701 0.7471348047
0.03655229881 -0.1931318641 0.7661896348 0.1412646025 -0.5818672776 0.7988491058
0.05839230865 -0.2018303275 0.7493094206 0.511032939 -0.4829075634 0.7019044757
0.0611489974 -0.2051032633 0.7453994155 0.5445644855 -0.4901848733 0.6765068769
0.05437022075 -0.2057811916 0.7497577071 0.4409555495 -0.5068112016 0.7405440211
0.0570098348 -0.2111681104 0.7446276546 0.476418376 -0.5114269257 0.7132538557
0.06457019597 -0.2088006288 0.7402521968 0.5869248509 -0.4809686244 0.6459658146
0.06463905424 -0.1979127526 0.7481070757 0.605404973 -0.4714168012 0.6397003531
0.05668605119 -0.1966827065 0.7552545071 0.4576755464 -0.5208314061 0.7198341489
0.06528442353 -0.1863500178 0.7556426525 0.6023060083 -0.4494071901 0.6595206261
0.06211658567 -0.1907156855 0.7551056147 0.5618366599 -0.4843156934 0.6683089733
0.05857694522 -0.186984092 0.7601504326 0.5121218562 -0.4869665802 0.7035662532
-0.005861747079 -0.1257288456 0.6838861108 -0.5668081045 0.5164694786 -0.6390103698
-0.01293898374 -0.1309162676 0.6904963255 -0.6950858831 0.4614695311 -0.5424236655
-0.01649843715 -0.1344900578 0.6883574128 -0.7295543551 0.4478482306 -0.515181005
-0.009875524789 -0.1324691623 0.681740284 -0.6587466002 0.4731102884 -0.5841860771
-0.004857156426 -0.1137730777 0.6924383044 -0.605143249 0.534352839 -0.5886077285
0.07330965996 -0.1426927894 0.6779379249 0.6320571303 0.1167621687 -0.7255573273
0.07461104542 -0.1390181929 0.6824996471 0.6925680637 0.3129566908 -0.5800254345
0.06606380641 -0.142435059 0.6709008217 0.4279738665 0.1420078129 -0.8761242628
0.06127331033 -0.1380985379 0.6707538366 0.3575337827 0.3308377564 -0.8263147473
0.05525098741 -0.1301509142 0.6718207002 0.2524547577 0.6181218624 -0.743678689
0.05770141259 -0.126105234 0.6765059233 0.2803876102 0.6671642065 -0.6838357449
0.0680417344 -0.1262078136 0.6867139339 0.5315636396 0.6252641678 -0.5298259258
0.06929028034 -0.1365613341 0.679227829 0.5433452725 0.3214640617 -0.6829144955
0.07099948078 -0.1323287338 0.6843905449 0.5915790796 0.4180653989 -0.5948318243
0.06530471891 -0.1375790089 0.6746007204 0.4463127553 0.3426767886 -0.7451580763
0.06302714348 -0.127576679 0.6804971099 0.3922697306 0.6488204002 -0.618229866
0.03430131078 -0.2051389217 0.7570337653 0.1077984199 -0.5361192822 0.8349995017
0.02829286829 -0.203268975 0.7596874237 -0.004223829601 -0.5653247833 0.8190739155
0.01629812829 -0.2059348077 0.7553833723 -0.2018520385 -0.5573210716 0.8032451272
0.02194567584 -0.2038227916 0.7594063282 -0.1215900332 -0.5554379225 0.8197287917
0.02192413993 -0.19859007 0.7628772259 -0.1314985603 -0.5690199137 0.809771657
0.01694307663 -0.2013700306 0.7589148879 -0.1966162026 -0.5663384795 0.7984215617
-0.001171109267 -0.1223764718 0.6831407547 -0.5242382884 0.5438598394 -0.650598824
-0.006034763996 -0.1207161993 0.6884618998 -0.6221578717 0.5205190182 -0.5777195096
-0.0109008858 -0.1248539984 0.6882174611 -0.6686279774 0.4965784252 -0.5533553362
-0.01005463768 -0.1208617017 0.6938991547 -0.6828496456 0.4928067327 -0.5364894271
-0.01380274724 -0.1238676086 0.6984547377 -0.7188157439 0.4680601656 -0.5087735057
-0.008586946875 -0.1142964214 0.6975089312 -0.6696779728 0.4943965971 -0.5538605452
