# .PCD v0.7 - Point Cloud Data file format
VERSION 0.7
FIELDS x y z normal_x normal_y normal_z
SIZE 4 4 4 4 4 4
TYPE F F F F F F
COUNT 1 1 1 1 1 1
WIDTH 512
HEIGHT 1
VIEWPOINT 0 0 0 1 0 0 0
POINTS 512
DATA ascii
0.03565788269 -0.06228845939 0.6211510301 0.458663404 -0.616509974 0.6361124516
0.03852032498 -0.06609746814 0.6149250865 0.4893515408 -0.6203716397 0.6096619368
0.03231271356 -0.05953517184 0.6257913709 0.403021872 -0.6475961804 0.6436460614
-0.09843914211 -0.1066222638 0.6003394723 0.03262804449 -0.2310839146 0.4206949472
-0.1023693681 -0.1212644652 0.6142700315 -0.6931368113 -0.2456495166 0.296284765
-0.1014951244 -0.1141035929 0.6167450547 -0.4034098983 -0.3590497673 0.3970105052
-0.1000050977 -0.1100293249 0.6127914786 -0.1960653216 -0.3694308996 0.4325624704
-0.1043276191 -0.1215320155 0.6245489717 -0.7862407565 -0.3459122479 0.3345881999
-0.103040427 -0.1196433529 0.6050392985 -0.5835069418 -0.06567702442 0.2705979943
-0.09591268748 -0.09890507162 0.6018492579 0.3711889982 -0.3961616755 0.5290241838
-0.1054287404 -0.1256426424 0.6157923937 -0.9189106226 -0.128802672 0.2406068146
-0.1017196998 -0.11534179 0.6091282368 -0.4141033888 -0.2109348029 0.3458356559
-0.1031017378 -0.118310973 0.6204748154 -0.6163982153 -0.3394570947 0.3584289253
-0.1002070084 -0.1114547029 0.6032078862 -0.2030938119 -0.1869379878 0.3700352311
-0.1064369604 -0.1303963661 0.6083778739 -0.9685434103 -0.07096880674 0.2133861482
0.01014827006 -0.06503302604 0.6323367953 -0.3879576921 -0.5291131735 0.7537592649
-0.03649248928 -0.03001200221 0.6257238984 -0.100033097 -0.756994009 0.6433659196
-0.04185583815 -0.02815728635 0.627869904 -0.002483477816 -0.7734747529 0.6187785268
-0.04902962968 -0.02761218511 0.6273376942 0.09598416835 -0.7781684399 0.611322999
-0.005337169394 -0.0705934912 0.6035158634 -0.6318001747 -0.5724111795 0.5139129162
-0.01147489529 -0.06477414817 0.6031094193 -0.5236670375 -0.615496099 0.5828970671
-0.07291267067 -0.1709011942 0.6415797472 -0.4402836561 -0.5954509377 0.6703734398
0.02170119621 -0.06401639432 0.6350219846 0.1444940865 -0.5376836061 0.7513448
0.01511511579 -0.06788047403 0.635211587 -0.3471339941 -0.5210055709 0.764076829
-0.03495831415 -0.1168918088 0.7034645081 0.05272927135 -0.7146541476 0.6971341968
0.03327400237 -0.0580140613 0.6163184643 0.3461323082 -0.6790837049 0.6109181046
0.01630312204 -0.05510918051 0.6257504225 -0.06980723143 -0.623419404 0.6466656327
0.01884219609 -0.05592501909 0.6196634769 -0.04203649238 -0.6217582822 0.5944681764
0.02660175599 -0.05685470253 0.6202386618 0.1841641068 -0.6576516032 0.6270961165
0.02258903906 -0.05575894937 0.6274840832 0.1227772459 -0.6552042365 0.6857984066
0.00593882706 -0.0547468476 0.6195043921 -0.3854090273 -0.5737419724 0.5626158714
-0.0003401663271 -0.05542115867 0.617346704 -0.5008314848 -0.5707573891 0.562176168
0.01215523854 -0.05703324825 0.6145654917 -0.1755373776 -0.6163240671 0.5713338256
-0.01779821888 -0.1210272983 0.6939612031 0.3330236673 -0.6711892486 0.6618565917
0.01435973495 -0.1014466584 0.600972116 -0.03320173547 -0.7814557552 0.5922753811
0.01508564968 -0.1135196686 0.6110887527 0.2877722681 -0.6592365503 0.5380440354
0.01851201989 -0.106051527 0.6061273813 0.2219405919 -0.6969329119 0.5926607251
-0.07395233959 -0.08343620598 0.5807965994 0.454172641 -0.5952414274 0.6611055136
-0.06797543168 -0.07969553024 0.5796059966 0.3680140078 -0.617928803 0.6910330057
-0.03078561276 -0.02941679768 0.6276180744 -0.2037625909 -0.7624995112 0.6094631553
-0.02345182188 -0.03054488823 0.629864037 -0.345938772 -0.7407927513 0.5728548169
-0.01204457879 -0.05717938393 0.6092681289 -0.5029116273 -0.6149787903 0.6007093191
-0.006570820697 -0.05890236422 0.6122562289 -0.5914450288 -0.5766265392 0.5624753237
-0.1013767868 -0.1242751256 0.6380077004 -0.8734763861 -0.3551878333 0.3311574459
0.02586539462 -0.07725019753 0.5977222323 0.1998295784 -0.5387814641 0.7737061977
0.003743908135 -0.07503960282 0.5971947908 -0.3278354406 -0.5946346521 0.6025164127
-0.003683696268 -0.07489565015 0.5965079069 -0.5098355412 -0.590236783 0.572542727
-0.008401084691 -0.06916508824 0.5993672013 -0.5220429301 -0.60787642 0.5847649574
0.0005172244855 -0.06897563487 0.6030415297 -0.389165163 -0.5940221548 0.5936149955
0.01839570142 -0.07273510844 0.60049963 0.06334158778 -0.6093005538 0.671161294
0.008898057044 -0.07113897055 0.6008901 -0.1590129435 -0.6053550839 0.6357600093
-0.02471028641 -0.03629369289 0.623206377 -0.3335908353 -0.6917418242 0.6380308867
-0.03051251918 -0.03413206711 0.6222999096 -0.2171635032 -0.7310764194 0.6435010433
-0.1029519588 -0.1361895055 0.6163721085 -0.9209421873 -0.2408770323 0.2756155729
-0.1087179556 -0.1354773939 0.6102000475 -0.9415881038 -0.2072496116 0.2462384552
-0.08827067167 -0.164584294 0.6354515553 -0.7055423856 -0.4038094282 0.578352809
-0.06767716259 -0.1705665588 0.6443954706 -0.3495889306 -0.6328663826 0.6873335838
0.01296977978 -0.04844562337 0.6369814277 -0.2179203928 -0.6102297902 0.6799135208
0.011160478 -0.06017535925 0.6364809275 -0.3810569942 -0.5434707403 0.7453563809
0.007920870557 -0.06832140684 0.6283079982 -0.5004304647 -0.5064620972 0.69040066
0.02632164024 -0.09101969749 0.597373724 0.1852565855 -0.7190683484 0.663305223
0.01659514755 -0.0891309604 0.5929510593 -0.08160410821 -0.6446019411 0.6789150834
0.01402798947 -0.09689656645 0.5952449441 -0.175991863 -0.753423512 0.5707840919
0.009460433386 -0.0955009684 0.5924533606 -0.3016909063 -0.6860307455 0.5948688984
0.01969090477 -0.09423075616 0.5961641073 -0.004237671848 -0.7473075986 0.6128047705
0.03361517936 -0.09036520123 0.6001316309 0.3528092206 -0.5997865796 0.7165155411
0.02795858309 -0.08316506445 0.5964856148 0.2410225123 -0.5955650806 0.7581471205
0.0335085988 -0.08370039612 0.5983942151 0.3658975065 -0.5735647082 0.7327436209
0.00998761598 -0.07734807581 0.5955175161 -0.178990379 -0.548309803 0.6918283105
0.01783980988 -0.0780730173 0.5955652595 0.01563731022 -0.5300959945 0.7549135089
0.002031629207 -0.07849896699 0.5908612609 -0.2848322988 -0.574586153 0.675191164
-0.005248715635 -0.07944963872 0.5938495398 -0.6024463177 -0.5674614906 0.5582351089
0.01162540074 -0.1498263031 0.6231874824 0.7458567023 -0.4727206528 0.4689581096
0.01276254002 -0.1424158961 0.6257781386 0.7603860497 -0.4691281021 0.4482440948
0.01033785753 -0.1138386875 0.6065944433 0.05052411184 -0.6757235527 0.4801258147
0.009930855595 -0.1198881045 0.6067049503 0.113657333 -0.6581088901 0.4862804711
0.01142932381 -0.141922906 0.6198942661 0.645193398 -0.5050070882 0.4643034935
0.01245485805 -0.1330371201 0.6190707088 0.5638593435 -0.5461884737 0.4785263836
0.00890495535 -0.1047123671 0.5975164771 -0.2534733117 -0.7648426294 0.5028797984
0.01066027395 -0.1296365559 0.6123896837 0.3499796689 -0.5932890773 0.4807381034
0.01348811295 -0.1316471994 0.6251630783 0.6710675955 -0.4987316728 0.4383437335
0.01197906863 -0.1201068237 0.6143180132 0.3088083565 -0.6098661423 0.4705013633
0.01323795412 -0.1353451014 0.6294007897 0.7746081948 -0.4643628299 0.4293229878
0.008252331056 -0.1425076276 0.6325576901 0.7612196207 -0.4649023414 0.4517536461
0.02662461251 -0.09157595783 0.6050507426 0.1364609748 -0.6531507373 0.6714211106
0.02119512111 -0.09162639081 0.6070694923 -0.01447648276 -0.7054108381 0.6340800524
0.02603570372 -0.09538260102 0.6006367207 0.1978167146 -0.6912845373 0.6772351861
0.01925885864 -0.08830781281 0.6118561029 -0.1365305185 -0.6955505013 0.6121048927
0.01789384335 -0.1069892943 0.6117355824 0.2400932312 -0.6571424603 0.5678845644
0.01584239863 -0.1213852018 0.6202122569 0.5144872069 -0.5590188503 0.4960965514
0.0145632783 -0.1260143965 0.62456882 0.5874513984 -0.5200913548 0.4634923637
0.02042806521 -0.09629391879 0.6027786136 0.06113484874 -0.7420683503 0.6367426515
0.01705614291 -0.1173870862 0.6161626577 0.4541568458 -0.5939372778 0.5259311795
0.01900671981 -0.1005393639 0.607427597 0.1219302937 -0.7034122944 0.6030259728
0.01418522466 -0.1132868603 0.6228444576 0.290826112 -0.5807503462 0.4932774603
0.0171985738 -0.09686277062 0.6114020944 -0.005638060626 -0.7007088661 0.5855203271
0.02821601741 -0.06242198497 0.6314250827 0.3720069826 -0.5914365053 0.6963701844
0.01881440729 -0.07309749722 0.6271632314 -0.0341254361 -0.6372072101 0.641661942
0.01470144838 -0.07793179154 0.6245142221 -0.2880396843 -0.6570189595 0.6142967939
0.01367282402 -0.07285083085 0.6293410659 -0.3579133749 -0.55329144 0.7118895054
0.03067822009 -0.06915774196 0.621776998 0.2998423278 -0.627712965 0.6309437156
0.03430075943 -0.07612844557 0.6111081243 0.2984862924 -0.6416189671 0.5793121457
0.02865938656 -0.06612864882 0.6267696619 0.2877606153 -0.6227204204 0.6538421512
0.02715932019 -0.07791713625 0.6148416996 0.06815402955 -0.6642497182 0.5744506717
0.03054585867 -0.07330814004 0.6172601581 0.2338025123 -0.6413995624 0.602580905
0.0235558562 -0.07166562974 0.6246942282 0.0592636019 -0.6526161432 0.6211237907
0.03486919776 -0.06948330253 0.6180540919 0.414380759 -0.6188635826 0.624352932
0.02141525596 -0.07681865245 0.6206707954 -0.07904365659 -0.67427665 0.587962985
0.03331242129 -0.08542831987 0.606175065 0.2915614247 -0.6109822392 0.6582924724
0.02570221759 -0.08599464595 0.6107032299 0.03349744156 -0.6435883641 0.6334546208
0.02224981599 -0.08087114245 0.6157678366 -0.1063432321 -0.6815591455 0.5678408742
0.0159161184 -0.08241783082 0.6189348698 -0.3165699244 -0.7040634751 0.5580310225
0.03099634312 -0.08125005662 0.6099873781 0.1946116686 -0.6396480203 0.6067891717
0.0378783457 -0.08198860288 0.6029476523 0.426356554 -0.592271328 0.6755810976
0.009104348719 -0.07362960279 0.6240746379 -0.5129249692 -0.5449484587 0.652363658
0.01038105879 -0.07975685596 0.6211994886 -0.5133767724 -0.6351268291 0.5606552362
0.005431146827 -0.14654167 0.6362549663 0.7516325116 -0.4684658349 0.4642755687
0.003858741373 -0.1599618345 0.6282881498 0.7270603776 -0.4785633683 0.4922468662
0.007706787437 -0.154365778 0.6266605258 0.7388850451 -0.4739589691 0.4788905382
0.007741475012 -0.1371187121 0.6394025087 0.7720035315 -0.4623076022 0.4360836744
0.004610424396 -0.1419074535 0.641882062 0.7629573941 -0.4682644904 0.4454408884
-0.05919837952 -0.08021049947 0.575797081 0.2233235538 -0.6254785657 0.7444928288
-0.07502795756 -0.07848263532 0.5862318277 0.4988899827 -0.5995019674 0.6253733635
-0.0790053755 -0.08343787491 0.5854035616 0.5026022792 -0.5898807645 0.6302880049
0.01966889016 -0.05664745346 0.6347827911 0.04937840253 -0.5788921118 0.7519006133
0.01470273826 -0.05449452624 0.6385218501 -0.2177096456 -0.5488735437 0.7323800325
0.01696166396 -0.06164425984 0.6397234201 -0.2453032881 -0.5228238702 0.774461925
-0.06994824857 -0.110711813 0.7015057802 -0.3812440336 -0.6609097719 0.6426723599
-0.07813677937 -0.1094430536 0.6980032325 -0.5026949048 -0.6398211718 0.5780699253
-0.10011556 -0.1189737692 0.6503391862 -0.8181290627 -0.4247083366 0.3853114247
-0.09877478331 -0.1269162744 0.642092526 -0.8395157456 -0.397174716 0.3686535954
-0.1013427302 -0.1300978661 0.6360578537 -0.8755787611 -0.3539770246 0.3274735808
0.0379383415 -0.06339886785 0.6091307402 0.461435914 -0.6533257961 0.5991530418
0.04096290469 -0.07058996707 0.6078156829 0.5126982927 -0.6227899194 0.590616107
-0.02786409855 -0.04366816208 0.6137247086 -0.2652472258 -0.6931150556 0.6678504348
-0.02461516671 -0.04065360129 0.6186692119 -0.3120977879 -0.6925501227 0.6479981542
-0.04421692714 -0.03566291183 0.6182560325 0.005229914095 -0.7385804653 0.6727917194
-0.04058708623 -0.03279854357 0.6217848063 -0.04673947394 -0.7411428094 0.6643174887
-0.03591211885 -0.0368527025 0.6172769666 -0.1215737388 -0.7287998796 0.672647953
-0.04136707261 -0.04024820775 0.6139184833 -0.05065790191 -0.7274388671 0.677523911
-0.09476339072 -0.1536384374 0.6291565895 -0.8246641159 -0.3370674849 0.4497210383
-0.101628162 -0.1286120862 0.6220830679 -0.9265024066 -0.2321735471 0.2594539821
-0.07395044714 -0.1674000919 0.6467434168 -0.4525763988 -0.5703033209 0.6730771065
-0.09544939548 -0.1331147403 0.6418694258 -0.8377494812 -0.3937206268 0.3770870268
0.002173432847 -0.04918687418 0.6360340118 -0.5281378031 -0.5695108175 0.6233143806
0.007964394055 -0.05169305205 0.6396673918 -0.4494415522 -0.542996943 0.7082271576
0.006050978787 -0.04517382756 0.6418883801 -0.4729579091 -0.5675746202 0.6732740998
-0.01332514174 -0.03372615948 0.6326162815 -0.4867911637 -0.6766874194 0.5515006185
-0.006470051128 -0.03987669572 0.6355012655 -0.5283963084 -0.6226266623 0.5751110315
-0.00922629796 -0.03834740072 0.6309332848 -0.5209923387 -0.6465985775 0.5562983751
0.005632387474 -0.06679165363 0.6230047941 -0.6319385171 -0.4830076396 0.6023205519
-0.001717895502 -0.05228158832 0.6263736486 -0.6358465552 -0.5278003812 0.5628872514
0.003282709746 -0.0600618422 0.6265792847 -0.6430943012 -0.4891913235 0.5883848071
0.001864947379 -0.05291244015 0.6317886114 -0.567338109 -0.5342910886 0.6163586378
0.007097139023 -0.05896249413 0.6331752539 -0.4368804097 -0.5459756851 0.7129932642
-0.001638852293 -0.06990195066 0.6088497043 -0.6208363771 -0.5918836594 0.511073947
0.006213020999 -0.07302352786 0.6165866852 -0.6094983816 -0.5797377229 0.5274417996
0.002836691448 -0.07647271454 0.6082271338 -0.6656287909 -0.5904515386 0.4556797147
0.002290468197 -0.08595000207 0.5967196822 -0.5966898203 -0.6090714335 0.5211616158
0.003139494453 -0.08203560114 0.6021748185 -0.6234537363 -0.6060362458 0.4911983907
-0.0006937869475 -0.07580734789 0.6038792133 -0.6698526144 -0.5657433867 0.4796723723
-0.001332872664 -0.08025702089 0.5982531309 -0.6479402184 -0.5577609539 0.5166919231
0.008335211314 -0.09607987851 0.5996059179 -0.421461314 -0.7471425533 0.493337512
0.007022052538 -0.08681929857 0.6054562926 -0.5625600219 -0.6622943282 0.478552103
0.01044921391 -0.09407484531 0.6047364473 -0.3280614018 -0.7374567986 0.5272399783
0.00554930279 -0.09145382792 0.5973773599 -0.5023397207 -0.6848799586 0.5081579685
0.007178012282 -0.08676009625 0.5909140706 -0.3604131341 -0.5600041747 0.6550914049
0.0214030128 -0.08390862495 0.5946874022 0.05494155362 -0.5921131372 0.7332412004
0.0009462308954 -0.09377514571 0.588142395 -0.5191830397 -0.5911743641 0.6167379022
-0.01627569646 -0.08450601995 0.5783597827 -0.4500231445 -0.5807759762 0.6778337955
-0.02365601435 -0.07874720544 0.5798904896 -0.3428792953 -0.6197322607 0.7003929019
-0.01601877064 -0.07822187245 0.5841093659 -0.4711064696 -0.608756721 0.6361819506
-0.001366606681 -0.1354910433 0.6604696512 0.6661935449 -0.571602881 0.4775139689
-0.008566831239 -0.1341494918 0.6729174852 0.5405271649 -0.619745791 0.5668705702
-0.01360157318 -0.1399006695 0.6707260013 0.4940296113 -0.6456152797 0.5781061053
0.004330887459 -0.138150692 0.646684587 0.75402385 -0.4961863756 0.4292207956
0.0024061976 -0.1369283199 0.6537821293 0.7224032879 -0.533330977 0.4392716885
0.003626165213 -0.1312692612 0.6573174 0.7142014503 -0.541382134 0.4433035553
0.002010260476 -0.1292735934 0.6627304554 0.6671722531 -0.5639883876 0.4809887707
-0.003593135159 -0.1290849447 0.6720051765 0.5811569095 -0.5992115736 0.5499964952
0.001105080359 -0.1279491186 0.6682232618 0.6258541346 -0.5834946632 0.5165641308
-0.003367235884 -0.1337612718 0.666582644 0.608448863 -0.596773982 0.5221966505
0.01223886944 -0.1296968162 0.6317564845 0.6610873938 -0.4883390069 0.4374777079
0.0121067958 -0.1157922298 0.6290938854 0.3373036087 -0.5558969975 0.4715513885
0.01138937846 -0.09478956461 0.6224070787 -0.2397184819 -0.6519219279 0.4803592563
0.01210207399 -0.08753041923 0.6211818457 -0.3616603613 -0.6916738749 0.5236650705
0.01202188712 -0.1031359434 0.6260470152 0.03071088344 -0.6168395281 0.4973632991
0.01116707735 -0.1354927421 0.6346110702 0.7756738067 -0.4639775157 0.4276515543
0.007444041315 -0.1323086172 0.6468862295 0.7480791211 -0.5017055273 0.431640327
0.01247297414 -0.1070337817 0.6052776575 0.04384904355 -0.7451854944 0.5554009676
0.01163420081 -0.1029569805 0.617566824 -0.04385612905 -0.6682416797 0.5007852316
0.01148435008 -0.08985631913 0.6163122654 -0.378493011 -0.7078986168 0.5043882132
0.01146513131 -0.1244652197 0.6300048828 0.5178714395 -0.5249583125 0.4462209642
0.01161078271 -0.1211428717 0.6250948906 0.4275509417 -0.5696036816 0.4686590731
0.01179499179 -0.1099314392 0.6162091494 0.131889239 -0.6623868942 0.508361876
0.01194347721 -0.1026313379 0.6097097397 -0.06147284061 -0.7281760573 0.5375586748
0.01171438303 -0.09510171413 0.6125632524 -0.2495585829 -0.7240435481 0.5228737593
-0.02239909768 -0.1179783046 0.6987897754 0.2309862673 -0.6940399408 0.680364728
-0.02769507654 -0.117343992 0.7013188004 0.1462955177 -0.6988541484 0.6977239251
-0.02759678848 -0.1230344996 0.6983927488 0.1814809144 -0.6961833835 0.6928492785
-0.04265204072 -0.1158045158 0.70560956 -0.03008494899 -0.6733354926 0.7368164062
-0.04394094273 -0.125828594 0.6967123151 -0.02305129357 -0.7146499157 0.6972755194
-0.0359813571 -0.1253197938 0.6965881586 0.08105759323 -0.7142685652 0.6938263178
-0.03916882724 -0.1208144203 0.7001706958 0.01149099413 -0.718313098 0.6938604116
0.002041467931 -0.1519999653 0.6356554031 0.739010632 -0.4763050973 0.4760014713
0.007283982821 -0.1482868791 0.6275879741 0.7479521036 -0.4749338329 0.463580966
0.00295572239 -0.1552860886 0.6308991313 0.7295364738 -0.4845727086 0.4821875989
-0.08472789824 -0.08693894744 0.5880095959 0.5563399196 -0.5528382063 0.6137189865
-0.06559811532 -0.07424475998 0.5833546519 0.3532592356 -0.6408756971 0.6808664203
-0.06193118915 -0.07017473131 0.586692512 0.3130892217 -0.6591456532 0.6661213636
-0.03356211632 -0.07444287091 0.5795235634 -0.1939939409 -0.667001605 0.7180069685
-0.02771306597 -0.08216034621 0.5747992396 -0.2812254429 -0.6004225612 0.7430322766
-0.04911775514 -0.07475699484 0.5784381628 0.07596797496 -0.662735045 0.739859879
-0.05651603267 -0.07435104251 0.579451263 0.1922343969 -0.6576664448 0.727077961
-0.06610019505 -0.03223076835 0.6288179159 0.3766672909 -0.709023416 0.5946553349
-0.05748599395 -0.03390099853 0.6227844357 0.2410804331 -0.7394179106 0.62625283
-0.06042831391 -0.03861752525 0.6190168858 0.2988267541 -0.7051775455 0.6419722438
-0.0740531981 -0.04050103575 0.6260668635 0.4932466745 -0.6577203274 0.5671006441
-0.07853354514 -0.04172958806 0.6308110952 0.5455217957 -0.6337485909 0.5481985211
-0.07879240811 -0.03743198514 0.6361761689 0.5282446742 -0.6444245577 0.5516042709
-0.08850907534 -0.0463109538 0.6409269571 0.5745708346 -0.6228215098 0.5288686156
-0.08551640809 -0.04512427375 0.6357126832 0.5753436089 -0.6224617362 0.529833734
-0.08967289329 -0.05559531599 0.6312676072 0.6132103801 -0.6007976532 0.5113417506
-0.0906592235 -0.05087460577 0.6375566721 0.5944176316 -0.6126164198 0.5184630156
-0.09399937838 -0.05878541246 0.6308537722 0.627615273 -0.5952122211 0.5016071796
-0.01437996235 -0.07400424778 0.5892000198 -0.4929969609 -0.6124998927 0.6173008084
-0.01443394646 -0.06780783087 0.5958559513 -0.4687441885 -0.6345673203 0.6130719185
-0.01067634951 -0.0722469911 0.5940509439 -0.5152434707 -0.6124872565 0.599155724
-0.01894845627 -0.07115078717 0.5896743536 -0.4220262766 -0.6414276361 0.6322553754
-0.02619059011 -0.07075820118 0.5863268971 -0.3124291301 -0.6718898416 0.6709472537
-0.02037525922 -0.06601499766 0.5942855477 -0.3872336745 -0.6596288681 0.6404108405
0.03552165255 -0.0684139654 0.6051143408 0.4399336576 -0.6463515759 0.6212341785
0.03727508709 -0.07523080707 0.6026620865 0.4491933584 -0.6220621467 0.6377940774
0.03256522864 -0.07685828209 0.5988787413 0.3537406325 -0.570776403 0.7391229868
-0.01594432816 -0.04756030813 0.6159217358 -0.456625849 -0.6308831573 0.6265553832
-0.01905921474 -0.06063045189 0.6017021537 -0.4068444073 -0.6544425488 0.6350697875
-0.05494537577 -0.0562472865 0.5976692438 0.1814982146 -0.7210999131 0.6681987643
-0.06087514013 -0.05485957488 0.6012158394 0.30039078 -0.7049573064 0.6379367709
-0.08536314964 -0.16259332 0.6400829554 -0.6588701606 -0.4404273033 0.6008629203
-0.09237062931 -0.145511508 0.6407975554 -0.8040960431 -0.3951274157 0.4424341321
-0.0924853757 -0.160455212 0.6332530975 -0.7611712217 -0.3808197379 0.5205945373
-0.09184610844 -0.1494018137 0.6333050728 -0.7977465391 -0.3681196868 0.467672497
-0.09879714251 -0.1401528865 0.6263749003 -0.8858780265 -0.3173769712 0.3319149613
-0.09701883793 -0.1483302116 0.6290340424 -0.8561505079 -0.3349986076 0.3909697533
-0.09702991694 -0.1420737654 0.6330100894 -0.8507550955 -0.3530817628 0.3847863376
-0.1019018143 -0.1354718655 0.6294784546 -0.8834683895 -0.3380368054 0.3240994811
-0.1031590402 -0.1426252127 0.6200754642 -0.877833128 -0.3355293274 0.3416461051
-0.1029905006 -0.1299068481 0.629768908 -0.8845759034 -0.3402829468 0.318906188
-0.1033499613 -0.1353580505 0.6224648356 -0.8945628405 -0.3140965104 0.3122800589
-0.107319504 -0.1312558651 0.6165829897 -0.9259094 -0.2491036654 0.2617447972
-0.1067182869 -0.1396081299 0.6140065193 -0.9032322764 -0.2895853817 0.3006639481
-0.07408683002 -0.1575036943 0.6552308798 -0.4977348745 -0.5890042186 0.6328828335
-0.09908813983 -0.1358328909 0.6358526349 -0.8632935882 -0.3573665917 0.3501754701
-0.09395107627 -0.1389619857 0.63947469 -0.8229162097 -0.3878445029 0.4087732136
-0.07362167537 -0.1125549152 0.6960886717 -0.4420359135 -0.6415529251 0.6235812902
-0.08114080131 -0.116746664 0.686114192 -0.5752409697 -0.6016018391 0.5532861352
-0.08091565222 -0.1130976453 0.691129148 -0.5516344309 -0.6173653603 0.5606637001
-0.01899333112 -0.04008887336 0.622622788 -0.4094434381 -0.6729865074 0.6115714908
-0.01375328656 -0.04012021422 0.6255916953 -0.4974085987 -0.6439096332 0.5769070387
-0.008782001212 -0.05011954904 0.6189651489 -0.5565422177 -0.6003285646 0.5710209608
-0.006356936414 -0.0549271442 0.6159860492 -0.592287302 -0.5759239197 0.5629233122
-0.01200623997 -0.04511659592 0.6213978529 -0.5103825927 -0.6300756931 0.5829468966
-0.01245994214 -0.05218583345 0.6133679748 -0.4885073304 -0.628210187 0.6031076312
-0.009030059911 -0.04313294217 0.6281134486 -0.5476520658 -0.6024391651 0.573126018
0.0002131988149 -0.0422308147 0.6391214132 -0.5177893639 -0.5961531997 0.610276103
0.00487758778 -0.04855111241 0.6287418008 -0.3295454085 -0.6123995781 0.6099255681
-0.002696721815 -0.04478567094 0.6313488483 -0.5757108331 -0.5776945949 0.5736498833
0.007282841019 -0.05312501267 0.6254388094 -0.3084584177 -0.5930416584 0.6115002036
-0.005575083662 -0.04695850611 0.6252978444 -0.5642867684 -0.5904998183 0.5613268018
0.01437340863 -0.05111138523 0.6307626367 -0.1121005416 -0.6306065321 0.6577411294
0.007937734015 -0.04763972759 0.6340203285 -0.320461601 -0.6027507782 0.6397241354
-0.008019222878 -0.06309574842 0.6079574823 -0.5698249936 -0.58765167 0.5659663081
0.001942667412 -0.06503726542 0.6177679896 -0.6763474345 -0.4928895533 0.5447089076
-0.0005338965566 -0.06051618233 0.6132619977 -0.5448592901 -0.564443171 0.5454410315
0.005131335929 -0.05806659907 0.6138367057 -0.3548301756 -0.5952385664 0.5626718402
0.0225781668 -0.05799310654 0.6132364273 0.08161169291 -0.6485399008 0.5776308775
-0.0002622309839 -0.0605031848 0.6199806929 -0.6245387793 -0.5197443962 0.5799729824
0.01511892118 -0.06419739127 0.6100526452 -0.1428593695 -0.595785737 0.5638436079
0.02512730099 -0.06288992614 0.6102483869 0.1247482225 -0.632989943 0.5766251683
0.03126034141 -0.06194619834 0.610480547 0.2877281904 -0.6563838124 0.5840951204
0.01680595987 -0.06943082064 0.6054928303 -0.0632238239 -0.5874705911 0.6340559721
0.02960792556 -0.07010947913 0.603918314 0.2960506976 -0.6245159507 0.6516215205
0.02288080193 -0.06768154353 0.6065035462 0.0943300426 -0.6102172732 0.6140847206
0.007834910415 -0.06513338536 0.6098396778 -0.3388461471 -0.5710460544 0.5695174336
0.02397657 -0.07295460999 0.6016788483 0.1671893746 -0.6049143076 0.6840469241
0.0008983990992 -0.06518571824 0.6097317338 -0.5090216398 -0.5603128672 0.559309423
0.009092683904 -0.0818182826 0.6161010265 -0.5875402689 -0.6355976462 0.4905063212
0.009466953576 -0.08642736077 0.6117683649 -0.5148319006 -0.6752100587 0.4834950268
-0.01043251809 -0.08077096939 0.5854375362 -0.5108086467 -0.5954880118 0.6191837788
-0.01051542815 -0.08823671192 0.5812971592 -0.4840239286 -0.5691833496 0.6623292565
-0.004778258968 -0.09063557535 0.585113585 -0.5255593061 -0.5651161671 0.6350390911
0.01514689997 -0.08349049091 0.5931679606 -0.1274781674 -0.5366445184 0.7208848
0.0001390686521 -0.08611783385 0.5881969333 -0.4807133973 -0.5428519845 0.6345456243
0.008964357898 -0.08128550649 0.5912255645 -0.1979254782 -0.5298638344 0.7096938491
-0.003280475968 -0.08205003291 0.5879861712 -0.4593662024 -0.5562403202 0.6390820742
-0.002198287519 -0.1413745284 0.654723227 0.6854628921 -0.5593397617 0.4640268683
-3.101944822e-05 -0.1413893998 0.6494369507 0.7051987648 -0.530287087 0.4636089206
-0.005334981252 -0.1471873671 0.6525249481 0.6504052877 -0.5605232716 0.5084519982
-0.01232227497 -0.1479905248 0.6611754298 0.5263567567 -0.6327677369 0.5658502579
-0.006208385807 -0.1426241845 0.6592848301 0.6218022108 -0.5924726129 0.5104392171
-0.009122936055 -0.1417561024 0.6642156243 0.5739691257 -0.615264833 0.5392627716
-0.05276263878 -0.1210777611 0.7008581161 -0.1949925423 -0.6641778946 0.7159522176
-0.04542619362 -0.1201813072 0.7026255727 -0.04466047138 -0.6793108582 0.7292939425
-0.05689435452 -0.1162303388 0.7038189769 -0.2366614938 -0.6327072978 0.7348929048
-0.07510280609 -0.1494271457 0.6585426927 -0.5333130956 -0.6114873886 0.5815083981
-0.08399192244 -0.0813344866 0.5922012925 0.563524127 -0.5800542831 0.58787781
-0.06955057383 -0.0616046153 0.598736465 0.4619922638 -0.6568525434 0.5947002172
-0.07308081537 -0.06594372541 0.5965647697 0.489693433 -0.6356449127 0.5957090855
-0.06922464073 -0.06727800518 0.5924685001 0.4186184108 -0.6486098766 0.6275479198
-0.04630212113 -0.0806735754 0.5727623105 0.02479317412 -0.6313074827 0.7730808854
-0.05257689208 -0.07984679937 0.574467957 0.1294821054 -0.6297507882 0.7633168697
-0.03870110586 -0.07838111371 0.5746713877 -0.1013128012 -0.6559237242 0.7436466813
-0.04332328215 -0.07321476936 0.579213202 -0.02381815389 -0.6803711653 0.7295785546
-0.05162073672 -0.07030683011 0.5821993351 0.1201196164 -0.6833857298 0.7150063515
-0.04484204948 -0.06849426031 0.5835902095 -0.009661073796 -0.701451838 0.7121197581
-0.03684967384 -0.07035756111 0.5827245116 -0.1411030143 -0.6885086894 0.7069940567
-0.06851007044 -0.04199394956 0.6204359531 0.4107196331 -0.6758211255 0.6113713384
-0.0657626763 -0.04774503037 0.6124585867 0.3811303079 -0.6812594533 0.6210884452
-0.07443155348 -0.0539171584 0.6118121147 0.5076317191 -0.6419438124 0.5739690065
-0.07134218514 -0.0479933545 0.6156370044 0.4588454664 -0.6547849774 0.5992423296
-0.06389141828 -0.05094335228 0.6073721051 0.3578530848 -0.6930062771 0.6253623366
-0.06985130906 -0.05556464195 0.6060295105 0.4465112686 -0.6658043861 0.5951764584
-0.08725251257 -0.04965738207 0.6310899854 0.5959609747 -0.612578392 0.5184215903
-0.0912618041 -0.05912743509 0.6248922944 0.6249391437 -0.5939003825 0.5065336823
-0.07814255357 -0.04837140813 0.6215516329 0.5527722836 -0.620639503 0.5518094301
-0.03627118841 -0.04416155443 0.6103804111 -0.1500815302 -0.7137040496 0.6810026169
-0.04202444106 -0.04915126786 0.6048062444 -0.05224896967 -0.7229099274 0.6828955412
-0.0544353947 -0.04413796961 0.6111202836 0.196401611 -0.7165267467 0.6668044925
-0.04769305512 -0.0433120206 0.6109315157 0.07829403132 -0.7345140576 0.6701297164
-0.04739524052 -0.04949932545 0.6040189266 0.04649953172 -0.7304185629 0.6755264997
-0.05354131758 -0.05211648718 0.6016072035 0.166740194 -0.7261833549 0.6610993147
-0.05436338857 -0.04762771726 0.6066741347 0.1844189465 -0.7253815532 0.6628276706
-0.0385517031 -0.06290044636 0.5905451179 -0.1389049441 -0.7116692662 0.6838042736
-0.03943346441 -0.06656978279 0.5859309435 -0.1031530425 -0.7068026066 0.6959332824
-0.01715616882 -0.1704381853 0.6403463483 0.4317596257 -0.6475824118 0.5960404277
-0.04151465744 -0.1732441783 0.6474673748 0.03392475843 -0.7430916429 0.664858222
-0.03837720677 -0.1678656489 0.6499798298 0.06392558664 -0.7251781225 0.6773437262
-0.04622348398 -0.1691852957 0.6484611034 -0.06164997071 -0.7309859991 0.6776798368
-0.03293026984 -0.1708331108 0.6486645937 0.154863134 -0.7274708152 0.6652222276
-0.08562119305 -0.1573292017 0.6364071369 -0.7048873305 -0.4118155539 0.566680491
-0.08431614935 -0.1685043126 0.6372702718 -0.6283214688 -0.4564639032 0.6245599985
-0.08018790185 -0.1648786217 0.6397086382 -0.6052603722 -0.4610526562 0.6373331547
-0.08255691826 -0.1541900784 0.6424039006 -0.6409797668 -0.4619374275 0.5918778777
-0.08668406308 -0.1515528709 0.6390594244 -0.715926528 -0.4140255153 0.5452486873
-0.08367402852 -0.149380967 0.6467004418 -0.6785174012 -0.4765107632 0.5420185328
-0.08065439761 -0.1548254639 0.648947835 -0.6046074033 -0.5077072382 0.6116557717
-0.08026972413 -0.1705325246 0.6422225237 -0.5471768975 -0.5073802471 0.6653980613
-0.08106451482 -0.1623446196 0.6452285647 -0.5867563486 -0.499776125 0.6342632174
-0.08917348087 -0.1434751749 0.6462500095 -0.7671735287 -0.4378243685 0.4667689204
-0.07197265327 -0.118782267 0.6927691102 -0.4526519179 -0.6434875727 0.6145609021
-0.01816573739 -0.1436237991 0.6703851223 0.4361182749 -0.6694588661 0.5986684561
-0.01751977764 -0.1476015002 0.6658200622 0.4414017797 -0.6644967794 0.6014829874
-0.02192480117 -0.1568040103 0.6580144763 0.3542331457 -0.6699047685 0.6502439976
-0.02321613766 -0.1493745446 0.6662245989 0.3483034372 -0.7040548921 0.6172745824
-0.01643719524 -0.1531716138 0.6581593752 0.4645162821 -0.6358448863 0.6136918664
-0.09625781327 -0.1166726276 0.6594464779 -0.7759322524 -0.4654272199 0.4218272567
-0.09240707755 -0.1158162877 0.6687221527 -0.7326158881 -0.5030813813 0.4567184448
-0.091171965 -0.1292986274 0.6613193154 -0.7496991754 -0.4892892838 0.4455270171
-0.09065824002 -0.1241405457 0.6657804847 -0.7302318215 -0.5054388046 0.4578281045
-0.06123118475 -0.1189896166 0.6997688413 -0.2928844988 -0.6543246508 0.6952736974
-0.06435989588 -0.114604257 0.7029393911 -0.2956609726 -0.6468421817 0.7027153373
-0.05691399425 -0.1229103133 0.6976521611 -0.2593148649 -0.6654211879 0.6973391771
-4.013067519e-05 -0.1626963466 0.6311976314 0.6879733801 -0.5072276592 0.5099539757
-0.004196551628 -0.1636214107 0.6360761523 0.6774570346 -0.5276275277 0.5119414926
-0.06678384542 -0.1566131711 0.6575062871 -0.3731447458 -0.6467456818 0.6630855799
-0.07034804672 -0.15201509 0.6610005498 -0.456736207 -0.6323069334 0.6238571405
-0.06494750828 -0.1519428045 0.6631566286 -0.3650059104 -0.6763070226 0.6383916736
-0.08073502034 -0.07384426892 0.5969697833 0.561355114 -0.5942461491 0.573882699
-0.07877383381 -0.07687494159 0.589822948 0.5382210612 -0.5925789475 0.5990961194
-0.07532128692 -0.07185312361 0.5925801396 0.5172997117 -0.6135444045 0.5941764116
-0.06903484464 -0.07144296169 0.5883800387 0.4135003686 -0.6384018064 0.6392624974
-0.08009190112 -0.06809987128 0.6017055511 0.5661543608 -0.6062620878 0.5566253066
-0.05413485691 -0.06213390082 0.591219008 0.1704652607 -0.7157018185 0.6721628904
-0.04695921019 -0.06482925266 0.5875715613 0.0159779191 -0.7140641212 0.6940816045
-0.05406041443 -0.06610196084 0.5861278772 0.1691079587 -0.6974438429 0.695037961
-0.06100424379 -0.0657125935 0.5909966826 0.3052126169 -0.6816006899 0.6498237252
-0.06470291317 -0.06237508357 0.5948596597 0.3493780792 -0.684764266 0.6392654181
-0.06004586071 -0.05967766419 0.595536828 0.2819620669 -0.7039132714 0.6489005685
-0.08298682421 -0.04857617989 0.6256181002 0.598592937 -0.6051094532 0.5249035358
-0.08238366246 -0.0563349165 0.6177904606 0.600484252 -0.6039723158 0.5240548253
-0.0861678645 -0.05832365528 0.62221843 0.6152029037 -0.5975352526 0.5138705373
-0.0245470237 -0.0611310713 0.59694767 -0.3380701542 -0.6761205196 0.6508990526
-0.03339577466 -0.06225557253 0.5923215747 -0.2167549133 -0.7039672136 0.6751143336
-0.02805076167 -0.06371504813 0.5931616426 -0.2838563323 -0.6877088547 0.6651916504
-0.03029341437 -0.0593762733 0.5970435143 -0.2480549216 -0.6979694366 0.6644206047
-0.02826398239 -0.05522497743 0.602165997 -0.2785094082 -0.6865056157 0.6672464609
-0.03987435624 -0.0568930842 0.5963850021 -0.09577685595 -0.7237294316 0.6780331731
-0.04440320283 -0.05422468483 0.5984970331 -0.02202785574 -0.7333157063 0.6780935526
-0.03685513511 -0.05302981287 0.6011044979 -0.1555118114 -0.7126690745 0.6802126169
-0.04619221017 -0.0608449392 0.5918921828 -0.01541909203 -0.7253898382 0.6833058
-0.05012355372 -0.05757667497 0.5957064629 0.08327876031 -0.7255564928 0.6765947938
-0.01736790687 -0.1573706716 0.6540955305 0.4507296085 -0.6307423711 0.6273812056
-0.01162588503 -0.1553828865 0.6518501043 0.5441489816 -0.6037405729 0.5820222497
-0.02152208053 -0.1686946005 0.6447554827 0.3503213227 -0.6783415079 0.6274780631
-0.02742761746 -0.1558296978 0.6616507173 0.2545229495 -0.7149312496 0.6484071016
-0.02739779465 -0.1618931741 0.655171752 0.2429789901 -0.6931993365 0.6768001318
-0.0324094519 -0.1645149291 0.6537371874 0.1594267935 -0.7086260915 0.6837543249
-0.02592758462 -0.1696881354 0.6490625143 0.2663653791 -0.7091242075 0.6519608498
-0.02322977223 -0.163352713 0.6521494389 0.3254763782 -0.6744645834 0.6559485197
-0.06711709499 -0.164317295 0.6482143998 -0.3716194034 -0.6166850924 0.6922708154
-0.06902690977 -0.1600176096 0.6507275701 -0.4141240716 -0.5965455174 0.6836999059
-0.06189987063 -0.164911449 0.653485775 -0.2655564249 -0.6700947881 0.6901208162
-0.04240328074 -0.1471809 0.6713360548 -0.009875648655 -0.7217654586 0.6782845259
-0.07787273079 -0.1430666894 0.6606792808 -0.5926021338 -0.5827825069 0.5555009246
-0.08477726579 -0.144697085 0.6511285901 -0.6846028566 -0.514328599 0.5115263462
-0.08737393469 -0.1387098879 0.6547269225 -0.7138587236 -0.5074259043 0.4739012718
-0.08947750926 -0.1377255321 0.6494047642 -0.7576089501 -0.4636543095 0.4445822537
-0.08031029254 -0.1474983245 0.6534098983 -0.6102651358 -0.5510821939 0.5624030232
-0.07577247918 -0.1520280242 0.6533049345 -0.5466057658 -0.5609036684 0.6183245778
-0.09507015347 -0.1300583333 0.6477251053 -0.8162437677 -0.4209018052 0.3947935998
-0.09194618464 -0.1327939779 0.6545574665 -0.7813612223 -0.4604555368 0.420650661
-0.0938853398 -0.1270687878 0.6547400951 -0.7857920527 -0.4549379945 0.4170317054
-0.09774664044 -0.1249760389 0.6474875212 -0.8170681 -0.4238924086 0.3904165328
-0.02677897923 -0.1275001615 0.6927787662 0.2364471257 -0.6985749602 0.6745286584
-0.03254962713 -0.1476032287 0.6709712148 0.1601888388 -0.7307441235 0.6562449336
-0.03109968826 -0.1526605934 0.6663879156 0.1967709363 -0.7272270918 0.6502584815
-0.02723078616 -0.1451510936 0.6731106043 0.2408889085 -0.7153410912 0.6512961388
-0.01743669994 -0.1381228417 0.6761914492 0.4097359776 -0.6714074612 0.612972796
-0.03213743493 -0.1426085681 0.6784052253 0.1589392573 -0.7264851332 0.6625272036
-0.05400161445 -0.1276863068 0.6936044693 -0.1902569532 -0.696392715 0.691029191
-0.04876205698 -0.1291467696 0.6930958629 -0.09971633554 -0.7149987221 0.6867951751
-0.06612282246 -0.119872883 0.6945528984 -0.3626331687 -0.6598597765 0.6568589807
-0.06572223455 -0.1250527352 0.6893544197 -0.3750684261 -0.6676571965 0.6368513107
-0.08501862735 -0.1158334538 0.6820503473 -0.6176523566 -0.5776859522 0.5313209295
-0.08440516889 -0.1207948178 0.6763604283 -0.6566010714 -0.5515245795 0.5107936859
-0.005914097652 -0.1611160338 0.6404718757 0.6485946774 -0.5451126695 0.5294522643
-0.007161254063 -0.1568182558 0.6451539993 0.625734508 -0.5510463119 0.5477503538
-0.002383555286 -0.1573169082 0.6379747987 0.7046003938 -0.5017828941 0.5003963113
-0.0008810382569 -0.1517132223 0.6422573924 0.7238851786 -0.4848259687 0.4888925552
0.001642579213 -0.146198675 0.6433705688 0.7481431961 -0.4729251862 0.4631839991
-0.00509940926 -0.1512656063 0.6475871205 0.6572805047 -0.5301564336 0.5289639831
-0.08597692847 -0.134676531 0.6598094106 -0.7116319537 -0.5091913342 0.4826933444
-0.08287793398 -0.141935572 0.6565548182 -0.6488308311 -0.5469208956 0.5206124187
-0.08124215156 -0.1374860704 0.6618645191 -0.6528066397 -0.5409131646 0.5247916579
-0.08557862043 -0.06151423976 0.6147967577 0.6088593006 -0.593190372 0.5256502628
-0.08615232259 -0.07449009269 0.6012840867 0.5871149898 -0.5801775455 0.5644953847
-0.08641176671 -0.07945460826 0.5978835225 0.5826739073 -0.5817177892 0.5674395561
-0.08873631805 -0.08622110635 0.5944613218 0.6121397018 -0.5277429223 0.5813310146
-0.09298475087 -0.09169712663 0.5953836441 0.6895719767 -0.4248181283 0.5837048888
-0.09261742979 -0.0854613781 0.6000864506 0.6262564063 -0.5390580893 0.5563110113
-0.01187533792 -0.1598943472 0.6472999454 0.5431459546 -0.6027472019 0.5839306712
-0.01123597939 -0.1689768434 0.6392485499 0.5347180963 -0.6219221354 0.5694510937
-0.01707181521 -0.1630046815 0.6491668224 0.4617704153 -0.6464194655 0.6068381667
-0.05689495429 -0.1658699363 0.6509842277 -0.2024621665 -0.7006493807 0.6811064482
-0.05688231438 -0.1724182218 0.6466735601 -0.1959870011 -0.7021394372 0.6824795604
-0.06194145605 -0.169067353 0.6498275995 -0.253482908 -0.6718587279 0.6941635609
-0.05129287764 -0.172472477 0.6470887661 -0.1205183715 -0.7242777348 0.6752031446
-0.03306968883 -0.1339914501 0.6866813898 0.1471127421 -0.728218317 0.6673228741
-0.03955494985 -0.135631755 0.6850426793 0.0427502133 -0.7361100912 0.6701842546
-0.04448072612 -0.1328935772 0.6892812252 -0.03278990835 -0.7346690297 0.6769050956
-0.03887742013 -0.1316194683 0.6908124685 0.04351149127 -0.7230926752 0.6869863868
-0.0793332383 -0.1274845898 0.6771314144 -0.5996334553 -0.5885179043 0.5407586098
-0.07525581867 -0.1249243766 0.6835036874 -0.5467092991 -0.6256494522 0.5562622547
-0.08090545237 -0.1213597357 0.6818042397 -0.5878549814 -0.5964953303 0.5463106632
-0.0919591859 -0.1241964623 0.6594548225 -0.7608349323 -0.4810432792 0.4311056733
-0.08133729547 -0.132969588 0.6657266617 -0.649471581 -0.5499233007 0.5199403167
-0.08257688582 -0.126905784 0.6723923683 -0.654897809 -0.5524144769 0.5142585635
-0.08583155274 -0.1278863698 0.6654645801 -0.7007104158 -0.5284920931 0.4763539433
-0.0885188207 -0.1190055907 0.6706435084 -0.7078858018 -0.521030426 0.475785166
-0.06048542634 -0.1302815378 0.6888273358 -0.2856248915 -0.6863936782 0.6640114188
-0.06045991555 -0.1259493679 0.6929067373 -0.2914538085 -0.6733239889 0.6743381023
-0.08997076005 -0.06714141369 0.6127910614 0.6240956187 -0.5786869526 0.5245324373
-0.08504585177 -0.06837458163 0.6080770493 0.6148861647 -0.5844163299 0.528185904
-0.08125023544 -0.06368612498 0.6086257696 0.5821466446 -0.6045323014 0.5430235863
-0.09304334968 -0.06980780512 0.6183562279 0.6294458508 -0.5789118409 0.5175103545
-0.09090963751 -0.07220811397 0.6086975336 0.6196227074 -0.5784504414 0.5302824378
-0.09364166111 -0.06486860663 0.6273921132 0.6438441873 -0.577642858 0.5014339089
-0.09272807091 -0.07847414166 0.6082698703 0.6131955981 -0.5814039111 0.5340874791
-0.09308063984 -0.07438909262 0.6141539812 0.6221784353 -0.580490768 0.5243000984
-0.08896172047 -0.06515072286 0.6178363562 0.6333382726 -0.5795706511 0.5124353766
-0.04798759148 -0.1462509781 0.6725303531 -0.09676626325 -0.7178758979 0.6851149797
-0.04064818844 -0.14211528 0.6782597303 0.008565674536 -0.7333331704 0.6764466763
-0.03652217612 -0.1449757963 0.6758217812 0.07675889134 -0.7351371646 0.6728039384
-0.06961046904 -0.1271367371 0.6845083237 -0.4602498114 -0.6506986618 0.5899518132
-0.06222908944 -0.1480452865 0.6691737771 -0.3026219606 -0.680514276 0.6635761857
-0.0553303659 -0.1476737559 0.6719031334 -0.1891235113 -0.7011298537 0.6861080527
-0.05092062429 -0.1511238962 0.6698157191 -0.1200067624 -0.7114539742 0.6884548664
-0.02740133181 -0.1351701766 0.6840138435 0.2584497631 -0.715580225 0.6442055106
-0.03458203375 -0.138030082 0.6825171113 0.1068379208 -0.7378512621 0.6655461192
-0.02292146906 -0.1298277825 0.6875233054 0.2953387201 -0.695961237 0.6541118622
-0.07265413553 -0.1225636303 0.6884695888 -0.473942697 -0.6402733922 0.6026999354
-0.06645607948 -0.1358910501 0.6795479655 -0.3860530853 -0.6729092598 0.6292333603
-0.07322447747 -0.1312070489 0.6787596941 -0.5071858168 -0.6305230856 0.5835781693
-0.05938655511 -0.1534509212 0.6630399227 -0.2700732946 -0.6908848882 0.66006428
-0.05654755235 -0.1587819606 0.6589055657 -0.2097029388 -0.6985779405 0.6812524796
-0.0520907864 -0.1612257063 0.656193614 -0.1313986182 -0.7132059336 0.6843824387
-0.04801174626 -0.1537323594 0.6639043689 -0.08561629057 -0.7157638073 0.6865210533
-0.06166539714 -0.1392047256 0.6783007383 -0.3019280434 -0.6902117133 0.6559656262
-0.0655657649 -0.1417987347 0.6721963882 -0.3793738782 -0.6648127437 0.6290496588
-0.06843005866 -0.145191893 0.6660557389 -0.4355518818 -0.65889889 0.6058303714
-0.0762314871 -0.1362797171 0.6695104241 -0.5697234869 -0.588442862 0.5713685751
-0.07415803522 -0.143013075 0.6659449935 -0.5035575628 -0.6274535656 0.5937401056
-0.07057585567 -0.1389965266 0.6730162501 -0.4689983428 -0.6466030478 0.6013008952
-0.01559958979 -0.1278149188 0.6844468117 0.4277358651 -0.6634232402 0.6120443344
-0.01938010193 -0.1259170473 0.6895701885 0.3312432766 -0.6798143387 0.6529487967
-0.02062461898 -0.1346517503 0.6816829443 0.3687443435 -0.6875779629 0.622300148
-0.0244718492 -0.138936609 0.6807254553 0.3056884408 -0.7019876242 0.6396546364
-0.04926800728 -0.1681517959 0.6535430551 -0.08078975976 -0.7253889441 0.6763117909
-0.03900682926 -0.1648963094 0.6552374959 0.05862451345 -0.7234511971 0.6848620772
-0.04624362662 -0.1608868837 0.6572697163 -0.04194184393 -0.7232414484 0.6883365512
-0.03951263428 -0.1530933827 0.6681039929 0.05403606966 -0.7293065786 0.6797611117
-0.04322578758 -0.1570378095 0.6642338037 -0.01195054315 -0.7258402705 0.6876862645
-0.03666733205 -0.1557778865 0.6638992429 0.08832711726 -0.7404375076 0.6643176675
-0.03462642431 -0.1597561389 0.6581783891 0.1302439719 -0.7110339403 0.6852868795
-0.05458442867 -0.155155465 0.6660447121 -0.1720180809 -0.7006030083 0.6917641759
-0.04938545823 -0.1591346115 0.662299335 -0.09967454523 -0.7105141282 0.6913416982
-0.04647067562 -0.1373324543 0.6828280687 -0.07103426009 -0.7297559381 0.6767089963
-0.05111167207 -0.139774397 0.6795786023 -0.1455251873 -0.7194848657 0.6713614464
-0.0473898463 -0.1429291666 0.6769660711 -0.08340726048 -0.7250214219 0.6803423166
-0.06275801361 -0.1339472085 0.6839761734 -0.3208566606 -0.693447113 0.6421111822
-0.05640075728 -0.1374872327 0.6813990474 -0.2273384631 -0.7096306086 0.6662589312
-0.05185198039 -0.1352208257 0.685764432 -0.1588540673 -0.7229392529 0.6709948182
