# .PCD v0.7 - Point Cloud Data file format
VERSION 0.7
FIELDS x y z normal_x normal_y normal_z
SIZE 4 4 4 4 4 4
TYPE F F F F F F
COUNT 1 1 1 1 1 1
WIDTH 512
HEIGHT 1
VIEWPOINT 0 0 0 1 0 0 0
POINTS 512
DATA ascii
-0.07181975991 -0.05631608143 0.6642582417 0.6524659991 -0.5577036738 0.5129954219
-0.01154830493 -0.1441776454 0.7074042559 0.1387585849 -0.6925138831 0.7013872862
0.01643517613 -0.1735683233 0.6624922752 0.6331592798 -0.5095530152 0.5813286901
-0.0685935691 -0.07719598711 0.6414257288 0.684279561 -0.5190844536 0.5110390186
-0.07159617543 -0.08333288878 0.6394391656 0.7009554505 -0.507332921 0.5000402927
-0.07269994915 -0.08093864471 0.6447919011 0.7071174979 -0.5047410727 0.4948656261
-0.07096679509 -0.07302270085 0.6508938074 0.6947510242 -0.5157094002 0.5011776686
0.04785839096 -0.07049385458 0.654242456 0.1931402832 -0.4534244537 0.7866097689
0.03852539137 -0.07459086925 0.6596335173 -0.3758864701 -0.4411921203 0.7950638533
0.04330321401 -0.07564712316 0.6543657184 -0.05796240643 -0.5106264353 0.7552807331
0.0420793891 -0.08323595673 0.6494649053 -0.07304722816 -0.6502770782 0.6771105528
0.0386387594 -0.08046453446 0.6541849971 -0.3472799659 -0.5478345752 0.7108271122
0.03761707619 -0.08934085071 0.6449583173 -0.4695728421 -0.6589809656 0.5357559323
0.03646208718 -0.08286547661 0.6484045386 -0.5253874063 -0.4539400637 0.6988879442
0.05175132677 -0.09665562212 0.6177998781 0.363209635 -0.7186414599 0.5830488801
-0.02673609182 -0.1632713228 0.688064456 -0.135061413 -0.6628978252 0.7250655293
-0.01957358047 -0.1748643816 0.6833280921 0.02486086823 -0.6664922237 0.7386677861
-0.01061953139 -0.170601517 0.6814409494 0.1970790774 -0.6456050873 0.735342145
-0.009323376231 -0.1608411074 0.6895703077 0.1952455938 -0.6806239486 0.6934901476
-0.02069700509 -0.1760172993 0.6767639518 0.009472025558 -0.652905643 0.7497168779
-0.0009019138524 -0.1556547433 0.6908510327 0.3395013511 -0.6651419401 0.6631153822
-0.0007446531672 -0.1505241543 0.6956900954 0.3226197064 -0.679302454 0.6546222568
0.03032739647 -0.1568342745 0.6554141045 0.7831587195 -0.4341068268 0.4451646507
0.03112385795 -0.1621491909 0.652225256 0.7644465566 -0.4376095831 0.4725848734
0.02578060888 -0.1609294116 0.6601973772 0.7550538778 -0.4444282651 0.4799487889
0.02247602865 -0.1697212011 0.6613404751 0.7040694356 -0.473271817 0.528578639
0.02276312001 -0.164551124 0.6643390656 0.7072975636 -0.4684557021 0.5278515816
0.01819241978 -0.1597408503 0.6717278957 0.6572324038 -0.5015402436 0.5609146953
0.02055086568 -0.1332992911 0.6974467635 0.5988537073 -0.5741708279 0.5572487116
0.02612649277 -0.1680715233 0.6547082067 0.7318015099 -0.4636722505 0.4958723485
0.009657940827 -0.174816817 0.6681234837 0.4984560907 -0.5712788105 0.6493138075
0.004694613162 -0.1779006273 0.6700336337 0.4359890223 -0.6084446311 0.6613119841
0.004211222287 -0.1360537857 0.7098188996 0.3769938648 -0.6332669258 0.6747389436
0.04114840925 -0.08465826511 0.6183252931 -0.03092007153 -0.488719523 0.7506855726
0.04801559076 -0.08239240199 0.619851172 0.1837103814 -0.5121053457 0.733551085
0.03777505085 -0.08049610257 0.6218468547 -0.08544357121 -0.5402659178 0.6327289939
0.02768163942 -0.08024203777 0.6225062609 -0.3663161993 -0.5487242341 0.5720442533
0.06109842658 -0.06884251535 0.6314314604 0.5305800438 -0.5768150091 0.618937552
0.05607764423 -0.06885866076 0.6434126496 0.4848422408 -0.4871512353 0.7127864361
-0.06507890671 -0.05637528002 0.6559153795 0.6418757439 -0.5696566701 0.5130966902
-0.06369096041 -0.05939068645 0.6502794623 0.6481824517 -0.5600947738 0.5151872635
-0.06592050195 -0.07680369914 0.6350269318 0.6689352393 -0.5273767114 0.5234842896
-0.0629767105 -0.06736661494 0.6408566236 0.6480059624 -0.5494038463 0.5273422003
-0.06715937704 -0.06732089072 0.6509662867 0.6767490506 -0.5303994417 0.5097848773
-0.06791617721 -0.0704312101 0.642880559 0.6755694747 -0.5291784406 0.5125542283
-0.04946837574 -0.1200392172 0.7161759138 -0.4621690214 -0.5690047741 0.6731270552
-0.05452054366 -0.1191586629 0.711215198 -0.5173881054 -0.5543287992 0.6453104615
0.05660709366 -0.09460818022 0.6211151481 0.480327338 -0.6433579326 0.5873804092
0.04651024565 -0.09926194698 0.6244285107 0.1692694426 -0.815879941 0.5271843672
0.04616426304 -0.09640627354 0.6299484968 0.1301827282 -0.8046178818 0.5413682461
0.0432991311 -0.09392094612 0.637181282 0.01570942067 -0.8030645251 0.5681245327
-0.08422902972 -0.1415993869 0.6309082508 -0.9344763756 0.150231421 0.2937001884
-0.07783143222 -0.1251776516 0.6245016456 -0.2854585946 -0.1120500639 0.3434589803
-0.08569861948 -0.1336626858 0.6212854385 -0.9230751395 0.3133883178 0.1966463029
-0.07242549211 -0.1307658851 0.6783331633 -0.7425943017 -0.4671309292 0.4798710048
-0.06193217635 -0.1662536412 0.660902679 -0.6817029715 -0.4638991058 0.5595163107
-0.02478400432 -0.1784873158 0.6839623451 -0.07567364722 -0.6648697257 0.7406184077
-0.02288220823 -0.1676170677 0.6892790198 -0.05974853784 -0.6837880015 0.7224534154
-0.01158320345 -0.1652824432 0.6865593195 0.161552608 -0.6766176224 0.7151566744
-0.006166874431 -0.1662151068 0.6824070811 0.259776473 -0.6609306931 0.6974949241
-0.02633527108 -0.1823102534 0.673632443 -0.1027038991 -0.64590168 0.7456534505
-0.01859967038 -0.1817912161 0.6725388169 0.02716845274 -0.6595334411 0.7401987314
-0.007546821609 -0.1730252355 0.6769797802 0.2561888695 -0.6445043087 0.7151612043
0.000786805118 -0.1635553837 0.6833695769 0.3627539277 -0.6309094429 0.6822103858
-0.001139443833 -0.1755711883 0.6734461784 0.3666552603 -0.6197194457 0.6904017925
-0.02764864638 -0.1731667519 0.6789928675 -0.1352556646 -0.6347694993 0.7553223372
-0.01496625133 -0.1739103943 0.6786701083 0.1208208874 -0.6440512538 0.7548444867
-0.01776661165 -0.167982325 0.6843611002 0.05247857422 -0.6662713289 0.7388404012
-0.00298207649 -0.1450226307 0.7039725184 0.2956875861 -0.6766896248 0.6717104316
0.00397339277 -0.147407487 0.6965411901 0.3979877532 -0.6651126742 0.6285784841
0.01646560431 -0.1378618032 0.6956444383 0.579102695 -0.5973531008 0.5520107746
0.008410499431 -0.1430424452 0.6980218887 0.4655531347 -0.6408708692 0.6034681201
0.00539052533 -0.1411678791 0.7047070861 0.4083197713 -0.6534172893 0.6337002516
-0.005385397468 -0.1421222836 0.7083756328 0.2524143457 -0.6776136756 0.6900853515
-0.03933554888 -0.09372209013 0.5943431258 0.3205500245 -0.6236313581 0.7117980719
-0.0321056433 -0.0899977237 0.5963423848 0.2156099379 -0.658882618 0.7147532701
-0.02023816295 -0.06905502081 0.615880549 0.00725898752 -0.6984215379 0.7118835449
0.03533904254 -0.1160150096 0.622613132 -0.007658834103 -0.8185005784 0.4853292704
0.03516604751 -0.1246294528 0.6258121729 0.09311843663 -0.7130818367 0.489552319
0.0342758745 -0.1296095699 0.6316496134 0.2541401684 -0.6434386969 0.4771390557
0.03992653638 -0.1515195072 0.6403000355 0.7237939835 -0.4561875165 0.4378537834
0.03771827742 -0.1390002668 0.6333479285 0.4237735868 -0.5758057833 0.4629496634
0.03611433879 -0.1467382908 0.6434903145 0.7013252974 -0.4651457965 0.4397332072
-0.07031735033 -0.1063425392 0.6140335798 0.5361441374 -0.4103350937 0.5211154222
-0.07718423009 -0.1197497249 0.6139259338 -0.4198835492 -0.003304722253 0.2366032898
-0.07357507944 -0.1125584319 0.6140901446 0.09693817049 -0.221755892 0.3895558715
-0.0835550949 -0.1279059798 0.6171924472 -0.8717095256 0.2396451533 0.07483670115
-0.06912593544 -0.1126050353 0.6095653176 -0.0423986204 -0.2202546746 0.3778505027
-0.06565095484 -0.1061842516 0.6076740623 0.3112325072 -0.4081558287 0.5043188334
-0.0608956553 -0.1039600596 0.6050240993 0.4199438095 -0.4809713364 0.5492479801
0.005060403142 -0.1531317383 0.691604495 0.4200432599 -0.655992806 0.6259011626
0.02305414528 -0.1582149416 0.667909205 0.7257797122 -0.4677359462 0.4999735355
0.02092390694 -0.1485329121 0.680214107 0.6669999361 -0.5356675982 0.5158301592
0.008225136437 -0.1674674749 0.672264874 0.4961887896 -0.5679709911 0.6347040534
-0.0001315486588 -0.1697771549 0.6778938174 0.3727141619 -0.6261048317 0.6826179624
0.01366719604 -0.1632404327 0.6747844219 0.5838730335 -0.5357200503 0.6081725955
0.007323646452 -0.1632202119 0.6788942814 0.4729923904 -0.5952552557 0.641122818
0.01571443863 -0.1659341455 0.6687811017 0.6216068268 -0.5064896941 0.5955392122
0.01109918579 -0.1563411057 0.683344245 0.5168317556 -0.5975030661 0.6075387001
0.005897727795 -0.1595854014 0.6839744449 0.4330527484 -0.6234592199 0.6483245492
0.01282306574 -0.1389642209 0.7010855675 0.4931189418 -0.6285134554 0.6004236937
0.006172353867 -0.07389442623 0.6185172796 -0.4321252406 -0.6292697191 0.6449648142
-0.07323236763 -0.06360637397 0.6626261473 0.6711252928 -0.5375301838 0.5102293491
-0.06877357513 -0.06127851829 0.6570766568 0.6624775529 -0.5472542644 0.5111306906
-0.07232587785 -0.06681547314 0.655089736 0.6823421717 -0.5254750848 0.5080364347
-0.002469874453 -0.1380482018 0.7121430635 0.2948800325 -0.6524171233 0.6960398555
-0.07117150724 -0.1289340109 0.6843859553 -0.7346193194 -0.470279783 0.4889996946
-0.04854078963 -0.1252290756 0.71234864 -0.4953901172 -0.5839234591 0.6407423615
-0.042679362 -0.1192923859 0.7204155922 -0.3944968283 -0.5635052919 0.7201242447
-0.04010958597 -0.1280020326 0.7187427878 -0.3926004469 -0.6155975461 0.6822444797
-0.02616266534 -0.1268232912 0.719840765 -0.1574053764 -0.6326698065 0.7391971946
-0.0170835983 -0.1191479936 0.7236870527 -0.0124992216 -0.6258526444 0.7557755709
-0.02698427252 -0.1188620254 0.7236566544 -0.1673928201 -0.5932980776 0.7566397786
-0.03140810877 -0.124705188 0.7246233821 -0.217342034 -0.6195071936 0.7467901111
0.06160291657 -0.08512220532 0.6225730181 0.5156074166 -0.6451430917 0.5626785755
0.05103325844 -0.0907368511 0.6164928079 0.2967437804 -0.5837666392 0.7274323702
0.05647057295 -0.07845702022 0.6230019331 0.481105715 -0.6035140753 0.6319815516
0.0552502349 -0.08533426374 0.6191538572 0.4167483449 -0.6268001199 0.6564135551
-0.04947128519 -0.1511377543 0.6898830533 -0.4793328941 -0.599629581 0.6402819753
-0.05628198013 -0.1482883543 0.6849855781 -0.6179519296 -0.5388738513 0.5687810779
-0.06013081595 -0.1491832286 0.6789630055 -0.6541721821 -0.5215898156 0.534799993
-0.06520269066 -0.1430060416 0.6773087382 -0.7240034938 -0.4816110432 0.4893776476
-0.06850299239 -0.1458339095 0.6701197028 -0.7496315241 -0.4533719718 0.4816951752
-0.06748061627 -0.08304940909 0.6313785315 0.680352807 -0.5155732036 0.5208221078
-0.0709394142 -0.08761429042 0.6335065365 0.6867176294 -0.5086919069 0.5189930797
-0.07314688712 -0.1086614579 0.6197825074 0.5604357123 -0.3998574317 0.5239569545
-0.07813820243 -0.1135234833 0.6200062037 0.03576081246 -0.1565183699 0.3395324647
-0.07366672903 -0.1026907116 0.6217027307 0.6916739941 -0.4519937932 0.5346370935
-0.08293685317 -0.1340638399 0.628200829 -0.7413004637 0.1512537301 0.3173572123
-0.07995066047 -0.1190300882 0.6230166554 -0.1071583256 -0.05499392003 0.4045951068
0.03462966532 -0.1580935717 0.6472886801 0.778601706 -0.4375388324 0.4497174323
-0.005975273903 -0.156003803 0.6935743093 0.2601162195 -0.6854771972 0.6764755845
-0.01318381261 -0.1578966677 0.6944631338 0.1320956945 -0.7002286315 0.6997081041
-0.01192563865 -0.1495282352 0.7018384337 0.1359241456 -0.7018266916 0.697031498
-0.02682678215 -0.1494590342 0.6992468238 -0.1728857607 -0.6731441617 0.7051561475
-0.01975262351 -0.1492394656 0.7005848289 -0.0252128318 -0.6852568984 0.7013038397
-0.005330516025 -0.1491119266 0.6995606422 0.244704634 -0.6954979897 0.6746899486
-0.02907016128 -0.1593506187 0.6918353438 -0.1909570098 -0.6741704941 0.7106235623
-0.01534394547 -0.1538483053 0.6986528039 0.07623208314 -0.7064881921 0.701279521
-0.02067719214 -0.1614899337 0.6922841668 -0.02778674103 -0.6959286928 0.7114539146
-0.02891547047 -0.1463512778 0.7046627998 -0.2007953227 -0.6913271546 0.6885329485
-0.02112887055 -0.14646855 0.7058189511 -0.04667448625 -0.7002057433 0.7042627931
-0.03466848657 -0.1583285034 0.6904796362 -0.2806334496 -0.6579214931 0.6980754733
-0.02569928579 -0.1559783369 0.6972203255 -0.1310508698 -0.6871085763 0.7120047212
-0.03722945228 -0.1821628511 0.6711397767 -0.2847793102 -0.6037303209 0.7368098497
-0.03236011788 -0.1846621633 0.6762097478 -0.2017011642 -0.6146498919 0.7475082278
-0.009083257988 -0.1826730222 0.6731957793 0.2167428881 -0.6675084829 0.6990228891
-0.01963551901 -0.1821271181 0.6794002056 0.03311403841 -0.6511782408 0.7401540279
-0.002926510526 -0.1815974414 0.6714039445 0.3264904618 -0.6549233794 0.6783545613
-0.03121883608 -0.08380235732 0.603603065 0.2032239288 -0.680398345 0.6926082969
-0.02966757119 -0.09353669733 0.5915766358 0.1713717431 -0.6640586257 0.7176674604
-0.01995961182 -0.09317391366 0.5893339515 -0.0244892668 -0.7029573321 0.7084825635
-0.0219447799 -0.09033270925 0.5952023268 0.02932078019 -0.6969530582 0.7097503543
-0.04088072479 -0.08493289351 0.604914546 0.3420417607 -0.632540524 0.6892552972
-0.0434592925 -0.09054657072 0.6002271771 0.3821205199 -0.6076389551 0.6912905574
-0.03669140488 -0.08699084818 0.6001660824 0.2919270992 -0.6422298551 0.7054615021
-0.07895465195 -0.1574684978 0.6484438777 -0.854452014 -0.3502346575 0.3822569251
-0.07667905092 -0.1521037668 0.6455103755 -0.8858509064 -0.3012512326 0.3431789577
-0.07112158835 -0.1554583311 0.6537010074 -0.8323472142 -0.3438822925 0.4174619019
-0.07407667488 -0.1486598998 0.6516051292 -0.8555548191 -0.3153690398 0.382918179
-0.07223688066 -0.146908775 0.6582586765 -0.8120298982 -0.3637331426 0.4267695248
-0.06951188296 -0.1539583653 0.6609758139 -0.7906113863 -0.3961163759 0.4644180834
-0.03201219067 -0.05908739939 0.6261883378 0.1864485741 -0.6930040717 0.6943922043
0.03638192639 -0.1272405535 0.6403117776 0.4197942019 -0.5971778035 0.4550679624
0.03469289467 -0.1327869296 0.637009263 0.3954233229 -0.5855804682 0.4645023942
0.03486006707 -0.1238418519 0.6343717575 0.2325344235 -0.6478641629 0.4767027795
0.03534638137 -0.1370690763 0.641839087 0.5424467921 -0.5259233713 0.4516478777
0.03708289564 -0.1205342636 0.6513620615 0.2754534185 -0.5144137144 0.442999661
0.03652065247 -0.1308260411 0.6607109308 0.6530916691 -0.4890312552 0.4551310539
0.03809815645 -0.1301194727 0.6539885402 0.6476130486 -0.48316136 0.455255121
0.03943534568 -0.1130390838 0.6490027308 0.3238561749 -0.6217110157 0.5158305168
0.04053270444 -0.1113748178 0.6256662011 0.1847389638 -0.7755688429 0.4986464679
0.04129906371 -0.1110368893 0.6363558173 0.2812108696 -0.7006260753 0.5112551451
0.04045611992 -0.1085163057 0.6428039074 0.235816732 -0.6855400205 0.5269932151
0.04104369506 -0.1188394278 0.6364901066 0.4291815758 -0.6445186734 0.4818502069
0.04014839232 -0.1178250536 0.6429855824 0.4123598039 -0.6184917092 0.4919325709
0.04074485973 -0.09603112936 0.6434299946 -0.0006457170821 -0.7710173726 0.5748535991
0.04194016382 -0.1002198309 0.6341560483 0.07532476634 -0.7887126207 0.550085485
0.04234738648 -0.1062118635 0.6300270557 0.1873909384 -0.7672762871 0.5234362483
0.03786868602 -0.1380559802 0.6534368396 0.7824795842 -0.4250916839 0.4273404479
0.03722543642 -0.1323464513 0.6459113359 0.586506784 -0.523540318 0.4414749444
0.03918403015 -0.1436493695 0.6363804936 0.5685830116 -0.5389642715 0.4467364848
0.03807645664 -0.1382587105 0.647110641 0.6798883677 -0.478361994 0.435811013
0.03111950494 -0.1519329548 0.659886241 0.7949960232 -0.4250868559 0.4325669408
0.0268658977 -0.1537494659 0.6654034257 0.7774803638 -0.442422092 0.4468514025
-0.001427401905 -0.07731043547 0.6114656925 -0.306787014 -0.6667131782 0.6715233326
0.01541413367 -0.1516696364 0.6839836836 0.5854768753 -0.579336822 0.564093411
0.02292031422 -0.1518418789 0.6733024716 0.7130504847 -0.4905471802 0.5001011491
0.01659108326 -0.1566096842 0.6773175597 0.6300927997 -0.5270586014 0.5691393614
0.02663373761 -0.1489941627 0.6687716842 0.7607903481 -0.4621098042 0.4524169564
0.02869717218 -0.1429044753 0.6736943126 0.7609018683 -0.4719114602 0.4446889758
0.009927134961 -0.1488750428 0.6919350028 0.4966803491 -0.6311890483 0.5933775902
0.01371765137 -0.143675074 0.692951262 0.5572502017 -0.6164566278 0.5551123619
0.03184918687 -0.08302363753 0.6409532428 -0.6666505337 -0.4978948832 0.5385963321
0.05808537826 -0.07272062451 0.6275097132 0.5331379175 -0.5750218034 0.6199925542
-0.000343064894 -0.07201889157 0.617669642 -0.3190166354 -0.6584498882 0.6755093932
-0.01262154058 -0.06928900629 0.6165056825 -0.1109670848 -0.6955618262 0.7054017782
0.04594839364 -0.0882044211 0.6397035718 0.0667110011 -0.7482315898 0.5929458141
0.05381596088 -0.08551909775 0.631891489 0.2945004404 -0.6881682873 0.5814252496
0.05838290229 -0.08345407993 0.62758708 0.4287389219 -0.6488251686 0.5773684382
0.05886726081 -0.07099422067 0.6368072629 0.529815495 -0.5146651864 0.66076231
0.05336448923 -0.06823758781 0.6493874788 0.4462713301 -0.453101486 0.7646796107
0.05120622739 -0.07492949814 0.6455755234 0.3272329867 -0.548458457 0.7091112733
0.04625625536 -0.08333837241 0.6442410946 0.1231286153 -0.6772751808 0.6465209723
0.04929583892 -0.08329047263 0.6392879486 0.1913483143 -0.6775174141 0.6206852794
0.05441717803 -0.07881713659 0.6358992457 0.3553311527 -0.6097960472 0.6323415637
0.05853271112 -0.07747136056 0.6306381822 0.4619998634 -0.5902569294 0.6134532094
0.05637642741 -0.09166555107 0.6274690032 0.3799889684 -0.6559973955 0.590941608
0.06122886389 -0.09156858176 0.6223009229 0.5250253677 -0.6123000979 0.5893447995
0.04900513217 -0.0919682309 0.6352591515 0.1608116329 -0.7213819027 0.5940697193
-0.05942223594 -0.06132427976 0.6432923675 0.6311664581 -0.5651198626 0.5310182571
-0.06685694307 -0.05331180245 0.6620418429 0.6354106665 -0.5755912066 0.5146234035
-0.06178815663 -0.0495618321 0.6594025493 0.6163716912 -0.5853620768 0.5260774493
-0.06020679325 -0.05313700438 0.6527494788 0.6249123812 -0.5801288486 0.5222725868
-0.02123601548 -0.06237288564 0.6224322915 0.02110435069 -0.6944542527 0.7133004665
-0.02157389 -0.1289276928 0.7245887518 -0.05913022533 -0.6522016525 0.7543699145
-0.01835758798 -0.130755797 0.7192100883 -0.01700539701 -0.6678766012 0.736444056
-0.03565037623 -0.1193474233 0.7241333723 -0.2996788621 -0.5710072517 0.7560690641
-0.02164339647 -0.1210357696 0.7287225723 -0.06019848585 -0.6396875381 0.7539278269
-0.002240864793 -0.1299791038 0.7185137868 0.2761090696 -0.6309024692 0.7248055935
0.01055878773 -0.1299121827 0.7104942799 0.4045855403 -0.6031970382 0.6871870756
-0.04437717795 -0.1294577718 0.7139065266 -0.4567084312 -0.6059934497 0.6505230665
-0.02845158055 -0.1351957768 0.7157155871 -0.19252716 -0.6703589559 0.7127998471
-0.03134392947 -0.1289925575 0.7185495496 -0.240933314 -0.6282051802 0.7308833003
-0.03596190363 -0.1324642599 0.7150267363 -0.3305260539 -0.6489280462 0.6830533743
-0.03348291665 -0.142369315 0.7070305347 -0.287304759 -0.6770290732 0.6750043035
-0.03292400017 -0.1379443705 0.7115471959 -0.2792623937 -0.6739212275 0.6793112755
-0.02513048984 -0.1418450475 0.7086144686 -0.1242219657 -0.6917500496 0.690893054
-0.05176300555 -0.1439148039 0.6922552586 -0.5394320488 -0.5765800476 0.6037150621
-0.04719931632 -0.1430112571 0.696765244 -0.456415832 -0.6168900132 0.6397742033
-0.04795287922 -0.1364673525 0.7040244937 -0.4918774962 -0.6033352017 0.62662673
-0.04448728636 -0.1341530532 0.7096278071 -0.4605468214 -0.6138448715 0.6410655975
-0.04384378344 -0.1412191838 0.7021230459 -0.4307258427 -0.6364091039 0.6375807524
-0.03853150457 -0.1392039806 0.7059514523 -0.3546845615 -0.6597694755 0.6574362516
-0.05330770463 -0.1234772578 0.7068204284 -0.5350023508 -0.5666778088 0.6224567294
-0.04811767489 -0.1288723052 0.7069329023 -0.474022001 -0.5989840031 0.6341721416
0.01469976734 -0.1331014037 0.7047049403 0.490493536 -0.6183328629 0.6134364605
-0.0684883818 -0.1362311095 0.6788226366 -0.7394180894 -0.4705498815 0.4805490375
-0.06699454784 -0.1357218772 0.6843733191 -0.7089598775 -0.4936261475 0.5029122829
-0.06000557542 -0.1190308183 0.7069598436 -0.566208899 -0.5471788049 0.6164047718
-0.06249210611 -0.1240682006 0.7012090683 -0.6078013778 -0.5404618382 0.5799042583
-0.02962608263 -0.04722969234 0.637901485 0.1637454629 -0.7027924061 0.6875097752
-0.03232157603 -0.04399792477 0.6422518492 0.2115203738 -0.7107013464 0.6639875174
-0.03286193684 -0.03862508014 0.6466019154 0.2140464336 -0.7403716445 0.634036839
-0.02621053532 -0.0385909602 0.6457745433 0.09723018855 -0.7644007802 0.6348081231
-0.05631163716 -0.1294205338 0.7036219239 -0.5614989996 -0.564483285 0.6043362617
-0.05327941477 -0.07133319974 0.6262515783 0.5330786109 -0.5894181728 0.6066920161
-0.0582545884 -0.07502008975 0.6277014017 0.5940744281 -0.5579143763 0.5778176188
-0.0530936569 -0.08129183203 0.6162803173 0.537163496 -0.5826409459 0.609531939
-0.05495689064 -0.07797318697 0.6214724779 0.5537016392 -0.5714964867 0.6046409011
-0.02553666756 -0.07947044075 0.6054713726 0.08623468876 -0.6972835064 0.7106197476
-0.0314729996 -0.0795211494 0.6081459522 0.1975200921 -0.6769753695 0.6954136491
-0.03257199377 -0.06389331818 0.6216331124 0.1997626126 -0.6835430264 0.6987904906
-0.03413781151 -0.06800861657 0.617449522 0.2139803469 -0.6791878939 0.7016405463
-0.02634143084 -0.06672098488 0.617637217 0.091832228 -0.694614768 0.7118131518
-0.05469387397 -0.1754484326 0.6668241024 -0.5661480427 -0.5094482303 0.6452208757
-0.06017119437 -0.1754245907 0.6625825167 -0.6229364872 -0.4902593791 0.6070923805
-0.06798710674 -0.1671707332 0.6568578482 -0.7403025031 -0.4246544838 0.5063467622
-0.03115913644 -0.1769984066 0.6810991168 -0.1985752285 -0.619899869 0.7488722801
-0.0371825844 -0.1685608774 0.6807541847 -0.3348188102 -0.5790306926 0.7393366098
-0.03354706988 -0.16359061 0.6856718063 -0.2515277863 -0.6286097765 0.7306982875
-0.02765399776 -0.1829015017 0.6808004975 -0.1203346848 -0.6433665156 0.7524145246
-0.02732194774 -0.1723092198 0.6862401962 -0.1356711388 -0.666751802 0.7298774719
-0.07344215363 -0.1383728236 0.6682639718 -0.7941263318 -0.4129432738 0.4421434104
-0.07390435785 -0.1436703354 0.6639871001 -0.8263814449 -0.3745166957 0.4185265005
-0.07011004537 -0.1376954615 0.673211813 -0.7644045353 -0.4470771551 0.4628243744
-0.07667314261 -0.1205082461 0.637785852 -0.1543126702 -0.3108901083 0.4309270978
-0.07662711293 -0.1140283421 0.6267333627 0.1667329669 -0.2756853104 0.4608902633
-0.07974137366 -0.1345373541 0.6439561248 -0.7809895873 -0.1145369485 0.3439074159
-0.07603156567 -0.115394786 0.6326847672 0.08508836478 -0.3386830688 0.4590876698
-0.07882461697 -0.1249947175 0.632758379 -0.3277608752 -0.1406446993 0.3943670094
-0.07462852448 -0.1088026017 0.6287164688 0.3897335827 -0.421018064 0.4997787178
-0.07726228237 -0.1293794215 0.6406091452 -0.4801722765 -0.241024971 0.3869639039
-0.07882297784 -0.1398774385 0.635471344 -0.8091691732 -0.05383240059 0.328851372
-0.07758446038 -0.130819723 0.6343243122 -0.4681337774 -0.1678545773 0.378714174
-0.07619040459 -0.1200370863 0.6288108826 -0.01964989118 -0.2682897747 0.4378668964
-0.07729925215 -0.131230548 0.6550875902 -0.7270702124 -0.3184382915 0.3692623675
-0.0734141171 -0.09790323675 0.6315876245 0.5690059662 -0.471323669 0.5106683969
-0.07507737726 -0.09772784263 0.6439660192 0.3663356304 -0.452920258 0.4605366588
-0.07482662797 -0.1035902128 0.6363455057 0.3746117055 -0.4403573275 0.4815261662
-0.07628887892 -0.1222832054 0.6446700692 -0.2747788727 -0.3624277711 0.4221658707
-0.07578119636 -0.1119331941 0.6444159746 -0.005435024388 -0.4005205333 0.4381738603
-0.07525636256 -0.1090574116 0.638809979 0.1840659231 -0.417530477 0.4640496671
-0.07422091812 -0.09199637175 0.6355270743 0.6873816252 -0.4836476147 0.5015242696
-0.07630544901 -0.1156820059 0.64941746 -0.2046878338 -0.3810241818 0.4133710861
-0.07687778026 -0.1246439293 0.6533209682 -0.5216386318 -0.3444691002 0.3856231868
-0.07447938621 -0.09002457559 0.6415782571 0.6082452536 -0.4842131734 0.4811676145
-0.07445190102 -0.105611898 0.643697083 0.1113803461 -0.4300733507 0.4531082213
-0.07758568972 -0.1395359337 0.6523444653 -0.9002834558 -0.2697258294 0.3365080059
-0.0779774189 -0.1467457116 0.6408219934 -0.9276397228 -0.1948879212 0.3048326373
-0.08198165148 -0.1403095722 0.6406862736 -0.927360177 -0.01363961957 0.3157811165
-0.08379017562 -0.1461067349 0.6360687613 -0.9387086034 0.01990747638 0.3088936806
-0.07973347604 -0.1464801282 0.6519144177 -0.8844020963 -0.2881881595 0.3507770002
-0.0822654143 -0.1524313539 0.6430318356 -0.9022564888 -0.1727052927 0.3348558843
-0.06293285638 -0.09902770817 0.609213829 0.59435606 -0.5489308238 0.5868159533
-0.01517202519 -0.07286989689 0.6110083461 -0.1009714529 -0.6951449513 0.7108590007
-0.02218263783 -0.07518164068 0.6098239422 0.03411650285 -0.6957612038 0.7130761743
-0.009622916579 -0.078121759 0.6081110835 -0.1664024293 -0.6885145903 0.702583313
-0.00745551195 -0.07435034215 0.6122171283 -0.213244155 -0.6870838404 0.6915351152
-0.0313603431 -0.177599743 0.6746006608 -0.1993344277 -0.6223543882 0.7410134077
-0.03763527423 -0.1762906164 0.6731193066 -0.3269493282 -0.5727307796 0.7306268811
-0.05026868358 -0.1810752898 0.6669768095 -0.5049029589 -0.5229207277 0.6849012971
-0.05512621626 -0.1675813198 0.6663000584 -0.6074846983 -0.4856268466 0.6256020665
-0.0607310608 -0.09393838048 0.611569047 0.5929552913 -0.5508827567 0.5869556665
-0.05761079118 -0.09836667776 0.6048366427 0.5661503673 -0.5612297058 0.6036430597
0.01061444078 -0.08254110813 0.612775147 -0.5038963556 -0.5928797126 0.6272289157
0.02380395308 -0.08311723918 0.6157646179 -0.3237653375 -0.538629353 0.7005595565
0.03488344699 -0.08549071103 0.6160298586 -0.1443862021 -0.4869046807 0.7789980173
0.02702413313 -0.09971994162 0.6178487539 -0.4831864834 -0.6405712366 0.5601258874
0.03188303113 -0.1460994929 0.6632148623 0.790342927 -0.4362802207 0.4299816191
0.03478711098 -0.1414104551 0.6599975228 0.7944052815 -0.4303799868 0.4282318056
0.0369842872 -0.1465819329 0.6513808966 0.8036378622 -0.4189933836 0.4225095212
0.03428459167 -0.1525950134 0.6513947248 0.7913713455 -0.4283578396 0.4358952045
-0.003110022517 -0.08286286891 0.6052054167 -0.2774707377 -0.6589237452 0.6947576404
0.003916251473 -0.08153472096 0.6094084382 -0.413819015 -0.6221068501 0.6633474827
0.004196936265 -0.07679256797 0.6139296293 -0.4192584455 -0.6395468712 0.6441102624
-0.008275717497 -0.09307798743 0.5945803523 -0.2207802385 -0.6493310928 0.7186817527
-0.01463328209 -0.08959680796 0.5948474407 -0.1125952676 -0.7002639174 0.7013227344
0.02011606842 -0.08349395543 0.6222866178 -0.6349409223 -0.5452774763 0.5471741557
0.01630636305 -0.08374704421 0.617665112 -0.5923860073 -0.5568605065 0.5803893209
0.02371702343 -0.0897981599 0.6213597059 -0.6053238511 -0.5745853186 0.5491989851
0.0201844424 -0.1436318308 0.6859031916 0.6422131658 -0.5692048669 0.5090187788
0.02176638879 -0.1359814703 0.6916472316 0.6348029971 -0.5656770468 0.525231719
0.02431637421 -0.1385692507 0.686371088 0.6586648822 -0.5598563552 0.5018402934
-0.006591567304 -0.06819570065 0.6186698079 -0.2145342231 -0.6773142219 0.7012900114
-0.01402662694 -0.06435688585 0.6212079525 -0.106488362 -0.6942872405 0.7104715109
-0.007434339728 -0.06338361651 0.6228809953 -0.2075443715 -0.6806559563 0.6995511651
-0.001374342944 -0.06512460113 0.6233086586 -0.3004171848 -0.6607176065 0.6833215356
-0.05749607459 -0.06689663976 0.6345824003 0.5835096836 -0.5760848522 0.5686033368
-0.06016764417 -0.07198069245 0.6324832439 0.6156415343 -0.5534015894 0.5596276522
0.02791923843 -0.07775627077 0.6391544342 -0.7039353251 -0.4707747102 0.5312462449
0.04585577175 -0.07333600521 0.6280714869 0.1696388274 -0.5643844008 0.6041531563
0.03889693692 -0.07270826399 0.6293129325 -0.03781720996 -0.5521659851 0.5946714878
0.02024826035 -0.07234361023 0.6314657331 -0.5932427049 -0.5264347196 0.5665476918
0.05170964077 -0.07488764077 0.6261150241 0.3445629478 -0.5801101327 0.6100205779
0.03170603886 -0.06840056181 0.63488096 -0.2910063863 -0.5257493258 0.5912957788
0.04742324352 -0.06792572141 0.6330443025 0.2030202001 -0.5392835736 0.617393434
0.05440112203 -0.06761097908 0.632370472 0.4205258787 -0.5450104475 0.6291407347
-0.00379775092 -0.1221386045 0.7205489874 0.2107518613 -0.6327887177 0.7352042198
-0.007071025204 -0.1277170479 0.7223231792 0.1989508569 -0.6410830617 0.7368107438
-0.01283705607 -0.1265018731 0.7257074714 0.07646885514 -0.6440063715 0.75251472
-0.01508058328 -0.1225086451 0.7308760881 0.001269558328 -0.6578905582 0.7482660413
-0.01074214745 -0.1204885021 0.7259545922 0.08228548616 -0.6425037384 0.758710444
0.002525296528 -0.1270123124 0.7160112262 0.3247007132 -0.622471869 0.7086306214
-0.01583712921 -0.1410015225 0.7114742398 0.05119166896 -0.6975867748 0.7131735086
-0.01848711446 -0.1365219206 0.7156934142 0.01434703916 -0.6772652268 0.7294589877
-0.02352997102 -0.1394479871 0.7135659456 -0.09231545776 -0.6883564591 0.7164609432
-0.006957787089 -0.1350108385 0.7154496908 0.2250112742 -0.6420210004 0.7293947339
-0.01009001583 -0.1319978088 0.7190782428 0.1684489697 -0.6540472507 0.7323426604
-0.04090079665 -0.147232309 0.697707057 -0.3862709403 -0.6372922063 0.6656597853
-0.03608066589 -0.1527944058 0.6939730644 -0.3156201541 -0.6518560648 0.6886949539
-0.03400477394 -0.147923544 0.6988813281 -0.2966950238 -0.6586110592 0.6876072288
0.03395551816 -0.069686234 0.6566856503 -0.4332482219 -0.4335412979 0.7888852954
0.03066217341 -0.06782258302 0.6520753503 -0.456059128 -0.4383867681 0.7733860016
-0.06674885005 -0.1309725046 0.6889721751 -0.6936172247 -0.4943365157 0.5222763419
-0.06160526723 -0.1287629902 0.6962385774 -0.6417416334 -0.524078846 0.5586009026
-0.03405154124 -0.07374105603 0.612008512 0.2256179154 -0.6775000095 0.6998966932
-0.02771105804 -0.07205560803 0.6132919192 0.1265433878 -0.6906659007 0.7093798518
-0.04126731679 -0.1601719111 0.6855885983 -0.3805652559 -0.618001163 0.6850412488
-0.04127549753 -0.1551723927 0.6901583672 -0.3727957904 -0.6300643086 0.6787151098
-0.0491371192 -0.1564335376 0.6837134957 -0.4842482805 -0.5865736008 0.641789794
-0.06483982503 -0.1502532512 0.6728332639 -0.7252244353 -0.464817524 0.5062947869
-0.05567087233 -0.1541220844 0.6802865267 -0.5913783312 -0.5475640893 0.587792933
-0.06634117663 -0.08836591989 0.6257988811 0.6662991047 -0.5117537379 0.5421065092
-0.06169588864 -0.0890257135 0.6185193658 0.6360412836 -0.5319039226 0.5587547421
-0.07779090106 -0.1431666315 0.6568692923 -0.8773037195 -0.3131993711 0.3632326126
-0.07632055134 -0.1373383403 0.6610314846 -0.8480158448 -0.3444835544 0.3966597319
-0.07900595665 -0.1531709582 0.6533928514 -0.8559780121 -0.3407170177 0.3872641027
-0.02197971009 -0.08315927535 0.6013816595 0.02473582327 -0.7004778981 0.7065002918
-0.01569610462 -0.08446311206 0.5999231339 -0.1029898375 -0.7016272545 0.7027674317
-0.00859292876 -0.0859503001 0.6007205844 -0.2121386379 -0.667282939 0.7096571326
-0.01716559194 -0.0782808587 0.6063939929 -0.05990950391 -0.6954237223 0.712915659
-0.05737607554 -0.08885498345 0.6131438017 0.582246244 -0.5579919815 0.5902532339
-0.05205658823 -0.08703705668 0.6103924513 0.5154857039 -0.588342607 0.6209055185
-0.04389251024 -0.08338013291 0.6098393202 0.4064615369 -0.6288524866 0.6561597586
-0.05330216512 -0.09279376268 0.6060132384 0.5382469296 -0.5750377774 0.6152377129
0.036890205 -0.090641357 0.6124338508 -0.1377597898 -0.4605550468 0.7973331809
0.0190777164 -0.09283585846 0.6095747352 -0.5519875884 -0.5111157894 0.6308953166
0.02940388583 -0.09301204234 0.6095675826 -0.2749932408 -0.4752540886 0.755527854
0.01353690121 -0.09291370958 0.6062344909 -0.5462394357 -0.5265113115 0.6500512362
0.01482866425 -0.0884257704 0.6111736894 -0.5618010759 -0.5545706749 0.6114894152
0.0226870887 -0.09385783225 0.6157141328 -0.5993643999 -0.5542095304 0.5773555636
0.02849532105 -0.08821120858 0.6138414145 -0.3122450709 -0.5037401319 0.7135537863
0.02118715085 -0.09978510439 0.6084348559 -0.5568525791 -0.5170066953 0.6472979188
0.04237821326 -0.09140416235 0.6131724715 -0.02488229237 -0.4481958151 0.8459151983
0.03349144384 -0.09761235118 0.6114142537 -0.216459915 -0.4881903231 0.7880658507
0.04179414734 -0.09795212001 0.6150727868 0.01772149466 -0.6298778057 0.7115516663
0.0351979658 -0.102955766 0.6147685051 -0.1182328016 -0.688162446 0.6107070446
0.04734775797 -0.1013530567 0.6177046299 0.2210440189 -0.7941802144 0.5190885663
0.02947895601 -0.1081573963 0.6158693433 -0.3130552471 -0.7211076021 0.5863612294
0.02912745811 -0.1029215455 0.6118447781 -0.2896398604 -0.5914539099 0.6677186489
0.04116739333 -0.1039085314 0.6184126139 0.04895732924 -0.8078117371 0.5425667167
0.03639835492 -0.1076417938 0.6182643175 -0.09539534152 -0.8040716052 0.5382894278
-0.001344275312 -0.08727743477 0.6007174253 -0.3061453402 -0.6282359958 0.7126299143
0.02999112755 -0.1376891136 0.6775791049 0.7480248809 -0.4833509922 0.4540812969
0.03176249936 -0.1275461316 0.6728774309 0.5277131796 -0.5181271434 0.4610389471
0.03276480362 -0.1232714355 0.6678591967 0.3902896047 -0.5331561565 0.4597587287
0.03461991623 -0.1241071224 0.6620814204 0.3895033896 -0.5142129064 0.4482935071
0.03613105416 -0.1077798083 0.6505498886 -0.1041495949 -0.5896983743 0.4566392899
0.03512141109 -0.1381564587 0.666066587 0.7899908423 -0.4351990521 0.4308204055
0.03947787359 -0.09869959205 0.648878336 0.05073367432 -0.7451491356 0.5691556931
0.03427635506 -0.13012214 0.6678315401 0.6470295191 -0.5072953701 0.4647187293
0.03509756923 -0.1177195236 0.6640924811 0.4169666767 -0.6075418591 0.5099932551
0.03752007708 -0.1108771563 0.6560472846 0.281573981 -0.6526710391 0.5284910798
0.03735763207 -0.1181354821 0.6572690606 0.4148442745 -0.5923604965 0.5009485483
0.03333058208 -0.1357532442 0.6712694764 0.7539476156 -0.4647411406 0.4460479021
0.03684268892 -0.1024815887 0.6527260542 -0.03048572689 -0.6804836392 0.5205593109
-0.03757818043 -0.04764334112 0.6400386691 0.294783175 -0.6838856339 0.6590059996
-0.04354844242 -0.04680333287 0.6440882087 0.3988197744 -0.6718021035 0.6215006113
-0.04322177544 -0.05343569443 0.6372512579 0.3871995211 -0.6588107347 0.6397898793
-0.03501566872 -0.05134249851 0.6347600222 0.2512941957 -0.6864802837 0.680345118
0.01284992509 -0.07176588476 0.6261757612 -0.534947753 -0.5786563158 0.6127735972
0.005116993561 -0.06764262915 0.6244289279 -0.4061390758 -0.6305888295 0.6610727906
0.01713804342 -0.07615975291 0.6268318295 -0.6052824259 -0.5470699668 0.5760167241
0.02659345232 -0.07510896772 0.6250766516 -0.2730984688 -0.5708913207 0.6016995907
0.03266520426 -0.07415177673 0.6274835467 -0.1773438156 -0.5594597459 0.5928867459
0.01251941826 -0.07814640552 0.6201121807 -0.5376107693 -0.5794790983 0.6073804498
0.005176671315 -0.06107881293 0.6308313012 -0.4028836489 -0.6342000961 0.6572791934
-0.00108133594 -0.05721047893 0.6305888891 -0.3031012714 -0.6552959681 0.687571764
-0.01701219752 -0.04273798689 0.640956223 -0.05282913148 -0.7374305725 0.6708322763
-0.02401959524 -0.04460566118 0.6397823095 0.06055726483 -0.7306503654 0.6777390838
0.04367230088 -0.06548479944 0.6553632617 0.2079261839 -0.2455437779 0.9107396007
0.03777314723 -0.0638942495 0.6572883725 -0.2261765897 -0.3977485001 0.8384844661
0.03156604245 -0.0537535511 0.6501117349 -0.1643014401 -0.5287491083 0.7254983783
0.02220352925 -0.04876523092 0.6550338864 -0.4998859167 -0.5653045177 0.6558204293
0.02575435676 -0.06345336139 0.6405065656 -0.426786989 -0.509354949 0.6385735273
0.04003754258 -0.06142530218 0.6439018846 0.0586014986 -0.4790391922 0.7694316506
0.05144975334 -0.06284146756 0.6462227702 0.4086672366 -0.3634927273 0.8302490115
0.05348159373 -0.06398635358 0.6386799812 0.4405148029 -0.4985347986 0.7275500298
0.02790263109 -0.05018803477 0.6539906263 -0.3148795366 -0.5440042019 0.7002446651
0.03485821187 -0.05735054985 0.6543655992 -0.2458746135 -0.4785589874 0.774251461
0.02934991196 -0.05531916395 0.6570704579 -0.4513367116 -0.4957067072 0.7370155454
0.03189463541 -0.06476683915 0.640252471 -0.2531117201 -0.4988465011 0.6701270342
0.03905050829 -0.06743521988 0.635038197 -0.0725466311 -0.5299388766 0.6051430106
0.04553860426 -0.06138417125 0.6432186961 0.2324288189 -0.4829420149 0.7803202271
0.02552585676 -0.06910520047 0.6432291269 -0.6457583308 -0.4701467752 0.5980119109
0.03109025955 -0.07396592945 0.6469781399 -0.5425565243 -0.4100267589 0.7274857163
0.04452219605 -0.06100498885 0.649853766 0.1391772181 -0.4592371285 0.8250007629
-0.0571722202 -0.1402072757 0.6905149817 -0.6036161184 -0.5461962223 0.5701130033
-0.06236767024 -0.1401593238 0.6861158609 -0.6706896424 -0.5148054361 0.5309047103
-0.05429117382 -0.135335356 0.700017333 -0.5609120131 -0.568795085 0.6007263064
-0.05978793651 -0.1348885298 0.6945983768 -0.6277953982 -0.5328168869 0.5658891201
-0.0447868295 -0.07779245824 0.6143686175 0.4178876579 -0.6270807981 0.6533032656
-0.03962386027 -0.07913484424 0.6092806458 0.3162991405 -0.6552131176 0.6807561517
-0.04347832873 -0.1695664674 0.676618278 -0.4103751481 -0.5591064692 0.7199623585
-0.04455889761 -0.1796882749 0.6704658866 -0.4184496105 -0.5472249985 0.7226384878
-0.04985944182 -0.1755132973 0.6703267097 -0.4928986728 -0.5342600942 0.6846268773
-0.05144838244 -0.1651329845 0.6741198301 -0.5285214782 -0.5282849669 0.6604565978
-0.04706461728 -0.1644019037 0.6784520149 -0.4469619393 -0.567963779 0.6886202097
-0.05311662704 -0.1598459631 0.6774836779 -0.5552520752 -0.5336000323 0.6292831302
-0.0738793388 -0.1604285836 0.6538660526 -0.8121684194 -0.3753002882 0.4439543784
-0.06673000008 -0.1601997316 0.6623297334 -0.7394261956 -0.4083323181 0.5292145014
-0.07055976242 -0.0969248116 0.6231126785 0.680660665 -0.4921187758 0.5417978764
-0.06867331266 -0.100462608 0.6183114052 0.6857039928 -0.4753188193 0.550645113
-0.06582015008 -0.09519261122 0.6170588136 0.6292931437 -0.5370152593 0.5609205961
-0.07072980702 -0.09208401293 0.6283427477 0.6757619381 -0.509677887 0.5321487188
0.003168565454 -0.09442782402 0.5976498723 -0.3970907032 -0.5521201491 0.7328653932
0.008466299623 -0.09433158487 0.6015726924 -0.4736392796 -0.5367639661 0.6932796836
0.01519497763 -0.09961024672 0.6038414836 -0.5419609547 -0.4991426468 0.671854496
0.006163601298 -0.08741687983 0.6055868864 -0.4454707503 -0.5868709087 0.673184514
0.02212241292 -0.08009661734 0.6296150684 -0.6640329361 -0.5230784416 0.5335265398
0.02703749947 -0.08638845384 0.6298134327 -0.6681371331 -0.5536642671 0.4951422513
-0.04921545833 -0.05464117974 0.6401227713 0.4733942747 -0.6338648796 0.6090706587
-0.05352459103 -0.05919331685 0.6395487189 0.5457772017 -0.6011841297 0.577493012
-0.04870439321 -0.05009792745 0.6441898942 0.4685066938 -0.6491879225 0.5972455144
-0.05550582334 -0.05378815904 0.6463536024 0.5810357928 -0.5954543352 0.5537878871
-0.05070355907 -0.04509789869 0.6507113576 0.5146618485 -0.6411149502 0.5668973923
-0.05523185432 -0.04769301787 0.6523569822 0.5593983531 -0.6196711659 0.5477374792
0.01843300089 -0.0639224425 0.6380274296 -0.6051379442 -0.5329021811 0.5908116698
0.02489322796 -0.05621921644 0.6522283554 -0.5075075626 -0.5241726041 0.6815843582
0.02594132163 -0.06434604526 0.648083508 -0.5336794853 -0.4801557064 0.6894462705
-0.02489955723 -0.04974495992 0.634645164 0.08560142666 -0.7026740313 0.7054505348
-0.01872064173 -0.05309473723 0.631190896 -0.02489298955 -0.6957095265 0.7118902802
-0.0236879196 -0.05587121099 0.628744781 0.06647271663 -0.6932863593 0.7160987258
-0.01404681802 -0.05617416278 0.6280434132 -0.08622689545 -0.6944555044 0.7123980522
-0.0079992963 -0.05675139278 0.6283831 -0.204176724 -0.6793566346 0.7023662925
-0.006081524771 -0.05276933685 0.6334385276 -0.2329701781 -0.6762198806 0.6964967847
-0.01342889201 -0.04961355776 0.6345563531 -0.1227729768 -0.7020082474 0.6992558241
-0.005077912007 -0.04406162351 0.6426615119 -0.2403918356 -0.701451242 0.6702280045
-0.007208764553 -0.04721320048 0.6377148628 -0.200206548 -0.6981422901 0.6855999827
0.001200274914 -0.05349234119 0.635842979 -0.3350253105 -0.651493609 0.6764891744
0.005711608566 -0.05097891763 0.6408002377 -0.3954828084 -0.6429764628 0.6539366841
-0.01704786159 -0.03703356907 0.646843195 -0.04236216098 -0.7717306614 0.6318429708
-0.06430073082 -0.1563690454 0.6678458452 -0.7181085348 -0.4278928041 0.5462242961
-0.06122466549 -0.1647987217 0.6669543982 -0.6591591239 -0.4804416895 0.5782892108
-0.05913980678 -0.1566037238 0.6753006577 -0.648663342 -0.5019291639 0.571341455
-0.05662723631 -0.1625328362 0.6713761687 -0.6126924753 -0.4985491633 0.6106598973
0.03434416279 -0.09194626659 0.6374563575 -0.5737998486 -0.6536012292 0.4915168583
0.0362755321 -0.1221233681 0.6453519464 0.3097176552 -0.5318565965 0.4540631175
0.03484869003 -0.1081055626 0.6353683472 -0.127603814 -0.6611343026 0.4805707037
0.0343959108 -0.104209356 0.6300125122 -0.26001665 -0.7322264314 0.4903438687
0.03385569155 -0.09710169584 0.6333674788 -0.4463392198 -0.6831118464 0.4959396422
0.03541639447 -0.1133847013 0.6405223608 0.0429591462 -0.5934553146 0.4692884982
0.03465654328 -0.108723253 0.6240952015 -0.1576221883 -0.8150026202 0.4903193116
0.03426421061 -0.1006682217 0.6379968524 -0.3262804747 -0.6217582822 0.4872481525
0.03543893248 -0.1154633164 0.6333200932 0.07127019018 -0.6925676465 0.4734501541
0.03538763523 -0.1057182774 0.6422005892 -0.1693208516 -0.5875354409 0.4724955857
0.0312672779 -0.09780744463 0.6274761558 -0.4879041612 -0.6835029125 0.4951511323
0.02861722559 -0.09208197147 0.6264647841 -0.6047674417 -0.6001580358 0.5143590569
0.02152520232 -0.05921053141 0.6468229294 -0.5673163533 -0.5253307819 0.6328815222
0.01615802012 -0.05362087861 0.6460570693 -0.5277553201 -0.5807298422 0.6196432114
0.02809000202 -0.05799598619 0.6442219615 -0.2410593331 -0.5236393213 0.6933045387
0.03657244146 -0.05679504946 0.6473476291 0.005422374699 -0.5064306855 0.7624741793
0.007018258795 -0.0570152998 0.6352242231 -0.4232476056 -0.6190232635 0.6568446159
0.01683550142 -0.05850022659 0.6417028904 -0.5677757263 -0.556114316 0.6055628657
0.01260557119 -0.05860879272 0.6367693543 -0.5067753792 -0.5891215205 0.6293106675
0.01374371536 -0.06487415731 0.6333194375 -0.5508189797 -0.5690824389 0.6072010398
0.008145216852 -0.04440903664 0.6482628584 -0.4095475972 -0.6576149464 0.6320608258
0.01131670643 -0.04908664897 0.6473277211 -0.4676480889 -0.622171104 0.6273007989
0.002385775791 -0.04585824907 0.6443603635 -0.3400956988 -0.6651644707 0.6619302034
-0.001537781442 -0.03889170662 0.6487311125 -0.2715090215 -0.7065820098 0.6504095197
-0.007600896992 -0.03887249529 0.6470493674 -0.1804441512 -0.74640131 0.637158215
