# .PCD v0.7 - Point Cloud Data file format
VERSION 0.7
FIELDS x y z normal_x normal_y normal_z
SIZE 4 4 4 4 4 4
TYPE F F F F F F
COUNT 1 1 1 1 1 1
WIDTH 512
HEIGHT 1
VIEWPOINT 0 0 0 1 0 0 0
POINTS 512
DATA ascii
-0.0110825086 -0.1563921273 0.7452549338 -0.07444001734 -0.4086716175 0.9064415693
0.02710460126 -0.1947013438 0.7029254436 0.5580384135 -0.5124544501 0.6483789086
0.03225922212 -0.1911587715 0.6994788051 0.63368541 -0.4736980498 0.5991439223
-0.04287802055 -0.1292200089 0.6324543953 0.5359819531 -0.5039404631 0.6736752391
-0.03712308779 -0.1269244254 0.6282745004 0.4503416121 -0.5194719434 0.721404016
0.07179579139 -0.09174319357 0.6532471776 0.6628857851 -0.474514246 0.5781453848
-0.04458960146 -0.1252747774 0.6400133967 0.5983350277 -0.5043023825 0.615434885
-0.03698614612 -0.1219834834 0.6323573589 0.4960142076 -0.5091639757 0.7013041973
-0.04292408749 -0.1635974646 0.7256570458 -0.604618907 -0.4506059289 0.6554427743
-0.04289862514 -0.1988681108 0.7041574717 -0.5677831173 -0.4330643415 0.6855000854
0.008603212424 -0.164886415 0.7405791879 0.2901946008 -0.4708074927 0.8322620392
-0.01461385842 -0.1612521559 0.7426575422 -0.1358728856 -0.4790275097 0.8656229377
-0.007038845681 -0.1603797674 0.7440900803 0.01963138953 -0.4146922827 0.9055484533
-0.001059225411 -0.1554434747 0.7425005436 0.1006955057 -0.4008229077 0.8964853287
0.002686249092 -0.1635880768 0.7429747581 0.2140258998 -0.4621852338 0.8571875095
0.01369031053 -0.1611923426 0.7320721149 0.3871387541 -0.473396033 0.7835272551
0.01015670504 -0.1702718139 0.7288398743 0.3161199689 -0.564427197 0.7549456954
0.03740024194 -0.1642348021 0.7168353796 0.655241847 -0.4486076534 0.60058707
0.03351357207 -0.1634467393 0.7205221653 0.6179603934 -0.4479954541 0.6407545805
0.0347616151 -0.1971063614 0.6963071227 0.6370429993 -0.4678551257 0.6059721112
0.03821315616 -0.1943839788 0.6931039691 0.6753360033 -0.4504987895 0.5807501674
0.02968718298 -0.1984301805 0.6989818811 0.5804616809 -0.4803789556 0.6476912498
0.02552893013 -0.2016400844 0.7031280398 0.5326662064 -0.504652679 0.6768549681
0.02324507013 -0.1962037235 0.7072555423 0.4941453934 -0.5256059766 0.6907862425
-0.01052999776 -0.1547468901 0.739192009 -0.0718319267 -0.477734834 0.8135227561
-0.000748174265 -0.1536795795 0.7367861867 0.1121396124 -0.4769822657 0.8078402877
0.003293352667 -0.1924465746 0.7174568772 0.2069851905 -0.5857414603 0.7795139551
-0.003324065125 -0.1981519759 0.7196887732 0.046998512 -0.5873886347 0.8019004464
0.0008145124302 -0.1888006777 0.725861609 0.1358673722 -0.6234248281 0.7667452097
0.0005121967988 -0.1942235231 0.7231380343 0.1308280528 -0.6159254909 0.7729910016
0.003492934164 -0.2007263452 0.7175008655 0.203817293 -0.593618691 0.7771949768
-0.0001528274588 -0.1034733802 0.6396877766 -0.1157690212 -0.6317688823 0.7628625631
-0.004113960546 -0.1104456186 0.6320689917 -0.06346663088 -0.6326277256 0.7715034485
0.004710503854 -0.1090646759 0.6347745061 -0.1927351058 -0.6131374836 0.7657722831
-0.0598347187 -0.0892155841 0.6909555793 0.7367479205 -0.4437465966 0.5100966096
-0.03533019871 -0.1685594469 0.7282326221 -0.5153405666 -0.5022169948 0.6934351325
-0.03402201086 -0.1736618131 0.7246078849 -0.4888066947 -0.5335496068 0.6877789497
-0.02609393187 -0.1729989499 0.7291710973 -0.3767190576 -0.5564720631 0.7375348806
-0.04130043089 -0.1688682437 0.7219306231 -0.5956254601 -0.4781090915 0.6410378814
-0.05778576061 -0.1856364459 0.6933825016 -0.7887339592 -0.3235996962 0.5134990811
-0.03780950606 -0.1958447844 0.7053604722 -0.5205348134 -0.4452883899 0.7157173753
-0.02774303406 -0.2007394731 0.7093273401 -0.3468140364 -0.5255058408 0.772693634
-0.04185475037 -0.1898985952 0.7096918225 -0.561865449 -0.4466235936 0.6958011389
0.01366826054 -0.1248054653 0.6267211437 -0.3362214267 -0.5282620192 0.7726731896
0.02039401419 -0.129328832 0.6270316839 -0.4316942692 -0.4885351956 0.7479518652
0.04756695405 -0.1684243977 0.6970240474 0.749181807 -0.3961935043 0.5307854414
0.0366942212 -0.1868097931 0.6985480785 0.7070668936 -0.4373602569 0.554374814
0.07291998714 -0.09910910577 0.649166584 0.6848700047 -0.4637299478 0.5608454347
0.01628309675 -0.119424969 0.6309330463 -0.3641622066 -0.5437419415 0.7551081777
0.0107042091 -0.1194112822 0.6286193132 -0.26383394 -0.5636868477 0.7812299728
0.007483017631 -0.1235864758 0.6248945594 -0.2371987849 -0.551271677 0.795576036
-0.0135536911 -0.1695064455 0.7372710109 -0.1788824201 -0.5609071851 0.8030080199
-0.005315020215 -0.1655605137 0.7415521145 0.0581330806 -0.46553424 0.8805459142
0.006183638703 -0.1699669063 0.7365685701 0.2686156631 -0.50682652 0.8180685043
0.01299680863 -0.1685884297 0.7357702255 0.3635217845 -0.4959816337 0.7859957218
0.007460879628 -0.1754507422 0.7318111062 0.2896745801 -0.5644639134 0.7679161429
-0.04095973074 -0.0778997466 0.675871253 0.5936864614 -0.5611320734 0.5743024945
0.05224430561 -0.1641082317 0.6847085357 0.8180330396 -0.2165382504 0.3480885327
0.05051882565 -0.1574418843 0.6691448689 0.250292778 -0.5121938586 0.5247218013
0.05106336996 -0.1621859223 0.6777618527 0.5559740663 -0.3656843901 0.4427039623
0.04792777449 -0.1730573177 0.6817371845 0.6256412268 -0.439768374 0.5349442363
0.05094738677 -0.1649147123 0.6685943604 0.2580958605 -0.5556422472 0.5668768287
0.05105207488 -0.1792348325 0.6810117364 0.695514679 -0.4072077572 0.5098421574
0.05099963397 -0.1572331935 0.6632592082 0.06969772279 -0.6077176332 0.5798377991
0.04933577031 -0.1677649915 0.6740126014 0.3990574479 -0.514582932 0.5589672327
0.05061275512 -0.1501190513 0.6577484608 -0.13479653 -0.6780987382 0.6082648635
0.05060537532 -0.1741845757 0.6753095984 0.4872385561 -0.4950490892 0.5544170141
0.06852439046 -0.1234392673 0.6465699673 0.5762062073 -0.5021234155 0.6099343896
0.001942420029 -0.1716298461 0.7319756746 0.1534362137 -0.589915514 0.775082469
0.005458378699 -0.1654708087 0.7328416705 0.2263943851 -0.5460413694 0.7897215486
2.293750367e-05 -0.1633753031 0.7347398996 0.116406709 -0.5291358232 0.8066763282
-0.005835656542 -0.166696921 0.7340430617 -0.006242443807 -0.542427361 0.7988794446
0.002165754559 -0.1780974865 0.7315541506 0.1748099625 -0.6092694402 0.7687464952
0.0002110321948 -0.1692447513 0.7384670377 0.1416316032 -0.543723762 0.8144538403
-0.0152672464 -0.1575060934 0.7369733453 -0.1715167016 -0.5040078759 0.7802695036
-0.006915594917 -0.1582511812 0.7359104156 -0.006904144306 -0.4934749305 0.7981848121
-0.02251324803 -0.1599360108 0.7369014621 -0.3128099442 -0.5183526278 0.7669204473
0.005304710008 -0.1552909911 0.7362703681 0.2239498943 -0.4761020243 0.8226796985
-0.01166443806 -0.1625745744 0.7364164591 -0.1170905456 -0.5190843344 0.7941547632
-0.02483730204 -0.1663627028 0.7349715829 -0.3569841087 -0.535687983 0.7648721933
-0.01980252191 -0.1698398739 0.73485744 -0.2854145467 -0.5616346598 0.774253726
-0.0198464226 -0.1633268893 0.740803957 -0.2672154307 -0.5196391344 0.8080480695
-0.02894913219 -0.1696215868 0.7322740555 -0.4317784905 -0.5249573588 0.7295765281
-0.02639561519 -0.1568473727 0.7414752841 -0.3613603413 -0.5146530867 0.7746420503
-0.01966648549 -0.1569302231 0.7433611155 -0.2215994596 -0.482391417 0.8407626748
-0.0376714319 -0.1565949321 0.7325148582 -0.522118628 -0.4663453102 0.7087914944
-0.04605502635 -0.1577496231 0.7259837985 -0.6363389492 -0.4164359272 0.6481211185
-0.03275815398 -0.1543687135 0.7377924919 -0.4564667046 -0.4963130951 0.7378448844
-0.03242250159 -0.1629848331 0.7332115769 -0.4963185489 -0.4891413152 0.7143819928
0.008540680632 -0.1829087883 0.7230756879 0.2887661755 -0.6124104261 0.7343260646
0.01289373171 -0.1763115823 0.7286454439 0.3786745965 -0.554510653 0.7390255332
-0.002514089691 -0.1831267029 0.72733742 0.0706704855 -0.6294524074 0.7709146142
0.003317004768 -0.1807781309 0.7262024283 0.1797054559 -0.6274664998 0.7441802621
-0.008527254686 -0.175955236 0.7327570319 -0.0582502149 -0.6124927402 0.7819111943
-0.01013353653 -0.180397734 0.7285488844 -0.08824129403 -0.6080861092 0.7793450952
-0.02335547656 -0.1781419963 0.726193428 -0.3235994279 -0.5760618448 0.7428295016
-0.0178687498 -0.1810432673 0.7266845107 -0.2325880229 -0.5938369036 0.7659440637
-0.0163723696 -0.1760578603 0.7314454317 -0.2183886915 -0.5897934437 0.7756269574
-0.00714942487 -0.1057286263 0.6360003948 -0.003647211008 -0.6357088685 0.7691471577
-0.007238181308 -0.100510709 0.6405412555 0.002352308016 -0.6298945546 0.773878336
-0.01185189467 -0.1094198078 0.6335636377 0.06572657824 -0.6388530731 0.7624573112
-0.01843391545 -0.1096499562 0.6339074969 0.1746795177 -0.6365827918 0.7481120825
-0.02798574232 -0.1131719872 0.6344935894 0.3507793546 -0.5863988996 0.7227208614
-0.04812056571 -0.1598556638 0.7212557793 -0.6846555471 -0.4183894396 0.5941499472
-0.03754203022 -0.1628983468 0.7286161184 -0.5667248368 -0.4667572975 0.6707816124
-0.02939719148 -0.1774337739 0.7247433662 -0.4340680838 -0.5534848571 0.70899266
-0.03400303796 -0.1783940792 0.7207356095 -0.4998972416 -0.5358735323 0.6785855889
-0.04282167554 -0.1884594262 0.7040016055 -0.6123260856 -0.3984490335 0.6682956815
-0.03879534081 -0.1843158752 0.7127794623 -0.5322295427 -0.4681972563 0.7036027908
-0.04869422317 -0.1828121692 0.702180624 -0.7195211053 -0.3545736372 0.5874685049
-0.05483715981 -0.1758382469 0.6992176771 -0.8037768006 -0.3185147643 0.4985468388
-0.05229764804 -0.1753338128 0.7044919133 -0.7693777084 -0.3372338712 0.5408892632
0.002095892793 -0.203865692 0.7099275589 0.1544333696 -0.5781900287 0.7912909389
0.006885350682 -0.2005110979 0.7105254531 0.2533934414 -0.5571922064 0.7887984514
-0.003609487321 -0.2034763694 0.7118755579 0.0531963706 -0.6078448296 0.7885397673
-0.05494720116 -0.1792264134 0.6946421266 -0.8058936 -0.3027075529 0.5027121902
-0.05755157769 -0.1734956652 0.6900656819 -0.8284998536 -0.2888208926 0.4751670659
-0.04616220295 -0.1854620725 0.7073864937 -0.6342360377 -0.4090277851 0.6505652666
-0.04799545184 -0.1794377416 0.708296597 -0.6742491722 -0.395855844 0.6218983531
-0.05296883732 -0.1849731505 0.6986111403 -0.764046967 -0.319711864 0.5589562654
-0.05367361382 -0.1914726645 0.6972085238 -0.7326376438 -0.3470542729 0.5812684298
-0.04756291211 -0.1949989349 0.7008404732 -0.651715517 -0.3807083368 0.6374905705
-0.04847761616 -0.1894821525 0.6986886859 -0.7146413326 -0.3303067088 0.6061766148
0.04858386517 -0.1431099325 0.6497411728 -0.3323803246 -0.6789665222 0.6471087337
0.05492676422 -0.1349384487 0.6474462748 0.04040502384 -0.6157121658 0.6355602741
0.04633202031 -0.1736157984 0.6931596398 0.7519131899 -0.394076407 0.5285170674
0.04391229898 -0.1735550761 0.6988247037 0.7519131899 -0.394076407 0.5285170674
0.05097750574 -0.168436259 0.6910318732 0.7517983317 -0.3942461014 0.5285468102
0.0492869094 -0.1778901517 0.6873175502 0.7420001626 -0.4087181985 0.5310799479
0.04823380709 -0.1841004491 0.6843087673 0.7328445911 -0.4226862192 0.5331137776
0.03222028539 -0.1845758855 0.7062795758 0.6565921307 -0.4664450586 0.5910819173
0.02966216393 -0.1899649948 0.706409812 0.6148338318 -0.4875230193 0.6198756099
0.0146568194 -0.1595737636 0.7400294542 0.3635294735 -0.443895489 0.8166906834
0.04130294174 -0.1121048704 0.6615276933 -0.6878937483 -0.4707873762 0.5502455235
0.01348905452 -0.0988375023 0.6460491419 -0.3035649061 -0.6080907583 0.7324342728
0.01299487799 -0.1089571714 0.6371701956 -0.3184730113 -0.5945014954 0.7374016643
0.01049112529 -0.1133183613 0.6330758929 -0.2737577558 -0.588627696 0.7585960031
0.01869941503 -0.1105121151 0.6399156451 -0.4268711209 -0.5597575903 0.7091192603
0.009709395468 -0.1031777561 0.6418175697 -0.2535177171 -0.6114692688 0.7466823459
0.021351289 -0.1248710975 0.6303731799 -0.4483935535 -0.5127994418 0.7278776169
0.04324759543 -0.1389963329 0.6441239119 -0.4430004656 -0.5575934649 0.6842582822
0.0466475822 -0.1346440613 0.6438743472 -0.3166688681 -0.5666595697 0.7374280095
0.03849104792 -0.1337267011 0.6381983757 -0.5019795299 -0.4258064628 0.7346640825
0.04443790764 -0.121903047 0.6569960713 -0.6449825764 -0.5353342295 0.5417099595
0.004541405942 -0.100240536 0.6424466968 -0.1750513315 -0.6242865324 0.7601498365
0.06736736 -0.09429798275 0.6641821265 0.6795237064 -0.3493837416 0.6346135139
0.06474483013 -0.09520876408 0.6699792147 0.6664585471 -0.3094804883 0.6687191129
0.06145572662 -0.09589986503 0.6773789525 0.590426147 -0.3240788877 0.7335972786
0.06788573414 -0.1013814136 0.6599270701 0.615378201 -0.4347646534 0.6430861354
0.02578962781 -0.1625935435 0.7288357019 0.5433661938 -0.4278199375 0.7218185663
0.02287033573 -0.1557995826 0.7301148772 0.4885496795 -0.4246494174 0.7559560537
0.02052760497 -0.1616716683 0.7345745564 0.465591222 -0.4416260719 0.7627586126
0.03157510608 -0.1790818125 0.7122147083 0.6182273626 -0.4817293286 0.620251298
0.03368163854 -0.1706896424 0.7175248861 0.6023201346 -0.4992418587 0.619125545
0.01887683012 -0.1731992215 0.7276257873 0.4476933479 -0.5329056978 0.7140863538
0.02059784159 -0.168072924 0.7302103043 0.4686342478 -0.4890025258 0.7313389778
0.02404816635 -0.1697911769 0.7263503671 0.5115101933 -0.5031347871 0.6939908266
0.02941453643 -0.166441977 0.7240178585 0.5634083748 -0.4398723245 0.6979389787
0.02689837292 -0.1708902568 0.7212928534 0.5435777307 -0.4718282819 0.6914201379
0.02910974436 -0.1755974591 0.7180837989 0.5391314626 -0.5181869268 0.6623669267
-0.04498175904 -0.0861897245 0.6734691262 0.6636271477 -0.5109167695 0.5429555178
-0.0470206961 -0.09128455073 0.672378242 0.6909003854 -0.4965967536 0.522333622
-0.03746811673 -0.08280467242 0.6673842072 0.5473866463 -0.5800679922 0.6012434363
-0.04298314452 -0.08984666318 0.6685953736 0.630438745 -0.5303182006 0.555516541
-0.02615541965 -0.07319316268 0.670660913 0.3621682227 -0.6399590969 0.6629971266
-0.03315820545 -0.07501078397 0.6711061597 0.4767495394 -0.6138886809 0.6264055371
-0.03649954498 -0.07110643387 0.6786398888 0.5170535445 -0.6062071919 0.5952270031
-0.01563609205 -0.06522428989 0.6714262366 0.1977944672 -0.7090298533 0.675298214
-0.008805790916 -0.0637505874 0.6713019013 0.07128001004 -0.6952505708 0.7085926533
-0.02745061927 -0.06722141057 0.6745660901 0.3782982528 -0.6722421646 0.62914747
0.04437651485 -0.1264626682 0.65297544 -0.5477741957 -0.5890936255 0.5811361074
0.04566896334 -0.1367304474 0.6498728395 -0.4197713137 -0.6401446462 0.6269426942
0.04788368568 -0.127712816 0.6590425372 -0.5895839334 -0.5633728504 0.5428990126
0.04773230851 -0.1339482516 0.6541410685 -0.4674329758 -0.6277443767 0.5915182829
0.009736726992 -0.1960175931 0.7174953818 0.2936877012 -0.5915837288 0.7418653369
0.01280441694 -0.1894380748 0.7186930776 0.3459050059 -0.5887702703 0.724965632
-0.02503877878 -0.1867416352 0.7183861732 -0.3510039747 -0.5400567055 0.7632576227
-0.01854150556 -0.1865072399 0.7220762968 -0.2557576895 -0.5707048178 0.7741445899
-0.01329511032 -0.185456872 0.7242860198 -0.14284949 -0.6082184315 0.7760595083
-0.007256455254 -0.1877072603 0.721675992 -0.01603373885 -0.5982121825 0.7827772498
-0.006313104648 -0.1935088933 0.717412293 0.01306951791 -0.5969541073 0.7874708176
-0.0155415386 -0.1904225647 0.7187081575 -0.1797148287 -0.5826174617 0.7876201272
-0.04873362556 -0.1322890967 0.6380156279 0.6304253936 -0.485406667 0.6023147702
-0.05132304877 -0.1274832636 0.6428371668 0.6740201116 -0.4864455462 0.5533900857
-0.0106528895 -0.09728807956 0.6436246634 0.05081728473 -0.6275780201 0.7735928893
-0.01299860049 -0.1034722999 0.6379335523 0.09419886768 -0.6345704198 0.7647051811
-0.02978390455 -0.1190945283 0.6300879121 0.3776919544 -0.5553088188 0.7339484096
-0.01778093539 -0.1176446453 0.6269826293 0.1404468566 -0.6223976016 0.7635698915
-0.02270940319 -0.1144733056 0.6312007904 0.2391611487 -0.6166244745 0.7439199686
-0.01112238038 -0.1245963797 0.6195958257 0.001975825522 -0.6164367199 0.786737144
-0.01086914819 -0.1196745262 0.6249408126 0.01262506004 -0.6222466826 0.778416276
-0.0122919539 -0.1152926981 0.6282538176 0.05026095361 -0.6443449259 0.7589575052
-0.005988141987 -0.1153926998 0.627358675 -0.05424253643 -0.6482673287 0.7576733828
-0.03674338013 -0.1913016289 0.7128084898 -0.5049230456 -0.4949226677 0.704487443
-0.03074697591 -0.1854008138 0.7173991799 -0.4442538321 -0.5357857943 0.7160931826
-0.02932149544 -0.1899376065 0.7133339047 -0.4076601565 -0.5046429038 0.7561360598
-0.03458655253 -0.2004998922 0.7077733874 -0.4486478269 -0.4886068404 0.7440750003
-0.03353735059 -0.194146499 0.7087945938 -0.4614620507 -0.4766263366 0.7444661856
-0.02534118108 -0.1952500939 0.7126268148 -0.3548935354 -0.5197446942 0.7765988111
-0.04775115848 -0.1744790226 0.7115306854 -0.6861414909 -0.4222882688 0.5893933773
-0.04343079031 -0.1787559092 0.7128709555 -0.6065635681 -0.4522999823 0.6513915062
-0.04047464579 -0.1751234233 0.7179015279 -0.587972343 -0.4898248911 0.642365694
-0.04522708431 -0.1699189544 0.7175198197 -0.6525409818 -0.4446910322 0.6117835641
-0.06240850687 -0.1762979329 0.6878294349 -0.8389838338 -0.2989899516 0.4544355571
-0.01179854013 -0.1963043064 0.7159549594 -0.1025348976 -0.5869654417 0.795484364
-0.006856627297 -0.1990426183 0.7145608068 0.01549597178 -0.6060724258 0.7926276326
-0.01516324189 -0.2004327774 0.7133367658 -0.1391611844 -0.580447197 0.8010756969
-0.01954038441 -0.1956593692 0.7146052122 -0.2539207637 -0.5513772368 0.7894681096
-0.02238162793 -0.2029075474 0.7098213434 -0.2597195506 -0.5593650937 0.7830224633
-0.009879495949 -0.2055844814 0.7128100395 -0.02501816489 -0.5920790434 0.7956624627
-0.001620225492 -0.208067596 0.714507699 0.103014864 -0.6075727344 0.7820170522
0.01457457338 -0.1924626231 0.7132329345 0.3898325861 -0.5434998274 0.7427169681
0.01597776264 -0.1959638298 0.7090106606 0.4342445135 -0.5216576457 0.7323661447
0.01977391168 -0.2014169246 0.7063063383 0.4564584494 -0.5218828917 0.7120518088
0.01211368665 -0.1984042823 0.7124314308 0.3473445475 -0.5518571138 0.749276638
0.0149606159 -0.2040894032 0.7088305354 0.3777059615 -0.5454007983 0.72889781
0.008640889078 -0.2065084577 0.7124609351 0.2767387629 -0.5751610994 0.7525783777
0.02115759626 -0.1903353184 0.7104278207 0.4933908284 -0.5151551962 0.6899650097
0.02455636486 -0.1847017854 0.7135198116 0.4861556888 -0.520034194 0.7021611929
0.01836229302 -0.1880936325 0.7145357728 0.4227432311 -0.5434108377 0.7235459685
-0.06206607446 -0.1830467582 0.6870589852 -0.8202941418 -0.3164974749 0.4752492011
-0.06570220739 -0.1701150835 0.6773761511 -0.9331249595 -0.146896109 0.2786096334
-0.06241311133 -0.1754292548 0.6823190451 -0.882278204 -0.2232040316 0.3671038151
0.04089090601 -0.1331993639 0.6439862847 -0.5178207159 -0.5170399547 0.6675682068
0.03769094497 -0.1239687875 0.6464089751 -0.5962136984 -0.5150123239 0.612919867
0.04248223454 -0.1312674582 0.6490030289 -0.5013462305 -0.5869484544 0.6188775897
0.03800313547 -0.1805756688 0.7020531297 0.7200688124 -0.4253571033 0.5463881493
0.04089539126 -0.1744303107 0.7036222219 0.7439815998 -0.4010043442 0.534122169
0.04259747639 -0.1680922806 0.70643574 0.732281208 -0.4144202769 0.5390803218
0.03832677007 -0.1694370359 0.7123289704 0.6791363955 -0.4623505175 0.5689872503
0.03730105236 -0.1748252213 0.7081546187 0.7060642838 -0.4335042834 0.5582033396
0.04128362983 -0.1813347787 0.6961860061 0.737739563 -0.4150111377 0.5321815014
0.04364231974 -0.1845533252 0.6897490025 0.7315645218 -0.4241641164 0.5337538123
0.0402953364 -0.1883135289 0.6928167343 0.70871979 -0.4322810173 0.5561956167
0.04818627238 -0.1088113636 0.6731982827 -0.5919309258 -0.3458326161 0.7245704532
0.04576043785 -0.1125485376 0.6669965386 -0.6506847739 -0.4363497794 0.6054204702
0.06560181826 -0.1080613807 0.6638671756 0.5932785869 -0.4076565802 0.6847361326
0.07034506649 -0.1042252406 0.6531383395 0.632170856 -0.4685885906 0.6070775986
0.06433882564 -0.1013740227 0.668638289 0.584082067 -0.3926827013 0.6997371316
0.0695162341 -0.1113209948 0.6534174681 0.6244084835 -0.4568989873 0.6253796816
0.07144878805 -0.1184674278 0.6468834281 0.6389445066 -0.4803117216 0.600153327
0.06458770484 -0.1177698001 0.6564201713 0.2553485632 -0.4187010825 0.6567766666
0.05832101777 -0.1147107482 0.6648249626 -0.1341826022 -0.3658932745 0.700556457
0.05825608596 -0.1041582897 0.6746869683 0.1754592359 -0.3427967727 0.7418512702
0.05894066393 -0.1100116 0.6686409712 0.05345812067 -0.3603948057 0.7156437039
0.06828437001 -0.1185964495 0.6523708105 0.5142846107 -0.4477561116 0.6347474456
0.05333093554 -0.1121700481 0.6716149449 -0.4412359893 -0.3236184418 0.735824585
0.05161177367 -0.1357116103 0.6680732369 -0.08551980555 -0.5334358215 0.5776299238
0.05222244561 -0.1576068401 0.6821943521 0.6471800804 -0.2670856416 0.389658004
0.05211813748 -0.1517952532 0.6797667146 0.484939754 -0.3186552823 0.4317776859
0.05144950002 -0.1495084465 0.6644684076 0.07093407214 -0.5467008948 0.532782793
0.05168527737 -0.142190665 0.6698017716 0.07148025185 -0.4901075363 0.5364292264
0.05178456381 -0.150594905 0.672134161 0.277333349 -0.4325982928 0.4824551642
0.05106340349 -0.1432752013 0.6555975676 -0.2560799122 -0.6927885413 0.6148501039
0.04770098999 -0.1247557923 0.6642943025 -0.5765535831 -0.4809778631 0.4915883839
0.0503782928 -0.1295863837 0.6679733992 -0.2636928856 -0.5068158507 0.5547609329
0.05164529011 -0.1564494818 0.6759452224 0.4575094283 -0.3496650755 0.4189468622
0.05021189153 -0.1463886648 0.6766458154 0.2162483633 -0.3138585687 0.4000829458
0.04973978549 -0.1378710419 0.6588700414 -0.3521089256 -0.6065380573 0.5584953427
0.05051126331 -0.144476831 0.6626136303 -0.1103773117 -0.5561327338 0.5309745669
0.05544708669 -0.1390140951 0.6519862413 -0.09001155198 -0.667257309 0.6205896139
0.05518464744 -0.1259506643 0.6591101885 -0.1895660013 -0.612398684 0.6457861662
0.05337225646 -0.1222042739 0.6627296805 -0.3107971847 -0.6095817685 0.6580225825
0.05989330634 -0.1236014888 0.6560754776 0.04626904428 -0.5671735406 0.6365998387
0.06083711609 -0.1303191334 0.6516780853 0.1406179219 -0.5893697739 0.6213098764
0.06471108645 -0.1255365461 0.6506834626 0.3159834445 -0.5397682786 0.6190835834
0.05430172384 -0.1347339153 0.6552817822 -0.1791507453 -0.6571596265 0.6319007277
0.05834387615 -0.1173177138 0.6413202882 0.4293002784 -0.5213918686 0.7315715551
0.06524834782 -0.1166265607 0.6427006721 0.5690194368 -0.5227441192 0.6340813637
0.01700633392 -0.1507776976 0.7340220809 0.3996564746 -0.4350959361 0.8061579466
0.01050902531 -0.1525601298 0.7359477878 0.3238960803 -0.4566513002 0.8278511167
0.008994226344 -0.1576197296 0.7434143424 0.2674702704 -0.4381821156 0.8551912904
0.01668543182 -0.1563212126 0.732164681 0.4157206416 -0.447653383 0.7883173823
0.04017663747 -0.1151939481 0.6566105485 -0.6376023889 -0.5516854525 0.5344613791
0.01904452778 -0.09463112801 0.65200001 -0.4049173892 -0.5661798716 0.7139369249
0.0247682631 -0.09812770784 0.6525061727 -0.4966742098 -0.5292213559 0.6868444681
0.06226878986 -0.09115896374 0.6750448942 0.65231812 -0.2733464539 0.6955381632
0.05830189213 -0.08895920217 0.6798889637 0.3644216955 -0.3072209358 0.7261081934
0.05768560246 -0.08674061298 0.6745461822 0.4612878859 -0.3334910572 0.7834559083
0.06575164199 -0.08582381159 0.6635530591 0.5965258479 -0.5023394227 0.6230513453
0.06430447847 -0.0889146924 0.6689093709 0.6606280208 -0.3307786882 0.6681329608
0.02357026748 -0.1788772047 0.7174753547 0.4992461205 -0.5439350009 0.6661756039
0.01519741118 -0.1795774102 0.7219288349 0.3802811503 -0.5954020023 0.6962859035
0.02221455798 -0.175576508 0.7232168913 0.4786203802 -0.5566318035 0.676887691
0.001150060561 -0.06434748322 0.6707638502 -0.07619356364 -0.6675879359 0.7382456064
0.007532435004 -0.06741437316 0.668584168 -0.1811613292 -0.6433593631 0.7425491214
-0.04986154661 -0.1649866253 0.7142558694 -0.7304272652 -0.4158993363 0.5399859548
-0.05441681668 -0.1301355511 0.6473987699 0.6966168284 -0.4691020846 0.5408795476
-0.05656461045 -0.1271692067 0.6519790292 0.7196136117 -0.462893188 0.5167038441
-0.03898452967 -0.09393905103 0.6584640145 0.5742756724 -0.554310441 0.5995582938
-0.02532097697 -0.1032746062 0.6416875124 0.2970909178 -0.6150856614 0.7301408052
-0.01861833408 -0.1029014215 0.641104877 0.1771498919 -0.6199907064 0.7593898177
-0.02356813289 -0.1078472808 0.6366111636 0.2581031322 -0.6275334954 0.733970046
-0.01806850173 -0.09679847956 0.6448139548 0.1686246395 -0.622279048 0.7592810392
-0.02920369618 -0.1243071705 0.6251038909 0.3474244475 -0.5480633974 0.7579534054
-0.02441749722 -0.1213981211 0.6252920628 0.2820744812 -0.5770301223 0.7660298944
-0.01847491972 -0.1242075413 0.6222416759 0.1666618437 -0.5768601298 0.7865116
0.02835847624 -0.1138341427 0.6442377567 -0.5634289384 -0.5125386119 0.6468545794
0.03678950667 -0.1191447228 0.6499565244 -0.6118105054 -0.5298759341 0.5860376954
0.07153697312 -0.1102846265 0.6451446414 0.6284781694 -0.5082738996 0.5874968767
0.07266335189 -0.1049215719 0.6460086107 0.6494171023 -0.5040810704 0.5687746406
0.04704060405 -0.1187045872 0.663941741 -0.6800967455 -0.5016041398 0.5260214806
0.05919331312 -0.1191992313 0.6602427959 -0.06327603012 -0.5272150636 0.6310622096
0.05362679437 -0.1176094413 0.6667776704 -0.398544848 -0.5294776559 0.6502439976
0.05438298732 -0.1293244213 0.6449345946 0.02299590968 -0.5879564285 0.7352793813
0.05756348744 -0.124006331 0.6431967616 0.3560764492 -0.5665974021 0.7242773771
0.06325454265 -0.122718066 0.6441680789 0.5536145568 -0.5308431983 0.635812223
0.04767422006 -0.1292628348 0.6412068009 -0.1076705307 -0.5240526199 0.7569466829
0.05539636686 -0.09765059501 0.652372241 0.2230221033 -0.475079447 0.6046449542
0.06813511252 -0.09649711102 0.650400281 0.6442548037 -0.467146188 0.5861272216
0.04860457778 -0.09735907614 0.654346168 -0.005396273918 -0.4816695154 0.6180661917
0.01746821031 -0.1041602716 0.6436715126 -0.3637681007 -0.586961031 0.7194375992
0.026897965 -0.1031444445 0.6503949761 -0.5252785683 -0.5162945986 0.67582798
0.02023706026 -0.1002832428 0.6486027837 -0.4135310054 -0.5652335286 0.7040566206
0.03362663463 -0.1126343906 0.6429175138 -0.2854691744 -0.5238351822 0.6919309497
0.02867274731 -0.1081452668 0.6469002366 -0.4826947749 -0.5336294174 0.6580123901
0.03525744751 -0.1282804459 0.6398699284 -0.574352026 -0.4517186582 0.6777328253
0.03363321722 -0.1223203242 0.6427194476 -0.5782990456 -0.5035437942 0.6406764984
0.0337389186 -0.131877467 0.634126842 -0.4894960523 -0.4356606305 0.722302556
0.04109873995 -0.1283030659 0.6369389296 -0.254016757 -0.4435028434 0.736915946
0.03200604394 -0.1264705509 0.635201633 -0.5126488805 -0.4854262769 0.7081583738
0.05075535551 -0.1238110885 0.6404214501 0.1123424992 -0.505520463 0.7565802932
-0.0005844371044 -0.08046238869 0.6582030058 -0.07133657485 -0.633969903 0.7665879726
0.004018229432 -0.07815457135 0.66051507 -0.1365195513 -0.6300621033 0.7623577714
-0.003288712818 -0.08452944458 0.6543790102 -0.03819997236 -0.6263716221 0.776224792
0.05636728927 -0.09862910956 0.6809271574 0.1394418627 -0.3760482073 0.8026314974
0.05266328156 -0.1067638695 0.6768398881 -0.3662447035 -0.3628079891 0.7888820171
0.03675311804 -0.1021947786 0.6612400413 -0.66386801 -0.4478597045 0.5970438719
0.06317139417 -0.09399199486 0.6541501284 0.4673994184 -0.4788925052 0.6042355895
0.0340827927 -0.08863738179 0.6685547233 -0.5668097138 -0.4743854105 0.6664011478
0.02939498238 -0.08344009519 0.6678414345 -0.5055810809 -0.5427964926 0.6685780287
0.02914931439 -0.08985602111 0.6634272933 -0.5422406197 -0.5147414207 0.6575621963
0.05471410602 -0.0852130875 0.6664818525 0.2379851341 -0.5174286366 0.6345183253
0.04068483785 -0.08219392598 0.6687317491 -0.1467722803 -0.5420516729 0.6612985134
0.06809341162 -0.08842625469 0.6568172574 0.5971721411 -0.5611380935 0.5667363405
0.06137717888 -0.08821193874 0.6587561965 0.3735385835 -0.5501770973 0.5806599259
0.06002234668 -0.0850571841 0.6659709811 0.4246816933 -0.5202814341 0.6300773621
0.0432841219 -0.08867697418 0.6623322964 -0.1985094994 -0.5246044397 0.6205473542
0.03653974086 -0.0910923332 0.6604510546 -0.3141346872 -0.5208450556 0.6497827172
0.04206107929 -0.09498419613 0.6574997902 -0.2270714343 -0.5157653689 0.6231392026
0.02996953204 -0.09509759396 0.659450233 -0.5588616729 -0.5022982955 0.6584340334
0.05365823954 -0.09033274651 0.6579225659 0.1703578383 -0.5420985818 0.6021432877
0.05330224335 -0.08707694709 0.686169982 0.00908658281 -0.3612744212 0.7729178071
0.04163213819 -0.1048375741 0.6647934914 -0.6848964691 -0.4099491835 0.5980973244
0.03635789827 -0.09465150535 0.6656560898 -0.6427108049 -0.4422897398 0.6244328618
0.0130883744 -0.06496926397 0.673404932 -0.2778863907 -0.6653639078 0.6868565679
0.01545067225 -0.07036682218 0.6695122719 -0.3218922913 -0.6253647208 0.7058545351
0.0467828773 -0.08768342435 0.6840776205 -0.4102203846 -0.4522219002 0.7896645665
0.05182779953 -0.09423364699 0.6843256354 -0.3607181013 -0.4130506814 0.8351390362
0.04142614827 -0.07775810361 0.685336709 -0.4521438479 -0.5345261097 0.7135099173
0.05316555873 -0.08515097946 0.6787903309 0.2100132406 -0.3682050407 0.8362663388
0.0471502468 -0.0813280493 0.6880144477 -0.3098723888 -0.4321193695 0.7898948193
0.04824708402 -0.08180682361 0.6823252439 -0.0864155665 -0.4370088875 0.7855523229
0.05488999188 -0.08097081631 0.6722476482 0.1985563785 -0.5284602046 0.6437607408
0.03817838803 -0.07428552955 0.6829482913 -0.4922524393 -0.5429985523 0.6621795297
0.02779566124 -0.07369188964 0.6747167706 -0.4673812091 -0.5890667439 0.6548318267
0.02189772949 -0.0685986951 0.6755897999 -0.3932406306 -0.623985827 0.6665529609
0.03148825094 -0.07211075723 0.6798886657 -0.4775499105 -0.5718084574 0.6606116891
0.03414128721 -0.08054837584 0.6705113649 -0.3617464304 -0.5528985262 0.6665457487
0.04829403758 -0.08191886544 0.6691612601 0.07192969322 -0.539809823 0.6474598646
0.03515649214 -0.07631124556 0.6762453318 -0.4365381002 -0.5668921471 0.6462189555
0.04819556698 -0.07826965302 0.6758883595 -0.06537726521 -0.535061717 0.6464666128
0.04059871286 -0.0778651014 0.6743642092 -0.2451676726 -0.5581401587 0.6435250044
0.002551610349 -0.07379534096 0.6644648314 -0.1058644876 -0.6456751823 0.748349607
-0.00473792199 -0.07085715234 0.6669118404 0.007035187446 -0.6597057581 0.7354356647
-0.05631309748 -0.08905345201 0.6860083938 0.7290276885 -0.4556283057 0.5103802085
-0.0558927469 -0.09862454981 0.6805039644 0.7524974346 -0.4395561218 0.4893001318
-0.05159655958 -0.0920612365 0.6773229241 0.7311088443 -0.4572535157 0.5057369471
-0.06190159917 -0.09623303264 0.6916206479 0.7537887692 -0.4366292655 0.4904309511
-0.06232880428 -0.08783566207 0.6966699362 0.7356649041 -0.450063169 0.5061648488
-0.05908869952 -0.09399435669 0.6866186857 0.750187397 -0.4349217117 0.4977759421
-0.05328218266 -0.1585301608 0.7130423784 -0.7518997788 -0.3806842268 0.5381860137
-0.05379199982 -0.1641810983 0.7093145251 -0.7730232477 -0.3883314133 0.4997215569
-0.06169688702 -0.1099143177 0.6794992089 0.7679316998 -0.4345961213 0.4704131186
-0.06127754226 -0.09908635914 0.6841696501 0.7562414408 -0.4357769489 0.487876147
-0.06192560121 -0.1140950844 0.6754225492 0.7680953741 -0.4396668077 0.4654833674
-0.0602344498 -0.1054239348 0.6829209328 0.7680143118 -0.4294610918 0.4750111997
-0.04280094057 -0.1098858565 0.6483466029 0.6143893003 -0.5153197646 0.5944667459
-0.04585366696 -0.1145717874 0.6477512121 0.6622248292 -0.4872992039 0.5666264892
-0.04550189152 -0.1183928102 0.6432665586 0.6342676282 -0.4981726408 0.5908661485
-0.04209981114 -0.1209509745 0.6375722289 0.5706462264 -0.4966060221 0.6497094631
-0.03845430911 -0.1156035662 0.6396777034 0.5313549042 -0.5283159018 0.6587202549
-0.01528481208 -0.09175829589 0.6492319107 0.1482390612 -0.6268889308 0.7615905404
-0.008571320213 -0.09159793705 0.647551477 0.05077515543 -0.626478076 0.7750726342
-0.009281256236 -0.08696354181 0.6526623964 0.05574043468 -0.6294999719 0.7697252035
-0.02866530977 -0.09129545093 0.6543374062 0.3836502135 -0.5952438712 0.6902558804
-0.02224143595 -0.08994059265 0.6529445052 0.2699890137 -0.6172727942 0.7268233299
-0.03367127851 -0.0932925716 0.6546794772 0.4732052982 -0.5746870637 0.6621251702
-0.03074188717 -0.09627856314 0.6491980553 0.4100936055 -0.5855767727 0.6975119114
-0.02366344258 -0.09404571354 0.6493998766 0.2912844718 -0.6062419415 0.7280337214
0.0165635664 -0.114508532 0.6345385313 -0.355294019 -0.5682222843 0.7395740747
0.02171753719 -0.117550388 0.6348313093 -0.4493701756 -0.531268239 0.7161357999
0.02577880397 -0.1220264211 0.6340740919 -0.4970479608 -0.5163400769 0.6971135736
0.02391347475 -0.1083809808 0.6437125802 -0.4907006323 -0.5452675819 0.6793568134
0.03030634113 -0.1167624667 0.6377997994 -0.3130351901 -0.5233479738 0.7104840279
0.0442212075 -0.1206183061 0.6387141347 -0.03535185009 -0.507278502 0.7366092205
0.03694851696 -0.1176555678 0.638086319 -0.1330921799 -0.5221352577 0.7273148298
0.04948268831 -0.1177290827 0.6400036812 0.2044509351 -0.5204765201 0.7501367927
0.03699950874 -0.1078118905 0.658433497 -0.6637907624 -0.4526123405 0.59344244
0.03220697865 -0.1096400321 0.6511287689 -0.6041391492 -0.5038172603 0.6151264906
0.03850710765 -0.1049943939 0.6490415931 -0.2578790784 -0.5100287199 0.6520078182
0.04587994143 -0.107095927 0.6472801566 -0.07982899249 -0.511890471 0.6326363087
0.05684987828 -0.1063477099 0.6457838416 0.2629899383 -0.5105679035 0.6308222413
0.04556781799 -0.1013775691 0.6497013569 -0.01060152613 -0.4918134212 0.6373924017
0.05117628351 -0.1025339141 0.6482821107 0.1443304569 -0.4968542457 0.6360174417
0.06735105813 -0.1026645154 0.6460272074 0.6092059612 -0.4901099503 0.6094269753
0.06148376688 -0.09905780107 0.6490232348 0.4549688399 -0.4693998992 0.5940868855
0.03890905902 -0.1001636609 0.6527032852 -0.2538547218 -0.4918754697 0.6416576505
0.03147365153 -0.1003545299 0.6542093754 -0.494415015 -0.49881652 0.6563105583
0.04560748115 -0.1135834157 0.6446584463 -0.02657327615 -0.5170240998 0.6969156861
0.03885359317 -0.1105395481 0.6471073031 -0.2924839258 -0.5152680278 0.651047051
0.0540413186 -0.1125608385 0.6436543465 0.2419329286 -0.5155713558 0.6963303685
0.06220785901 -0.1108354703 0.6429951191 0.4922435284 -0.5136090517 0.6869441271
-0.001162469969 -0.08971071988 0.6494038105 -0.0759677887 -0.6217751503 0.7762662768
0.004391882569 -0.09313248843 0.6476411223 -0.1544111967 -0.6206152439 0.7680768371
-0.004518707749 -0.09448898584 0.6459012628 -0.03645308688 -0.6233559251 0.7802391052
0.004598412663 -0.08485992253 0.6543212533 -0.1590496153 -0.6044086814 0.7799511552
-0.002985121449 -0.07484689355 0.6616105437 -0.03628254309 -0.6521778703 0.7536057234
0.008312989026 -0.07546128333 0.6639419198 -0.1996885836 -0.6291776896 0.7466702461
0.01398111414 -0.0761859417 0.6640822887 -0.3170272112 -0.6019937992 0.7316236496
0.01517240983 -0.08349318057 0.6591405272 -0.3301257491 -0.5927413702 0.7345238924
0.008993845433 -0.0823642984 0.6573354006 -0.2396797389 -0.607077837 0.7528960705
0.02085391246 -0.08847745508 0.658259511 -0.4400251806 -0.5640490055 0.6981962323
0.02312816307 -0.08257673681 0.6646122336 -0.4484480619 -0.568171978 0.6884534955
-0.01029960997 -0.07522699237 0.6622395515 0.09100132436 -0.6621050239 0.738378942
-0.008111040108 -0.07981532067 0.6582826376 0.04769236967 -0.6463801861 0.7563512921
-0.01461161207 -0.07833567262 0.6590809822 0.1616619378 -0.652657032 0.7392506599
-0.05981088057 -0.1659702361 0.6941834688 -0.8421218991 -0.2937001586 0.4521677196
-0.06048041955 -0.1548350751 0.7019549012 -0.6654291153 -0.3345292807 0.4921564758
-0.06006537378 -0.1321703494 0.6836706996 0.1240421385 -0.3866436183 0.4603044391
-0.05890597776 -0.1213813648 0.6795167923 0.5027045012 -0.4251482487 0.4689803421
-0.05926606059 -0.1269158423 0.68333143 0.3189387619 -0.4138151407 0.4725971222
-0.05858756602 -0.1412551701 0.6939359903 -0.1908084005 -0.3823782206 0.4826296866
-0.0591237098 -0.1321948171 0.6503734589 0.7649387717 -0.3959874511 0.4961431026
-0.06029630825 -0.1637174189 0.6815847754 -0.5947921276 -0.274607867 0.4444280565
-0.06048992649 -0.168824017 0.6852024794 -0.8540316224 -0.2556557953 0.4207107425
-0.06230458245 -0.1418003142 0.6612091064 0.4309970737 -0.2744125724 0.4450540841
-0.06264719367 -0.1478255987 0.6652826071 0.1216277331 -0.2487725019 0.4130021334
-0.06263356656 -0.1360281259 0.6561843157 0.7072685361 -0.2801025212 0.4523426592
-0.06415639818 -0.1371840239 0.6825791597 0.1187134832 -0.390509367 0.4613719881
-0.06238026917 -0.1518137306 0.6940549016 -0.5049703121 -0.3369545639 0.4653534889
-0.06463845819 -0.1287092716 0.6773722172 0.4532213807 -0.4199714661 0.4635782242
-0.06158344448 -0.1366445571 0.6885448694 0.006082986016 -0.38278234 0.4786341488
-0.04076134041 -0.09033088386 0.6633046269 0.593544662 -0.5546175838 0.582942307
-0.04413385689 -0.09844444692 0.658978641 0.6511554122 -0.5182153583 0.5513023138
-0.04507033527 -0.09458307922 0.6643449068 0.6505356431 -0.5208753943 0.5525352955
-0.0571831502 -0.1039971262 0.6756400466 0.7600706816 -0.4382340908 0.4797727764
-0.05678716302 -0.108622469 0.6697686315 0.7590008974 -0.4501705468 0.4701511264
-0.03820118681 -0.1016384736 0.6511099339 0.5130773783 -0.5653719902 0.6453317404
-0.03425689787 -0.1048443615 0.6449117064 0.4514795244 -0.5800786018 0.6773605347
-0.02897942252 -0.1009820402 0.6451717019 0.3682961762 -0.5970067382 0.7092411518
-0.03622378409 -0.1109127328 0.6419320107 0.4922012389 -0.5561463237 0.6689214706
-0.03009846248 -0.1087500975 0.6393880248 0.3823002577 -0.5891059637 0.7037396431
-0.01401159354 -0.08348415047 0.6551098824 0.1344911605 -0.6390517354 0.7561349869
0.04378665611 -0.09357858449 0.6752175093 -0.5237520337 -0.4369244277 0.730209887
0.03962385282 -0.08242733777 0.6790374517 -0.4698708057 -0.52951473 0.704526186
0.04343584925 -0.08875522017 0.6790661812 -0.4492521584 -0.4776231349 0.748660624
0.04679791257 -0.09357526898 0.6800131798 -0.4084697962 -0.4358221591 0.7964673638
0.03698741272 -0.08593631536 0.67301929 -0.579298377 -0.4804497361 0.6571391225
0.04168951884 -0.09685221314 0.6697887182 -0.6064357162 -0.3944965899 0.6874614358
0.04525566101 -0.09949506819 0.6736264825 -0.5383981466 -0.3802782595 0.7495468855
-0.02664103173 -0.08050035685 0.6614440084 0.3620775044 -0.6314444542 0.6846061349
-0.02033288218 -0.07232312113 0.6687373519 0.2601566017 -0.6663327217 0.6978364587
-0.02823916636 -0.07703869045 0.6665375829 0.3855819404 -0.6343093514 0.6642963886
-0.02015668154 -0.07426136732 0.6635634899 0.2592307627 -0.655113399 0.706330061
-0.02131607756 -0.06676070392 0.6715428829 0.2845623493 -0.6884789467 0.6616815925
-0.01502368879 -0.0723779425 0.6650752425 0.1862789392 -0.6651524901 0.7221561074
-0.05940328911 -0.161437273 0.7033020258 -0.8049712777 -0.3292277157 0.4934865236
-0.05659298599 -0.1662210226 0.7030137777 -0.8072185516 -0.3325468004 0.4865168631
-0.05861836672 -0.1708199084 0.6980890632 -0.8079214096 -0.3197316229 0.4933460653
-0.06442470104 -0.1259754449 0.6637358069 0.7829445601 -0.4050270319 0.465418309
-0.06177955121 -0.1262289733 0.6576756835 0.7385995984 -0.4571852982 0.4947102666
-0.06198064983 -0.1394630224 0.6668341756 0.3779212832 -0.339140147 0.4628121257
-0.06150334701 -0.1455481946 0.6720175147 0.09941980243 -0.3344756067 0.4598503113
-0.06081216037 -0.1540663391 0.6734209657 -0.1364818364 -0.2863880098 0.4577946663
-0.06508294493 -0.155280143 0.6830498576 -0.4737371206 -0.3186837137 0.4513466954
-0.06197346747 -0.1587341428 0.6970301867 -0.7917839885 -0.3079505861 0.4546392262
-0.06493044645 -0.1646928042 0.6861402988 -0.8165025711 -0.2827635109 0.4502809942
-0.0654977411 -0.1405684054 0.677477181 0.07310569286 -0.3746845126 0.4527995288
-0.06599245965 -0.1358036697 0.673499167 0.2472290397 -0.3671346605 0.4203644693
-0.06675448269 -0.1647773832 0.6741423011 -0.8744670153 -0.1129906178 0.2333022803
-0.06545078009 -0.1468809098 0.6792473793 -0.15600577 -0.3478575647 0.44857499
-0.06590569764 -0.160377726 0.6788868904 -0.6815980673 -0.2201251835 0.3494710028
-0.0668008253 -0.1583016515 0.6725674868 -0.6304252148 -0.1495353878 0.2491735369
-0.06471557915 -0.1355362684 0.6641398668 0.46271348 -0.309654355 0.4102647007
-0.06617107242 -0.1496700644 0.6697944999 -0.2348057032 -0.2101493329 0.3047072589
-0.06365475804 -0.1311717629 0.6598773003 0.7582675219 -0.3315742612 0.4555163085
-0.0657428354 -0.1437381506 0.6681729555 0.03399496526 -0.2545421124 0.3452288806
-0.06555005163 -0.1556548178 0.6670960188 -0.3679254651 -0.1501909941 0.28562361
-0.0616347678 -0.1495805681 0.6828853488 -0.2566371858 -0.3477154374 0.4573094845
-0.0628823787 -0.1312728673 0.6723150611 0.4371358156 -0.4155617654 0.4633925259
-0.06119870767 -0.1583031565 0.6896303892 -0.6234270334 -0.3143160343 0.4545534551
-0.06258888543 -0.1250905693 0.6700145602 0.6333566904 -0.4334542155 0.4646925628
-0.06190468743 -0.1479393989 0.6890422702 -0.3518324196 -0.346793741 0.4579292536
-0.06148967147 -0.1428400725 0.6867043376 -0.182411775 -0.3611589074 0.4588284194
-0.06017779559 -0.1196979061 0.6741726995 0.6372606754 -0.4313612878 0.4635235667
-0.06235734001 -0.1343276799 0.6775554419 0.2390777022 -0.3988147974 0.4620067775
-0.04921673238 -0.1140767485 0.6527191401 0.7084848285 -0.4703464508 0.5259386301
-0.0533035025 -0.1230286211 0.649245441 0.716637969 -0.465031594 0.5194634199
-0.05232232064 -0.1186440438 0.6530035734 0.716796577 -0.4658314288 0.5184937716
-0.05858862773 -0.115851894 0.6695837975 0.7664803267 -0.4482054114 0.459893167
-0.06072314084 -0.1200054213 0.6647434831 0.7614246011 -0.4558567405 0.4603151381
-0.05610219389 -0.1186521202 0.6594046354 0.7493109703 -0.455940187 0.4793432653
-0.04966568202 -0.103271395 0.6630859971 0.7293305397 -0.4705999196 0.4960997999
-0.05308914557 -0.1088023707 0.6640309095 0.7445829511 -0.4668565989 0.476030916
-0.05601057783 -0.1143489778 0.6633091569 0.7564532757 -0.4674427211 0.4570032656
-0.04591410607 -0.1052735597 0.6550100446 0.6531679034 -0.5074971318 0.5601755381
-0.05068823323 -0.108866483 0.6576457024 0.7169607282 -0.4825589061 0.5027604103
-0.05334297195 -0.103873007 0.6674988866 0.7522494793 -0.4551706016 0.4761832356
-0.05137207359 -0.09785307944 0.6704467535 0.7438436151 -0.4514199793 0.4926508069
-0.02163014375 -0.0836693868 0.6559929252 0.2596822977 -0.6381194592 0.7217463851
-0.02819100395 -0.08607186377 0.657386601 0.3727774322 -0.619479835 0.6870902181
