# .PCD v0.7 - Point Cloud Data file format
VERSION 0.7
FIELDS x y z normal_x normal_y normal_z
SIZE 4 4 4 4 4 4
TYPE F F F F F F
COUNT 1 1 1 1 1 1
WIDTH 512
HEIGHT 1
VIEWPOINT 0 0 0 1 0 0 0
POINTS 512
DATA ascii
0.107867308 -0.1107177883 0.6762596965 0.7320810556 -0.4082458615 0.5417800546
0.1040814742 -0.1087374687 0.68335706 0.5327609777 -0.3413546681 0.5828192234
0.09977882355 -0.1227134541 0.6908196807 -0.02285465039 -0.321711272 0.632707119
0.1047077253 -0.1165603101 0.6820014119 0.411446631 -0.3775265515 0.5779384971
0.1060194597 -0.1047233045 0.6799334288 0.7362354994 -0.3579107225 0.5608996749
0.1013041064 -0.1171075329 0.6881920099 0.1874725819 -0.3264732063 0.6148646474
0.01909946464 -0.1902237087 0.7611902356 -0.1511304229 -0.6058568954 0.7804303169
0.02481968887 -0.1763882041 0.7715046406 -0.04950777814 -0.6488161683 0.7592182159
0.1020861343 -0.1088769212 0.6743427515 0.6332910061 -0.4775375426 0.601547718
0.0791560933 -0.1309066564 0.6867898107 -0.6307109594 -0.578506887 0.4977489114
0.08761546761 -0.123319827 0.7051299214 -0.6284145713 -0.2453938872 0.7314800024
0.08234213293 -0.1300381869 0.6923037171 -0.6740466356 -0.5085667968 0.5153879523
0.08287317306 -0.1544687748 0.679333508 -0.8082666993 -0.1640183479 0.5053242445
0.08397971094 -0.1427970976 0.6842656136 -0.6601421833 -0.3633149862 0.5692322254
0.08298669755 -0.1363531947 0.6880139709 -0.6828632355 -0.5531677008 0.4483289123
0.07994665951 -0.1442067772 0.6803254485 -0.6948391199 -0.4088130295 0.4855951965
0.06533037126 -0.09576648474 0.6973554492 -0.4096891582 -0.5271899104 0.7429853082
0.09004139155 -0.192610994 0.6933444142 0.9565627575 -0.04234050214 0.2477692217
0.08935810626 -0.1978052855 0.7032010555 0.8940389156 -0.2871029973 0.3174551427
0.07275233418 -0.1162110642 0.6903167963 -0.5672672987 -0.4011788964 0.7089118361
0.006274864078 -0.1923552603 0.7530792356 -0.4075095356 -0.5771704316 0.7025926113
0.06374029815 -0.1762186587 0.7530030012 0.5738639832 -0.43900159 0.6860445142
0.05159115046 -0.183719337 0.7577300072 0.3733015656 -0.5222610235 0.7580353618
0.02345723286 -0.1857713312 0.7643110752 -0.07076393813 -0.6342664361 0.7682968974
0.01800722443 -0.1841390729 0.7639759779 -0.1691478044 -0.6214883327 0.760191083
0.02012064122 -0.1782717407 0.7678564787 -0.1131457463 -0.6219751835 0.7714742422
-0.02719635889 -0.1862253994 0.6991071701 -0.3994830549 -0.3569391072 0.5288229585
-0.02765074559 -0.1800128222 0.6954118013 -0.1756839752 -0.3634002507 0.5178331733
-0.02318242751 -0.1549946815 0.6773733497 0.6732609272 -0.4298291504 0.5067736506
-0.03089930117 -0.1564649791 0.6982621551 0.653476119 -0.214886114 0.351115644
-0.02468409389 -0.1589407325 0.6823382378 0.5425775051 -0.3967906535 0.491808176
-0.02623410337 -0.1679846495 0.6886854768 0.2354249805 -0.3746246397 0.4971746206
-0.02752724476 -0.1593070626 0.6899912357 0.5413655043 -0.3171774149 0.433724314
-0.0271513816 -0.172902301 0.6923348308 0.06871100515 -0.3604638577 0.4985313416
-0.03037403524 -0.1715180278 0.7005668283 0.1296980828 -0.2659028172 0.4251596034
-0.003874279326 -0.08912513405 0.7071966529 0.5599600673 -0.5816784501 0.5811733603
0.001192416996 -0.08591746539 0.7050310969 0.4884235561 -0.6198558807 0.6071965098
0.09014011919 -0.1561518312 0.705804348 0.1025123671 -0.1532797813 0.4641469419
0.08637231588 -0.1637423486 0.7173895836 0.3330419362 -0.2842687368 0.4949646294
0.09196154773 -0.1758035421 0.7021983266 0.7500180006 -0.02912315354 0.2951931655
0.08946083486 -0.1782760769 0.7096680999 0.8195368052 -0.1227529496 0.3325932324
0.08971167356 -0.1710272282 0.7083201408 0.5847330093 -0.1316233128 0.3750882745
0.08528662473 -0.1694580168 0.719814539 0.5136020184 -0.3195384741 0.4684026241
0.08678046614 -0.1560646445 0.7152982354 0.08482649922 -0.2893465757 0.5344158411
0.08846606314 -0.1345188022 0.7055343986 -0.6107022762 -0.2948658168 0.6102818251
0.08627536148 -0.1473463476 0.7072136402 -0.2061438262 -0.3810702562 0.5149347186
0.08733931184 -0.1508136243 0.7134341598 -0.083494775 -0.2795320451 0.5591629148
0.08494342119 -0.155317679 0.7083595395 0.04549462721 -0.4324223399 0.4569271207
0.08534166962 -0.1632501185 0.7097101212 0.3064319193 -0.3856672347 0.4142240882
0.08686187863 -0.1605505347 0.7030200958 0.2240618318 -0.3432057202 0.3789533675
0.08508119732 -0.1472463161 0.6990051866 -0.2212986052 -0.4937340319 0.4247596562
0.08661783487 -0.1744008362 0.7137505412 0.6787844896 -0.2678963244 0.3809551299
0.08535303921 -0.1532656699 0.7024885416 -0.0220695436 -0.4463414252 0.4166786671
0.08590035886 -0.1440570801 0.6941518188 -0.3227621019 -0.4814711809 0.4062272906
0.08892145008 -0.1609611958 0.6968842745 0.246330142 -0.2607786059 0.3300591111
0.08981568366 -0.1485255957 0.702501893 -0.1491457671 -0.206050992 0.4856280088
0.08991328627 -0.1422683299 0.7045378089 -0.3507186174 -0.2026580721 0.553368926
0.09100624174 -0.1699737906 0.6999587417 0.553534627 -0.1075618267 0.3091561198
0.0860587135 -0.1377873123 0.6945826411 -0.5252923965 -0.4835872054 0.4584882259
0.08884136379 -0.1548877656 0.6978869438 0.04906770587 -0.2726837993 0.3847780824
0.05949413776 -0.14142932 0.651655972 -0.4548999071 -0.5933609009 0.6623466015
0.04617064074 -0.1326769441 0.6552786827 -0.2530439496 -0.6739902496 0.6914585233
0.09113045782 -0.1097086072 0.7023703456 0.356713146 0.1043413356 0.7762141824
0.09549762309 -0.118763566 0.6983556151 -0.1554744691 -0.2213628292 0.6824244261
0.0926142782 -0.1207033321 0.7028984427 -0.2810223699 -0.1472928077 0.7217479944
0.09602500498 -0.1054287553 0.6944229007 0.6276375651 -0.003821705235 0.7122786045
0.0999873206 -0.1078638285 0.6893990636 0.5014528632 -0.1964199841 0.6436816454
0.09786710888 -0.1158395931 0.6943045855 0.02558135055 -0.2585557699 0.6539046168
0.07762930542 -0.1202331558 0.6935686469 -0.6291254163 -0.3434618115 0.6869526505
0.08160280436 -0.1259212047 0.6969631314 -0.6913417578 -0.3414866924 0.6322318912
0.08338694274 -0.1186434925 0.7015694976 -0.5977980494 -0.2506625354 0.7567427158
0.07138955593 -0.1080440283 0.6940799356 -0.4575288892 -0.4072772563 0.7853140235
0.0701142177 -0.1031628251 0.6959709525 -0.4038825929 -0.4455313385 0.7958384156
0.1003807783 -0.1253256947 0.6657161713 0.5295194983 -0.4971697628 0.6869578362
0.09798487276 -0.1175334975 0.6668292284 0.563821733 -0.5175302625 0.6433597803
0.09331345558 -0.1325738728 0.6774161458 -0.05269636586 -0.539501369 0.573769927
0.1004353613 -0.1288573742 0.6713131666 0.3535820544 -0.5100573897 0.5996681452
0.0968644321 -0.127589643 0.6869521737 -0.07161105424 -0.4234874249 0.567876339
0.0906407088 -0.1307148486 0.688236773 -0.3569613993 -0.5258179307 0.4969546199
0.09699450433 -0.1276648641 0.680208087 0.05046349391 -0.5350551009 0.5057742
0.08768690377 -0.1320017874 0.6982283592 -0.6545607448 -0.4155718088 0.552102685
0.09219835699 -0.1297961622 0.6944407821 -0.3983414769 -0.3897460997 0.5764742494
0.09465573728 -0.1260650307 0.6985322237 -0.3643154502 -0.2669047713 0.6876137853
0.09160286933 -0.1270307153 0.7051538825 -0.6076954603 -0.2148333341 0.7168300152
0.1081004292 -0.120640099 0.6727204323 0.6317489147 -0.469450146 0.5422018766
0.1020330563 -0.1235667542 0.6832360625 0.2068393081 -0.3890074492 0.6084913015
0.1045270637 -0.1226854846 0.6781663895 0.3976466656 -0.4294472039 0.5813092589
0.1057399586 -0.1139920279 0.6724042296 0.7035825849 -0.4595378935 0.5402075648
0.1046939418 -0.1221877858 0.6680906415 0.5962358117 -0.4995956421 0.6230758429
0.09155207127 -0.1395016909 0.6656647921 0.5167444348 -0.6503599286 0.550753355
0.09909024835 -0.1326978952 0.6666083932 0.4311729968 -0.5110005736 0.6626652479
0.08360692114 -0.1485263258 0.6677996516 -0.1442562342 -0.4246175587 0.6573127508
0.0851451233 -0.1465355009 0.6768872738 -0.394726634 -0.30834952 0.6407034993
0.0878572911 -0.1400656402 0.6747466326 0.02863171883 -0.5806888342 0.5252245069
0.08428280801 -0.1526563019 0.6736694574 -0.4809825718 -0.120651938 0.7415598035
0.07237648964 -0.1756357551 0.7450996041 0.6806539297 -0.4128729105 0.6031416059
-0.02292425372 -0.1130936891 0.7107713819 0.7413312197 -0.4624893367 0.4860191345
0.001366315875 -0.1766548753 0.7643883824 -0.4049528837 -0.5805708766 0.6969014406
0.01395252906 -0.1734782755 0.7774518728 -0.2088215351 -0.6222868562 0.7474423051
0.06063814089 -0.09812977165 0.6929432154 -0.4296306074 -0.5481440425 0.7168185115
0.05542767793 -0.1014037132 0.6880522966 -0.3957279921 -0.5648921132 0.716989994
0.08408359438 -0.1692287177 0.6851637959 -0.2658638954 -0.1256372035 0.450583905
0.0867632553 -0.1814136952 0.6911919117 0.6329284906 -0.04637645558 0.2941356301
0.08723838627 -0.1847533137 0.6995714903 0.8166825771 -0.2200596333 0.3158185482
0.08952132612 -0.1784956604 0.6960970759 0.5696303248 -0.05222954974 0.3118534684
0.08553847671 -0.1760412604 0.6925424933 0.2057940513 -0.1917263269 0.3991212845
-0.02769794501 -0.1917449236 0.7031666636 -0.5925455689 -0.3426881135 0.531906724
-0.02439008467 -0.1748104542 0.6992098093 -0.1791983247 -0.3774521649 0.5210062861
-0.02620287798 -0.15428029 0.6873455048 0.6834933758 -0.3327500522 0.4339713454
-0.02470801026 -0.1787363291 0.7052930593 -0.371234715 -0.359634459 0.5189701915
-0.02757145278 -0.1722846478 0.7080155015 -0.0942626819 -0.2784942687 0.4420481026
-0.02447692305 -0.1694494188 0.6960653067 0.02969834581 -0.3733797967 0.5043231249
-0.02805799991 -0.1651440114 0.7029264569 0.2136697769 -0.2691427767 0.4161248803
-0.0272842031 -0.1616131365 0.6973463893 0.3664575517 -0.2949399948 0.4256964326
-0.02557705343 -0.1944084167 0.7140368819 -0.7785539031 -0.3300726414 0.5337510109
-0.03055985086 -0.1803022325 0.7036446929 -0.1793175042 -0.2797614932 0.4567469358
-0.02868257836 -0.1918067336 0.7093676329 -0.6853193045 -0.3237678111 0.5201150775
-0.0255128555 -0.1870146245 0.714892149 -0.7234312296 -0.3314504325 0.5201414824
-0.02928170189 -0.1861418039 0.7072005272 -0.4566443563 -0.3042397797 0.4910867512
0.07445436716 -0.179896757 0.739751637 0.7115742564 -0.4127074182 0.5647779107
0.0283777155 -0.07909321785 0.6978569627 0.04900255427 -0.6905879378 0.7214058042
0.05866419151 -0.09236177057 0.6944932938 -0.3775672019 -0.5856112838 0.7167941332
0.05289049447 -0.08958927542 0.6946386695 -0.3473159373 -0.6188215017 0.7031986117
0.04804620519 -0.0916312933 0.6923401356 -0.277931124 -0.6191783547 0.7319073081
0.06017983332 -0.2185290158 0.7267562747 0.5574092865 -0.5371385217 0.625248313
0.06559527665 -0.2149924636 0.7247986197 0.6252327561 -0.5163548589 0.5791343451
0.08178629726 -0.1596687734 0.6748918295 -0.8198235035 -0.07827233523 0.5408729315
0.07948851585 -0.1471415013 0.6751896143 -0.5170689821 -0.4915015697 0.6202443838
0.07821822166 -0.1352501214 0.6813307405 -0.5497485995 -0.650385201 0.5045791268
0.07776922733 -0.1548605859 0.669808805 -0.6833018661 -0.2676845491 0.6146245003
0.071272403 -0.1209347844 0.6859237552 -0.6222564578 -0.481339097 0.6113691926
0.05570483953 -0.1780298948 0.7602757812 0.436416626 -0.4658581316 0.7669789195
0.01443839911 -0.1751445681 0.7710597515 -0.2225393653 -0.6138160825 0.7510462403
0.01100058947 -0.1839358211 0.7624168992 -0.3020713925 -0.5923008323 0.741643548
0.004575151019 -0.1865827739 0.7563667893 -0.4341389835 -0.5519464612 0.7114041448
0.007752343081 -0.1773251742 0.7638847232 -0.3380038142 -0.5786181688 0.735583663
0.01279562991 -0.1915920228 0.7564960718 -0.2784870267 -0.5916699767 0.7546114922
0.009190049022 -0.1771184355 0.7711706161 -0.2947323918 -0.5990303159 0.731074214
0.004660299513 -0.1823577583 0.7619523406 -0.4028018415 -0.5669100881 0.7165933251
-0.006050443277 -0.1889707595 0.7448052168 -0.6184177399 -0.4940100014 0.6049507856
-0.02899041958 -0.1983020902 0.7080613971 -0.7747203708 -0.3311098516 0.5384503007
-0.02447228506 -0.2008946538 0.7147272229 -0.7596758604 -0.3404856026 0.5534717441
-0.02052101865 -0.2036590725 0.7177271843 -0.7513254881 -0.3456895649 0.561809361
0.02636495046 -0.08509036154 0.6936921477 0.09329719096 -0.6759716868 0.729929626
0.03204480931 -0.083291471 0.6952332258 -0.001908744569 -0.6809767485 0.7277929187
0.09112603217 -0.1910829395 0.703928411 0.9172317982 -0.2030218244 0.2973843515
0.08543998748 -0.1849976033 0.7143788338 0.8873993754 -0.3012222648 0.3470087647
0.08503040671 -0.1817759424 0.7203868628 0.8659774661 -0.2969474494 0.3911306262
0.09023401141 -0.1828765571 0.7050865293 0.9357072711 -0.1049237326 0.2862835228
0.08106388897 -0.1789754182 0.7322620749 0.7896137238 -0.3806955218 0.4809570611
0.04071635753 -0.1361379772 0.6498411298 -0.1616099477 -0.7101401091 0.6810389161
0.04667235911 -0.1222315878 0.6657894254 -0.2558842897 -0.6332973838 0.7256538868
0.09194829315 -0.1043097004 0.6983454227 0.6367788315 0.05039214715 0.7569846511
0.079652071 -0.112321198 0.7004985809 -0.5279117227 -0.2610225379 0.8076626658
0.08046352863 -0.1074066013 0.7051537037 -0.472923249 -0.3104926944 0.8169089556
0.06858302653 -0.09378556162 0.7018980384 -0.3623411655 -0.5113016963 0.7785682678
0.07427542657 -0.100428842 0.7016670108 -0.3686493337 -0.4317522943 0.8197631836
0.08578774333 -0.1426512897 0.6630653143 0.2027451694 -0.5256429911 0.6538081169
0.06939505786 -0.1497139931 0.6535710096 -0.4310417771 -0.3906893134 0.7627082467
0.08023197949 -0.1456720233 0.6603479385 -0.1215214208 -0.3898681998 0.7644171715
0.08196110278 -0.1397546828 0.6565725803 0.1115385517 -0.5664438009 0.6734679937
0.07462135702 -0.1476831138 0.6567641497 -0.2789284587 -0.3930271566 0.762121141
0.07445194572 -0.1435035765 0.6527500749 -0.1359648556 -0.535236001 0.6886880398
-0.01994399726 -0.1042429879 0.7145954967 0.7164436579 -0.4855041504 0.5008994341
-0.0240816921 -0.1084889099 0.7196745872 0.7257691622 -0.4757740796 0.4967921376
-0.01518603135 -0.09698022902 0.7127503157 0.6756719351 -0.5288171172 0.5126492381
-0.01120428089 -0.0987739712 0.7070587277 0.6859560609 -0.5095371604 0.5194109678
-0.02168137021 -0.1035385579 0.7201080918 0.7048518062 -0.4968396723 0.5046877265
-0.004573464859 -0.179372102 0.7545978427 -0.5461976528 -0.511915803 0.6520588398
-0.009965361096 -0.1780521721 0.7514246106 -0.6246906519 -0.4808940887 0.6128334999
-0.00211160956 -0.1863244772 0.7533144355 -0.5205383897 -0.5348069668 0.664278686
-0.002907440532 -0.1780765057 0.759919405 -0.4848353267 -0.5511041284 0.6756715775
0.04936718941 -0.09656947851 0.6871125102 -0.2999708354 -0.6031891704 0.7364505529
0.0374692753 -0.09191866964 0.6886983514 -0.1180650443 -0.6321650147 0.7642039061
0.042363666 -0.0952796787 0.6870963573 -0.1985174716 -0.6281422973 0.7491342425
0.03599192575 -0.0960098058 0.6836550832 -0.0694854632 -0.6240566969 0.7760278583
0.08788302541 -0.1000566557 0.697994411 0.5198251605 0.05248501152 0.8327858448
0.08399789035 -0.09915604442 0.7064415216 0.1208044589 -0.1101830676 0.8261865973
0.07643834502 -0.1065583751 0.6997079253 -0.4279145002 -0.3240618408 0.8394746184
0.1014946625 -0.1033970565 0.6849643588 0.7215701938 -0.2690612078 0.6189658046
0.06602106988 -0.1088519767 0.6882990003 -0.5303311348 -0.468955487 0.7015268207
0.06870300323 -0.1137012467 0.6873636246 -0.5516701937 -0.4547930956 0.6910834908
0.04092222452 -0.1138256416 0.6710571647 -0.1725858897 -0.6349491477 0.7486823797
0.0418971628 -0.1180266291 0.6673665643 -0.1723377407 -0.6492871046 0.7383028865
0.09233836085 -0.1869322509 0.6900273561 0.9702016711 0.1209236458 0.1995026767
0.09243591875 -0.1847199053 0.6958645582 0.970859766 0.06088704616 0.220708847
0.08603154868 -0.171927914 0.6811097264 -0.07287104428 0.04486169666 0.380787462
0.09059073776 -0.1820340604 0.6862828135 0.6530026793 0.1230779663 0.2447674423
0.08624679595 -0.177124396 0.6865563393 0.3131668568 -0.003073833184 0.3350163996
0.08343087137 -0.165233925 0.6790690422 -0.5276539922 -0.03236458078 0.4643693864
0.08523605764 -0.1947756857 0.7078385353 0.8858348727 -0.3120993078 0.3358394206
0.0862891227 -0.1881595254 0.7055855393 0.8926781416 -0.2995108962 0.3321830928
0.08487787098 -0.201095745 0.7080569863 0.8685582876 -0.3526901007 0.3465140164
0.07590357959 -0.2053498477 0.7187826037 0.7442762256 -0.4348288178 0.5066269636
0.07647236437 -0.1956000924 0.7241703272 0.7735247016 -0.4077833891 0.4850735366
0.07672205567 -0.1999730021 0.7198536396 0.784086287 -0.4116319716 0.4598391056
0.07508309186 -0.2109117061 0.7176910639 0.7282037139 -0.458057493 0.5088959336
-0.02359355241 -0.1864413321 0.7201214433 -0.7794889808 -0.3323954046 0.5309296846
-0.01959989592 -0.196690619 0.7240693569 -0.7589193583 -0.3486354351 0.5499128103
-0.02259206772 -0.1967360228 0.7189332843 -0.7630955577 -0.3422914445 0.5478452444
-0.01828989387 -0.187431708 0.7296040058 -0.7715085149 -0.3401274681 0.53665483
-0.01609618403 -0.1950542033 0.7296212912 -0.7532052398 -0.3480362892 0.5579570532
-0.01836808212 -0.111404039 0.7056593299 0.7252652645 -0.4737397134 0.499065429
-0.01162165683 -0.1079220697 0.6998595595 0.6831667423 -0.5009856224 0.5311183929
-0.01536607929 -0.113493003 0.6985536814 0.7177916765 -0.473890245 0.5091534257
-0.01240845956 -0.1282838732 0.6801303029 0.6830824614 -0.4816097021 0.5459403396
-0.008836841211 -0.1228012592 0.6812160611 0.6535986662 -0.5022900105 0.5656537414
-0.01601571031 -0.1320358515 0.6817622781 0.7243858576 -0.4533436 0.5159859061
0.05522406101 -0.1915706098 0.751665175 0.4310890436 -0.5350788236 0.7246864438
0.06936577708 -0.1828278005 0.7448747754 0.6576674581 -0.4398582578 0.6074101329
0.06851505488 -0.174465701 0.7492160201 0.6453213096 -0.4173772931 0.6387450099
0.06118611991 -0.1907152236 0.7485827804 0.5417986512 -0.4978382885 0.6692121625
0.05743287504 -0.1956388801 0.7474728823 0.4738261998 -0.5306594968 0.699306488
0.06524049491 -0.1854759157 0.7485004663 0.6018422246 -0.4653736353 0.6458075643
0.06080374494 -0.1855763942 0.7525017262 0.547098875 -0.4726518393 0.685566783
0.03157681599 -0.1781140417 0.7694543004 0.07183979452 -0.6327546835 0.770136416
0.0302450452 -0.1881808937 0.7628616095 0.03211088106 -0.6078898311 0.7862262726
0.02628552727 -0.1812682301 0.7676621675 -0.02245047688 -0.6403208375 0.7651236653
0.03161118552 -0.1835820973 0.7660204172 0.07191046327 -0.621915102 0.7750989795
0.03728996217 -0.1814338714 0.7658778429 0.1285625398 -0.6137089133 0.7747511864
0.03749997914 -0.1884810925 0.7624048591 0.1538446844 -0.5937162638 0.7884547114
0.03691204637 -0.08606247604 0.6929484606 -0.08837570995 -0.6508854628 0.7500413656
0.04328473657 -0.08697445691 0.6941813231 -0.2004008591 -0.6412651539 0.7375866771
0.06258255243 -0.08596498519 0.7027620077 -0.3379214406 -0.6033636332 0.7215260267
0.08275992423 -0.09589142352 0.6946144104 0.3187630475 -0.3267857432 0.7363013029
0.07773023844 -0.09230574965 0.6981778741 0.1304321736 -0.4109473526 0.7349355817
0.06786471605 -0.08702965826 0.7036262751 -0.2133136839 -0.5264140368 0.7435907722
0.07252619416 -0.09015651792 0.7090290785 -0.3322987556 -0.478251338 0.8042961955
0.07747540623 -0.09425102174 0.7044221163 -0.1933730841 -0.3864117265 0.8799481988
0.0619283393 -0.2127916664 0.7296520472 0.6032812595 -0.5160329342 0.6059420109
0.06248205528 -0.1960926056 0.7435865998 0.5646734834 -0.4980080724 0.6552092433
0.05171019211 -0.1991204023 0.7466214895 0.3822097778 -0.5612491965 0.7203492522
0.04638898745 -0.1993498802 0.7513129711 0.2678835094 -0.6028828025 0.7465023398
0.04067929089 -0.1967175454 0.7547671199 0.1851793826 -0.6064507961 0.7713172436
0.07052353024 -0.1261956394 0.6796401143 -0.5737411976 -0.6007038355 0.5513238907
0.07638619095 -0.1249311715 0.688681066 -0.648113668 -0.4797020853 0.5784021616
0.05645712465 -0.1243356913 0.6683084965 -0.4163493812 -0.5964576006 0.6859844923
0.05471080914 -0.1316058487 0.6606887579 -0.3930166066 -0.6088213921 0.6882822514
0.0661283657 -0.1414573342 0.6621577144 -0.4868060052 -0.5493441224 0.6781613231
0.04925492033 -0.1293098778 0.6606934071 -0.295856297 -0.6314451694 0.7101119757
0.05709495395 -0.1387165785 0.6563683748 -0.4335976541 -0.6054111123 0.6663942933
0.05177096277 -0.1349917203 0.6559504867 -0.3411282897 -0.6476712227 0.675550282
0.02648490481 -0.1921338439 0.7596633434 -0.0457069017 -0.6076352596 0.7898700237
0.04600755498 -0.1857846975 0.7621893287 0.287440747 -0.5427712798 0.7838779092
0.04280916974 -0.1905069053 0.7596969604 0.2342450768 -0.5724955797 0.7826541066
0.04652543366 -0.1939587593 0.7549620271 0.296067059 -0.5785884857 0.756714046
0.05122993886 -0.189630419 0.7567245364 0.3782091141 -0.5332306623 0.7522355318
0.05119429901 -0.1812392175 0.763137579 0.3699011505 -0.4933081269 0.7849941254
0.04634695873 -0.1786310673 0.7660131454 0.2867334187 -0.5109897256 0.808015883
0.01469407789 -0.2170442343 0.7378334999 -0.2172678858 -0.5380603075 0.8127385378
0.02266363613 -0.222821936 0.7364988923 -0.08531671017 -0.5671119094 0.8151323795
0.01660761237 -0.2231240422 0.7373589873 -0.16366072 -0.5402306914 0.8223865628
0.01060798857 -0.2248172164 0.7377465367 -0.2551415265 -0.5319062471 0.802423954
-0.01673407108 -0.2030411214 0.7237707376 -0.7360941768 -0.3387617171 0.5855135918
-0.006601589266 -0.1842504889 0.7503603697 -0.6015295982 -0.4845795035 0.6272423267
-0.01530093793 -0.1858295202 0.7367861867 -0.7502755523 -0.3681153059 0.5481381416
0.08170263469 -0.1818231791 0.7275488973 0.8090260625 -0.3622292876 0.461995393
-0.008697086014 -0.1476415247 0.6623675823 0.5996223688 -0.4930848479 0.629118979
-0.01156045124 -0.1454026103 0.6677282453 0.6448383331 -0.4787499011 0.5925670266
-0.01333776023 -0.1506826729 0.6654874086 0.6492664218 -0.4681215286 0.5930003524
-0.006891480647 -0.125569731 0.6761885285 0.591950655 -0.5244662762 0.6076939702
0.03031184524 -0.139335379 0.6473973989 0.01900397427 -0.7186080217 0.6819141507
0.02566330321 -0.1419477314 0.6433454752 0.08307556063 -0.7097194791 0.6992281079
0.03466788679 -0.1346436292 0.6508210897 -0.07160516083 -0.7164453864 0.6928399205
0.05585719645 -0.1448251456 0.6490113735 -0.4340040982 -0.6099308133 0.6602211595
0.06474191695 -0.1454149932 0.6567739248 -0.4842655361 -0.534414649 0.6907893419
0.06969254464 -0.1484575123 0.659999609 -0.5265954137 -0.4543810785 0.7149204016
0.03871300817 -0.1239531115 0.6616697907 -0.1223495305 -0.6635009646 0.7341008186
0.04423040897 -0.1257868409 0.66176337 -0.2211017907 -0.6455355287 0.7302231193
0.02785445005 -0.093162857 0.6876527071 0.06773667037 -0.6336000562 0.7639061213
0.08779342473 -0.1039968655 0.7034704089 0.3266088665 0.05631126091 0.8422618508
0.07694394886 -0.09455852956 0.7101107836 -0.3422754705 -0.4052322209 0.8462697268
0.08862053603 -0.1163253188 0.7047608495 -0.2938714027 -0.1029274017 0.8383404016
0.08511687815 -0.1110248268 0.7036032081 -0.291398406 -0.1461943239 0.8962189555
-0.01013604924 -0.102649264 0.7021824718 0.6719641685 -0.5110126734 0.5354547501
-0.005080790725 -0.1001582965 0.697229147 0.5888255835 -0.5494273305 0.5908291936
-0.01654117368 -0.1022306532 0.7093618512 0.7058790326 -0.4935768545 0.5072969198
0.03227954358 -0.1019270718 0.6795144081 -0.01245231368 -0.624232173 0.7766628861
0.02586686052 -0.0979584381 0.6833105683 0.1050142273 -0.6269770265 0.7705442905
0.04190932587 -0.1010199562 0.682274878 -0.1855838895 -0.6234167814 0.7464056611
0.09871014953 -0.1034953222 0.6784630418 0.6190943122 -0.505305469 0.5989235044
0.09593483061 -0.09922415018 0.6846684217 0.5717630982 -0.4353243113 0.6770122647
0.0711190924 -0.09233251214 0.6938437223 -0.1074347124 -0.5438321829 0.701954782
0.07782465965 -0.09414637089 0.6909655929 0.06778093427 -0.5291958451 0.6916500926
0.09055887163 -0.09842281044 0.6908491254 0.5305276513 -0.3003749847 0.7247678638
0.08114105463 -0.1070383713 0.6785959601 0.123745352 -0.5436497927 0.6659529209
0.08801296353 -0.103778854 0.6797989011 0.3049977124 -0.5366280675 0.6597369313
0.07139243186 -0.1079311073 0.6800845265 -0.1222877875 -0.5523528457 0.674713552
0.0838958472 -0.1106507704 0.6748659611 0.1817786992 -0.5424935222 0.6635369658
0.0906169787 -0.1080250591 0.6755610108 0.3573821187 -0.5358154178 0.6574659944
0.06536924839 -0.1107152998 0.6790924668 -0.2809379101 -0.5584827662 0.6801607013
0.07458432019 -0.1051535234 0.6837823987 -0.1372024715 -0.5231382847 0.6692385077
0.08167285472 -0.1031185836 0.6836649179 0.05690296739 -0.5190940499 0.6631238461
0.06800951064 -0.09891878068 0.6919331551 -0.3265685439 -0.5317408442 0.705385983
0.06873450428 -0.1040110365 0.6876128316 -0.348559618 -0.5155451894 0.6822500229
0.0850430578 -0.09817039967 0.6866239309 0.1918784827 -0.5319886208 0.6777387857
0.07441954315 -0.1007020324 0.6882852912 -0.1492215544 -0.5253034234 0.6861328483
-0.02132915705 -0.1909652203 0.7242501974 -0.7632321119 -0.3508318961 0.5424745083
-0.02342474088 -0.1213233769 0.7038917542 0.7679136992 -0.4379152358 0.4670554698
-0.02513351105 -0.1467217952 0.6862065792 0.7570471764 -0.4261327386 0.4948980808
-0.02813682705 -0.1484788209 0.6909737587 0.8413347602 -0.3105372488 0.4058695436
-0.01144444663 -0.1140201092 0.6923561096 0.6706779599 -0.5001289845 0.5435010195
0.06487394124 -0.1984915137 0.7382592559 0.63237077 -0.4815309346 0.593906343
0.07212848961 -0.1872600466 0.7408985496 0.6999287605 -0.4295864403 0.5697182417
0.06683157384 -0.1914582551 0.7434675694 0.6299054027 -0.4643383324 0.6200125217
0.07560165226 -0.185640052 0.7352069616 0.736076355 -0.4155459702 0.5314128399
0.07069141418 -0.1947162002 0.7358937263 0.7020634413 -0.4542039335 0.5480192304
0.07113602757 -0.2002276182 0.7298906446 0.6999416947 -0.4595722258 0.5464971662
0.07151261717 -0.2045076936 0.7264969945 0.6965819001 -0.4709917903 0.5405434966
0.07098259777 -0.2110109627 0.7225859165 0.6812950373 -0.4955520928 0.5384738445
0.03085605428 -0.1171832159 0.667078793 0.003177591832 -0.6567028761 0.7497681379
0.02508633025 -0.1130665019 0.6712899804 0.1119769365 -0.6348545551 0.7638816833
0.03284150735 -0.1133453995 0.6702413559 -0.038367033 -0.6396278739 0.7633549571
0.0217931848 -0.08198449016 0.6974344254 0.1803494692 -0.6725012064 0.704426825
0.01436461322 -0.08343056589 0.6991832852 0.3289402723 -0.6514301896 0.683375895
0.05533213541 -0.08493564278 0.6991945505 -0.3592938483 -0.6206797361 0.6968162656
0.05715250224 -0.1121303961 0.6787680387 -0.4389508665 -0.5739889145 0.6905210018
0.05132393911 -0.1186198667 0.668502152 -0.3751149774 -0.6040020585 0.7031311989
0.0466036424 -0.1147019267 0.6714430451 -0.2712065279 -0.6234576106 0.7309019566
0.05098108947 -0.1116407141 0.6749412417 -0.3545459211 -0.6021481156 0.7138693333
0.05063709989 -0.1017438844 0.683388114 -0.3305158317 -0.6024327278 0.7249506116
0.04592882097 -0.1050431058 0.6793231964 -0.2524303198 -0.6215876937 0.7404567599
0.05132468045 -0.1075501516 0.6799033284 -0.3377303183 -0.596980989 0.7191307545
0.05614269152 -0.1065706834 0.6829314828 -0.4201819301 -0.5753771067 0.700530827
0.09432927519 -0.113182202 0.670791924 0.422757864 -0.5318616033 0.6480568647
0.07998789102 -0.1149223 0.6740620732 -0.006700096652 -0.5423262715 0.6441850662
0.08848516643 -0.1150189191 0.6713082194 0.2590302825 -0.5331235528 0.6441842914
0.05987685174 -0.121100381 0.6731516719 -0.4705697298 -0.578075707 0.6644031405
0.074556835 -0.112684615 0.6761211157 -0.09352258593 -0.54945153 0.6621620059
0.0654502362 -0.1177134514 0.6818356514 -0.5579580069 -0.5416225195 0.623860836
0.06165084988 -0.1262449324 0.6710058451 -0.4666979015 -0.5910353065 0.65540874
0.06617259234 -0.132549867 0.6690177321 -0.504001379 -0.5876995325 0.6310710907
0.06037786603 -0.1336929351 0.6631036997 -0.440133363 -0.5832971931 0.6815665364
0.06827900559 -0.1298838854 0.6736316681 -0.5434331298 -0.5831845999 0.6017642021
0.07483504713 -0.1311466098 0.6799895167 -0.5552455187 -0.6632871032 0.4991154373
0.07554733008 -0.1431215554 0.6716234088 -0.4281478524 -0.5772355199 0.6813082099
0.07654798031 -0.1383992434 0.6766547561 -0.4947305024 -0.6183004379 0.5861732364
0.07202735543 -0.1354358792 0.6734120846 -0.5054802299 -0.6018236876 0.6059769392
0.06967512518 -0.1390650272 0.667668879 -0.4861964285 -0.5665503144 0.6601199508
0.07104109973 -0.1444123238 0.6651506424 -0.4587017596 -0.547909081 0.6948421597
0.07534203678 -0.14773947 0.6677410603 -0.4024015367 -0.5511937737 0.7260301709
0.02891146578 -0.2218307555 0.7364059091 0.03105670027 -0.5733191967 0.801990509
0.04100034386 -0.2226415426 0.7338461876 0.2362016588 -0.5823110342 0.7472139001
0.009866282344 -0.2192650288 0.7397918701 -0.2992370129 -0.515426755 0.788605392
0.01530035306 -0.2271887958 0.7411980629 -0.1730844826 -0.5486855507 0.816927433
0.004424375482 -0.2212990075 0.7339560986 -0.3751213551 -0.501740396 0.776194334
0.0029916903 -0.2152950317 0.7342888117 -0.4600552917 -0.4603465199 0.75762707
0.006599859335 -0.08490069956 0.7011809945 0.4211894274 -0.6362899542 0.6446613073
0.08090545237 -0.1913869977 0.7202533484 0.8263258338 -0.3571184278 0.4325366318
0.08452192694 -0.1923835874 0.7151071429 0.8481334448 -0.3431447148 0.3964468241
0.08162643015 -0.2003752142 0.7139035463 0.842428267 -0.368473351 0.3917902708
0.03416835517 -0.141958937 0.6432262659 -0.04939721152 -0.7295882702 0.6801503897
0.03123902529 -0.143507719 0.6389383078 -0.02181245387 -0.7248384356 0.6865196228
0.05991613865 -0.1465631127 0.6436117887 -0.4546940327 -0.5916058421 0.6621670127
0.05385020003 -0.145135209 0.6431926489 -0.3730158508 -0.640963316 0.6591824293
0.04802979901 -0.1460717618 0.639549017 -0.3066066206 -0.6769506335 0.6631906629
0.04677470773 -0.1377708912 0.6508794427 -0.2631891966 -0.7036182284 0.6575700641
-0.0005393832107 -0.09124468267 0.7010695338 0.5215706825 -0.5836182237 0.6194868088
0.09205079079 -0.1249973476 0.6636187434 0.4045101404 -0.4608159065 0.7746422291
0.08652637899 -0.1241428033 0.6657319665 0.232805863 -0.4692771733 0.7665409446
0.08351527154 -0.1206556112 0.6690067649 0.1317397356 -0.5021066666 0.7045503259
0.07302024961 -0.1182544529 0.6739223003 -0.2003386468 -0.5335194468 0.6618692875
0.07953815162 -0.1247805208 0.6674044132 0.01868005469 -0.4747049809 0.7732127905
0.06671794504 -0.1188745499 0.6754938364 -0.3953515589 -0.5350352526 0.6726288795
0.07407031208 -0.1274670959 0.6655555367 -0.1079052463 -0.5149809122 0.7454081178
0.06692239642 -0.1227458194 0.6715198755 -0.3524689376 -0.5446269512 0.685185492
0.07948048413 -0.1294356287 0.662256062 0.09276472032 -0.4803241193 0.7952404022
0.06515002996 -0.1307139546 0.662643671 -0.2475319207 -0.5580914617 0.7191152573
0.06581901014 -0.133650586 0.6577036381 -0.1555237919 -0.5661497712 0.7268238068
0.07213766873 -0.1345006377 0.6593782902 -0.1454522014 -0.5215061903 0.7356100082
0.07580599934 -0.1373181641 0.6531803012 -0.05478756502 -0.5005352497 0.7596691251
0.06438723207 -0.1432213336 0.6487160921 -0.3858390152 -0.5623422265 0.6826007962
0.06882107258 -0.1392014921 0.6537442803 -0.2651004493 -0.5379368663 0.7099676132
0.08562754095 -0.1306604892 0.6600335836 0.2228168547 -0.4470022619 0.8236173391
0.08736347407 -0.1373932958 0.6597355008 0.2745236456 -0.572728157 0.6720278263
0.09290806949 -0.1332723647 0.6635199189 0.430503726 -0.5345985889 0.7173067331
0.01822897233 -0.09042593092 0.6918470263 0.2422307283 -0.6459609866 0.7197763324
0.02433418483 -0.08918622881 0.6902644038 0.1386128664 -0.6503754258 0.7351469994
0.01120803878 -0.09264340252 0.6924185157 0.3448794782 -0.62990731 0.6901867986
0.005584048573 -0.09008223563 0.6963478923 0.4408141971 -0.6116585732 0.6564232111
0.004080011044 -0.1049890965 0.685256362 0.4427171946 -0.582695961 0.6797385812
-0.001595231122 -0.1051662862 0.6885306835 0.5468772054 -0.5542581677 0.6273748875
-0.01094385516 -0.1348104328 0.6729884744 0.6568735838 -0.4856142402 0.5758423805
-0.02002881281 -0.1469820589 0.6759502888 0.7369313836 -0.4361422658 0.515827179
-0.01612788625 -0.1417100281 0.6737208366 0.694988668 -0.4642622769 0.5481610298
-0.019015003 -0.1511046141 0.6713404059 0.716330111 -0.4403870404 0.540060997
-0.01995036937 -0.1409023255 0.67966187 0.7521989942 -0.4307759404 0.4986176193
-0.02282210067 -0.1457955688 0.6809318066 0.7520121932 -0.4276809394 0.5014199018
-0.01009712927 -0.1843779385 0.7439699173 -0.6745465994 -0.4517107904 0.5808326006
-0.01418057922 -0.1792742312 0.744507134 -0.7127500176 -0.4190870225 0.5609759092
-0.01775445417 -0.1794826835 0.7374069691 -0.7425335646 -0.3892859221 0.5433487296
-0.01987402514 -0.1315772682 0.6892786622 0.757511735 -0.4332565963 0.4882709086
-0.02088056691 -0.1165228933 0.7034517527 0.7490205765 -0.4520557821 0.4841196239
-0.01948836818 -0.1194821298 0.698199451 0.7429299355 -0.4546940625 0.4910013378
-0.01528935693 -0.1238948926 0.6867431998 0.7003154755 -0.4782940745 0.5286224484
-0.01549262088 -0.1201079413 0.6934004426 0.7172926068 -0.4683026969 0.5133092999
-0.01129676681 -0.1183814332 0.6876683235 0.6741353869 -0.4950685799 0.5470753908
0.06594106555 -0.2078329176 0.7297204137 0.6353701353 -0.5018537045 0.5860668421
0.06523966044 -0.2030363083 0.7346872091 0.6250590086 -0.4986019135 0.5990648866
0.02595640533 -0.1200515479 0.6647499204 0.08374053985 -0.6605373025 0.7447037697
0.0312315803 -0.1228530556 0.6620464921 -0.001779108308 -0.6671174765 0.7406838536
0.02617581561 -0.1247446835 0.6604883075 0.07735938579 -0.6679463387 0.7372873425
0.03344621137 -0.1279234886 0.6574443579 -0.04118330404 -0.6766571403 0.7337459326
-0.005440953188 -0.1322976947 0.6703241467 0.5961605906 -0.51526618 0.6079848409
0.0005382313393 -0.1319325864 0.6667030454 0.5105237961 -0.5533164144 0.6393923163
0.02164231054 -0.2263031155 0.7410053611 -0.06456182897 -0.5683473945 0.8088337779
0.02787630819 -0.2164647132 0.7397494912 0.03683315217 -0.5564033389 0.8245031238
0.03838121891 -0.2012979388 0.7511019111 0.1568362415 -0.6056979895 0.7780545354
0.03280995414 -0.1985147595 0.7535202503 0.07505444437 -0.6133597493 0.7824642062
0.02831853181 -0.2029612362 0.7507117391 7.590896712e-05 -0.6161647439 0.7821502686
0.03355481848 -0.1931654215 0.7588513494 0.07421147823 -0.6053010225 0.7906044722
0.05749410018 -0.2020364702 0.7409154773 0.5089004636 -0.5259594321 0.6692773104
0.06101893261 -0.2077474892 0.7330210805 0.5515489578 -0.5280457139 0.6359981894
0.05629027262 -0.2093239427 0.7379580736 0.4903027117 -0.5365837216 0.6743581891
0.003649576101 -0.2000999898 0.7455406785 -0.4518068433 -0.5317917466 0.7132140398
-0.002440068405 -0.2132349163 0.7351741791 -0.5181686878 -0.4621026516 0.7193652987
-0.003508279566 -0.2187339962 0.7318310142 -0.5219705105 -0.4584977031 0.7191972136
-0.0004400422913 -0.1916870028 0.7493544221 -0.5132556558 -0.5432443023 0.6631941199
0.01203835011 -0.2110111713 0.740845561 -0.2913955152 -0.5130116343 0.7981848121
0.02166654915 -0.2165354937 0.7394272089 -0.08367392421 -0.5474578738 0.8273019195
-0.01072309352 -0.2131938487 0.7274199724 -0.6441842914 -0.3861997426 0.6577707529
-0.01514578331 -0.2103864104 0.7231818438 -0.6948701143 -0.3740152121 0.6103873849
0.02012066543 -0.1417102367 0.6464072466 0.1936994791 -0.6562294364 0.7224532962
0.028163407 -0.1355412602 0.6512207389 0.03679379448 -0.69576478 0.7052212358
0.01794545911 -0.1295508444 0.6574183106 0.2107212692 -0.6611356735 0.7186104059
0.024200188 -0.1288725436 0.6565349102 0.1138686314 -0.6733585 0.7278313637
0.02154677175 -0.1329766959 0.653786242 0.1690409929 -0.6775621176 0.7094003558
0.01531141717 -0.1341567487 0.6545926332 0.2712213397 -0.6493073702 0.7079672217
0.05024755374 -0.1421402991 0.6487371922 -0.3221919239 -0.6738535166 0.6619961858
0.04338013381 -0.1439159364 0.6418749094 -0.2036438435 -0.7065750957 0.6745017171
0.03840769082 -0.1434360296 0.6380503178 -0.1288442761 -0.7340500355 0.6621639132
0.04309366643 -0.140778318 0.6474465132 -0.1910158843 -0.7109995484 0.6685398221
-0.01991773583 -0.1811121553 0.7322500348 -0.7670047283 -0.3616243899 0.5299270749
-0.02277669311 -0.1792894006 0.7279865146 -0.7729955912 -0.3527735174 0.5268107653
-0.02416832186 -0.1811780483 0.7224876285 -0.7818571329 -0.3315073252 0.5279245377
-0.01911085472 -0.1255637258 0.692065835 0.7422106266 -0.4514390528 0.4950092137
-0.02225857787 -0.129643485 0.6947453618 0.7569872141 -0.4382489622 0.4841031134
-0.02710510418 -0.1319367439 0.7027413249 0.7829681039 -0.4230126441 0.4560117722
-0.02425691858 -0.1271444559 0.7014299035 0.7745887041 -0.4293070734 0.4641790688
-0.02199592814 -0.1376279444 0.6868740916 0.7610813975 -0.4283587337 0.4870583117
-0.02687432244 -0.1417126805 0.6942719221 0.7920207977 -0.3868094683 0.4567774236
-0.02491627447 -0.134860754 0.6955905557 0.7740490437 -0.4176142514 0.4710463881
-0.02876219712 -0.1386916339 0.7004833221 0.833737433 -0.341830492 0.4074742198
-0.03033558838 -0.1466194689 0.6969946027 0.896902442 -0.2389062345 0.3473049104
5.512813004e-05 -0.1103270128 0.6831922531 0.5073879957 -0.5714711547 0.6437317133
-0.005538511556 -0.1156179532 0.6836221218 0.5707079172 -0.5486222506 0.6087766886
0.003039289266 -0.1133911088 0.6791115403 0.4572911263 -0.5852220058 0.6678358316
-0.002550245728 -0.118954502 0.6792275906 0.5499158502 -0.5421789289 0.6209173203
-0.004867705517 -0.1100862175 0.6874044538 0.5758733749 -0.5439924002 0.6077622175
-0.007539751939 -0.1083269715 0.695392251 0.6300597191 -0.5182235241 0.5660867095
0.03418564796 -0.2135675251 0.7412430644 0.1316742897 -0.559345305 0.8161387444
0.04196847603 -0.2028162181 0.7466226816 0.2342693061 -0.5924227238 0.750616014
0.03801015019 -0.2078724653 0.7443477511 0.1768330038 -0.5765126944 0.78757447
0.03874617442 -0.2181835026 0.7367295623 0.236034438 -0.5727974772 0.7755385041
0.04830800369 -0.2206981331 0.7325585485 0.3749897778 -0.587902844 0.7085257173
0.002842371352 -0.2094749808 0.7376610637 -0.4651600122 -0.4685752988 0.7498506308
-0.004053519107 -0.2074811608 0.7346884012 -0.5691813827 -0.4377220273 0.6937503815
-0.008111470379 -0.2078611553 0.730725348 -0.6189278364 -0.4073796272 0.6645573378
0.0004298040876 -0.2042884529 0.7409024835 -0.4980999827 -0.4710357487 0.7268200517
0.03047552519 -0.2244480699 0.7411566973 0.08756454289 -0.5947698951 0.7946718931
0.03222800046 -0.2060791552 0.7480719686 0.07198373973 -0.5871268511 0.8012984395
0.02800614946 -0.2112170011 0.7437722087 0.006558039691 -0.5543181896 0.8273992538
-0.00522471685 -0.1444508731 0.6571059227 0.5678945184 -0.4980511963 0.6549263597
0.0005545658641 -0.1443112791 0.6539742351 0.492615819 -0.5369014144 0.6812553406
0.01420695987 -0.1417125612 0.6490678787 0.3058089316 -0.6079037189 0.7308549881
0.00876916945 -0.1447633207 0.6513773799 0.3702572584 -0.5764901042 0.7113547325
-0.006790129002 -0.1405754536 0.662663579 0.5926545858 -0.499530822 0.6309487224
-0.001804972882 -0.1242042705 0.6720944643 0.521745801 -0.5612543821 0.6420693994
0.01688186452 -0.09596645832 0.6871125102 0.2484531999 -0.6309714913 0.7335890532
0.009664091282 -0.09813473374 0.6875402331 0.3650851548 -0.6080479622 0.701936543
0.005800283514 -0.09488937259 0.6928582191 0.4361650646 -0.6075181365 0.6608196497
0.01025999337 -0.1185933873 0.6701267362 0.3361569643 -0.6143269539 0.707616806
0.004192713182 -0.1216828823 0.6712216139 0.4298059344 -0.5907082558 0.6827344298
0.008258085698 -0.124591276 0.6656712294 0.3805598915 -0.6101023555 0.6902879477
0.01371466834 -0.1224730313 0.6649127603 0.27724877 -0.6358760595 0.7169693112
0.02009105682 -0.1219111308 0.6641055346 0.1735120863 -0.6524165273 0.7331822515
0.05045085028 -0.2161025703 0.7350618243 0.3975980282 -0.5729141831 0.7111786008
0.0544536151 -0.2191746086 0.730445087 0.4712510109 -0.5673273206 0.6738132238
0.05673108995 -0.2137334645 0.7329643965 0.5147952437 -0.5377416015 0.6623136997
0.04583062232 -0.2127882689 0.7386635542 0.3089567125 -0.5717330575 0.7471578121
0.03335877135 -0.2195780873 0.7426558137 0.1253110021 -0.595779717 0.7926365733
0.04064735398 -0.2138087898 0.7423487902 0.2237623036 -0.5850764513 0.7761047482
0.04581454396 -0.208776474 0.7439943552 0.295784533 -0.5696207881 0.7656543851
0.05043432117 -0.2070188969 0.7405557036 0.3862971663 -0.5523877144 0.7245575786
-0.01065920852 -0.1984263062 0.7341960669 -0.6951423287 -0.3818565309 0.6071530581
-0.01189229451 -0.2026342005 0.7306944728 -0.7078198791 -0.3598119617 0.6067301631
-0.01156814117 -0.1892981231 0.7404412627 -0.703702569 -0.4059693813 0.5811288953
-0.01308570616 -0.1921247691 0.7360291481 -0.7332953215 -0.366547972 0.5713207722
-0.005615960807 -0.1941892356 0.7399793267 -0.6162372231 -0.4684307575 0.6176711917
-0.002594863065 -0.1994613409 0.7422849536 -0.5521733761 -0.482483685 0.6765520573
-0.005606342107 -0.2011171877 0.7369793653 -0.6085293293 -0.4303250313 0.6611481905
0.009001749568 -0.2051825672 0.7465038896 -0.3453119099 -0.5556696057 0.7496571541
0.01937931217 -0.2102134675 0.743816793 -0.1501429081 -0.542206049 0.8212057352
0.02512556501 -0.2069625407 0.7474912405 -0.05755639821 -0.5625021458 0.8221120834
0.01113945059 -0.1383157223 0.6527327895 0.3493950963 -0.6056595445 0.711753428
0.01114368066 -0.1311614662 0.6601843834 0.3542371988 -0.6212422848 0.6988655329
-0.001106337411 -0.140396893 0.6603371501 0.521810472 -0.5300882459 0.6597787142
0.00892807357 -0.1150031611 0.6743202209 0.3560214937 -0.6060479879 0.7071076035
0.01859786734 -0.1173799783 0.6679927111 0.1977916807 -0.6438735723 0.7354183197
0.01617058367 -0.113748163 0.6722598076 0.2418618351 -0.6318095922 0.7341501713
0.01675397158 -0.2043318897 0.7501618266 -0.198590368 -0.5968219638 0.7754089832
0.01226483379 -0.2095046192 0.7472507358 -0.2647643387 -0.5843904018 0.7619997263
0.01445908658 -0.2201521844 0.7437915206 -0.2028440833 -0.5644147992 0.796587348
0.02195844427 -0.1962382048 0.7551946044 -0.1131582484 -0.6095153093 0.780328989
0.01433984097 -0.1973662972 0.7537541986 -0.2429147661 -0.5982247591 0.76247859
0.01016489044 -0.1994639039 0.7498725653 -0.3215565085 -0.5874013305 0.7326181531
0.02245293558 -0.2021523863 0.7514409423 -0.1039619893 -0.6225692034 0.7726845741
0.00526943244 -0.1340231448 0.6590642333 0.4330617189 -0.5726697445 0.6955505013
0.005881947465 -0.1290973723 0.6628240943 0.4279313684 -0.5892391801 0.6850244403
-0.007554927375 -0.1389284432 0.6690597534 0.6101392508 -0.5035349131 0.6028380394
0.01073047891 -0.1067481413 0.6801075339 0.3432759643 -0.610506475 0.7124059796
0.01270811353 -0.1009478495 0.684197247 0.3089449108 -0.616800487 0.7222173214
