# .PCD v0.7 - Point Cloud Data file format
VERSION 0.7
FIELDS x y z normal_x normal_y normal_z
SIZE 4 4 4 4 4 4
TYPE F F F F F F
COUNT 1 1 1 1 1 1
WIDTH 512
HEIGHT 1
VIEWPOINT 0 0 0 1 0 0 0
POINTS 512
DATA ascii
0.1011925936 -0.1094878167 0.6661461592 -0.6873337626 0.4930635989 -0.5274293423
-0.01520183496 -0.08840562403 0.7054169774 -0.6469602585 0.5331910849 -0.5432556868
-0.02081334777 -0.09267236292 0.7090703845 -0.6996230483 0.4946216047 -0.5118895769
-0.02195037156 -0.2052693665 0.7164093852 -0.6723983884 -0.3857292235 0.6264079809
-0.02641160972 -0.2033011168 0.7123245597 -0.7003506422 -0.3822475076 0.6021714807
-0.01767866686 -0.2089605182 0.7196238041 -0.6260021329 -0.425696671 0.6479087472
-0.03194187209 -0.1998142451 0.7084879279 -0.7132968307 -0.3653741181 0.5980584621
0.08290320635 -0.1197707802 0.6595780849 -0.3803630471 0.5009220839 -0.7179895639
0.06857497245 -0.1208960563 0.6613151431 0.0442464985 0.5197447538 -0.7393702865
0.0644909516 -0.1178685576 0.6640116572 0.1530555636 0.5443968177 -0.691311717
0.07394792885 -0.1247953251 0.6578226089 -0.09920901805 0.4877946675 -0.8012421727
0.07520374656 -0.1168119982 0.6628544331 -0.1651976258 0.5315634012 -0.6718451381
-0.01323759742 -0.09154077619 0.700162828 -0.6370696425 0.5338333845 -0.553532064
0.09141976386 -0.1021136716 0.6712952256 -0.5489145517 0.6098713279 -0.5614570379
0.09036145359 -0.1081755161 0.6666272283 -0.5654780269 0.5626589656 -0.5963848233
-0.01968664862 -0.0979084149 0.7034655809 -0.7047691941 0.4869719148 -0.5143854618
-0.0238629058 -0.1019035652 0.7059537172 -0.7364100218 0.4681476355 -0.4882691503
-0.0250659436 -0.09894756228 0.7111318707 -0.7346944213 0.4686184525 -0.4901755154
-0.007727782242 -0.08490610123 0.7012520432 -0.539824605 0.6005209684 -0.5881543756
0.09521710873 -0.1149511188 0.661872983 -0.5863162875 0.522112608 -0.6177220941
0.08108026534 -0.1263821423 0.6558041573 -0.2756579816 0.4720319808 -0.8234742284
0.07326358557 -0.1093077213 0.6695724726 -0.09890432656 0.549898684 -0.6464871168
0.08802054077 -0.113246195 0.6632874012 -0.5422875881 0.5332352519 -0.6262983084
0.06587704271 -0.1073420197 0.6727133393 0.1229924336 0.5581763387 -0.6566284299
0.08157176524 -0.1052011997 0.6716303825 -0.3074554503 0.6105507016 -0.5953516364
0.08656416088 -0.09950469434 0.6757245064 -0.4118019938 0.682754755 -0.544318676
0.07724379748 -0.1017919257 0.675468564 -0.1627773941 0.6404016614 -0.5870967507
0.009399802424 -0.08198217303 0.6912019253 -0.2674101889 0.6987766623 -0.6593027711
0.01404263638 -0.08443944156 0.6871783137 -0.2102543563 0.692358017 -0.688595295
-0.003947902005 -0.08930812776 0.6928360462 -0.494377166 0.6105647087 -0.6138349771
0.002904544817 -0.08368770778 0.6928110719 -0.368776083 0.6602692604 -0.6513100266
0.001759588369 -0.0881254971 0.6892926097 -0.4132919014 0.6375043988 -0.6444209814
-0.009094177745 -0.09120848775 0.6956521869 -0.5848153234 0.5655702949 -0.5801499486
-0.01298300456 -0.09618131071 0.6943395138 -0.6536661983 0.5292549133 -0.5389704704
0.003266254673 -0.1688992977 0.766476512 -0.2506550252 -0.7280680537 0.6374495029
-0.003083169227 -0.1685141027 0.769122839 -0.2945474684 -0.7270653844 0.6146022677
-0.005417920183 -0.1701947302 0.761216104 -0.3614757657 -0.7008885741 0.6045178771
0.03809100389 -0.1924613565 0.7484864593 0.2697336674 -0.6113382578 0.7415688038
-0.02420398034 -0.1991874874 0.7172527909 -0.7154835463 -0.3576111197 0.600020647
-0.02874500118 -0.1957157552 0.7145859599 -0.719548285 -0.3570511639 0.5955731273
-0.03297903389 -0.1941789538 0.7088335752 -0.7161487937 -0.3596588671 0.5981245041
-0.0130459927 -0.209955886 0.7242206335 -0.5932578444 -0.4413555861 0.6720733643
0.06684444845 -0.1407348961 0.647328198 0.1809134334 0.3200001419 -0.7833986282
0.07143629342 -0.1396970153 0.6506814361 0.113450177 0.1882251203 -0.8369134068
0.05778286606 -0.1442257017 0.6408156753 0.3469951153 0.5112815499 -0.6835927367
0.07707373798 -0.1410338581 0.6549879313 0.09025987238 -0.09801123291 -0.9131119251
0.07560954988 -0.1346462369 0.6534306407 -0.04167655483 0.2642481625 -0.8690347672
0.08821522444 -0.1232454181 0.658208549 -0.4380536675 0.4778093994 -0.7519032359
0.06182802096 -0.1118430868 0.669488728 0.2288097441 0.5471987128 -0.6724542379
0.06754618138 -0.1126522571 0.6676891446 0.05876547843 0.54212147 -0.6636413336
0.08063600212 -0.1126844585 0.6651853919 -0.3293563426 0.5264444947 -0.6450072527
0.05503475294 -0.1130031496 0.6697435379 0.4294985831 0.5579559207 -0.6811290383
0.05462991819 -0.1073442176 0.6748434901 0.4450403452 0.5458376408 -0.6864929795
0.05961275473 -0.1185925007 0.6716631651 0.5647916198 0.5339796543 -0.6279191375
0.0958404243 -0.1022137403 0.6755185723 -0.6387434602 0.5395798087 -0.5271987915
0.06290052086 -0.1230909303 0.6607261896 0.209017247 0.5249539614 -0.7542595863
0.002276121872 -0.2190726399 0.727971077 -0.2772420049 -0.5453701615 0.7899630666
-0.01354053523 -0.2044248283 0.7253907323 -0.6188886762 -0.4218220413 0.6618754864
0.0401218459 -0.2076075971 0.7327651381 0.3183319569 -0.5529674292 0.7507653236
0.08188201487 -0.1321050227 0.6562485695 -0.1632028371 0.2076094151 -0.9385763407
0.06049411371 -0.08726772666 0.6929854155 0.2935042083 0.6318287253 -0.6536086798
0.05361667275 -0.09457094222 0.6855089664 0.4173597097 0.5930725932 -0.6836325526
0.07813595235 -0.09465763718 0.6811062098 -0.2003299147 0.6961141229 -0.5613689423
0.05569593608 -0.09080605209 0.6913386583 0.431984216 0.5881904364 -0.6823858023
0.06312774867 -0.09059024602 0.6865772009 0.1284548938 0.6639182568 -0.6228057742
0.08495030552 -0.09467444569 0.6801131368 -0.3611933887 0.72102952 -0.5289060473
0.07021802664 -0.09196164459 0.6844144464 -0.03162738681 0.6826658249 -0.5922279358
0.03668882698 -0.1880271286 0.7534481883 0.2419020683 -0.6072742939 0.7527016997
0.02838521823 -0.188578099 0.7546498179 0.09294199198 -0.6321639419 0.7661187053
0.06008827314 -0.1142852679 0.6757782698 0.5637438893 0.50815624 -0.6459614038
0.02739168704 -0.106119968 0.6677029133 0.03576635942 0.6442441344 -0.7600855231
0.03298664466 -0.09661874175 0.6756438017 0.1157713234 0.6341333389 -0.7619829178
0.03195657954 -0.1024335548 0.6716628671 0.1048375219 0.6270154119 -0.7667957544
0.0491284579 -0.09128484875 0.6858679652 0.3514765501 0.6308473945 -0.6902213693
0.07217096537 -0.09974558651 0.6778203845 -0.02578490414 0.6481740475 -0.5947623849
0.06197337434 -0.1009353101 0.6777976751 0.2124572545 0.6043046713 -0.6442118287
0.06704837084 -0.09749095142 0.6794245839 0.06288596243 0.638250947 -0.6184031367
0.05912816525 -0.09698866308 0.6822893023 0.2952932119 0.5987112522 -0.6620774269
0.04914632067 -0.09705682844 0.6815461516 0.368526727 0.5897006989 -0.7102020383
0.05467457324 -0.1010713875 0.6821418405 0.4687821269 0.5401836634 -0.6934678555
0.05992545187 -0.09787925333 0.6886800528 0.4842357039 0.5241080523 -0.6998579502
0.06465239823 -0.1131663993 0.6817708611 0.6320714951 0.4561378956 -0.6216251254
0.05802439153 -0.1071702987 0.6799805164 0.5298322439 0.5108158588 -0.6731427908
0.0699365139 -0.1214187071 0.6821961403 0.7144203782 0.4052042067 -0.5617876649
0.0657780394 -0.1067496017 0.6872529984 0.5364995003 0.4595303833 -0.7020477653
0.04163993895 -0.09173151851 0.6820472479 0.2499659359 0.6346978545 -0.7280001044
0.03754597157 -0.08615706861 0.6858005524 0.2165336907 0.6672753096 -0.7096809745
0.02829752117 -0.09252429754 0.6794402003 0.05005347356 0.6526580453 -0.7514299154
0.03321339563 -0.08982829005 0.6816989779 0.1349276751 0.6531891227 -0.741538763
0.02543803677 -0.0878816098 0.6833937168 0.01360296085 0.6650090218 -0.7455914021
-0.02700490877 -0.1090168133 0.7051260471 -0.7534237504 0.4549663961 -0.4745952189
-0.02869959921 -0.1056064218 0.7094918489 -0.746545732 0.4612778127 -0.479332149
0.004747937899 -0.09800418466 0.6786424518 -0.3504106402 0.6150456071 -0.7041233182
-0.0006072316319 -0.09807866812 0.6824210882 -0.4364905655 0.5979686975 -0.667527616
0.003757640952 -0.1045832559 0.6741783023 -0.360601902 0.6154071093 -0.6997656822
0.03045198508 -0.19171004 0.7488161325 0.1290521026 -0.6125132442 0.764629662
-0.005744613707 -0.1787577122 0.7546359897 -0.4350881279 -0.6498045325 0.6199518442
-0.004267369863 -0.1766461283 0.7631207108 -0.3825334609 -0.6798943877 0.6218998432
-0.002389492001 -0.1844666451 0.7502112985 -0.4378575087 -0.6198626161 0.6487216353
-0.03306315467 -0.1877070963 0.7088033557 -0.7251906991 -0.3542725742 0.5903413296
0.05183107033 -0.1260807365 0.6594290733 0.446192801 0.5744639039 -0.685667038
0.05468110368 -0.1235048324 0.6635879278 0.4823726416 0.5717429519 -0.6619049907
0.05735714734 -0.1292780489 0.6618837118 0.4628044963 0.5994452834 -0.6523913741
-0.008653720841 -0.2016834915 0.7310631275 -0.5621119142 -0.4480357468 0.6841990352
0.08845049143 -0.1344849765 0.6678111553 0.3793823123 0.0653911978 -0.7760105729
0.08744677156 -0.1428320706 0.6659718752 0.5091839433 0.002151424764 -0.6254769564
0.08372485638 -0.1415546238 0.6768718958 0.7329348326 0.1582475752 -0.4709617794
0.08513727784 -0.1463769823 0.6703505516 0.6826887131 0.04644276202 -0.4752693176
0.08361145109 -0.1336260587 0.6815418005 0.6767002344 0.2586198449 -0.5650734901
0.08174470812 -0.1488522589 0.6782848835 0.915727675 0.1446161121 -0.2888391018
0.08669292927 -0.1328625083 0.6735187173 0.4768962264 0.1514547914 -0.7158116698
0.08518693596 -0.1406363696 0.6608933806 0.2285211384 -0.1353411227 -0.8386686444
0.09043337405 -0.1366085708 0.6607186198 0.2557316124 -0.04509686306 -0.8516610265
0.09085772187 -0.1223068759 0.6809792519 0.09724459797 0.376000613 -0.5262992382
0.09606106579 -0.1182311103 0.6724531651 -0.3440267146 0.4122313261 -0.4869810641
0.09485412389 -0.114401862 0.6780571342 -0.2008401603 0.4136295617 -0.5385645032
0.09850100428 -0.1117455736 0.6719292998 -0.5118275881 0.438611418 -0.5092260838
0.08794609457 -0.1285480559 0.6787154675 0.1830444336 0.4098003209 -0.5002721548
0.09132711589 -0.1261630952 0.6729384661 -0.1511957198 0.4495413601 -0.4984030128
0.08595497906 -0.1290719509 0.6858573556 0.448354274 0.3540062606 -0.5403725505
0.09671928734 -0.1211052537 0.6644301414 -0.6143515706 0.4947507679 -0.4660731554
0.06267276406 -0.2117374241 0.7146254182 0.6746979952 -0.4843785465 0.5386765599
0.07115980983 -0.2033227831 0.7093100548 0.799454987 -0.4163556993 0.4317074418
0.06672934443 -0.206408754 0.7140207887 0.7373571992 -0.4460277557 0.5034894943
0.06419823319 -0.1871302575 0.7334920168 0.6687731743 -0.5120020509 0.5384483337
0.06590892375 -0.09114799649 0.6995816827 0.4074439704 0.5209296942 -0.7477453947
0.06139499694 -0.09335402399 0.6939541698 0.4398640394 0.5369673967 -0.7181761265
0.06854465604 -0.1029550359 0.693390727 0.4503226876 0.4364956617 -0.7676739097
0.07511701435 -0.1052999273 0.7014166117 0.2072975338 0.2734225392 -0.9070375562
0.06672930717 -0.09631957859 0.6961773038 0.4402974844 0.4881433547 -0.7523166537
0.05985231698 -0.1925598532 0.7336650491 0.6185032129 -0.5350748301 0.5736113191
0.09054519236 -0.09634732455 0.677883625 -0.4969166517 0.6878438592 -0.5216212273
0.05076329783 -0.1156079993 0.6662708521 0.4160881341 0.5790564418 -0.69647789
0.04998989776 -0.110257782 0.6717393398 0.4262777567 0.5637357235 -0.7063778639
0.04651518166 -0.1187401265 0.6626785398 0.3623149395 0.6008710861 -0.7112178206
0.03524088115 -0.1076181903 0.6676120162 0.1655884981 0.6256252527 -0.7606351376
0.04180938005 -0.1147314236 0.6637807488 0.2790557444 0.6180989146 -0.7324928641
0.03627568111 -0.1161665246 0.6604456902 0.1995472908 0.6359639168 -0.7434738874
0.0455577448 -0.1234531403 0.6582567096 0.354809314 0.6039085984 -0.7112531662
0.04073246196 -0.1194393411 0.6591854692 0.2659769058 0.6222854853 -0.7319666743
0.04630756006 -0.1116023436 0.6674150825 0.3472565413 0.588131249 -0.7250025272
0.04851636663 -0.1038417146 0.6750529408 0.386695981 0.5723850131 -0.7187373638
0.04325623438 -0.1064477041 0.6715441942 0.3029649556 0.5926119685 -0.7397562265
0.03959528357 -0.1015685201 0.6736996174 0.2291576862 0.616712153 -0.7499776483
0.04358750582 -0.09754035622 0.6776961684 0.2773818672 0.620087862 -0.7324301004
0.09202752262 -0.1295986921 0.6580832601 -0.180476293 0.1819658875 -0.8320379257
0.09125231206 -0.128839612 0.666847229 -0.03955350444 0.2823514938 -0.6440780163
0.09515570104 -0.1258133203 0.6605666876 -0.4597788453 0.3654434979 -0.6085398793
0.06357839704 -0.1263589412 0.6698579788 0.5341489911 0.6236329079 -0.5608619452
0.0627695322 -0.1375473887 0.6601065993 0.5016044974 0.4965570271 -0.6892880201
0.0650889799 -0.1208395436 0.6765857935 0.6489765644 0.4798680246 -0.5826516151
0.070830293 -0.1796119511 0.7290577292 0.7438881397 -0.4401347041 0.4935214221
0.06776513904 -0.1794999838 0.7365872264 0.6761521697 -0.4754061103 0.5611401796
0.07027207315 -0.1108761653 0.6898925304 0.5940438509 0.3614915907 -0.7061302066
0.07081585377 -0.1157779768 0.6864364147 0.6761536598 0.3240807056 -0.6589949727
0.08576083183 -0.09814341366 0.6868613958 -0.4929844737 0.4724244773 -0.6266530752
0.08087044954 -0.1005734578 0.6973201632 -0.4366167188 -0.03830397874 -0.8766378164
0.07166805863 -0.09354011714 0.6997514963 0.1799927205 0.314819932 -0.8150072098
0.08061262965 -0.09708920121 0.6922081709 -0.3796203732 0.05602580681 -0.8490576148
0.07180704921 -0.09128580242 0.6911830306 0.06363227218 0.5828059316 -0.6569157839
0.01163598895 -0.1072457284 0.6684265137 -0.2476587147 0.6391090155 -0.7247464061
0.01628960855 -0.09755384922 0.675678432 -0.1516843587 0.6406273842 -0.7505865097
0.01988465339 -0.1023529097 0.6718982458 -0.1057943702 0.6386864781 -0.7570156455
0.02324251086 -0.09723471105 0.67536515 -0.04244545102 0.6447210312 -0.7609081268
0.009238127619 -0.101151444 0.6743992567 -0.2814082205 0.6290460229 -0.721773684
0.01139111631 -0.0962510407 0.6778382063 -0.2325879782 0.6316918731 -0.7343539
0.01341430563 -0.09085706621 0.6822944283 -0.2101487964 0.6567464471 -0.7219304442
0.008450184017 -0.08861697465 0.6852494478 -0.3044373691 0.6554151177 -0.6862160563
0.006447665393 -0.09330363572 0.6816709042 -0.331525743 0.6353279352 -0.6956923604
0.001501154737 -0.09302781522 0.6856278181 -0.4047324061 0.6154361367 -0.6694604158
-0.02213907056 -0.1048481166 0.6996802688 -0.7393644452 0.4585775137 -0.4928646684
-0.009325535968 -0.1081896797 0.6802279949 -0.550763309 0.5581173897 -0.6134497523
-0.03312109783 -0.1194403544 0.7092593312 -0.7714464664 0.4440323114 -0.4553827643
-0.03065416962 -0.1121262312 0.709710598 -0.7584351301 0.4526971281 -0.468803674
-0.03212797642 -0.1581760943 0.7143044472 -0.753734231 -0.07967269421 0.2104023844
-0.03290839866 -0.1366351247 0.7045845985 -0.7755451798 0.279674232 -0.2442091703
-0.03281122446 -0.1443583816 0.7065332532 -0.7704448104 0.1656734198 -0.0988528952
-0.03284187242 -0.1556954086 0.7079360485 -0.7655385733 0.01241102535 0.09777907282
-0.03356082365 -0.1411053389 0.6997513771 -0.783146143 0.2712690234 -0.2285222411
-0.03200538829 -0.1644833088 0.7162594795 -0.7489253283 -0.1762838513 0.3332829177
-0.0332633853 -0.1509420723 0.7036941051 -0.7740639448 0.1119617224 -0.0266160015
-0.03212700412 -0.1708831936 0.7186535001 -0.7440916896 -0.2749706209 0.458948791
-0.03230859339 -0.1686171144 0.6893229485 -0.7276623845 0.07038082182 0.03027755395
-0.03311247379 -0.1821547598 0.7033984661 -0.7272689939 -0.2514219582 0.4559307396
-0.03326166794 -0.1620115787 0.6877943873 -0.7457651496 0.1643972248 -0.09093103558
-0.03328553215 -0.1732295156 0.6946797371 -0.7307625413 -0.04327398166 0.1817548573
-0.03319575638 -0.1758243293 0.7002313733 -0.7379422784 -0.1430989355 0.3140825927
-0.03334684297 -0.154772833 0.6791731119 -0.7442063689 0.3530603945 -0.3399784565
0.0468535237 -0.1481800377 0.6352903247 0.3715794384 0.6608433127 -0.6401048303
0.03117135167 -0.141221568 0.6334501505 0.1297504753 0.7026773095 -0.6971391439
0.0003472152748 -0.1201909259 0.6628648639 -0.4105474949 0.6188310981 -0.6692935228
0.00150821812 -0.1136402786 0.6677917242 -0.3806678057 0.6235306859 -0.6808376908
0.02454314381 -0.1404516548 0.6346256733 0.04041669145 0.7102169394 -0.7004500628
0.02457783744 -0.1957296431 0.7480282784 0.02330759168 -0.6350879073 0.7711546421
-0.008694622666 -0.1730023921 0.7514238358 -0.4651071727 -0.623794198 0.6100074649
0.04531274736 -0.2044159025 0.7345718741 0.4069526792 -0.550357759 0.7280490994
0.03614224494 -0.2022889107 0.7405695915 0.2393701822 -0.5935659409 0.7650325298
0.0358858481 -0.196585834 0.7446967363 0.2240291834 -0.6232910752 0.7479558587
0.05155676976 -0.2027665675 0.7301619053 0.5243414044 -0.5326795578 0.6636154652
0.06109008938 -0.1285558939 0.6566383243 0.2310100645 0.5334757566 -0.746786952
0.05457237363 -0.1302106977 0.6539946795 0.3233153224 0.5819526911 -0.7045783997
0.06656096131 -0.129205972 0.6549893618 0.07260394841 0.512455523 -0.7896440029
0.05736671761 -0.1360902786 0.6549320221 0.4586233497 0.5876331329 -0.6658821702
0.06036876887 -0.1423859447 0.6528339982 0.4321806729 0.5822592974 -0.6854686737
0.03318588063 -0.131729424 0.6444044113 0.1679369509 0.7115226388 -0.6810378432
0.02952971123 -0.1360153705 0.6393314004 0.07186790556 0.7084994316 -0.6982454658
0.04508871585 -0.2097916454 0.7276378274 0.4276457429 -0.5330824256 0.7093415856
0.03576914594 -0.2134770751 0.7279775739 0.2397064865 -0.5421567559 0.7679889798
0.06653489918 -0.1891483068 0.7289629579 0.7097457051 -0.4736781418 0.5197273493
-0.003526360495 -0.2195381969 0.7273470163 -0.39589715 -0.5194857121 0.752132237
-0.008404769935 -0.2155631334 0.7258995175 -0.4945347011 -0.483274281 0.713267386
-0.004338799044 -0.201220125 0.7362363935 -0.4840899706 -0.4853840768 0.7275692821
0.01323202159 -0.2160387188 0.7309165597 -0.1307489127 -0.5584577322 0.811879456
0.01697216928 -0.2214698344 0.7280806899 -0.05070688948 -0.5530483723 0.817853868
0.00828043744 -0.2214483023 0.7296599746 -0.1844727099 -0.5583389997 0.8060810566
0.02435358055 -0.2189115435 0.7279984355 0.02260165662 -0.5541498661 0.8284885287
0.03309932351 -0.2212594002 0.7305284739 0.1801428199 -0.5506255627 0.8102884293
0.03451876715 -0.2140371054 0.7336412072 0.2001786828 -0.5608507991 0.8015990853
0.04328808188 -0.1989776492 0.7426800728 0.3629432321 -0.5772179961 0.7312056422
0.04136731103 -0.2054033279 0.7386409044 0.3315623403 -0.5666623712 0.7512227297
0.0405401811 -0.2153544575 0.7334256768 0.3252881467 -0.5521028042 0.7652999163
0.05428224057 -0.1956337243 0.7359540462 0.5390118361 -0.5542368293 0.6328743696
0.04860547185 -0.1983749419 0.7385440469 0.4542845786 -0.5703001022 0.6827574372
0.06217433885 -0.1839260906 0.7379930019 0.6243779659 -0.5152450204 0.5782024264
0.05838382617 -0.1783762574 0.746368885 0.5232032537 -0.5247538686 0.6686900258
0.05076004192 -0.1929766685 0.7407321334 0.4669142962 -0.5661323071 0.6723857522
0.04284426197 -0.183225289 0.75450629 0.3310934603 -0.5740041137 0.7469087243
0.03444790095 -0.17627123 0.7621717453 0.1511705667 -0.5807101727 0.7993493676
0.03112776764 -0.1812328845 0.7575461864 0.1254053116 -0.599219203 0.780513227
0.06861863285 -0.1285391748 0.6737626195 0.5667898655 0.6330284476 -0.506608963
0.07251149416 -0.1260570139 0.6811415553 0.685539782 0.4228954911 -0.5616285205
0.07374820113 -0.131322071 0.6768033504 0.648806572 0.6408209205 -0.3830330074
0.07719478011 -0.1292522699 0.68620193 0.7501974702 0.3748924434 -0.5399180651
0.07758565992 -0.1202665567 0.6945403218 0.5822918415 0.1292603761 -0.7355138659
0.08464323729 -0.1079902276 0.6958438754 -0.5106907487 0.1224002391 -0.8235712051
0.08990126848 -0.1054304913 0.6867195368 -0.6072737575 0.2399003953 -0.7106465697
0.08477815241 -0.1135618389 0.6978099346 -0.2996000051 0.09568370134 -0.8345517516
0.08770363778 -0.113130413 0.6922169924 -0.2777929306 0.15588741 -0.7507402897
0.1010700911 -0.1050295383 0.6712486744 -0.7032580972 0.46278736 -0.5335879326
0.08866639435 -0.1180511937 0.686588943 0.1630832553 0.1494094729 -0.5862351656
0.09413387626 -0.108859688 0.6824092269 -0.5144785047 0.3054687977 -0.656378746
0.08406299353 -0.1209416911 0.6937351823 0.3182274699 0.04319106042 -0.6583027244
0.08500015736 -0.1030230001 0.6919209361 -0.5836959481 0.1478225589 -0.7754740119
0.0004010524135 -0.1031277925 0.6790211201 -0.4234890938 0.5927683711 -0.671787262
-0.006563311443 -0.1023168266 0.6851967573 -0.5411855578 0.5682018995 -0.6179966927
-0.005046703853 -0.09718666226 0.6871407628 -0.5169072151 0.5810929537 -0.6272607446
-0.0104339933 -0.09942088276 0.690222919 -0.6117154956 0.5457197428 -0.569126606
0.07625035942 -0.09896799922 0.7030373812 -0.1750246882 -0.1036837697 -0.9654301405
0.08124595135 -0.1089596599 0.7022037506 -0.3398578465 0.02210917138 -0.9327352643
0.07528105378 -0.1124323681 0.6960681677 0.3924050033 0.2564193606 -0.8384730816
-0.01785244793 -0.1752028018 0.7408501506 -0.6229043603 -0.4966736138 0.581163764
-0.01423258614 -0.1741097271 0.7470545769 -0.5411713719 -0.5851410031 0.5864682794
-0.001324706245 -0.1798619032 0.7587505579 -0.3791435957 -0.6577292681 0.6466394663
0.008385926485 -0.1909110546 0.7490998507 -0.284955889 -0.5855130553 0.7586075664
0.008199159056 -0.1821137071 0.7587476373 -0.2304827869 -0.6480759978 0.7132646441
-0.0008552354993 -0.1742085516 0.7705574632 -0.2806330621 -0.7053856254 0.640047431
0.003311178181 -0.1792125702 0.7627754807 -0.2835508585 -0.664865613 0.6804299355
0.008431695402 -0.1778180301 0.765402019 -0.1551795304 -0.6898895502 0.6949187517
-0.01919392683 -0.201222837 0.7203194499 -0.6917980313 -0.3909574449 0.6069056392
-0.01662900485 -0.1994649172 0.7250855565 -0.6699522734 -0.3974386156 0.6257525086
-0.03294035792 -0.1460867971 0.6849525571 -0.7820809484 0.3701502681 -0.3603698909
-0.03188444674 -0.1644154936 0.7006489038 -0.7460170388 -0.01802859083 0.1411717087
-0.03117730096 -0.1551783085 0.6863493919 -0.7469575405 0.2525417507 -0.212686196
-0.03176051378 -0.1691410989 0.7054603696 -0.738781333 -0.1270786524 0.2825796008
-0.02919694968 -0.1530274004 0.6736591458 -0.7219258547 0.4253365695 -0.4431954026
-0.0297017768 -0.1589648426 0.6799669266 -0.7205016613 0.2844666541 -0.2573707104
-0.03092752583 -0.168238759 0.6965191364 -0.7265065908 -0.01304889098 0.1332281679
-0.03299093992 -0.1617986709 0.6952287555 -0.7605392933 0.07267829031 0.02958211862
-0.03244708851 -0.1741154641 0.7108210921 -0.7406343818 -0.2463084608 0.4411002398
-0.03286109492 -0.1543652117 0.69244349 -0.7705255151 0.1897073984 -0.1253900826
-0.03277116641 -0.1817258 0.7109081149 -0.7312563062 -0.3346236646 0.5607914329
-0.03280266374 -0.1623396277 0.7092894912 -0.7585299611 -0.08627702296 0.2291917205
-0.03583058715 -0.1355005205 0.7112441659 -0.7716136575 0.2686470151 -0.226212427
-0.03662580997 -0.1263072789 0.7098397613 -0.7798986435 0.4064448476 -0.4042986333
-0.03545506299 -0.1318192929 0.7017024159 -0.7871427536 0.3918999732 -0.381272614
-0.03484260663 -0.1460762024 0.7119128704 -0.7633703947 0.1173058078 -0.03017725423
-0.03424923122 -0.137952283 0.693901062 -0.7934992909 0.3662189841 -0.343968153
-0.03279821575 -0.1461305618 0.6782675982 -0.7701929808 0.4441947937 -0.4569195211
-0.01534819789 -0.134499386 0.6616165638 -0.6327550411 0.5137159824 -0.5777496696
-0.01327490807 -0.1419955492 0.653150022 -0.6002102494 0.5087084174 -0.6138206124
-0.008951780386 -0.1365082115 0.6538617611 -0.5194544196 0.5580382943 -0.6427946687
-0.00387375569 -0.1266919523 0.659046948 -0.4582702816 0.6104841828 -0.6457387805
-0.00939449016 -0.1321468502 0.6582388282 -0.5389772654 0.563588798 -0.6206851602
0.01544980705 -0.1910072714 0.7506704926 -0.1341284513 -0.6204208136 0.7708895206
0.02081918903 -0.1900506318 0.7528817058 -0.04505128413 -0.6253313422 0.7725121379
0.01633737236 -0.1864363402 0.7556475401 -0.133387655 -0.6010332704 0.784450233
0.02813596278 -0.1758823395 0.7632060051 0.04712689668 -0.5989996195 0.7958103418
0.01721228473 -0.1813656092 0.7611092925 -0.04738656059 -0.6603455544 0.7479326725
0.03859559074 -0.1271151751 0.6525577903 0.2630314231 0.6422393918 -0.7171122432
0.04873664677 -0.1285452545 0.6550177932 0.3995031714 0.601747334 -0.6889916062
0.04271487892 -0.1336444914 0.6492369771 0.3289577663 0.6564818621 -0.6750240922
0.0511091426 -0.1345468611 0.651920855 0.4085950553 0.617500782 -0.6680315137
0.05021798983 -0.1443195045 0.6435528994 0.4148479104 0.644119978 -0.6405650973
0.04438664764 -0.1443011165 0.639729619 0.3225513995 0.6865206957 -0.6430712938
0.03956980631 -0.1413770169 0.6399903893 0.2385037094 0.7098190188 -0.658500433
0.03407368064 -0.1388496906 0.641253233 0.1445174366 0.7117097974 -0.6736913919
0.02440813556 -0.1398142427 0.6406722069 0.006936333608 0.6970912814 -0.6897134185
0.05526985973 -0.2147283703 0.7199277282 0.5718521476 -0.523788929 0.6276909709
0.04900060967 -0.215079695 0.724124074 0.4805667996 -0.5366802216 0.6878541112
0.04416543618 -0.2168148905 0.7296416163 0.382497251 -0.5407975316 0.7486086488
0.04300225154 -0.2188916057 0.7237413526 0.3651926517 -0.5413819551 0.721514523
0.04110933095 -0.222244814 0.7298158407 0.3436526358 -0.5404508114 0.767219007
0.06635792553 -0.2006162554 0.7181014419 0.732855916 -0.4472659528 0.5107931495
0.009244779125 -0.2051330209 0.7384019494 -0.2127522379 -0.5474846959 0.8010124564
-0.0001221191196 -0.2126905173 0.7316731215 -0.3709937632 -0.5020445585 0.7799720764
0.003278513905 -0.2080861181 0.7350985408 -0.334484756 -0.4990094006 0.7986475825
0.006279574707 -0.2152035832 0.7308383584 -0.2260546684 -0.5427696705 0.8064268231
-0.005384359509 -0.2086378485 0.7307466269 -0.4784725606 -0.4654233158 0.7424958348
0.06361908466 -0.178505525 0.7426466942 0.5921133161 -0.4985713959 0.6324278116
0.05814981088 -0.1888456494 0.7394288182 0.5881284475 -0.5356578827 0.603957355
0.04314030334 -0.1887215674 0.7500146627 0.3489619195 -0.5866901875 0.7299301624
0.04479658604 -0.1929463893 0.7454208136 0.3719890118 -0.5902642012 0.715986073
0.04820825532 -0.1877246946 0.7469428778 0.4162490368 -0.5678281784 0.7086193562
0.04886052385 -0.1810106188 0.7505098581 0.4319343567 -0.5543062091 0.7086918354
0.01215408091 -0.1159490943 0.6613900661 -0.2201184034 0.6504372358 -0.7202191353
0.005516488105 -0.116114594 0.6632994413 -0.3211110234 0.6419771314 -0.6932771206
0.0146528082 -0.1109146848 0.6646600962 -0.1837836206 0.6514965892 -0.7349469066
0.008057650179 -0.1111316457 0.6657643318 -0.3085339367 0.6383368373 -0.7051283121
0.02531571127 -0.133372426 0.6434478164 -0.008463500999 0.7093254328 -0.7047196627
0.03665123135 -0.1312008947 0.6487846375 0.2481629997 0.678077817 -0.687602222
0.02777880803 -0.1294730008 0.6478111744 0.05437892303 0.7009118199 -0.7032526731
0.02666985802 -0.1180531383 0.6571752429 0.04759081826 0.6587437391 -0.7482880354
0.02969336882 -0.1235911027 0.6529750824 0.09151857346 0.6508771181 -0.7469593883
0.03448542207 -0.1214937344 0.6555463076 0.1784697771 0.6400005221 -0.7465189695
0.06569323689 -0.1333083063 0.6656954885 0.4538761973 0.6365680099 -0.6151759624
0.07319904119 -0.1462985426 0.666870892 0.6852157116 0.3439706862 -0.5938764811
0.06931608915 -0.1401542127 0.6654289961 0.5481344461 0.4869017899 -0.6297830939
0.08188271523 -0.1536601037 0.684429884 0.9009602666 0.04951361567 -0.1956724077
0.08154840767 -0.1668651104 0.6930288076 0.8920877576 -0.1642520875 0.08288454264
0.08162426203 -0.1621138155 0.6860185862 0.9219321012 -0.07072728127 -0.03489318863
0.08152031153 -0.1697648615 0.69891119 0.862957418 -0.2281342 0.161953643
0.08176330477 -0.1549037546 0.6774905324 0.9528618455 0.06224760786 -0.2041651756
0.0820126012 -0.1340936869 0.688868165 0.8025519848 0.3110682368 -0.4922489822
0.07838755101 -0.1260524839 0.6927072406 0.7429903746 0.1385436058 -0.6328420043
0.08010372519 -0.115910098 0.7005053759 0.06083670631 0.1618306488 -0.8964960575
-0.03117750399 -0.121833086 0.7040244341 -0.775599122 0.4405987263 -0.4518406093
-0.02965619974 -0.1162953973 0.7047985792 -0.7659468055 0.446572721 -0.4621858299
-0.0199974291 -0.121208258 0.682362318 -0.6972541213 0.5006923676 -0.5021926761
-0.02328206226 -0.1263832897 0.6800754666 -0.7331548333 0.4900948107 -0.4708949625
-0.002982880222 -0.1116021946 0.6740475893 -0.4600893855 0.5916246176 -0.6554145217
-0.005707128439 -0.1157181635 0.6703151464 -0.4817211926 0.5948289037 -0.6411840916
-0.01384130493 -0.1226600334 0.6715248823 -0.6006553769 0.5539101958 -0.5682498813
-0.009255402721 -0.1215847135 0.6674010754 -0.5326513648 0.583394587 -0.6074208617
-0.01768126525 -0.1230232194 0.6765190959 -0.6656544805 0.522580564 -0.5280581713
-0.01046093553 -0.1169888005 0.674284637 -0.5588663816 0.5636177063 -0.6008110642
-0.01563879102 -0.1044722944 0.6892776489 -0.6700558066 0.5043019652 -0.5424433351
-0.01812906004 -0.1005633771 0.6975732446 -0.7056097388 0.4820572436 -0.5189470649
-0.01076236833 -0.1065354943 0.6862245202 -0.6086345315 0.5370714664 -0.5808545351
0.001762132975 -0.1887883544 0.7472643852 -0.3783562779 -0.5457487702 0.7418608069
-0.00563207455 -0.1865803301 0.744594574 -0.5022621751 -0.5081914067 0.6965110898
-0.01551433839 -0.1852402389 0.7373919487 -0.6652078629 -0.4302049875 0.6083390117
0.00456429366 -0.1948160529 0.7449092269 -0.3114967644 -0.5722161531 0.755947113
-0.00848271884 -0.1905704737 0.7405415177 -0.5289226174 -0.4811417162 0.697442174
-0.01219306607 -0.1839009821 0.7427194118 -0.5895082355 -0.4629083574 0.6613889337
-0.006734936032 -0.1954711527 0.7376537323 -0.5047575235 -0.480913341 0.7131780386
-0.00180001976 -0.1945236027 0.7421073914 -0.4505189657 -0.5261182785 0.7182930112
0.002407821361 -0.2000713199 0.7393805385 -0.3614682555 -0.5228538513 0.7598884106
-0.01116926596 -0.196011439 0.7329784632 -0.6080961227 -0.4480755925 0.654653132
-0.01570032164 -0.1153625399 0.6793875694 -0.6432759166 0.5240936875 -0.5565593243
-0.02612467855 -0.1172884107 0.6983375549 -0.7640460134 0.4443784952 -0.4657122493
-0.0174440518 -0.113452442 0.6901832223 -0.6724114418 0.4953412116 -0.534920454
-0.02169598825 -0.1158501878 0.6940501332 -0.7153143287 0.4717950821 -0.5016692877
-0.02457016148 -0.1104963422 0.6974116564 -0.7576604486 0.4568578303 -0.4656303823
-0.02094784938 -0.1078208461 0.694103241 -0.737722218 0.4599859715 -0.4928587675
0.0006059845327 -0.180366531 0.7524141073 -0.3577716053 -0.6374111176 0.6682041287
0.005116778426 -0.1848562062 0.7516354918 -0.3084993958 -0.6172430515 0.7173299789
-0.002966481494 -0.1723881662 0.7545514703 -0.3711833954 -0.6988702416 0.6052157879
-0.006678463425 -0.180276528 0.7488336563 -0.4665439129 -0.603364408 0.638754189
-0.01139312144 -0.1291102767 0.6637132764 -0.5657487512 0.5621554852 -0.5940824747
-0.01745153964 -0.1290307492 0.6691686511 -0.6659356952 0.5061814785 -0.5438444614
-0.02350346744 -0.1348237395 0.6733660102 -0.7406312227 0.4513549507 -0.4968934357
-0.02133170329 -0.1371316463 0.6655987501 -0.7012512088 0.4736094177 -0.5328201652
-0.02896596678 -0.1901756674 0.713360846 -0.7248975039 -0.3550215662 0.5902098417
-0.02983000316 -0.1832164824 0.7164829969 -0.7349648476 -0.3538516462 0.5784475803
-0.03202516586 -0.1773474813 0.7173209786 -0.7349550724 -0.3541927934 0.5782572031
-0.02828865685 -0.1409645826 0.6759955287 -0.7489256859 0.450057596 -0.4853513837
0.02057535388 -0.1768820584 0.7631451488 -0.03828565776 -0.6405320764 0.7644787431
0.004505017307 -0.1767686456 0.7563935518 -0.2722485662 -0.7063148022 0.6466790438
0.02383871377 -0.1819476783 0.7581287026 0.004426806234 -0.6240703464 0.7767110467
0.01174621377 -0.1759733111 0.7592389584 -0.1773514152 -0.6733448505 0.6971895099
0.006803155411 -0.1713673025 0.7589136362 -0.2331330776 -0.6947956681 0.657302916
0.01595838182 -0.1736102998 0.7660810947 -0.10135144 -0.65490973 0.7346528172
0.009367672727 -0.17076841 0.7644995451 -0.1949163824 -0.7003532648 0.6765851378
0.06845922023 -0.1337443739 0.6499841809 0.03972626105 0.5190737247 -0.7846108675
0.05571135506 -0.1371113658 0.6482874155 0.3691396117 0.589358151 -0.6729481816
0.03609134257 -0.1372345835 0.6360141039 0.207414493 0.6930123568 -0.6867039204
0.04163663089 -0.1420895308 0.6343597174 0.2934651375 0.6785644889 -0.667948842
0.04097006097 -0.1351299733 0.6419504881 0.2993574142 0.6754186153 -0.671051681
0.03625463322 -0.1414672434 0.6300596595 0.2047996968 0.6951261759 -0.6862038374
0.0485008359 -0.1374646723 0.6451685429 0.3960165977 0.6511186361 -0.6458427906
0.05272685364 -0.209837988 0.7258602381 0.5289558172 -0.5530489087 0.6401681304
0.06254716963 -0.194986254 0.7283534408 0.6654942632 -0.5075283647 0.5445604324
0.06142762676 -0.2052594125 0.7225497365 0.6612029076 -0.4943369031 0.5622864366
0.05941624194 -0.2005323172 0.7274416089 0.6247746348 -0.5122693181 0.5887886882
0.06080276892 -0.2100702971 0.7200897336 0.6540960073 -0.5020951033 0.5605177879
0.02657054737 -0.2142295688 0.7316914797 0.05745044723 -0.5604829192 0.8242610693
0.02641884051 -0.2096898258 0.7355959415 0.06197287887 -0.5672145486 0.8183224201
0.03216371685 -0.2076188326 0.7367720008 0.1599619091 -0.5712562799 0.8004184961
0.07914283872 -0.1450187713 0.6614319682 0.3249708712 -0.07303456217 -0.8219482899
0.07996495813 -0.1555380225 0.6704885364 0.8196898103 0.02806688473 -0.3705880046
0.0798683241 -0.1493726969 0.665492475 0.5340769291 -0.05385620147 -0.6152966022
0.07838605344 -0.141883269 0.6798532605 0.8250912428 0.2930941284 -0.4323483706
0.07619123906 -0.1432909966 0.6741838455 0.7796715498 0.4126709104 -0.3496057689
0.07851280272 -0.1367334276 0.6832721233 0.789738059 0.3467488587 -0.4720508158
0.0780961439 -0.14973405 0.6744294763 0.8765205741 0.2173078656 -0.3686052859
0.07294803858 -0.1360865235 0.6735867858 0.6526226401 0.5903331637 -0.392090857
0.05385799333 -0.1873032451 0.7437739372 0.5024556518 -0.5510396957 0.6658286452
0.05390476435 -0.1779230982 0.7502105832 0.4796654582 -0.5339413881 0.695964992
0.04241052642 -0.1758868694 0.7594355345 0.3091098964 -0.5895103812 0.7425881624
0.04743364826 -0.1762206405 0.7552264333 0.401861608 -0.5560975671 0.7237215042
0.0586964339 -0.1832439005 0.7431501746 0.55529809 -0.5255047083 0.6418172121
0.02301463857 -0.1251299828 0.6506364346 -0.02803088911 0.6767385602 -0.7337759733
0.01782665029 -0.1210358292 0.6547861099 -0.1085696146 0.6680471897 -0.7334509492
0.01517315581 -0.1256593168 0.6516335607 -0.1643928289 0.6709208488 -0.7220220566
0.02078896761 -0.1089556888 0.6654487252 -0.07665720582 0.6525960565 -0.7491666079
0.02959079482 -0.1129264981 0.6626980305 0.1038873047 0.6415490508 -0.7561878562
0.02007940784 -0.1163152531 0.6591192484 -0.07376775146 0.6605980396 -0.7410283089
0.08209185302 -0.1724051535 0.6858110428 0.9696063995 -0.04371634498 0.05236478522
0.08171309531 -0.1805347949 0.7021356225 0.886277318 -0.2828319073 0.3098339736
0.0820223093 -0.1759139001 0.6911769509 0.946133852 -0.1167757809 0.1421089321
0.07559406012 -0.179723978 0.7191776037 0.8129206896 -0.4045093656 0.4174702764
0.08085805923 -0.1726564616 0.707758069 0.8264337778 -0.3082268834 0.2517728806
0.08074881136 -0.1614774913 0.704113245 0.8081045747 -0.1486861557 0.02966837026
0.08086809516 -0.1428398192 0.6970911026 0.7778437734 0.1230048537 -0.3437636793
0.08196471632 -0.1535171121 0.7001546621 0.7984846234 -0.01463363133 -0.1278216392
0.08250205964 -0.1380372345 0.6943520904 0.7749065757 0.2172152549 -0.4351780713
0.07838791609 -0.1821737587 0.7131294608 0.8261359334 -0.4015791416 0.3932875097
0.0728097856 -0.1853611767 0.7192157507 0.7957895994 -0.4233573079 0.4290732145
0.06930840015 -0.1868932098 0.7238675356 0.7623597383 -0.4533457458 0.4593178332
0.07059395313 -0.1911145002 0.7183696628 0.7883642912 -0.4258955717 0.4414533675
0.06640386581 -0.1949387342 0.7227517366 0.7375959158 -0.4538104236 0.4981075227
-0.02261479385 -0.1201678067 0.6885673404 -0.7204735279 0.4792324305 -0.4869331419
-0.01383775473 -0.1139926016 0.6843986511 -0.629748702 0.5230830312 -0.5620818734
-0.02626260184 -0.1216821223 0.6931036711 -0.7559375763 0.4570251107 -0.460650295
0.01476883329 -0.2013636082 0.7428290248 -0.1128989309 -0.5839575529 0.8036862612
0.008324660361 -0.1998017281 0.7427027822 -0.240665108 -0.5692771673 0.781596005
0.01190021355 -0.1970488429 0.7458095551 -0.1834890097 -0.591514349 0.7812390327
0.01286809985 -0.212160185 0.7372368574 -0.1482830197 -0.5628119111 0.8073008657
-0.02300331555 -0.1768086702 0.7319703102 -0.7247959971 -0.3881905973 0.5690611601
-0.02753227577 -0.1890214682 0.7187936306 -0.7219447494 -0.3586455584 0.5917086005
-0.02454490587 -0.193576932 0.7202231884 -0.7240846753 -0.3544304967 0.5916454196
-0.02781637572 -0.1791542172 0.7237074971 -0.734413743 -0.3541870713 0.5789458156
-0.01848681457 -0.141034618 0.6597500443 -0.666395843 0.4844065011 -0.5644485354
-0.02239424549 -0.1461121142 0.6627709866 -0.6857252717 0.4795006514 -0.5450469851
-0.02687496506 -0.1496137977 0.6673893332 -0.7140149474 0.470921278 -0.5180176497
-0.02545719221 -0.1430933625 0.6690288186 -0.7183769941 0.4651061893 -0.5168585777
0.01210567728 -0.1300641447 0.6482759118 -0.1954958886 0.6783474088 -0.6992886662
0.01866170578 -0.1360819042 0.6401463151 -0.06977528334 0.7236232758 -0.6857402921
0.01536610816 -0.1330584735 0.6442351341 -0.1477675587 0.6997717619 -0.6984466314
0.02030791901 -0.1300764531 0.6464563608 -0.07153552026 0.7000056505 -0.7084693313
0.01278217323 -0.1408971548 0.636993289 -0.169508636 0.7031752467 -0.6876758933
-0.004245242104 -0.1365196854 0.6497280002 -0.4405447543 0.5971521735 -0.6691934466
0.0008147567278 -0.1311567873 0.6519744396 -0.3813952506 0.6322363615 -0.6727104783
-0.00406293897 -0.1314638555 0.6548988223 -0.4533703923 0.6047045588 -0.6539168358
0.002518286696 -0.1410885304 0.6403971314 -0.3367612958 0.6338334084 -0.6906093359
-0.001980763394 -0.139645502 0.6442067623 -0.4040188789 0.6054542065 -0.6829322577
0.07983002067 -0.1479023397 0.6863483191 0.8476331234 0.105492264 -0.3729344904
0.08018730581 -0.1484455913 0.6975399852 0.7892948389 0.03867683932 -0.2486555725
0.0804708451 -0.1607848257 0.6963660717 0.8371665478 -0.1058740094 -0.05393081903
0.0809007585 -0.1678998768 0.7043766975 0.8180647492 -0.2359348834 0.1477556676
0.07971707731 -0.1413831413 0.6881703734 0.8158794641 0.1754007936 -0.4634448588
0.08022147417 -0.1578940898 0.6906756759 0.8580224514 -0.03993609548 -0.1609395295
0.08360312879 -0.1767873019 0.6807185411 0.9760745764 -0.0188035313 0.05322588608
0.08237099648 -0.1696940958 0.6784004569 0.978146553 0.003468819195 -0.04623842612
0.008758928627 -0.1242550164 0.6551053524 -0.2712221444 0.6446380019 -0.7097408772
0.003504206426 -0.1228841767 0.6586610675 -0.3592922091 0.6288155913 -0.6864944696
0.08066814393 -0.1768414825 0.6966882348 0.8752344251 -0.2754845023 0.2080437243
0.08008675277 -0.1657413542 0.6818779707 0.9274904728 -0.08009330183 -0.1230751947
-0.03242222965 -0.1332799792 0.6900315881 -0.790862143 0.4349256754 -0.4303340912
-0.02752677165 -0.1284070909 0.6850976944 -0.7667880058 0.4610311091 -0.4455232322
-0.03291564062 -0.1301408112 0.6948208809 -0.7870624661 0.4376323819 -0.4344165921
-0.02961323224 -0.1340571642 0.6840536594 -0.7826863527 0.4387822747 -0.4409887493
-0.02925621904 -0.1261187345 0.6915960312 -0.7712641954 0.4550913572 -0.4446795285
-0.03149599582 -0.1253127605 0.6986519694 -0.778399229 0.4432758391 -0.4444829226
0.01935604028 -0.1986147165 0.7452725172 -0.05276429281 -0.6086370945 0.7877964377
0.02987657115 -0.1990225911 0.7444953918 0.119427681 -0.6188022494 0.7708069682
0.01817028038 -0.2159262896 0.735921979 -0.05045805499 -0.5744182467 0.8150270581
0.01995018311 -0.2103509009 0.7384592891 -0.02703436278 -0.5857790112 0.8070709705
0.02045769244 -0.2047571987 0.7410007119 -0.02272530645 -0.59362638 0.8009395003
0.01558188815 -0.2067383379 0.7377533317 -0.06795653701 -0.5770902038 0.8132815957
0.02844371833 -0.2034169436 0.7409395576 0.1044806913 -0.597579062 0.790224731
-0.02067936771 -0.1917794198 0.7259858847 -0.7169822454 -0.374516964 0.587133944
-0.02330978028 -0.1857573688 0.7259445786 -0.7254022956 -0.3702801168 0.5798344016
-0.01629218459 -0.1944476813 0.7287647128 -0.6744177341 -0.4033957422 0.6169720888
-0.01703537628 -0.1888024807 0.7326131463 -0.6894677877 -0.4094444513 0.5970929265
-0.01194003876 -0.189854905 0.7353259325 -0.6173266768 -0.4489366412 0.6412733793
-0.01824142411 -0.1796774119 0.7365643978 -0.6867662072 -0.4013084769 0.6056950092
-0.02033240348 -0.1834902167 0.730741322 -0.7135270834 -0.3864440918 0.5840867162
0.01002581418 -0.1369958371 0.6428346038 -0.2185178995 0.6783150434 -0.6988421082
0.00674541574 -0.133117795 0.6465748549 -0.2766188085 0.6635367274 -0.6948498487
0.001422122121 -0.1353431344 0.6481199861 -0.3589117229 0.6304629445 -0.6818720102
0.07030203938 -0.1972394735 0.7139076591 0.792804122 -0.4196841121 0.440892458
0.08130627126 -0.1815966219 0.6879892349 0.9679891467 -0.06273622811 0.117851235
0.07997638732 -0.162826404 0.6757314801 0.9568207264 0.01184572745 -0.2432364672
0.08522867411 -0.1872360408 0.6850461364 0.9756061435 -0.05351104587 0.2128733695
0.08324440569 -0.1920613497 0.6895735264 0.9648736715 -0.105906561 0.2280645519
0.08077006787 -0.1813804656 0.7076119184 0.8418821096 -0.3869226277 0.3759489059
0.07776075602 -0.1888597608 0.705573976 0.8385646343 -0.3893409371 0.380838424
0.07641428709 -0.1881875247 0.7114551663 0.8256928325 -0.405660212 0.391433239
0.07467634231 -0.1948196292 0.7071205378 0.8236039281 -0.409091711 0.3926041722
0.07727842778 -0.1945854723 0.7007628083 0.8287671208 -0.4052273333 0.3858822882
0.07970640808 -0.1909364462 0.6955094337 0.9093943834 -0.2402306795 0.2944509387
0.08071522415 -0.1871810704 0.7000650167 0.8831430674 -0.3124738932 0.3324723244
0.05656675249 -0.1460313946 0.6470965147 0.48702389 0.5452795029 -0.6590032578
0.06344971806 -0.1494792551 0.6502954364 0.5919784904 0.3495660722 -0.6867141128
0.05278528109 -0.1507413238 0.6385796666 0.4619489014 0.6108322144 -0.6284672618
0.06830058247 -0.1467256248 0.652141273 0.4281015992 0.1842149049 -0.7654651999
0.06267009676 -0.1455762535 0.6459461451 0.3834891915 0.3411120474 -0.7250697017
0.07523649931 -0.1458630115 0.6576479077 0.3563013375 -0.02351096645 -0.8389185071
0.0711658597 -0.1529522985 0.6604383588 0.728774488 0.1674550772 -0.6243023276
0.07567695528 -0.1558728218 0.6666081548 0.8464705944 0.1184447482 -0.4248381555
0.06807656586 -0.1436458826 0.6602243781 0.5690307617 0.3204681575 -0.7447773218
