# .PCD v0.7 - Point Cloud Data file format
VERSION 0.7
FIELDS x y z normal_x normal_y normal_z
SIZE 4 4 4 4 4 4
TYPE F F F F F F
COUNT 1 1 1 1 1 1
WIDTH 512
HEIGHT 1
VIEWPOINT 0 0 0 1 0 0 0
POINTS 512
DATA ascii
0.0442946963 -0.2250456959 0.7397603989 0.2443139404 -0.5676304698 0.7822175622
-0.0253857784 -0.1767428666 0.6921914816 -0.07881511003 -0.2170582116 0.3919637501
-0.02331447043 -0.1639001817 0.6924701333 0.3455839753 -0.3688332438 0.4954490066
-0.02430089749 -0.1699417531 0.6948242188 0.09213097394 -0.2953864336 0.4439908862
-0.02678355388 -0.1915220767 0.7091930509 -0.8379143476 -0.1540787518 0.3628545702
-0.005653943866 -0.2200927436 0.7297180295 -0.5981572866 -0.4360418916 0.6646497846
-0.01437566988 -0.2129647881 0.7226207256 -0.6837647557 -0.4063664675 0.5983132124
-0.02420761995 -0.1403817534 0.7024698853 0.8076983094 -0.4047277868 0.428532362
-0.02039154619 -0.2063843161 0.7194439769 -0.7438812852 -0.384177506 0.5468513966
0.09846196324 -0.1033141315 0.6948892474 0.3913182914 -0.6856022477 0.4797159731
0.02896123379 -0.1779913306 0.7725901008 -0.02953351475 -0.5258550644 0.8469792604
0.09026087075 -0.10196127 0.6980035305 0.2109552771 -0.2320332825 0.913788259
0.02465994097 -0.2299961448 0.7406876087 -0.1064549834 -0.5243238807 0.8395785093
-0.0108004082 -0.09796693921 0.7158385515 0.6927515864 -0.505972445 0.5126681328
-0.0060353796 -0.09524559975 0.7112874985 0.6293774247 -0.5388731956 0.5584209561
0.01400388777 -0.1152085885 0.6778595448 0.3400683403 -0.6066391468 0.7177667022
0.1018085256 -0.110550113 0.6773968935 0.5868580937 -0.5664078593 0.5239151716
0.1007838771 -0.1029067263 0.6866784692 0.4861753583 -0.6498722434 0.4442345798
0.1060266495 -0.1203646436 0.6721944213 0.7115231156 -0.5283276439 0.457937479
-0.0181250982 -0.1361460984 0.6902838349 0.7580109835 -0.4295097888 0.4896259308
-0.01458984427 -0.1350526661 0.6852834225 0.7328566313 -0.4392747879 0.518958807
0.0363085866 -0.1334272772 0.6583095789 -0.04494792968 -0.6939492822 0.7179573178
0.04966964573 -0.1368426532 0.6574035287 -0.2988598645 -0.6268126369 0.7063421011
-0.02459412999 -0.1238023937 0.7210327387 0.7918131948 -0.4184143543 0.4448249638
-0.02438025549 -0.1310289949 0.7121306658 0.7995109558 -0.4148486555 0.4340581596
-0.02482822165 -0.1281317025 0.7171388865 0.7954697609 -0.4156048894 0.4407359958
-0.02434860915 -0.1363100708 0.7077262998 0.8044397235 -0.4046204686 0.4347327054
-0.0099997418 -0.180493921 0.7448904514 -0.6728227735 -0.4482995868 0.5854673386
-0.01360329799 -0.1837472767 0.7391293049 -0.7096535563 -0.4114944339 0.5662387013
-0.02035595663 -0.187147513 0.7277756333 -0.7561952472 -0.3689343333 0.5370163321
0.0102845151 -0.1393913776 0.656660378 0.3687505722 -0.5987250805 0.7089838386
0.01520926133 -0.140133217 0.6540086269 0.3103524446 -0.6119555831 0.7252275348
0.01240671333 -0.1203303412 0.6740841269 0.3585594893 -0.611461699 0.7043847442
0.02134515345 -0.1857402176 0.7622395158 -0.1865939796 -0.5641971827 0.7942101955
0.02128993906 -0.1932014674 0.7592222691 -0.19009085 -0.596365571 0.7726467848
0.04869195446 -0.094938986 0.6912119985 -0.2375208288 -0.6407259703 0.7276025414
0.05202119052 -0.09146820009 0.6960630417 -0.2869109511 -0.6522956491 0.6999441981
0.07166360319 -0.1812892854 0.7541866899 0.5746337175 -0.4889782071 0.6558411121
0.09771734476 -0.189304769 0.7103284001 0.862392664 -0.3480664492 0.3562126756
0.0928311944 -0.1995306611 0.700863421 0.8826230168 -0.3061066568 0.3232627809
0.09456502646 -0.1942430288 0.697057128 0.9511492848 -0.1642782539 0.2310949713
0.0960681662 -0.1923179328 0.7052409053 0.8892208934 -0.2925017476 0.317653209
0.09705770761 -0.1875591874 0.7016376853 0.9369763732 -0.1626620591 0.2065658867
0.02991139889 -0.1781147867 0.7662677765 -0.04102090746 -0.5448892713 0.8341872692
0.03301496431 -0.1884835958 0.7616873384 0.01724030823 -0.5775614381 0.8117503524
0.03127177805 -0.1983274072 0.7574955225 -0.01489647944 -0.6167451143 0.7798087001
0.06707537919 -0.1799112856 0.7572232485 0.5409929752 -0.5019065738 0.6747347713
0.0394345969 -0.2211400419 0.743809104 0.1627414078 -0.5547985435 0.810164392
0.03283937275 -0.2243565768 0.7443234921 0.02992316149 -0.5443902612 0.8377727866
0.03181502223 -0.2297891378 0.7415263653 0.0105665084 -0.5365365744 0.8429183364
0.03333833069 -0.2185443938 0.7472907901 0.04103122652 -0.549802959 0.8342202306
0.02696398087 -0.2242964208 0.7441684008 -0.07973211259 -0.5296809077 0.8413173556
-0.00926830899 -0.2158847302 0.7281068563 -0.6555629373 -0.4134124815 0.6230680346
-0.01331638824 -0.1030658185 0.7141581178 0.7141799927 -0.4844724536 0.5045366287
0.01610168442 -0.1905810237 0.7633082271 -0.2713555694 -0.5752519369 0.769734621
0.005105903372 -0.09195518494 0.7036832571 0.4999175966 -0.6213915348 0.6026383042
0.01121847704 -0.09144903719 0.699921906 0.4127969146 -0.6278232336 0.6594036222
0.007546897512 -0.09666938335 0.6975422502 0.454228431 -0.6135950685 0.6454458237
0.01050361712 -0.08664501458 0.7043793201 0.4119697511 -0.6650283933 0.6174832582
-5.827159475e-05 -0.09118910879 0.7086586356 0.5568575263 -0.5905431509 0.5774435401
0.1073847637 -0.1133035496 0.6757346988 0.7585615516 -0.4420871437 0.4753047228
0.1050804555 -0.1061166227 0.6821814179 0.745131135 -0.4313957095 0.5067802072
0.1059256867 -0.1119548827 0.6898348927 0.7472633719 -0.4023731351 0.520623982
0.1098184064 -0.108753249 0.6798009872 0.7767781615 -0.3940825164 0.4902883172
0.0410771668 -0.1181984991 0.6719579101 -0.131272018 -0.6458613276 0.7501339912
0.03101986088 -0.1116893068 0.6766811609 0.04360654205 -0.6414743066 0.7594838142
-0.0239029713 -0.1459673941 0.696387887 0.7890666723 -0.405618906 0.4591515064
-0.02292646468 -0.1509287506 0.6892488003 0.7649509907 -0.4110649526 0.4942581356
-0.02102280036 -0.1431767642 0.69118613 0.7781797051 -0.4141310751 0.4712801576
-0.02110422216 -0.135997355 0.6954853535 0.7753372788 -0.4246234596 0.4670374095
-0.009727311321 -0.132589519 0.6817384958 0.6766789556 -0.4642135501 0.5697994828
0.03494754434 -0.1241638884 0.6657131314 -0.03406286985 -0.6712687612 0.7392271161
0.02512490191 -0.1177745461 0.6726420522 0.1393750161 -0.6506004333 0.7453326583
0.03258162364 -0.1165517494 0.6727233529 0.01794225164 -0.6536912918 0.7479040027
0.03196840733 -0.1288599968 0.6602689624 0.05916965008 -0.6833197474 0.7261590362
0.03734405339 -0.1279678047 0.6623430252 -0.05173480883 -0.6735223532 0.7298138738
0.04416994378 -0.1330898553 0.6583564878 -0.1698392332 -0.6634472609 0.7241955996
0.05017738417 -0.1440414488 0.6517903805 -0.3321329653 -0.628287971 0.699164331
0.07724682242 -0.1226380318 0.6737568378 -0.1014838442 -0.5649081469 0.6353285313
0.0699410066 -0.1258955449 0.6692254543 -0.1996149421 -0.5854206681 0.6549257636
0.0877731964 -0.1243034229 0.6684284806 0.2374057472 -0.5623928905 0.6630331278
0.07486027479 -0.1282131523 0.667129457 -0.09511560202 -0.5729587674 0.6873984337
0.08111632615 -0.1245662943 0.6688404679 0.07965580374 -0.5723309517 0.6561673284
0.04477906972 -0.1289729029 0.6638398767 -0.1777512431 -0.6575559974 0.7240337729
0.02118028887 -0.1258762181 0.6671913266 0.1942795366 -0.6543921828 0.7259091139
0.02000799589 -0.1312124878 0.6624330878 0.2242406458 -0.6655803919 0.7087290287
0.02813365497 -0.126181528 0.6656361818 0.0876281634 -0.6733847857 0.7283853889
0.02591636777 -0.1306662112 0.6615182161 0.1321454644 -0.6827427149 0.7129898071
-0.0239849668 -0.1692387015 0.6842218637 0.3488120735 -0.3190853 0.4673465788
-0.02183326893 -0.1632941067 0.678807795 0.63896209 -0.3912425637 0.5199537277
-0.02510460094 -0.1894191653 0.7159661055 -0.7809154391 -0.3343039453 0.5119652152
-0.02638685144 -0.1895050257 0.7033849955 -0.7062826753 -0.1219172776 0.3332404792
-0.02097596042 -0.1710587442 0.6891806126 0.1971577704 -0.377561152 0.5219162703
-0.02573721297 -0.1862550378 0.6978269815 -0.5280630589 -0.1159366146 0.3235178292
-0.0238286294 -0.1827351898 0.7039309144 -0.4106165469 -0.3119084239 0.4834680259
-0.0225263983 -0.1571226865 0.687514782 0.6418847442 -0.4083324075 0.5169080496
-0.02102674544 -0.1643894464 0.6866597533 0.4446461499 -0.4048863649 0.5315569043
-0.0233213827 -0.1767872423 0.7029608488 -0.1860668808 -0.3780367672 0.5279347897
-0.02407451347 -0.1851520836 0.7110497952 -0.563413322 -0.3633566797 0.5301786065
-0.02104419097 -0.1146671325 0.7139364481 0.7793212533 -0.4261753261 0.459020853
-0.01692737266 -0.1017134637 0.720046103 0.7222866416 -0.4807364941 0.4967190623
0.01155212335 -0.177818045 0.7668296695 -0.3394250572 -0.5024101138 0.7863366604
0.01998917758 -0.1747863591 0.7678485513 -0.2034090757 -0.5140846372 0.8170133233
0.008655223995 -0.1842619181 0.7641439438 -0.3807909787 -0.5116544962 0.7667360902
0.01414845884 -0.09662502259 0.6940420866 0.3413066566 -0.6243153811 0.7019122839
0.09790047258 -0.1814337224 0.71834445 0.8452284336 -0.3693752289 0.3828251064
0.0929222852 -0.1811217219 0.7243368626 0.8210509419 -0.3839286566 0.4146871865
0.09241688997 -0.1795062274 0.7157461047 0.8488546014 -0.367192477 0.3780463934
0.08603234589 -0.1820745319 0.737018466 0.7730428576 -0.4128267467 0.4779542685
0.06060644239 -0.1930859387 0.7538662553 0.4585934281 -0.5353662372 0.7057052255
0.06483760476 -0.1860822886 0.7553834319 0.5260306597 -0.4980699718 0.6891556978
0.09828706831 -0.1315710247 0.6656941772 0.4207731187 -0.4489697218 0.7686104178
0.1042724922 -0.1319643706 0.6689943075 0.5838913918 -0.4931831658 0.6362082362
0.1006369814 -0.1235968545 0.668669939 0.5104706287 -0.5369590521 0.6682640314
0.1008899659 -0.1172027215 0.6719981432 0.6012758613 -0.5405349731 0.5803245902
0.05969967321 -0.188587755 0.757632792 0.438184768 -0.5202000737 0.7323399782
0.05901899561 -0.1800319254 0.7620021701 0.4033506513 -0.4707077444 0.7819135189
0.03283512965 -0.1866346151 0.7686369419 0.04329332337 -0.5391517282 0.835783422
0.02665264532 -0.1839340031 0.7711752057 -0.07673448324 -0.5375394821 0.8360446692
0.03157580644 -0.1734781116 0.7689679265 -0.006030389573 -0.5090230703 0.8506373763
0.03728465363 -0.1773045212 0.7700758576 0.1124287769 -0.4855833948 0.8565100431
0.04195500165 -0.1865647435 0.763584733 0.1904090345 -0.5047758222 0.8316649199
0.04524138197 -0.1800304651 0.767101109 0.2564951479 -0.4468196929 0.8550078869
0.05501705781 -0.1949169487 0.7567122579 0.3645526171 -0.5461286306 0.7541971803
0.07513704151 -0.1819422692 0.7488473654 0.6280825138 -0.4794448614 0.6056025028
0.08032353967 -0.1821054071 0.7428890467 0.7112076879 -0.4401865304 0.5329996347
0.05137357116 -0.1803540885 0.7653519511 0.2981745303 -0.4513137937 0.8400987983
0.04145370796 -0.1837955564 0.7691131234 0.1897004098 -0.4949659407 0.8448110223
0.02913193777 -0.2246371657 0.7389501929 -0.01630344056 -0.521487236 0.8510506749
-0.002048593014 -0.2103687227 0.7389678955 -0.562482357 -0.4550505877 0.6899550557
-0.001758500584 -0.2199251801 0.7345225215 -0.5442166924 -0.457315892 0.7031061649
0.02467736788 -0.1982335895 0.7588996887 -0.1313132644 -0.6185688376 0.7742835879
0.02691967785 -0.2035145313 0.7555272579 -0.07653888315 -0.5960674882 0.7961243391
0.01014148351 -0.1917183995 0.7609531283 -0.3624755144 -0.5698472857 0.7356781363
0.01991499215 -0.1828533411 0.769954443 -0.1861214489 -0.5408088565 0.8188037872
0.02256382443 -0.1778638959 0.7723799944 -0.1336168051 -0.5343714356 0.832852006
0.01458677184 -0.1851137578 0.7667970061 -0.288504988 -0.5296710134 0.7973469496
-0.01958594471 -0.1463389844 0.6858727336 0.7639819384 -0.4149477184 0.4934172034
-0.02180887572 -0.1546894163 0.6799916625 0.7478168011 -0.4164985418 0.5167699456
-0.01603306644 -0.1407356858 0.6835225224 0.7409319878 -0.4300380647 0.5154118538
-0.008897635154 -0.1275385916 0.6862520576 0.6549462676 -0.4843366444 0.5718711615
-0.004348664079 -0.1268498898 0.6810435057 0.5933927894 -0.5142682195 0.6175003052
0.0201221779 -0.1216260195 0.6709079742 0.2155234069 -0.6425611377 0.7267839313
0.01966195367 -0.1168679595 0.6746969223 0.2426072359 -0.6277548075 0.7338963747
0.0152057549 -0.1301772445 0.6655911207 0.302862525 -0.6369199753 0.7037419677
0.01231884584 -0.12501432 0.6701793671 0.3635057211 -0.6188105345 0.6953327656
0.01272610761 -0.1343805045 0.6602415442 0.3411258459 -0.6155540943 0.708712101
0.04479281977 -0.149531886 0.6413711309 -0.2171460092 -0.6583794951 0.7188785076
0.04862215742 -0.1477960646 0.6455631256 -0.2878519297 -0.637721777 0.7082885504
0.04091216251 -0.1481727064 0.6475284696 -0.1528555751 -0.6277953386 0.7279001474
0.03831240535 -0.1479421258 0.6397306323 -0.09246767312 -0.6614439487 0.7339420915
0.06432401389 -0.144745633 0.6598876715 -0.4661823213 -0.5086054206 0.723082304
0.05711902305 -0.1512936205 0.6509387493 -0.4340001941 -0.5786466599 0.6903211474
0.06097857654 -0.1474301666 0.6557750702 -0.4422411025 -0.5332083106 0.7191424966
0.0555376187 -0.1453977674 0.6527385116 -0.4143367112 -0.5947540402 0.6888417602
0.06696288288 -0.1302500665 0.6736498475 -0.5018789768 -0.583283484 0.6374546289
0.05006903037 -0.1318698078 0.6615542769 -0.2803602815 -0.6369338632 0.7125794888
0.09451301396 -0.1867989302 0.691014111 0.8529281616 0.01773333736 0.1433547139
0.09755950421 -0.1816862822 0.7026637197 0.7012916207 -0.1482894123 0.3417391479
0.09241749346 -0.1734703928 0.6828122735 0.08153536171 0.1920295656 0.5433065295
0.09560845047 -0.1778656989 0.6951235533 0.4295795262 -0.01665214449 0.4406129122
0.09098926932 -0.1632930487 0.6827378869 -0.1687485576 -0.1074489355 0.7496088743
0.09349930286 -0.1687321365 0.68805933 -0.0555418767 0.05621035397 0.6859197021
0.09431872517 -0.1689865142 0.6957401633 0.2606446147 -0.3401602805 0.6045554876
0.09845268726 -0.1773588508 0.7067927718 0.5545973182 -0.2437925488 0.4763405323
0.09593688697 -0.1717820019 0.7019485831 0.4641258717 -0.4448691607 0.5351876616
0.08637115359 -0.1548988223 0.6694052219 -0.2416935414 -0.1109454483 0.9205939174
0.08728657663 -0.1814825535 0.7205310464 0.8312621117 -0.3805022836 0.4009957314
-0.01798502915 -0.1598334759 0.6749043465 0.7231081128 -0.4207432866 0.5476236939
-0.01226758491 -0.1078422442 0.7082372308 0.717402935 -0.4820407927 0.5020221472
-0.02230009437 -0.1088905782 0.7239011526 0.7468428612 -0.4582025707 0.4812732339
-0.01839380525 -0.1093050018 0.7189978957 0.7421673536 -0.4610794485 0.4855296314
-0.02382965013 -0.1159149408 0.726120472 0.76580441 -0.4368673563 0.4718400538
-0.01587058417 -0.1084179059 0.7133875489 0.741994977 -0.4604057968 0.4864648879
-0.0175546594 -0.1925683171 0.7319756746 -0.7571630478 -0.3654469252 0.5409165025
-0.02183762752 -0.1193357706 0.7182632685 0.7814133167 -0.4243497252 0.4571582973
0.004536526743 -0.1332892478 0.667891562 0.4768202305 -0.5816016793 0.6576336622
0.00787791796 -0.1283017397 0.6701768041 0.4301767349 -0.6018616557 0.6722273231
0.005958904512 -0.1238938272 0.67479527 0.439687103 -0.5936216712 0.6735441685
0.0004994170158 -0.126699999 0.6768090725 0.5176538229 -0.5584440827 0.6461113691
-0.01776833832 -0.1867901087 0.7350847125 -0.7324160337 -0.3984116018 0.5462161303
0.06783920527 -0.1252802461 0.6794534326 -0.5605711341 -0.5521350503 0.6159205437
0.0726422444 -0.1311553717 0.6787654757 -0.5709406137 -0.5719131231 0.5878297687
0.06778821349 -0.1517000049 0.6573698521 -0.4965863824 -0.4415204227 0.7421940565
0.0785594359 -0.1566905379 0.6664872766 -0.4508469403 -0.2343920916 0.8538720608
0.07836142927 -0.1447506994 0.6621394157 -0.2083886266 -0.2574347556 0.8795126677
0.0760371685 -0.1057591215 0.703651607 -0.4087857902 -0.4087617695 0.7931236625
0.07127054036 -0.1023385376 0.7003387213 -0.4659324288 -0.5018735528 0.717263341
0.07559875399 -0.1114148051 0.698084116 -0.5301180482 -0.4449824691 0.7190108895
0.07031867653 -0.1069047078 0.6959440708 -0.5106873512 -0.5094239116 0.6914042234
0.07810618728 -0.1164619625 0.6971103549 -0.5407688022 -0.3786630034 0.7477874756
0.08373706788 -0.1224115714 0.6984937191 -0.4569160938 -0.3541078866 0.8122151494
0.0943806693 -0.112405926 0.7071132064 0.1542659402 -0.3516169786 0.8035165668
0.08717474341 -0.1077812389 0.7132613063 -0.1713563651 -0.2847802937 0.9421297908
0.05415195599 -0.1899207681 0.7610664368 0.377982527 -0.5313621163 0.7573019266
0.04812669381 -0.1889796555 0.7642728686 0.2857199907 -0.5205797553 0.8010533452
0.04821129143 -0.1985484362 0.7563949227 0.2786748409 -0.5790128708 0.7633243799
0.04501339793 -0.1936041862 0.7614247799 0.2501972616 -0.5621162057 0.7878963947
0.05680303276 -0.1987251192 0.7508491874 0.424028039 -0.5626599789 0.7017586231
0.02816595323 -0.1909644306 0.7654281855 -0.06089310348 -0.5739229918 0.8126756549
0.03409979865 -0.2045097649 0.7548715472 0.04402985424 -0.5745805502 0.8168133497
0.03754514083 -0.1912554204 0.7645084858 0.1150245294 -0.5518333316 0.8213145137
0.03635641932 -0.1965637058 0.7603921294 0.07741229236 -0.5745465159 0.8114212751
0.04244069755 -0.1983927935 0.7580142021 0.1847590655 -0.5832058191 0.7871956825
0.03585673496 -0.1817766428 0.7652585506 0.07543828338 -0.5216319561 0.8350752592
0.08328662813 -0.1277844608 0.6947507262 -0.5276259184 -0.4423775375 0.7120558023
0.0761725083 -0.1873166412 0.7453477383 0.6604283452 -0.4749589562 0.5731826425
0.06356418133 -0.1948629618 0.7490129471 0.5135991573 -0.5400305986 0.6644533873
0.06897363067 -0.1935434788 0.7470752597 0.5844616294 -0.52173388 0.61938411
0.07079120725 -0.188286081 0.7496271729 0.5840272903 -0.5095803142 0.6303508878
0.06510519981 -0.2205915302 0.7292871475 0.5814084411 -0.5214015245 0.6227377653
0.05299857631 -0.2222473025 0.7359083295 0.3624301851 -0.576454401 0.7292496562
0.03794627637 -0.2240802646 0.7380568385 0.128480956 -0.5418609977 0.8131036162
0.05028956756 -0.2152306587 0.7421810627 0.3408046961 -0.5594418645 0.7522881627
0.020093536 -0.2241182178 0.7375226617 -0.1875680238 -0.5115619898 0.825566709
0.01453385688 -0.2177206278 0.7405169606 -0.2855605185 -0.5036328435 0.8105139136
0.01139604021 -0.2269341648 0.7378934026 -0.3395297527 -0.5097830892 0.7829136848
-0.0112605188 -0.205826804 0.7301716805 -0.7058969736 -0.3794926405 0.5964977741
0.01591920853 -0.2283126116 0.7411597967 -0.2535624504 -0.523185432 0.8113271594
0.008677766658 -0.2193034142 0.737488389 -0.3925527036 -0.4963144362 0.7718417048
0.004367745016 -0.2227496207 0.7349274755 -0.4604898393 -0.4857878685 0.7418172956
0.003650907893 -0.2099624723 0.7415934801 -0.4828651249 -0.4715578854 0.7338902354
0.01249136683 -0.2123495936 0.7439354062 -0.3196794093 -0.5081633329 0.7951551676
0.008872121572 -0.2081997544 0.7449253201 -0.3981617987 -0.5040184259 0.7578862906
0.03346147761 -0.2095776796 0.7517188787 0.04316601902 -0.5612068176 0.8262212873
0.04385139421 -0.2047500461 0.7531422377 0.1928039789 -0.5892047882 0.7832719684
0.004387358204 -0.192751646 0.7554100752 -0.477467984 -0.5576397181 0.674079597
0.005084907636 -0.1877435446 0.7612317801 -0.4239115715 -0.551474154 0.7166836262
-0.004668444395 -0.1828847975 0.7492887974 -0.6048386693 -0.4950193167 0.6164292097
0.01317078806 -0.1953912824 0.7571735382 -0.3196693063 -0.5816046 0.745321393
0.0002561731089 -0.1803361475 0.7577795386 -0.5092765093 -0.4891836643 0.6958364248
0.004384885076 -0.1798480004 0.7635745406 -0.4370821714 -0.5000052452 0.7462801337
0.01317852456 -0.2002173662 0.7522706985 -0.3650964797 -0.5835556388 0.7135564685
0.01885297336 -0.1991371214 0.7560428977 -0.2284817547 -0.6096784472 0.7552570701
0.003341692733 -0.1089445874 0.6897904873 0.5055924058 -0.5761093497 0.6380052567
0.007372027729 -0.102449581 0.6933286786 0.4471874535 -0.5952582955 0.6621277928
0.001017204835 -0.1003714427 0.6993258595 0.5663563013 -0.573591888 0.590680182
0.0193912629 -0.0925141722 0.6954302192 0.2782960236 -0.6465678215 0.7074109912
-0.0001498962374 -0.1056014523 0.6948674917 0.5488914847 -0.5671955347 0.6112900376
-0.009630505927 -0.110445641 0.7031376958 0.6956492662 -0.4884135425 0.5226126313
-0.00582489185 -0.1051478237 0.7023947835 0.6370764375 -0.5271837711 0.5595665574
-0.01462919917 -0.115172565 0.7038568258 0.734783411 -0.4615346491 0.4932556748
-0.01125651691 -0.1153994352 0.698584497 0.7092025876 -0.4824236929 0.512635529
-0.01588450372 -0.1134736389 0.7096693516 0.7588115931 -0.4407144189 0.4790452719
0.02012747526 -0.1365601271 0.6557474732 0.2359319478 -0.6558265686 0.7107750773
0.02910426818 -0.1337190717 0.6579982042 0.08468102664 -0.6959691048 0.7066965103
0.08874043077 -0.1412386745 0.663754046 0.007778525352 -0.228843227 0.9056226611
0.094193317 -0.1370265037 0.6650044322 0.1974690259 -0.2289746255 0.9356538653
0.09042733908 -0.1504870653 0.6696901917 -0.06411862373 -0.1168599054 0.9585729837
0.08736093342 -0.1469828039 0.6652912498 -0.1519558579 -0.09848487377 0.9344655871
0.0747191757 -0.1534467489 0.6615290046 -0.4788632393 -0.2642089725 0.8224157095
0.08227008581 -0.1491537541 0.6635358334 -0.2785752714 -0.1657299548 0.8885788321
0.0779844448 -0.1492548436 0.6723355055 -0.4178184271 -0.4535198212 0.7737127542
0.05891153589 -0.1360537112 0.6636639237 -0.3973963559 -0.5744157434 0.7116649747
0.07132478058 -0.1356179565 0.6654441357 -0.2487196475 -0.4810283184 0.7604773641
0.07892550528 -0.1317137927 0.6655490398 -0.03258417547 -0.5569914579 0.7063249946
0.08494901657 -0.1303951442 0.6655214429 0.1204010621 -0.5509471297 0.7094954848
0.06526914239 -0.1303538382 0.6670916677 -0.3387138546 -0.5825092793 0.6843693852
0.05716467649 -0.139917165 0.6579563022 -0.404014945 -0.5767628551 0.7078881264
0.08190421015 -0.1379022747 0.6655297279 -0.02710702829 -0.2302341163 0.9292390943
0.07062859088 -0.1427432746 0.6609232426 -0.2885929048 -0.4043601453 0.8034011126
0.05109899864 -0.1113817617 0.6799366474 -0.312933743 -0.5965836048 0.7383549809
0.09809931368 -0.1436440796 0.6747460365 0.2828648388 -0.4985044897 0.7092698812
0.1016453952 -0.139409095 0.6710067391 0.3595348299 -0.360140264 0.7569875717
0.0927106142 -0.1578269899 0.6748053432 -0.2680984139 0.1042429805 0.8514590859
0.09655894339 -0.1504179388 0.6712944508 -0.07715176046 0.04115558788 0.9150980711
0.09504292905 -0.1430239677 0.6674883366 0.05136280879 -0.01145357732 0.9978268743
0.08701419085 -0.1622890681 0.6738316417 -0.4837963283 0.0988554433 0.83398211
0.08803180605 -0.1720783114 0.6947247386 0.155599758 -0.2165324539 0.5643028021
0.08857669681 -0.1787690818 0.7030331492 0.5743841529 -0.2731849253 0.4208061099
0.08726362884 -0.169305563 0.6846917868 -0.1910910308 -0.1320800036 0.6505920291
0.08808938414 -0.1779919565 0.6969162226 0.3903823197 -0.2189347744 0.45844239
0.08810611069 -0.1640031338 0.6880449057 0.004726340063 -0.4007495642 0.6759626269
0.08876124769 -0.1711725742 0.7001140118 0.4260638058 -0.3988177478 0.5291841626
0.09281679243 -0.1800758392 0.685471952 0.4457161129 0.1006218567 0.3357764184
0.08881373703 -0.1873391122 0.7049213052 0.8959037066 -0.2597521544 0.2639694512
0.09051839262 -0.1818181425 0.6920107007 0.5456184745 -0.1058919355 0.3184740543
0.0887536332 -0.1836388409 0.6998880506 0.6689186096 -0.2190232724 0.3358558714
0.08352185786 -0.1856670678 0.7313363552 0.8015858531 -0.3937180042 0.4475306571
0.0894825533 -0.1833319217 0.7325784564 0.7926368117 -0.4013097882 0.4527239799
0.0907747075 -0.1917026341 0.701064229 0.9160501361 -0.2301821858 0.2308631688
-0.003091666847 -0.1518137455 0.6590575576 0.6042876244 -0.4750143588 0.6347005963
-0.00463861879 -0.1478042305 0.6645251513 0.6423712969 -0.4600079954 0.6115859151
-0.0146426037 -0.1302248389 0.6896629333 0.7445181608 -0.4476549625 0.4945105612
-0.01771600172 -0.1220382378 0.706390202 0.7888673544 -0.4188575745 0.4497005939
-0.02145065926 -0.1281223297 0.7062851191 0.789295435 -0.4169314504 0.4501683414
-0.02162370645 -0.1324566603 0.7015838027 0.7874937057 -0.4195095301 0.4505815804
-0.02155244723 -0.1242639571 0.7114232779 0.7963798642 -0.412415117 0.4422460198
-0.01543220971 -0.1263416559 0.6954401731 0.7610241771 -0.4444845021 0.4718554318
-0.01760525443 -0.1255742162 0.7021749616 0.7829766273 -0.4233296812 0.4553945959
-0.01242349762 -0.1210783571 0.6976394057 0.7271484733 -0.4641672671 0.4993332028
-0.00563117722 -0.1202569902 0.6874964833 0.6167541146 -0.5196287632 0.5878043771
0.0001576009963 -0.1220668331 0.6820768118 0.5263802409 -0.5491616726 0.64761585
-0.01115890127 -0.123076573 0.6913546324 0.7068980932 -0.4820419848 0.5147083402
0.04588925838 -0.1134338751 0.6769926548 -0.2142940611 -0.6188984513 0.7529941201
0.03805412352 -0.1060727686 0.6814317703 -0.06965575367 -0.6272341609 0.7724176049
0.04479108751 -0.1090319157 0.6806305051 -0.2132879496 -0.6091546416 0.7538033128
0.03842248023 -0.1119304299 0.6758828163 -0.07880184054 -0.6435094476 0.7576915026
0.06666599959 -0.1107033193 0.6902291179 -0.5333544612 -0.5107973218 0.6720135212
0.06281755865 -0.105443716 0.6920518875 -0.4616102278 -0.5480381846 0.6930818558
0.05563238263 -0.1075442433 0.6853567958 -0.3652097583 -0.579873383 0.7281529307
0.05081092194 -0.1029778421 0.6876206994 -0.2815300226 -0.6020500064 0.7403393388
0.04306395352 -0.102636002 0.6848157048 -0.1570332199 -0.6245416999 0.7615051866
0.02533408999 -0.1096725389 0.6791037321 0.1578759849 -0.6315148473 0.755386889
0.03019342571 -0.1069030166 0.6801034212 0.07345506549 -0.6405681968 0.7629827857
0.07314743102 -0.09621118754 0.7040902376 -0.367762953 -0.6088160276 0.6704065204
0.07807330042 -0.0987675935 0.7071890831 -0.2477295995 -0.4384297431 0.8048838973
0.08472251892 -0.1007081047 0.7022780776 0.01444199216 -0.2897281647 0.8921100497
0.07257176191 -0.1162898466 0.6921019554 -0.5880998373 -0.4769711196 0.6513531208
0.0896641463 -0.1173805594 0.7085495591 -0.2139674425 -0.3370197117 0.9123700261
0.08828238398 -0.1226042807 0.7035743594 -0.3203749657 -0.3524110615 0.8733149171
0.09786575288 -0.1152965724 0.7020379901 0.3696469367 -0.3885221481 0.682263732
0.09381787479 -0.1219427064 0.7022827864 -0.02615323104 -0.3778501153 0.7765241861
0.08214062452 -0.1015976295 0.7145594954 -0.191794008 -0.2667794526 0.9435850978
0.08204255253 -0.1088767424 0.7081990242 -0.1970801055 -0.3155694902 0.9276815057
0.08315841854 -0.1144949272 0.7040066123 -0.2443681657 -0.3438898027 0.8927332759
0.07897672802 -0.1038027257 0.7096800208 -0.2879047096 -0.3231493235 0.8898556828
0.06802949309 -0.136653617 0.6705964208 -0.498475343 -0.5659468174 0.6543147564
0.05850985274 -0.1292410642 0.6698659658 -0.3953789771 -0.585229516 0.7043042779
0.04927552491 -0.1202224717 0.6730062962 -0.2509028614 -0.6225144267 0.734844923
0.05576512963 -0.1235629916 0.6707726717 -0.3673427701 -0.6055389047 0.7039142847
0.05220388994 -0.1162152514 0.6772542 -0.3006033897 -0.6028280258 0.7336446047
0.04604492337 -0.1236051917 0.6688727736 -0.1931541264 -0.6513893008 0.7313119769
0.05360176414 -0.1298630536 0.6658602953 -0.3269989491 -0.6104931235 0.7172775269
0.07248261571 -0.1247655004 0.6848422289 -0.6034436822 -0.5214201808 0.6027632356
0.07426220179 -0.1429625005 0.6728879809 -0.4908509254 -0.5321555734 0.6758717895
0.07926457375 -0.143626973 0.6778127551 -0.4737244248 -0.5583615303 0.652566731
0.08177994192 -0.1401305348 0.6829867959 -0.5034701824 -0.6264562011 0.56932652
0.08374577761 -0.1481297165 0.6800183654 -0.3726952672 -0.5607218742 0.6949568391
0.08473611623 -0.1538077146 0.6773511171 -0.2912598252 -0.5032645464 0.7892182469
0.0868922174 -0.1482446194 0.6852902174 -0.2637837529 -0.6135873199 0.6918087006
0.0835724473 -0.1356672794 0.689170301 -0.5623350739 -0.6152876616 0.5419496894
0.07981199771 -0.1313257813 0.6892367601 -0.6026178002 -0.5831080079 0.5421017408
0.07733555883 -0.1370995045 0.6801434755 -0.5458110571 -0.6174012423 0.5589391589
0.07819747925 -0.2108045816 0.7200786471 0.7623591423 -0.4320930243 0.470898509
0.08276222646 -0.2072809786 0.716113925 0.8325558901 -0.3751468658 0.4069144726
-0.02421552688 -0.1965681463 0.7141103148 -0.7557777166 -0.3533449769 0.5511700511
-0.02149969712 -0.1958940327 0.7202590704 -0.764362514 -0.3593716323 0.5350015163
0.00266405195 -0.2150382549 0.7364929318 -0.4917090833 -0.4680171013 0.7312731147
-0.006257888395 -0.2057226002 0.7356538773 -0.6347981691 -0.4147679508 0.6514286399
-0.004281450063 -0.2134646326 0.7329435349 -0.6008665562 -0.4278090298 0.6747315526
0.06766504794 -0.2092193812 0.7340428233 0.6296743751 -0.4860483706 0.6026939154
0.06907834113 -0.2020170689 0.7393110991 0.6205615997 -0.4960672557 0.6060736775
0.07208950818 -0.2155615389 0.7255696058 0.6800711155 -0.4773033857 0.5535808206
0.04604002088 -0.2121165097 0.7456019521 0.2508219481 -0.5621774197 0.7863146663
0.0002352003939 -0.1873422563 0.7564310431 -0.5216750503 -0.5282254815 0.6689718366
0.006858245935 -0.1985910237 0.7507606149 -0.4788558185 -0.559258759 0.6746597886
0.006047573406 -0.1178541332 0.6798176765 0.440949738 -0.5847425461 0.6800461411
0.0001907124533 -0.1146387532 0.6866983175 0.5294622779 -0.5599072576 0.635081768
0.007704801392 -0.1084255502 0.6863520741 0.4432951808 -0.5864319801 0.6773604155
0.01368243527 -0.1022209376 0.6889621615 0.3581624627 -0.6120544672 0.7016897202
0.01390279923 -0.1068589389 0.6858848333 0.3440906107 -0.6123427749 0.7098485827
0.01972531341 -0.1108575985 0.6797510386 0.2584039569 -0.6214545965 0.7388641238
0.01938174292 -0.1044178084 0.6846108437 0.259765327 -0.6213076711 0.7361896634
0.06092971936 -0.09796899557 0.6957364678 -0.4217420518 -0.5818603635 0.6942050457
0.0574461557 -0.09209718555 0.6989048719 -0.3799153268 -0.619809866 0.6858650446
0.06694839895 -0.09883425385 0.6989082694 -0.4708890617 -0.5506727695 0.6887713075
0.07297113538 -0.09651426226 0.6975564361 -0.2900518179 -0.6619131565 0.5978620052
0.08073285967 -0.09720902145 0.6959540248 -0.1402766556 -0.7445918918 0.5207818747
0.09151066095 -0.09885606915 0.6925758719 0.08116446435 -0.8662291169 0.4095292687
0.05516276881 -0.09577898681 0.6940510869 -0.3602892458 -0.6054496169 0.7085489631
0.05753815547 -0.1012103409 0.6902489066 -0.3842630088 -0.580937326 0.7111606598
0.07114882022 -0.1059149578 0.6889489889 -0.3021608889 -0.638104856 0.609289825
0.07518135011 -0.1006134972 0.6928673387 -0.2248857468 -0.6915875077 0.5690389276
0.08196021616 -0.1026512831 0.6904377937 -0.09787788242 -0.7587561607 0.5030183792
0.06674006581 -0.1009819806 0.6934997439 -0.3838088214 -0.6019122005 0.6516860723
-0.006841522641 -0.1113399565 0.6970511079 0.6529848576 -0.5174959898 0.5505992174
-0.002022903645 -0.1111985892 0.6923280954 0.5842619538 -0.5480334759 0.5939424634
-0.006953374483 -0.1153984591 0.6928829551 0.6553270817 -0.5149139762 0.5515083671
0.03479547799 -0.1373359263 0.6537533998 -0.04393842444 -0.6947883964 0.7167549133
0.02888061292 -0.1399434358 0.6516926885 0.08455700427 -0.675711453 0.7186803222
0.03245786577 -0.1452647895 0.6403733492 0.020907728 -0.6657001972 0.7420440912
0.02701617777 -0.1435317397 0.6465784311 0.1262488663 -0.6497716904 0.7454499006
0.0346295014 -0.140707165 0.6476029754 -0.05463431776 -0.6792427301 0.7300513387
0.04259937629 -0.1400444061 0.6505713463 -0.1709762961 -0.6640687585 0.7252152562
0.07137389481 -0.1444803476 0.6678680778 -0.5203509927 -0.4708453119 0.7034756541
0.06231196225 -0.1226219609 0.6778073311 -0.4808041453 -0.5686151981 0.6576639414
0.07344071567 -0.118990846 0.6760805845 -0.1421555579 -0.5753995776 0.6464496255
0.06726682931 -0.1193147972 0.6771354675 -0.3084923923 -0.5788314939 0.6571986079
0.08370155096 -0.1201800182 0.6736065149 0.1055265665 -0.5657809377 0.6264975667
0.05738239363 -0.1198927984 0.6750289202 -0.3914622962 -0.5952949524 0.6983374357
0.08648059517 -0.1945992112 0.7124121189 0.863740921 -0.3707047701 0.3356716037
0.0884834528 -0.1936149895 0.7072985768 0.8648118973 -0.3690401316 0.3343684971
0.08783052862 -0.1858422607 0.7140116096 0.8581100106 -0.3659510612 0.3597477078
0.0899554044 -0.2014715225 0.708481431 0.8469712734 -0.379311502 0.3724411726
0.09268531948 -0.1955448687 0.7120509148 0.8482527137 -0.3752542436 0.3734976649
0.004915561527 -0.1375991702 0.6627548337 0.4721149504 -0.5714006424 0.6698178053
-0.01245409437 -0.1472447813 0.6732733846 0.7073192596 -0.4309103787 0.5601576567
-0.01645981893 -0.1466249973 0.6796017289 0.735616982 -0.4249192178 0.5269600749
-0.01687735505 -0.152431488 0.6753001809 0.7232561111 -0.4227541685 0.5455852747
-0.007790725678 -0.1447209716 0.6689793468 0.6679926515 -0.4565991461 0.5861510038
-0.01077191066 -0.1535380334 0.6660695672 0.6778188944 -0.438249886 0.5897510648
-0.00266450434 -0.1401746273 0.6673155427 0.5968539119 -0.5143694878 0.6137420535
0.001018738723 -0.1430305839 0.6615991592 0.5323432088 -0.5307777524 0.6574727297
0.03834852576 -0.09347483516 0.6913086176 -0.05336363614 -0.6664158106 0.7395520806
0.04453916103 -0.09050516784 0.6945480704 -0.1548483223 -0.6761802435 0.7192887068
0.03653169423 -0.08804522455 0.6963896155 -0.0319037661 -0.6826550961 0.7286093831
0.03183078766 -0.09251494706 0.6927172542 0.06530853361 -0.6675061584 0.7357033491
0.02699465863 -0.08820427954 0.6969505548 0.1374082416 -0.6675422192 0.7291791439
0.02534164488 -0.09325307608 0.6933637261 0.1883850545 -0.6536166668 0.7320456505
0.02103317156 -0.09831724316 0.6883926392 0.2470029294 -0.6338047385 0.7304905653
0.028250359 -0.1010834649 0.6863018274 0.1189408824 -0.6374723911 0.7551789284
0.03456164151 -0.1011845469 0.6850585341 0.005328613333 -0.6381006837 0.7685521245
0.07541181147 -0.1215425506 0.6918618083 -0.6181181669 -0.4780533314 0.6225785017
0.06750737876 -0.1172162667 0.6864267588 -0.546253562 -0.5250229239 0.6498375535
0.06181005761 -0.1105937511 0.6862528324 -0.4675309062 -0.5454812646 0.6934218407
0.05781985074 -0.1123787314 0.6826232076 -0.3937556446 -0.5768913031 0.7133198977
0.06370225549 -0.1169543564 0.6813673377 -0.4633173048 -0.5628761053 0.6637615561
0.08796745539 -0.1168090701 0.6754933596 0.2213647813 -0.5584774017 0.6214886308
0.07365432382 -0.115284048 0.6814779639 -0.2290517539 -0.5463422537 0.6478431225
0.08832968771 -0.1049827114 0.6869090199 0.08629430085 -0.7536066771 0.4924444258
0.09706642479 -0.1095183268 0.6804817915 0.373481065 -0.7075281143 0.5057761669
0.09715537727 -0.1140069962 0.6756479144 0.4550985396 -0.6149509549 0.5697854757
0.08204748482 -0.1128445715 0.6795912385 0.07682535797 -0.556117475 0.6427863836
0.08106442541 -0.1073733717 0.6856392622 -0.04336451367 -0.6641576886 0.5699597597
0.09525582194 -0.1027994007 0.6880167127 0.2115969658 -0.8368951678 0.419923991
0.09107762575 -0.1099814922 0.6810531616 0.2398995608 -0.6650497913 0.5479983091
0.07642158121 -0.1102016494 0.6834318638 -0.1031851694 -0.5800309181 0.6381947398
0.0858611539 -0.1365778148 0.6950901151 -0.4889686406 -0.5258135796 0.5776934624
0.08661302924 -0.1489701271 0.6998656988 -0.1133155301 -0.4900848567 0.5050166845
0.08940179646 -0.1606011093 0.7075234652 0.3429275751 -0.3690788448 0.5345497727
0.08997346461 -0.1440913528 0.7035596967 -0.07923937589 -0.3506111503 0.7052006721
0.08856690675 -0.1646535099 0.6953098178 0.2834315002 -0.5165583491 0.5927932262
0.08624508977 -0.1421341449 0.6889324188 -0.4069317281 -0.5863569379 0.6389067173
0.08907669783 -0.1748544276 0.7086250782 0.6884598732 -0.4021283984 0.4233294129
0.08794973046 -0.1618267745 0.7007758021 0.2522509098 -0.4755477607 0.5092846155
0.08627413958 -0.1447977126 0.6944112182 -0.2834504843 -0.5405766964 0.5661289096
0.0881857574 -0.1661044657 0.7059314847 0.4183085263 -0.4309614897 0.4443196654
0.08737871796 -0.1540499032 0.6941331029 -0.02546988614 -0.5349195004 0.5884833932
0.09169831872 -0.1491947323 0.7040548325 0.03931916133 -0.3681002557 0.6670178175
0.09336029738 -0.1647740901 0.709923923 0.4672139883 -0.3612734377 0.5101467967
0.0909518823 -0.1578140408 0.6972598433 0.1530468315 -0.4713299274 0.6503747106
0.09063123912 -0.1386741251 0.7004244924 -0.2455556989 -0.3691623807 0.7706254721
0.09413284808 -0.173226729 0.7123296857 0.6898329258 -0.3658655882 0.4304743707
0.09239954501 -0.1554935277 0.7066042423 0.214480713 -0.3634594083 0.6023613214
0.08921618015 -0.1536188573 0.6879144311 -0.05728913099 -0.5559101105 0.7468563914
0.0924911052 -0.1431986541 0.6854799986 -0.04791750386 -0.5131778121 0.7503358126
0.09022944421 -0.1535145193 0.6806195378 0.0002398848301 -0.6163622141 0.7495896816
0.09631451219 -0.1409847885 0.680780232 0.1588609368 -0.5196681023 0.6962497234
0.1025074869 -0.1338558495 0.6761735678 0.42672804 -0.4880782068 0.6215232015
0.09853218496 -0.1336729228 0.6831679344 0.164703086 -0.4518035352 0.6867905259
0.091035299 -0.1382960826 0.6921436787 -0.2354032695 -0.4424315095 0.7918158174
0.09330874681 -0.1305116713 0.6950216889 -0.2354573607 -0.3725150824 0.7772122025
0.1071985662 -0.1285579503 0.6739646196 0.6272954345 -0.488112092 0.5206303
0.1036000028 -0.1284748018 0.6801150441 0.3920102119 -0.4544050992 0.582983315
0.08955007046 -0.1289277822 0.7007157207 -0.3969977796 -0.3808929026 0.831605792
0.09760876745 -0.1258718371 0.6928411722 0.04381327331 -0.3918973804 0.6803799868
0.09764171392 -0.1206853613 0.697668612 0.2147255838 -0.3865185678 0.6753107905
0.1079441607 -0.1231404096 0.6790530682 0.5777771473 -0.4614654183 0.4708913565
0.1039847732 -0.1192190424 0.6890089512 0.5355674624 -0.4294411838 0.5469215512
0.1008439809 -0.1260483563 0.6875547171 0.1772460043 -0.4147894979 0.6156821847
0.1025520116 -0.1166733503 0.6936716437 0.5571138859 -0.416634053 0.5734763145
0.1021503955 -0.1122389659 0.6984792948 0.6847494841 -0.4090194404 0.5777571201
0.1079908907 -0.1177092046 0.6839532256 0.751926899 -0.4533807039 0.466060698
0.09158618003 -0.1033824757 0.7031577826 0.3511387408 -0.2153163105 0.8258814812
0.08815989643 -0.1024162844 0.708630383 0.1195927113 -0.2344763279 0.8764455318
0.09808087349 -0.1086136252 0.7034935951 0.5215050578 -0.3852381408 0.666457355
-0.01718315482 -0.2027636021 0.7238235474 -0.7434629798 -0.3752236962 0.5531295538
-0.02026557736 -0.1983202845 0.7261871696 -0.7575541735 -0.3659935296 0.5397418141
-0.01478894055 -0.1986536235 0.7300195694 -0.7384264469 -0.3636650443 0.5672655702
0.0392988883 -0.2109732926 0.747358799 0.1422445327 -0.5575575233 0.8154294491
0.04422382638 -0.2194619775 0.7402826548 0.220821932 -0.5546497107 0.7927594781
-0.02205996774 -0.1898341328 0.7224982977 -0.7687350512 -0.3576531112 0.5296165347
0.07768341899 -0.1964147091 0.7311111093 0.7748022079 -0.4093694091 0.4762195647
0.07382778823 -0.1991527528 0.7347370982 0.7025385499 -0.4536631703 0.5449602604
0.06383763254 -0.1992848665 0.7450690269 0.5408968925 -0.5281378031 0.6426936388
0.07262186706 -0.1964430213 0.7402889132 0.6620534062 -0.4818737805 0.572876513
0.07731290907 -0.1908009946 0.7401605844 0.7058198452 -0.4567722678 0.5369629264
0.08072419465 -0.1896902472 0.7360938787 0.7614212632 -0.4219266772 0.4897937477
-0.00381393102 -0.1788911819 0.7539408803 -0.5679401159 -0.4862871766 0.6517740488
-0.003032418434 -0.1954197884 0.7468041778 -0.5843220949 -0.5080028772 0.6316947341
0.0006841855939 -0.1997992694 0.7463849783 -0.5658842921 -0.4998055995 0.6548057795
0.0850064531 -0.1909733415 0.7179198861 0.8457486629 -0.3734391928 0.3792307377
0.08488872647 -0.191265434 0.7264328599 0.8223671317 -0.3854137659 0.4172310531
0.09424424171 -0.1866562217 0.7196641564 0.8444435 -0.3708497882 0.3854904771
0.08956857771 -0.1898103356 0.7219420671 0.83746171 -0.3757388592 0.3957943022
0.08562211692 -0.1977434009 0.7188258767 0.8370922804 -0.3813020885 0.391902864
0.09158034623 -0.192444846 0.7171660066 0.8444324136 -0.3749026656 0.3820692599
0.002535661682 -0.1495732069 0.6553518176 0.5202292204 -0.5197160244 0.6765312552
0.01008237153 -0.146329388 0.6530442834 0.3975471854 -0.5728891492 0.7046075463
0.01694783382 -0.1452559233 0.6499667764 0.2901767194 -0.606880188 0.7328993082
0.005666546524 -0.1444239169 0.6569738984 0.4636725783 -0.5654418468 0.6805993915
0.0732825771 -0.2045351118 0.7310931683 0.7124723196 -0.4446667135 0.5388904214
0.06703945994 -0.214661628 0.7303632498 0.6275504827 -0.5008535385 0.591841042
0.08058255166 -0.2006165236 0.7213374972 0.818667531 -0.393986553 0.4134324789
0.07777029276 -0.2041616738 0.7250828743 0.7993731499 -0.3950526416 0.4520055354
0.07529022545 -0.2098428309 0.7256608605 0.7276782393 -0.4460812807 0.5166573524
0.02469182946 -0.2142759115 0.7460950613 -0.1383088529 -0.4989751875 0.8540412188
0.03119205311 -0.2130792737 0.7465311289 0.006748523097 -0.5468418002 0.827559948
0.0139947962 -0.2057922482 0.7488954663 -0.3161432445 -0.5633314848 0.7567328811
0.0186180789 -0.2113769203 0.7464740872 -0.2214800715 -0.539254725 0.8104983568
0.01892807521 -0.2239026278 0.7436047792 -0.2108422816 -0.5401483178 0.8135668039
0.0268130023 -0.2079295367 0.7502237558 -0.09596654028 -0.5780526996 0.8025841117
0.02077543549 -0.2047899663 0.7520298362 -0.1967958957 -0.5929424167 0.7785387039
0.04932086915 -0.2054882944 0.7484232187 0.2915239334 -0.5689074397 0.7594953775
0.05515367538 -0.2058712095 0.7465577126 0.3860631585 -0.5640563965 0.7297277451
-0.007110100705 -0.1929641068 0.7400174141 -0.6466478109 -0.4646642804 0.5969911218
0.004353148863 -0.2040153593 0.7453624606 -0.4946859181 -0.4985789061 0.709769845
-0.002453264315 -0.2039438337 0.7419265509 -0.5764903426 -0.4534339309 0.6790787578
-0.01035985909 -0.1992355287 0.7352359295 -0.6947181225 -0.4075844288 0.5912709832
-0.01011987031 -0.1904898584 0.7442098856 -0.6467825174 -0.4615771472 0.6049223542
-0.01121263206 -0.1856007278 0.7480708361 -0.6302756667 -0.481293112 0.6070146561
-0.01346846018 -0.1915921718 0.7369155288 -0.7245158553 -0.3906097412 0.5650458336
-0.004647554364 -0.1889091134 0.7517323494 -0.580756247 -0.5210797787 0.6252242327
-0.004329331219 -0.1890029162 0.7458611131 -0.6219879389 -0.4871273637 0.6097341776
-0.01120623574 -0.1818434745 0.752895534 -0.604280293 -0.4990183711 0.6205161214
0.0009732174221 -0.1913497895 0.7505255938 -0.5466919541 -0.5313610435 0.6406103969
0.06182293966 -0.2171753943 0.7335167527 0.5401031971 -0.5287492275 0.6510868073
0.05740808323 -0.215852648 0.7370129824 0.4571817815 -0.5478573442 0.6988168955
0.05834450573 -0.2092633694 0.7422204614 0.4667306542 -0.5429283381 0.6919167042
0.06377997249 -0.2062018514 0.7403929234 0.5455669761 -0.5180689692 0.6521726251
0.06250506639 -0.2110296935 0.7371426225 0.5349499583 -0.521561265 0.6585943699
