# .PCD v0.7 - Point Cloud Data file format
VERSION 0.7
FIELDS x y z normal_x normal_y normal_z
SIZE 4 4 4 4 4 4
TYPE F F F F F F
COUNT 1 1 1 1 1 1
WIDTH 512
HEIGHT 1
VIEWPOINT 0 0 0 1 0 0 0
POINTS 512
DATA ascii
-0.02632646449 -0.03253525496 0.6276925802 0.2731933892 0.7350922227 -0.6141911745
-0.03342687339 -0.03024019115 0.6280270815 0.1487079114 0.7631822824 -0.6219576597
-0.0004392541014 -0.1631549597 0.6352472901 0.6763782501 -0.5418560505 0.4974691868
0.004161367659 -0.1588879526 0.6312268376 0.6989449859 -0.5216624737 0.4866535664
-0.07936484367 -0.03972091898 0.6346898675 -0.4938684404 0.6635165811 -0.5594354272
-0.07465660572 -0.03642579168 0.6348478794 -0.4721293151 0.6873193383 -0.5518918037
-0.08203959465 -0.04070705175 0.6404656172 -0.5023473501 0.651386261 -0.5676884055
-0.08536985517 -0.0452360101 0.6272211671 -0.515126586 0.6317380071 -0.5760145187
-0.07201825827 -0.03812172636 0.6297334433 -0.454075098 0.6829687357 -0.5717989802
-0.06906952709 -0.08165751398 0.5800011754 -0.4184701145 0.6006605625 -0.6802005768
-0.06228300184 -0.08279601485 0.576728642 -0.3032425046 0.6272987723 -0.7076060176
0.01042240392 -0.06205544993 0.612903595 0.2661046088 0.5865083933 -0.5651986599
0.005732002668 -0.05874086171 0.6178753376 0.4886699617 0.5497102141 -0.5498713255
0.03437178582 -0.06367535144 0.6107307076 -0.3851335645 0.6371003985 -0.5836199522
0.02187200822 -0.06518480927 0.6097316146 -0.05916671082 0.613734901 -0.5833910108
0.0386017561 -0.06680265069 0.6084030271 -0.4856456518 0.6404864192 -0.5945411921
-0.05462740734 -0.03360871598 0.6242451668 -0.2205715179 0.729771018 -0.6440345645
-0.05695135146 -0.02994423732 0.6293596029 -0.2566645443 0.7415438294 -0.6154845357
-0.04888864979 -0.02931817248 0.6277713776 -0.09826744348 0.7574589849 -0.6383931041
-0.04969700053 -0.1165129989 0.706319809 -0.1489343941 -0.6481940746 0.7407038212
-0.05126706511 -0.1216543093 0.7016538978 -0.2001633793 -0.6740486622 0.7049050331
0.001674303436 -0.1282448471 0.6699773669 0.6113702059 -0.5827302337 0.5353057384
0.01232130732 -0.07149760425 0.6280145049 0.405369997 0.5580983758 -0.7224311233
0.008883791044 -0.06422115862 0.6289517879 0.5093014836 0.5341759324 -0.6687338948
-0.03881381452 -0.03261290491 0.6236763597 0.03586292267 0.7544603348 -0.6515750289
-0.04057128727 -0.0284043923 0.6281242371 0.02249933593 0.7808644176 -0.6202443838
-0.07362986356 -0.1107888073 0.7002703547 -0.4713353217 -0.6338288784 0.6115229726
-0.06285752356 -0.1111260206 0.7060146332 -0.3221046031 -0.6470578909 0.6897794008
-0.09106758237 -0.1305592209 0.6527864337 -0.7938117981 -0.4368032515 0.4220363498
-0.07929541916 -0.1285030544 0.6751754284 -0.6458385587 -0.5535957813 0.5234087706
-0.06993604451 -0.1371675134 0.67469275 -0.4937891066 -0.6230075955 0.6007087827
-0.07528652251 -0.1284199208 0.6801553369 -0.5780533552 -0.5973300934 0.5542678237
-0.06418790668 -0.03421585262 0.6279940605 -0.3827901781 0.7033652067 -0.5979107618
-0.06870995462 -0.04194260016 0.6239621043 -0.415175736 0.6636275649 -0.6204522848
0.01547699608 -0.06650685519 0.6363605857 0.279273212 0.5508292913 -0.7767729163
0.01038058102 -0.05755550042 0.6372622252 0.3602861166 0.5662090182 -0.7240866423
0.006082377397 -0.05154258013 0.6367679834 0.4700993299 0.5617187023 -0.6805616021
0.01494821534 -0.05998588726 0.6417289972 0.2269948125 0.5699308515 -0.7788293362
0.01177774742 -0.05402315781 0.6424080729 0.2940719128 0.5677890778 -0.745277226
0.03778161854 -0.06601113081 0.6203577518 -0.4149304032 0.6696949601 -0.6046170592
0.03177644685 -0.06252223998 0.6307165027 -0.3139157593 0.7154413462 -0.6217099428
0.007988992147 -0.04626283795 0.6428126097 0.3724165261 0.570623517 -0.6917059422
0.0214785859 -0.06391173601 0.6406407356 -0.05914080516 0.6022689939 -0.7832813859
0.02572315559 -0.06081694737 0.6355472207 -0.2310300916 0.6598021984 -0.7092269659
-0.03691803664 -0.1210375503 0.7034711242 0.04239458218 -0.6991394758 0.7105804086
-0.04252843186 -0.1170298532 0.7065671086 -0.0472294949 -0.6594877839 0.7492831349
-0.04434895515 -0.1212248802 0.7033436894 -0.06271660328 -0.676075995 0.7331369519
-0.02544133551 -0.1178581566 0.7035621405 0.1186673343 -0.7078283429 0.6955900192
0.003974364605 -0.06868437678 0.6160843968 0.6777839065 0.5208052993 -0.5170729756
0.006706069689 -0.06721669436 0.6223481297 0.656001687 0.4819327891 -0.5800643563
-0.002521664137 -0.05725923926 0.6169376969 0.6070650816 0.5649954677 -0.5565609336
0.009533679113 -0.07273231447 0.6216579676 0.6459769011 0.4979203045 -0.5741547942
0.00760343764 -0.07528600842 0.6153942943 0.6513543725 0.574899137 -0.4926168323
0.01942051388 -0.07077560574 0.6329053044 0.1617869735 0.6160544753 -0.6754118204
0.02508058213 -0.06677093357 0.631939292 -0.05592941493 0.6698718071 -0.6416210532
0.0176713746 -0.07931578159 0.6202743649 0.4281694889 0.6201606393 -0.5229998827
0.04020482302 -0.0703176111 0.614067018 -0.4153369367 0.6364091039 -0.5918545127
0.02685877308 -0.07024813443 0.6247157454 -0.019697804 0.6681430936 -0.5781945586
0.03386715055 -0.07408990711 0.6142095923 -0.1541914493 0.6223286986 -0.5662520528
0.02072002366 -0.07519648224 0.6231821179 0.25817433 0.6445886493 -0.5468931198
0.03392963111 -0.07002577186 0.6194086671 -0.2343011647 0.6533154845 -0.5867336988
0.02569573745 -0.07434729487 0.6203421354 0.09382206947 0.6394609809 -0.5563818216
0.003994240891 -0.1494072229 0.6417161822 0.7369131446 -0.4948225915 0.4604076743
0.007409380283 -0.1398382187 0.6449130774 0.7583932281 -0.4856175482 0.4342502952
-0.06442340463 -0.1717326492 0.6454859972 -0.3660152853 -0.6627338529 0.6398184896
-0.06992024183 -0.155085966 0.65657866 -0.4465072155 -0.6208286881 0.6410101652
-0.06906116009 -0.1319218129 0.6812754869 -0.4703047574 -0.6402997971 0.6033115983
-0.06844809651 -0.1278916597 0.6867282987 -0.4665368795 -0.6463745236 0.6017739773
-0.05580286309 -0.1232699156 0.6983223557 -0.2709369957 -0.6768735647 0.6830293536
-0.05588225275 -0.1167934164 0.7046937943 -0.2549212277 -0.6509597898 0.7148147225
-0.06029739976 -0.1193473339 0.6993257999 -0.3258064985 -0.6640366912 0.6681711674
-0.08479236811 -0.116741471 0.6790150404 -0.6882826686 -0.5201147795 0.5027842522
-0.09714458883 -0.1290812492 0.6429716945 -0.821572721 -0.3893327713 0.4152835608
-0.09599728137 -0.1230707392 0.6491763592 -0.8086864352 -0.4267957807 0.403907299
-0.1052308008 -0.1158403084 0.5928352475 -0.9161399007 0.3794259131 0.1119368374
-0.1030066237 -0.1110178679 0.5976683497 -0.8661119342 0.3984491229 0.02776744589
-0.09634245187 -0.09632229805 0.6017133594 -0.7556146383 0.4817495346 -0.2885405719
-0.09848684818 -0.101586096 0.5986517668 -0.7971204519 0.4591251612 -0.1868954152
-0.07390438765 -0.1390565038 0.66956985 -0.5658961535 -0.5935364962 0.5681131482
-0.0641239956 -0.1379437447 0.6799550653 -0.38780123 -0.6707764864 0.631601572
-0.06365578622 -0.1330519766 0.6857246757 -0.3808481097 -0.6779212952 0.6278612018
-0.09176167101 -0.118519716 0.662994206 -0.771856904 -0.4677601755 0.4290568233
-0.09401068836 -0.1240097359 0.6570193768 -0.8012288809 -0.4373527765 0.4082000852
-0.0759543106 -0.04553929344 0.6261941791 -0.4879474938 0.6515843272 -0.5803428888
-0.07968825847 -0.0462541692 0.6304270029 -0.5059059262 0.6428202987 -0.5738720298
-0.0116197234 -0.1696848571 0.642855227 0.5167859793 -0.6378593445 0.5636224747
-0.01418764703 -0.1662088484 0.6477612257 0.4666728079 -0.6450714469 0.6007245779
-0.02843716368 -0.1728880703 0.6475520134 0.2159020901 -0.7045975924 0.6599450111
-0.01983402669 -0.1714729816 0.6472700834 0.3634701967 -0.6866213083 0.625097096
-0.006219944917 -0.1659845263 0.6410911679 0.6212593913 -0.5830144882 0.5215211511
-0.00711936783 -0.1534978151 0.6523291469 0.5749858618 -0.5790756345 0.5770730376
-0.03542232141 -0.08091446757 0.5743855238 0.1406905353 0.6384555697 -0.7551551461
-0.04478126392 -0.08013007045 0.5746451616 -0.04339167848 0.6462581754 -0.7610387206
0.006330403499 -0.05675230548 0.6320247054 0.5080718398 0.554133594 -0.6543805003
0.03806034476 -0.05921287462 0.6187419295 -0.4105585515 0.6956937909 -0.5829547048
0.03489648551 -0.0613925904 0.6248828173 -0.3603438139 0.710516572 -0.5978990793
0.04129948094 -0.06366165727 0.6131572127 -0.4878256321 0.6502377987 -0.5783965588
0.03029012308 -0.06057678536 0.6141987443 -0.2322915047 0.6375553012 -0.567022562
0.01834340021 -0.05933325365 0.6163688898 0.1240762845 0.6008163095 -0.5564447641
0.02368056215 -0.0574102886 0.6184968948 -0.0115948189 0.6712672114 -0.5497906208
0.03298845887 -0.05556244403 0.6217858791 -0.2930832505 0.7666987777 -0.5595678687
0.01163475215 -0.0575747937 0.6191464663 0.3293572068 0.6041648984 -0.5479570031
0.002011426724 -0.04240956903 0.6412478685 0.5032226443 0.5945311785 -0.6229346395
0.01254901942 -0.04803362489 0.6381533146 0.2333116382 0.5871936083 -0.6901531816
0.01973137446 -0.05171666294 0.6336738467 0.0005439368542 0.6142989397 -0.6991117597
0.01286647841 -0.06773716211 0.6089972854 0.2659693062 0.567773819 -0.5558825135
0.005942930467 -0.06652070582 0.6099891067 0.4395690262 0.5580760241 -0.5520028472
0.01248198934 -0.07275083661 0.6044996977 0.3157721758 0.5246593952 -0.6343942285
0.02043180354 -0.07334543765 0.6031507254 0.07079930604 0.5434068441 -0.6727415323
0.02761676721 -0.07246352732 0.6033632755 -0.1550513804 0.5720895529 -0.6774277091
0.0304092709 -0.06785910577 0.607744813 -0.2561819851 0.6184852123 -0.5892548561
-0.07600054145 -0.05727206916 0.6139731407 -0.5040790439 0.6100707054 -0.6091823578
-0.0811136961 -0.05523760244 0.6170440316 -0.5213284492 0.6047883034 -0.599347651
-0.08784244955 -0.05492297187 0.6198331714 -0.5672653317 0.5867225528 -0.5775241256
0.02573827468 -0.09530583024 0.6000810266 -0.175594151 0.637994647 -0.7458413243
0.03358929977 -0.07670204341 0.5996944904 -0.2890366018 0.5823844671 -0.7495942116
0.02164596878 -0.081050165 0.6156287193 0.2589673698 0.6168808937 -0.5632091165
0.03895153105 -0.0793486312 0.6049094796 -0.4084261358 0.6233616471 -0.6560393572
0.03077022173 -0.08263446391 0.6080109477 -0.1324018538 0.6100460291 -0.6415938735
0.02914378606 -0.08782331645 0.6050338149 -0.1497098655 0.5886602998 -0.6925346851
0.02984911203 -0.07815551013 0.6122020483 -0.02415845729 0.6285796762 -0.5824382901
0.03576628864 -0.08419929445 0.600420773 -0.3481722474 0.576413393 -0.7381676435
0.0424628295 -0.0733640343 0.6079371572 -0.4652989507 0.6355114579 -0.6080362201
0.01688813046 -0.1222213954 0.6209346652 0.4367193282 -0.03392701223 -0.02288852073
0.02230368927 -0.1016193777 0.6041205525 -0.0198914092 0.5238417983 -0.6024378538
0.01673476212 -0.113119401 0.6112467051 0.24172391 0.2888882756 -0.3367447555
0.01594686136 -0.1280615032 0.6262280345 0.5645847917 -0.2098591924 0.1548833251
0.01778556034 -0.1170615926 0.6167308688 0.3296144009 0.1116352156 -0.1703812629
0.01961663179 -0.1074252948 0.6084843278 0.1214089543 0.3889941871 -0.4527025819
-0.003037892282 -0.15959692 0.6403349042 0.6652243137 -0.5310469866 0.5157831311
-0.006472600158 -0.1599089354 0.6446893215 0.6105185747 -0.5644416213 0.5449629426
0.00688432809 -0.1485794485 0.6347056031 0.7360257506 -0.4930996597 0.463727504
0.003448045813 -0.1558636576 0.6376811266 0.7215262651 -0.5044063926 0.4739775658
-0.0006552259438 -0.1548558027 0.6438187957 0.6977825165 -0.5145838261 0.4953635335
0.00330323237 -0.1401175559 0.6515082121 0.7243521214 -0.5219401121 0.4471899867
0.003178433049 -0.1354724616 0.6572074294 0.6840806007 -0.5579074025 0.468506515
-0.06791483611 -0.1425570548 0.6714475751 -0.4535762966 -0.6412345171 0.6148709059
-0.07109768689 -0.1452721655 0.6662074327 -0.497368902 -0.6275606751 0.5948796868
-0.06459958851 -0.1528556943 0.6633951068 -0.3651921749 -0.6710740924 0.6437225938
-0.07077085972 -0.1505523175 0.6620372534 -0.4829162955 -0.6310677528 0.6046218276
-0.1067903191 -0.1333962679 0.6089049578 -0.9526742101 -0.175192669 0.2457403541
-0.03943228349 -0.1256928295 0.6985858083 0.0196668189 -0.7037395239 0.705275476
-0.01205791533 -0.1586890519 0.6520390511 0.5207223296 -0.6131703854 0.5882895589
-0.02270808071 -0.1666942537 0.6518470645 0.3086852729 -0.6804419756 0.659524262
-0.06786049157 -0.1164482832 0.699875474 -0.3901900053 -0.6520024538 0.6453804374
-0.06830407679 -0.1211645529 0.692923367 -0.4402898252 -0.6465162635 0.6209791303
-0.08825989068 -0.04521683231 0.6396846771 -0.5306782126 0.6200380921 -0.5775055885
-0.08774200082 -0.05094686523 0.6367334723 -0.5428137183 0.6105104685 -0.5763678551
-0.09260471165 -0.05849386379 0.6335048676 -0.5794208646 0.5687121749 -0.58167243
-0.09083554149 -0.06319409609 0.6253640652 -0.6124696732 0.5394294858 -0.5760155916
-0.09218036383 -0.0492792502 0.6304420829 -0.5496851802 0.6020547152 -0.5791037083
-0.0931699425 -0.05259745941 0.6370903254 -0.5518757105 0.5957067013 -0.5835404992
-0.0923332274 -0.0564917028 0.6237313151 -0.5901590586 0.5654097795 -0.574680686
-0.0748315081 -0.08601859212 0.5821302533 -0.5042588115 0.6009177566 -0.6133911014
-0.08242505789 -0.08970233053 0.5868057609 -0.5976311564 0.5664805174 -0.5612090826
-0.07252594829 -0.08011440933 0.5854614377 -0.5073957443 0.6090076566 -0.6078509092
-0.06384239346 -0.07716918737 0.5822794437 -0.3521465063 0.6392393708 -0.6810628176
-0.0954343006 -0.1004188284 0.6282166839 -0.7351124883 0.06761875749 -0.08823355287
-0.09340616316 -0.09146973491 0.6197067499 -0.6960063577 0.2964763343 -0.3134835958
-0.09801183641 -0.1222744435 0.6341998577 -0.84769243 -0.2304712832 0.267632544
-0.09580554813 -0.1061075255 0.6341465712 -0.7593621016 -0.07673460245 0.0534179993
-0.09745848179 -0.1170738339 0.6378367543 -0.8150588274 -0.2409919053 0.2430887967
-0.07509980351 -0.1498038173 0.656891048 -0.5654653907 -0.5793529153 0.5770559907
-0.07726035267 -0.1446782351 0.6611408591 -0.6081741452 -0.5733042955 0.5452393889
-0.08515650779 -0.1270533502 0.6691021323 -0.705883801 -0.5162088871 0.4791076183
-0.08825001866 -0.1247376427 0.6631584764 -0.7645023465 -0.4763419628 0.4337593913
-0.0971609056 -0.1185008585 0.6523198485 -0.8069573045 -0.4307437837 0.4037688375
-0.04565469548 -0.1369896382 0.6861504912 -0.07901227474 -0.7265303135 0.6818991899
-0.04826752469 -0.1400533617 0.6823940277 -0.1193146929 -0.7214684486 0.6791350245
-0.05304315314 -0.1361017525 0.68468678 -0.2044948786 -0.7150836587 0.6648976803
-0.0587140508 -0.1412720233 0.6776444912 -0.2947096229 -0.6927693486 0.6547523737
-0.008092827164 -0.1437966079 0.6657038927 0.5482970476 -0.6237214804 0.5569843054
-0.003441333538 -0.133997336 0.6706430316 0.5653657913 -0.6098352075 0.5524829626
0.0009735988569 -0.1346866935 0.6636660695 0.6373359561 -0.5820558071 0.503423214
-0.0087274611 -0.126224637 0.6835304499 0.4759630561 -0.6458683014 0.5943928361
-0.01098169573 -0.0347516574 0.6338551641 0.4672112763 0.6748387814 -0.5698449016
-0.01288818475 -0.03861931339 0.6284375191 0.4762357175 0.6629134417 -0.5757583976
-0.006661117077 -0.03889657557 0.6328864694 0.5122436285 0.6367745399 -0.5754682422
-0.008490909822 -0.04363871738 0.6270390153 0.52648592 0.6239954233 -0.5752655268
-0.001912838081 -0.04131241143 0.6358397603 0.5235333443 0.6097112298 -0.5928808451
-0.0486408174 -0.04607949778 0.6102465391 -0.1146951392 0.727699399 -0.6718631983
-0.053670872 -0.04398307577 0.6137125492 -0.2044169307 0.7127819061 -0.667562604
-0.02341256477 -0.08258636296 0.577347219 0.3351344466 0.5714488626 -0.7459571362
0.01062934007 -0.1446525007 0.6323600411 0.7518027425 -0.4826632142 0.4485711753
0.008169740438 -0.1430964768 0.639649868 0.7506514192 -0.4893805087 0.4434327185
0.01021082047 -0.1500521451 0.6276615262 0.7353799343 -0.489320308 0.4687636495
-0.05871336907 -0.1677378565 0.6536884904 -0.2547348738 -0.672624588 0.691298008
-0.05838613585 -0.1738307774 0.649192214 -0.2438509762 -0.6729584932 0.6934544444
-0.05977764353 -0.1611568183 0.6558269858 -0.3195205629 -0.6601290703 0.6776720285
-0.06566408277 -0.1591600329 0.6550270915 -0.3879519999 -0.6415894628 0.6611819863
-0.100925684 -0.1356932819 0.6189476252 -0.9161579013 -0.2334917188 0.3130725026
-0.07743450999 -0.1691500396 0.6408398747 -0.5437244177 -0.5657028556 0.6045491099
-0.08247406781 -0.165291965 0.6385331154 -0.6240321994 -0.486615479 0.5943704247
-0.09338926524 -0.1346202195 0.640342176 -0.8366840482 -0.3539926708 0.4145391583
-0.08767356724 -0.1366607845 0.6530895829 -0.7758788466 -0.4440408349 0.4458169937
-0.0886297226 -0.130718112 0.6582843661 -0.7769287229 -0.457044065 0.4327403903
-0.0909493044 -0.1343347728 0.6479515433 -0.8039014935 -0.4138162136 0.4256201088
-0.06727256626 -0.1636236459 0.6492512822 -0.4346214533 -0.6271052361 0.6407262087
-0.07124503702 -0.1716241091 0.6430398226 -0.4637458622 -0.6260129213 0.6233443022
-0.1071040258 -0.1394251585 0.6168603897 -0.9196738601 -0.2237397283 0.3094816506
-0.1037196219 -0.1392323971 0.624158442 -0.8920335174 -0.2740751505 0.3525803685
-0.1016021669 -0.1445720196 0.6272105575 -0.8694416881 -0.3067055643 0.3862849474
-0.09977887571 -0.13446486 0.634143889 -0.8598188162 -0.3286072314 0.3864336908
-0.07407896966 -0.1204921529 0.6890897155 -0.5315702558 -0.6109446883 0.5835670233
-0.07938420773 -0.1225575805 0.6808314919 -0.6302078962 -0.5726900697 0.5217380524
-0.04959649965 -0.1318960786 0.6907526851 -0.1493042409 -0.7216584682 0.6721149087
-0.05638379976 -0.1280165017 0.6933602095 -0.2639485598 -0.6920325756 0.6703556776
-0.06361241639 -0.1267063916 0.6916618347 -0.3818180263 -0.6684854031 0.6369808316
-0.0581349656 -0.1313919425 0.688293457 -0.2888210416 -0.6958398819 0.6485980749
-0.04061225802 -0.13382411 0.6893479824 -0.01227304619 -0.7297825217 0.6796278358
-0.0341691561 -0.1350229084 0.6883531809 0.1038435996 -0.7250885963 0.6789596081
-0.02962953225 -0.1389730126 0.6838566661 0.1737274826 -0.7161702514 0.6732141972
-0.04509663954 -0.1274062544 0.6964252591 -0.08424707502 -0.7106986642 0.6980962157
-0.005080976989 -0.1377415061 0.6663996577 0.5827781558 -0.602376163 0.5351299644
-0.009850290604 -0.1341575235 0.6769444346 0.483115375 -0.6439987421 0.5892701149
-0.004603208974 -0.1278387159 0.6782172918 0.52924335 -0.6202136874 0.578386724
-0.01285103336 -0.1302751303 0.6826816201 0.4373173416 -0.6597678661 0.6102920175
-0.008554229513 -0.1383957714 0.6723871827 0.5228150487 -0.6280557513 0.575214088
-0.09136164188 -0.1154368222 0.6692589521 -0.769374609 -0.4608076215 0.4420797825
-0.08415465802 -0.1225294694 0.6740823388 -0.6920084953 -0.5223631263 0.4969318211
-0.09061685205 -0.06049431488 0.6191580296 -0.5965507627 0.5575369 -0.5756729245
-0.08991252631 -0.06750446558 0.6199344993 -0.6270307302 0.524917841 -0.5751368999
-0.08133974671 -0.0828647688 0.5933725238 -0.6148819923 0.575062871 -0.5388311148
-0.08591637015 -0.08767540753 0.5950215459 -0.6368834376 0.5591925979 -0.5300312638
-0.07896200567 -0.08441767097 0.5880911946 -0.5912237167 0.5784463286 -0.5604268909
-0.09675405174 -0.1053829119 0.6242430806 -0.7666223049 0.05967467651 -0.05223034322
-0.09834615141 -0.111446403 0.6377866268 -0.784347415 -0.2052717507 0.1828270406
-0.09975211322 -0.1190153882 0.6288455129 -0.8356277943 -0.1720716506 0.2033230066
-0.1005426273 -0.1212950498 0.6424700618 -0.8326673508 -0.3918225467 0.3817937076
-0.1003976762 -0.1190270185 0.6129060984 -0.8680378795 -0.0227872096 0.08225856721
-0.09388524294 -0.0979488641 0.6075700521 -0.7296082377 0.3537900746 -0.3030282259
-0.0991724357 -0.1166206226 0.617679894 -0.8372060657 -0.02433508448 0.07802595198
-0.0970839113 -0.1083513573 0.6103749871 -0.7974473834 0.1665228903 -0.111615181
-0.09895925969 -0.1135752425 0.6087772846 -0.8399073482 0.0973560065 -0.03769338876
-0.1030937061 -0.1256078333 0.6090273857 -0.9261623621 -0.08291709423 0.1715491712
-0.09710906446 -0.1038568467 0.6042405367 -0.7785463333 0.3552734256 -0.1729351133
-0.09259088337 -0.08544170111 0.6106959581 -0.6748608351 0.5010307431 -0.4795354605
-0.1034924611 -0.1166523695 0.6056826711 -0.8678002954 0.2642955482 0.1570902467
-0.09758298099 -0.1014927924 0.6110451818 -0.7680839896 0.3264530599 -0.15466851
-0.1015516296 -0.1255505085 0.628310442 -0.873482585 -0.237331301 0.3177323043
-0.1017562374 -0.1216559932 0.6214793921 -0.8646957278 -0.07322935015 0.2447586656
-0.09826417267 -0.1091621071 0.6193316579 -0.795978725 0.09651156515 -0.006485342514
-0.09705814719 -0.1035744175 0.6166760325 -0.7687215805 0.2030150145 -0.117380552
-0.0918739289 -0.09261044115 0.6086925268 -0.6883194447 0.4306286871 -0.3841797411
-0.09689683467 -0.114284277 0.6247410774 -0.8046888113 -0.03395672143 0.08045069873
-0.09272540361 -0.09672378749 0.6135420799 -0.7122094631 0.3267709911 -0.2873564065
-0.09387627244 -0.09803579003 0.6188767552 -0.7291144729 0.2457490861 -0.2322446257
-0.1061670259 -0.1246170253 0.602704823 -0.926186204 0.2242084146 0.242945984
-0.1012379751 -0.1271202862 0.6341621876 -0.8637078404 -0.3302226365 0.3781231642
-0.103996098 -0.1324129999 0.6276016235 -0.8925070763 -0.2880693078 0.336255163
-0.1083171964 -0.1320576221 0.6174574494 -0.9299158454 -0.2184758931 0.2804613411
-0.09866033494 -0.135686025 0.6283043623 -0.8847970963 -0.2914025486 0.3610602915
-0.08967456967 -0.09661170095 0.5885105729 -0.7021635771 0.5100769401 -0.433973372
-0.1016729623 -0.1099618077 0.5885641575 -0.870416522 0.4040199518 -0.2095353454
-0.09368982166 -0.1012045667 0.5888049603 -0.7583958507 0.4753151536 -0.3395110369
-0.09046509862 -0.09268859029 0.5953922868 -0.6649830937 0.5353933573 -0.4599354863
-0.09802477062 -0.1068143621 0.5958274007 -0.7813253999 0.4438208044 -0.1164773479
-0.10582003 -0.1197551936 0.5987821221 -0.8990930319 0.3549804091 0.224289462
-0.09363158792 -0.09852015972 0.595705986 -0.713599503 0.4973297119 -0.3167751133
-0.09037940949 -0.08917111158 0.6005646586 -0.6591189504 0.5479710698 -0.4914999008
-0.07981323451 -0.1390482783 0.6637533903 -0.6571223736 -0.5467315912 0.5184752941
-0.08563750982 -0.1311582625 0.6631761193 -0.7295891643 -0.4958789051 0.46501261
-0.0785607025 -0.1336826533 0.6714721322 -0.6321753263 -0.5596788526 0.5336763859
-0.004691433627 -0.1480206549 0.6556742191 0.615880549 -0.582990706 0.5278770924
-0.0008387081907 -0.1426254809 0.6564650536 0.6715538502 -0.5616981983 0.4790122509
-0.07651156932 -0.0524003841 0.6199072003 -0.50726825 0.6110084653 -0.605704248
-0.07230173796 -0.04790140316 0.6202495098 -0.452075243 0.6455812454 -0.6146247387
-0.08160372078 -0.04852763936 0.6227363944 -0.4960114062 0.6261983514 -0.5984133482
-0.09059946239 -0.0497767739 0.6245721579 -0.5393960476 0.6059151292 -0.5837994218
-0.04175512493 -0.044996012 0.610627532 0.01287873928 0.7271527648 -0.6806945205
-0.03094023094 -0.04609998688 0.6109477878 0.197303012 0.7121228576 -0.6685236692
-0.02789983153 -0.1234055459 0.7003619075 0.1280412674 -0.7119783163 0.6899565458
-0.02286854386 -0.1257596016 0.6955051422 0.2555027306 -0.7040169239 0.6616401672
-0.01151530631 -0.1229115799 0.689451158 0.4074556231 -0.6681613326 0.6148135066
-0.01937244087 -0.1204794273 0.6965417266 0.2687489688 -0.7033942342 0.6505250931
-0.0316901356 -0.1176794767 0.7033940554 0.06953138858 -0.6948190331 0.7052078247
-0.03305677325 -0.1265885681 0.6964536309 0.1151652485 -0.7146452069 0.6856369972
-0.0240127705 -0.0443491973 0.6158717871 0.3045414984 0.692537725 -0.6531205773
-0.01923371665 -0.04912964255 0.6129755974 0.3800685704 0.6668797731 -0.6381161213
-0.02453766018 -0.0387102291 0.6215929985 0.2871392071 0.7114755511 -0.6410615444
-0.0283510834 -0.04040258005 0.617549777 0.2192845941 0.7146558166 -0.6627662182
-0.01798101328 -0.04232923687 0.6219632626 0.394950211 0.677321136 -0.6146787405
-0.01992380805 -0.03666928783 0.6263308525 0.3869684041 0.6986770034 -0.5964781642
-0.03138137236 -0.03554695845 0.6226310134 0.1578589082 0.7334413528 -0.6531159878
0.01186163072 -0.08071177453 0.6195247173 0.6054743528 0.6148509979 -0.5047210455
-0.0306622386 -0.05129703134 0.6059659719 0.2014223486 0.7092543244 -0.6697083712
-0.02504323609 -0.04993059114 0.6092255712 0.2774603367 0.6945787072 -0.6615568995
-0.02537564747 -0.05503953621 0.603905499 0.2902897894 0.6895276904 -0.6625998616
-0.06108269468 -0.05417753756 0.6050979495 -0.3359047771 0.7042499185 -0.6180228591
-0.0652391538 -0.05246604234 0.6098854542 -0.3948657513 0.686768353 -0.6089779735
-0.0557641685 -0.04966849089 0.608021915 -0.2355221659 0.7166339159 -0.6526813507
-0.03676388785 -0.07262616605 0.582211256 0.108751215 0.6884253621 -0.7139008641
-0.03979377076 -0.07656738162 0.5787340403 0.04911212623 0.6681933403 -0.7350990772
-0.03222044557 -0.07715880126 0.5786588192 0.1762978733 0.6579821706 -0.7304823399
0.007990283892 -0.07636980712 0.598172307 0.3019343317 0.5542554855 -0.6635579467
0.02214935422 -0.07863948494 0.5964490771 -0.02679872327 0.5311521888 -0.7780276537
0.006277264096 -0.080602929 0.5942037702 0.3507560194 0.5520057678 -0.6579621434
-0.0005757194012 -0.07804594934 0.5950221419 0.4656645358 0.5703970194 -0.6150195599
-0.02477634698 -0.07639106363 0.5820558667 0.2940118313 0.6464127302 -0.7007251382
-0.01773135178 -0.07873773575 0.5833112001 0.4137614965 0.6052939296 -0.6756322384
-0.01207099296 -0.08249028772 0.5841847658 0.5016456246 0.5683050752 -0.6493343711
-0.006368881557 -0.08050777018 0.5913310647 0.5669437647 0.5514233112 -0.6096627116
0.01217362937 -0.1168993711 0.6059367061 0.3136973083 0.3635429144 -0.3730226755
0.01086076349 -0.1094996035 0.6023414731 0.2841638923 0.5580742359 -0.5579898357
0.01337757055 -0.1374151558 0.6245838404 0.6578355432 -0.3131665289 0.2819639146
0.01334758848 -0.1290493459 0.6192817688 0.5219631195 -0.0757497251 0.04698003829
0.01318391692 -0.1235073209 0.6106055975 0.3696006835 0.1662761718 -0.1852100641
0.01351708639 -0.1385650188 0.6301742196 0.735214591 -0.4255865812 0.3863067329
0.01131337322 -0.1166480258 0.6124002934 0.4503825009 0.2641407251 -0.2768670917
0.01113575418 -0.1243527904 0.6171863675 0.5307881832 0.06470351666 -0.08087569475
0.01277489681 -0.1435595453 0.6202699542 0.6799414754 -0.3515001535 0.3342442214
0.01229934581 -0.1370491534 0.6170295477 0.6117478013 -0.180001393 0.1664842218
0.01250058413 -0.1448217928 0.6265384555 0.7366676331 -0.4591065943 0.4330192506
0.01174014993 -0.1294613332 0.6133289337 0.5328555107 0.01887600496 -0.02814504132
-0.0002366230619 -0.08405840397 0.5919950604 0.5311933756 0.5310128927 -0.6307075024
0.0166438669 -0.08234415948 0.5937984586 0.1255521327 0.5127640367 -0.7570624352
-0.04132630676 -0.1735842079 0.6494988203 -0.00693379296 -0.705863893 0.7033731937
-0.03389839455 -0.1714507639 0.6503819823 0.1239518002 -0.7132365108 0.6887357235
-0.03346023336 -0.1621319801 0.6604206562 0.1469748467 -0.6920436621 0.7042303085
-0.03154484555 -0.1667608321 0.6559880972 0.1745467782 -0.6964089274 0.6927326322
-0.02524225786 -0.1625501066 0.6560302377 0.2683855891 -0.6815583706 0.674833715
-0.06545753777 -0.1481250674 0.6673497558 -0.3949607313 -0.6629397273 0.6350942254
-0.04964250326 -0.1478441507 0.6742649078 -0.1476869285 -0.7131103873 0.6829525232
-0.0539479591 -0.1443979442 0.6766719818 -0.2102709115 -0.7081449032 0.6738653183
-0.02897873335 -0.144031629 0.6781557202 0.1899555624 -0.7107232809 0.6754106283
-0.0388472043 -0.1469454467 0.6750330329 0.03221611679 -0.7177484632 0.6890701652
-0.09162517637 -0.1472790837 0.6345795989 -0.7975366712 -0.3518565595 0.4870704412
-0.09532530606 -0.1426086128 0.6293719411 -0.8511790633 -0.307587117 0.4131551683
-0.09388117492 -0.1595932841 0.6346752644 -0.7424380183 -0.3843620121 0.5451500416
-0.09595096856 -0.1535338908 0.6327220798 -0.7961962819 -0.3518923521 0.4825083315
-0.09346790612 -0.1396882385 0.6354293823 -0.8391899467 -0.3356498182 0.4201911986
-0.09055238962 -0.1400077194 0.6410352588 -0.8148270845 -0.3669551909 0.4473281205
-0.093829602 -0.1496079713 0.6291458607 -0.8210974336 -0.328620851 0.4581384361
-0.02112489939 -0.1352850795 0.6840640903 0.3155019581 -0.7031877637 0.6312490702
-0.01395708695 -0.147182107 0.6669054031 0.4741180539 -0.6585806608 0.5840345025
-0.01263129991 -0.1422697157 0.6719052792 0.4846934676 -0.6400947571 0.5936653018
-0.02264461666 -0.1451721936 0.6742556691 0.2881436944 -0.6843903661 0.6630707383
-0.0194362849 -0.1397359073 0.6784240007 0.3929619491 -0.6684081554 0.6308589578
-0.0150045678 -0.1355549544 0.6796706915 0.4267932773 -0.6661578417 0.6108032465
-0.07543962449 -0.1143799871 0.6949512362 -0.5239219666 -0.6081359386 0.5934529305
-0.07995724678 -0.1116065979 0.6931975484 -0.5785700679 -0.5826887488 0.568903923
-0.08016169071 -0.1165932715 0.6862806082 -0.6182943583 -0.5666287541 0.5418334007
-0.05836236104 -0.07613059133 0.5803762674 -0.2520182729 0.6504174471 -0.7135235667
-0.0467396453 -0.06920795888 0.5848615766 -0.05124104396 0.7044938207 -0.7047203779
-0.04565921053 -0.07450698316 0.5800638795 -0.03744950518 0.6865631938 -0.7239865661
-0.05183253437 -0.07592681795 0.5796470046 -0.1487129033 0.6674352884 -0.7255199552
-0.09106107056 -0.07302474976 0.6167055964 -0.6406825185 0.5263582468 -0.558588922
-0.1067567989 -0.1269637942 0.6136270761 -0.9217967391 -0.1161837727 0.2785005569
-0.1047906727 -0.1272556484 0.6203672886 -0.9058724046 -0.1913777441 0.3094916046
-0.01357152313 -0.1552553028 0.6570731997 0.4892736375 -0.6286660433 0.6034151316
-0.02158863284 -0.156399712 0.6622057557 0.3498216867 -0.6724845171 0.6412469745
-0.01823942363 -0.1595443189 0.6555582881 0.4079639912 -0.6501671672 0.6384536028
-0.0832060799 -0.05186374485 0.6284459829 -0.5425406694 0.6047703028 -0.5828335881
-0.0840831399 -0.06021610275 0.6208888888 -0.568610847 0.5710020065 -0.5909400582
-0.08650045842 -0.05725247785 0.6276792288 -0.564496398 0.5834835768 -0.582701683
-0.01722477004 -0.1246146783 0.6920135617 0.3237506747 -0.6921272278 0.6443542838
-0.03242748231 -0.1306195855 0.6920922995 0.1151786149 -0.7229714394 0.675856173
-0.01747863926 -0.130625397 0.6867291927 0.3671767712 -0.6885478497 0.6222550869
-0.02174697816 -0.1294689775 0.6908820868 0.3002397716 -0.6986910105 0.6438350081
-0.02836374752 -0.1335649639 0.6867542267 0.1884678006 -0.7220150828 0.6610822082
-0.008125184104 -0.05676924065 0.6132571101 0.5325824022 0.60920614 -0.5823379755
-0.01438738778 -0.05734958872 0.6078784466 0.4596331716 0.6429222822 -0.6102752686
-0.009461498819 -0.06094946712 0.6088573337 0.5274547338 0.610806942 -0.585252285
-0.003367293859 -0.06263401359 0.6120858788 0.6004778743 0.5678576827 -0.562330246
-0.04472574964 -0.03562464193 0.6206694245 -0.04798322171 0.7469638586 -0.662171483
-0.03667188808 -0.03861410916 0.6196150184 0.08107776195 0.7274380326 -0.6636468768
-0.04227960855 -0.04136689752 0.6155524254 -0.01024967618 0.7321414351 -0.6711027026
-0.03497854993 -0.04270318523 0.6142020226 0.123820439 0.7216461301 -0.6686606407
-0.02239936031 -0.06265907735 0.5976085067 0.3469882309 0.6707097888 -0.654545784
-0.01850933023 -0.06628338248 0.5955277085 0.4036061168 0.6562733054 -0.6354515553
-0.01970051229 -0.05705734342 0.6046977639 0.3818703592 0.6653910875 -0.6377182603
-0.01406774018 -0.0622334592 0.6037191153 0.4515757263 0.6454342604 -0.6157841086
0.003344785888 -0.07281880826 0.6113575101 0.6454658508 0.5772195458 -0.4979739487
-0.004377105739 -0.06790145487 0.6071376801 0.5953754783 0.5806601048 -0.5541130304
0.01468837261 -0.07649708539 0.5992150307 0.1771995425 0.538847208 -0.7044185996
0.00488709705 -0.0736508742 0.6026338339 0.4489093125 0.5443935394 -0.6078119874
-0.005959813949 -0.07642153651 0.5959582329 0.5727880597 0.5841786861 -0.5746058226
-0.0001867721003 -0.07798252255 0.6016229987 0.6132493615 0.5787543058 -0.5344319344
-0.01173576526 -0.0776187703 0.5881664753 0.4931614101 0.5971414447 -0.6312813163
-0.005524368957 -0.08600345999 0.5869556069 0.5708379745 0.5085382462 -0.6441770792
-0.01615807787 -0.08540141582 0.5787486434 0.4275448918 0.5597462654 -0.7073050141
-0.009872662835 -0.08805529028 0.5824338198 0.5022161603 0.5271410346 -0.6782234311
0.02877995931 -0.08093810827 0.5961965919 -0.1782118678 0.514631927 -0.8382911682
0.02708697878 -0.08682905883 0.597247839 -0.1640914977 0.5119199753 -0.8393085003
-0.0466110073 -0.1620215625 0.6591155529 -0.09105810523 -0.6919410229 0.7105610371
-0.05315357447 -0.163893491 0.6555316448 -0.2018959969 -0.680424571 0.7012793422
-0.03381433338 -0.1558983177 0.6652072072 0.1244659573 -0.7183644772 0.6814739108
-0.02520167269 -0.1482347101 0.6700056791 0.2802522182 -0.6982128024 0.6496885419
-0.03400838003 -0.1510366946 0.6709125042 0.1174690574 -0.7129355073 0.6892933846
-0.02740258537 -0.1528541297 0.6662780643 0.2369357944 -0.7046242952 0.6590953469
-0.01257570554 -0.1486146003 0.6612053514 0.4902907908 -0.6348282099 0.5756650567
-0.01893920265 -0.1509094685 0.664268434 0.3903694153 -0.6711947918 0.6245381236
-0.0181868393 -0.1450350881 0.6702392697 0.3896437585 -0.6736101508 0.6240549684
-0.04972345382 -0.1752695143 0.6494553089 -0.1325967461 -0.6889395118 0.709749341
-0.04043798149 -0.1646824777 0.6575473547 0.0174425859 -0.6958796382 0.7116819024
-0.03768793494 -0.1681536585 0.6527526379 0.05447079986 -0.7024865746 0.7050434351
-0.04626647756 -0.1667119712 0.6537687182 -0.0933951512 -0.6965489388 0.704192102
-0.05402588844 -0.1591688544 0.6599572897 -0.2237084806 -0.6843914986 0.6838479042
-0.04016568139 -0.1547389776 0.6670044065 0.01747413911 -0.7215136886 0.6880257726
-0.04677281529 -0.1518625766 0.6704344749 -0.08365064859 -0.7144300938 0.6915720105
-0.04147670791 -0.1411128044 0.6812006235 -0.01331638917 -0.7285241485 0.6813364625
-0.03594534099 -0.1407785118 0.681522429 0.06348665804 -0.7312689424 0.6777823567
-0.04497327656 -0.14507927 0.6771416664 -0.07955473661 -0.7231958508 0.6858226061
-0.0878579244 -0.1466754228 0.6431458592 -0.7597199082 -0.4096722603 0.5042681694
-0.0918508023 -0.1540051699 0.6382027864 -0.7520189881 -0.3867520988 0.5312748551
-0.08465865254 -0.1550253332 0.643845439 -0.6993052959 -0.4594088793 0.5472015738
-0.08947436512 -0.1407945603 0.647577405 -0.7750405669 -0.4184619188 0.4704954624
-0.08028148115 -0.1471112221 0.6543205976 -0.658944428 -0.5394874811 0.523332715
-0.08462042361 -0.143235594 0.6525264382 -0.7015857697 -0.509287715 0.4949967265
-0.0434788987 -0.04890019447 0.6066901088 -0.01964260638 0.7268071771 -0.6837191582
-0.03683778271 -0.0527700074 0.6027222276 0.1051681712 0.7230682373 -0.6766430736
-0.03680301085 -0.04810847342 0.6076752543 0.0979713425 0.7257174253 -0.6783283949
-0.04643442482 -0.05635107681 0.5988832116 -0.06744447351 0.7321516275 -0.6748393178
-0.05322077498 -0.05496107414 0.6011996269 -0.1899469197 0.7315505743 -0.6504895091
-0.03905653581 -0.05637472868 0.5980094075 0.06120835617 0.7207754254 -0.6833420992
-0.04515002668 -0.06243029609 0.5921788216 -0.06339984387 0.7268981338 -0.6835377812
-0.05074834451 -0.06109129265 0.5946205258 -0.1443927437 0.7197000384 -0.6717792153
-0.05698784068 -0.06078025699 0.596683681 -0.250351876 0.7129766941 -0.6491396427
-0.0639815107 -0.0594301559 0.6005513072 -0.3895580471 0.6908897161 -0.6075348854
-0.08216734976 -0.0673019439 0.6101355553 -0.6141065955 0.5639058948 -0.5507188439
-0.0864380151 -0.06198584288 0.6143254638 -0.6051329374 0.5772891045 -0.5470044613
0.001401702408 -0.0517257899 0.6308090687 0.5740625858 0.5493606329 -0.6031235456
0.001685366617 -0.04675023258 0.6365773678 0.5236174464 0.5892882943 -0.6110392213
0.006797228474 -0.04727877676 0.6311775446 0.3568316102 0.6301490664 -0.5901868343
0.01310511213 -0.04980266094 0.6317487955 0.263655901 0.632078588 -0.6014766097
0.02350006811 -0.05393680558 0.6291828156 -0.09799519181 0.6490978003 -0.6655521393
-0.005312677007 -0.05120463297 0.6225053668 0.5767826438 0.5844933391 -0.5674110055
-0.01317243185 -0.04634500667 0.6200461984 0.4742017686 0.6404573917 -0.601303041
-0.007748262025 -0.05247532576 0.6176256537 0.5409397483 0.6073673368 -0.578789413
-0.01332218666 -0.05151408538 0.6142277122 0.468024075 0.6395621896 -0.6069523692
0.001434820588 -0.05335649848 0.6224189401 0.4955192804 0.5921310186 -0.5582838058
0.0005017864751 -0.06304144859 0.6169235706 0.6574193239 0.5284006 -0.5335997939
0.01188936085 -0.05229119584 0.624099791 0.2115652412 0.6628056169 -0.5649808049
0.02775286883 -0.05362592638 0.6239237785 -0.1744588166 0.7503240705 -0.565410018
-0.003017385257 -0.04597070068 0.62984097 0.5488459468 0.5950351357 -0.5832207203
0.01887630485 -0.05210364982 0.6248756647 0.03764729574 0.703567028 -0.568023324
0.004469897598 -0.06179083511 0.624709785 0.6355686188 0.4996688068 -0.5869894624
-0.04941347986 -0.03995684907 0.6171528101 -0.1327403784 0.727091074 -0.6683319211
-0.06207962334 -0.04548336565 0.6159681678 -0.3540070355 0.6821821928 -0.6352818012
-0.05766268447 -0.0406993553 0.6188708544 -0.2716859281 0.7019865513 -0.6525685191
0.004866600502 -0.08394835889 0.6017203927 0.6032553911 0.5671243668 -0.559446156
0.003729346674 -0.07817190886 0.6071704626 0.6293259859 0.5964514017 -0.4972948134
-0.01299273502 -0.07270745188 0.5924472213 0.4777097702 0.6185252666 -0.6232089996
-0.004547060933 -0.07229803503 0.6020404696 0.5952125788 0.5756502748 -0.5586091876
-0.00973288063 -0.06716358662 0.6026661992 0.5144198537 0.6149534583 -0.5909539461
0.003138209926 -0.09095804393 0.5949491858 0.5374945402 0.5498479009 -0.6257996559
-0.0008241630858 -0.09331922233 0.5878155828 0.5577172637 0.4955508113 -0.6583385468
0.00872352533 -0.09735036641 0.6014556885 0.385137707 0.6484705806 -0.6319977641
0.007474252488 -0.0902325362 0.6028227806 0.5015782118 0.6126614809 -0.587064743
0.008229509927 -0.08594581485 0.6086028218 0.5475007892 0.6326661706 -0.5314334631
0.009958840907 -0.1022456735 0.5973736644 0.2397038937 0.660995543 -0.6870744228
0.01234929916 -0.09206295758 0.5926427245 0.2470425516 0.5527647138 -0.7051166892
0.01931942813 -0.09318208694 0.5964109898 0.01138955448 0.6274881959 -0.72107476
0.01338692661 -0.09786352515 0.5958681703 0.1426132619 0.6336143017 -0.7022222877
0.007116477937 -0.09728156775 0.5925812125 0.3519227505 0.5845597982 -0.6726881266
0.007718957029 -0.08770748973 0.5905511379 0.369420141 0.481677264 -0.7258222103
0.01508756261 -0.08449809998 0.6166626811 0.4371457398 0.6291742325 -0.5658737421
0.02165612206 -0.08771181107 0.6100571752 0.143003419 0.6070172191 -0.6392634511
0.01929747313 -0.09230592847 0.6056501269 0.07209664583 0.6591590643 -0.6943228245
0.01807385311 -0.09758565575 0.6020256877 0.01601837762 0.6749862432 -0.714350462
0.01259918138 -0.09066513181 0.6101577878 0.2971699536 0.6739577055 -0.6475419402
0.01053083595 -0.1028160006 0.605237484 0.3312470913 0.6065964699 -0.5945247412
0.01207135897 -0.1167466491 0.6196353436 0.5458379388 0.1175639927 -0.1278675646
0.01099832263 -0.1105334014 0.6094921827 0.4010995328 0.4103047848 -0.4120306671
0.01190917008 -0.1017713994 0.6185625196 0.5049267411 0.3544154167 -0.3352392316
0.01126186922 -0.1053786799 0.6122025251 0.4275888801 0.4300785065 -0.4204968214
0.01301661879 -0.1099254265 0.61692065 0.4272841811 0.2657682598 -0.2724402547
0.01280319504 -0.09554246068 0.6062051654 0.206928432 0.6841937304 -0.6729853153
0.01220044959 -0.09634174407 0.6164408922 0.437348783 0.4732051492 -0.4477895796
0.01001234446 -0.08373019844 0.613522768 0.5071820021 0.6492131352 -0.5581040978
0.01229499746 -0.1009041891 0.6284498572 0.6506740451 0.2342092693 -0.1847872436
0.01229518373 -0.0887421295 0.6216902733 0.5597609282 0.5086429715 -0.4387404025
0.01157365181 -0.1363764852 0.6409062743 0.7733911276 -0.4707738459 0.42449525
0.01271192078 -0.1340857744 0.6357150674 0.7542731762 -0.4069834352 0.366248548
0.01275592577 -0.1216916069 0.6294327378 0.6727180481 -0.1348603219 0.1177742705
0.01305718254 -0.1142721102 0.6273886561 0.6627066731 0.002772913082 0.004246954806
0.01266721264 -0.1043125689 0.6239153743 0.5995529294 0.2157464027 -0.18995592
0.01294475701 -0.09486982971 0.62340343 0.6124504209 0.3715240061 -0.3090296686
0.01182538271 -0.1244819611 0.6369725466 0.7363122702 -0.2372078896 0.2240267843
0.01258789748 -0.1080768704 0.6301192045 0.6844708323 0.08932619542 -0.05623722449
0.01206105761 -0.1170199588 0.634237349 0.7129184008 -0.08985685557 0.0975554809
-0.05746476725 -0.1548603326 0.6645433903 -0.2718637586 -0.6926269531 0.664675653
-0.05845782533 -0.1462910771 0.6720671654 -0.2809443772 -0.6906319261 0.6597800255
-0.0488682501 -0.155302912 0.6656996608 -0.1248589158 -0.7176252007 0.6794120669
-0.05343247578 -0.1515864581 0.6688376069 -0.2007770687 -0.7066864371 0.6749221087
-0.07529963553 -0.1545192748 0.6521267891 -0.5400779843 -0.5737968087 0.6129211783
-0.07306876779 -0.1615911126 0.6477480531 -0.5390547514 -0.5820698142 0.6084598899
-0.08240534365 -0.1462415904 0.6478806138 -0.6709582806 -0.4743395448 0.5310956836
-0.07865542918 -0.1559607834 0.6468821168 -0.6090567112 -0.5249758363 0.587367177
-0.07664008439 -0.1624441743 0.6424027681 -0.5913059711 -0.5375254154 0.5984169245
-0.08202154934 -0.1596707255 0.6384646893 -0.656075418 -0.4729838371 0.5789980888
-0.08686829358 -0.1552067101 0.6349618435 -0.7328006029 -0.3975564241 0.545143187
-0.03826107457 -0.06089802086 0.5935236812 0.07984306663 0.7166386247 -0.6857138872
-0.03604662046 -0.06660354137 0.5878151059 0.1304145753 0.7040715814 -0.6966486573
-0.03196633235 -0.05843497813 0.5969829559 0.1849897802 0.7040332556 -0.6834489107
-0.06803356856 -0.07105995715 0.5908783674 -0.4571008682 0.6426174641 -0.6142196059
-0.05946104974 -0.06504634768 0.5930361748 -0.3012793362 0.6930221915 -0.6462834477
-0.05503095314 -0.06840632856 0.5870348215 -0.1972613484 0.7020773292 -0.68384552
-0.06096080318 -0.06887742877 0.5885230899 -0.3174009025 0.6818761826 -0.6583883762
-0.07567663491 -0.07721750438 0.5916180611 -0.5779420733 0.5907744765 -0.558050096
-0.06654667109 -0.0661567077 0.5945774317 -0.4073109925 0.6730653644 -0.6144399643
-0.08010836691 -0.07666839659 0.5954887271 -0.6216562986 0.5756204724 -0.5308368802
-0.08721550554 -0.08334188163 0.5991899371 -0.6486881375 0.5560137033 -0.519212842
-0.07070712 -0.06204146519 0.6026078463 -0.4866991639 0.6536152363 -0.5753433704
-0.07662060112 -0.06253700703 0.6084678173 -0.5601099133 0.5971764922 -0.5731533766
-0.07202461362 -0.05865399539 0.6081070304 -0.5057906508 0.6420401931 -0.575763762
-0.08503281325 -0.07698059827 0.6026149392 -0.6501947045 0.5607742071 -0.5124582052
-0.08833334595 -0.07449508458 0.6110749841 -0.6342205405 0.5280476213 -0.5643510222
-0.08902813494 -0.07926233858 0.6071922183 -0.6613618135 0.5516079068 -0.5082305074
-0.0806960389 -0.07295933366 0.6002447009 -0.6265777349 0.5750683546 -0.5258878469
-0.07123383135 -0.06852587312 0.5964692831 -0.4902589917 0.6351844668 -0.5811519623
-0.07696330547 -0.06766916066 0.6020642519 -0.583591938 0.5987530351 -0.5448152423
