# .PCD v0.7 - Point Cloud Data file format
VERSION 0.7
FIELDS x y z normal_x normal_y normal_z
SIZE 4 4 4 4 4 4
TYPE F F F F F F
COUNT 1 1 1 1 1 1
WIDTH 512
HEIGHT 1
VIEWPOINT 0 0 0 1 0 0 0
POINTS 512
DATA ascii
-0.05986170098 -0.175176993 0.7956247926 0.2865086794 -0.5636078715 0.7697098255
-0.02945845574 -0.1807849854 0.7671715617 0.6957490444 -0.3660781682 0.6175453067
-0.03988937661 -0.05753910169 0.709222436 -0.8008282185 0.3530189693 -0.4833453298
-0.05675005913 -0.1805427521 0.7921147346 0.3232126534 -0.5261560082 0.7861406803
-0.01997474767 -0.1621649712 0.7524766326 0.7229976058 -0.1162053049 0.2735141218
-0.02281226218 -0.1631622612 0.7607349157 0.7329819202 -0.2398422956 0.4501729608
-0.01966205239 -0.1526942849 0.7319908142 0.7185165882 0.1862278581 -0.1211860925
-0.02046387643 -0.173588112 0.7618683577 0.7138797641 -0.3303233385 0.5702957511
-0.01874263585 -0.1674404293 0.7479714155 0.7084107399 -0.1111303791 0.2730402052
-0.01883145794 -0.1717760712 0.7546716332 0.7078263164 -0.2224165797 0.4207334816
-0.01868828759 -0.1586705595 0.7435397506 0.7184920311 0.02211469598 0.08534831554
-0.01842981577 -0.1452856213 0.7240003943 0.7214139104 0.3541400433 -0.356661886
-0.01858568005 -0.1571837813 0.7359906435 0.7135688663 0.1131636053 -0.02923686616
-0.06580325961 -0.1111469492 0.7003189921 -0.01968640834 0.5775976777 -0.8158903122
-0.06055787206 -0.1006480604 0.6974169612 -0.2826372981 0.2626342475 -0.8418897986
-0.05556499213 -0.09888020158 0.6951712966 -0.3825483322 0.1473872513 -0.8560615182
-0.07080968469 -0.1074238867 0.7028616071 -0.00604874501 0.6044378281 -0.7960529923
-0.02246694639 -0.1796833128 0.7637036443 0.6991555691 -0.3651436269 0.6143882871
-0.03940452263 -0.1731986851 0.7852798104 0.6391140819 -0.4163948894 0.6455443501
-0.04053018615 -0.06528948992 0.7019569874 -0.8225723505 0.3178553581 -0.4706391096
-0.1089728326 -0.07293055952 0.7428300381 -0.5250554681 0.5633638501 -0.6365081668
-0.1114047617 -0.06803967804 0.7472337484 -0.5657860041 0.5652912259 -0.5994586945
-0.09359676391 -0.08018381894 0.7260664105 -0.2931823134 0.6053451896 -0.7396767735
-0.09414101392 -0.08548253775 0.7218484282 -0.3016455472 0.6015713215 -0.7392647266
-0.08694126457 -0.0818163529 0.7232840657 -0.1871183515 0.6159123778 -0.7631193399
-0.02531552874 -0.08981727809 0.7584199309 0.7859140038 0.4268778861 -0.4450224042
-0.1142827049 -0.07559271902 0.7449740767 -0.6259266734 0.5114622712 -0.5884870291
-0.1130475551 -0.0799832046 0.7407939434 -0.5987619162 0.5136656165 -0.6118077636
-0.1178601608 -0.07219933718 0.7513647676 -0.63842839 0.5007033348 -0.584521234
-0.1181429997 -0.08142227679 0.7437524199 -0.6674526334 0.4740371704 -0.5741221905
-0.1259351969 -0.08755912632 0.7528581023 -0.7008337379 0.4417824745 -0.5596675873
-0.07009501755 -0.1999023557 0.7821384072 0.09166286886 -0.5284328461 0.8382643461
-0.09313396364 -0.1805905104 0.7909555435 -0.3263749182 -0.5354489088 0.7773940563
-0.1245060936 -0.1117936075 0.7314579487 -0.7220845819 0.4143172503 -0.5531098843
-0.06373757124 -0.1813353598 0.7924723625 0.2175884247 -0.5504382253 0.8042730093
-0.07081676275 -0.1949936748 0.7903884649 0.08318335563 -0.5174877048 0.839553237
-0.07215956599 -0.2018199116 0.7886065245 0.04121973738 -0.5238703489 0.8372721076
-0.06722253561 -0.1871470511 0.7918508649 0.1636268795 -0.5093449354 0.8383936882
-0.06484418362 -0.2003363371 0.7869869471 0.1606476456 -0.5197226405 0.8248158693
-0.05804977566 -0.1935089976 0.7874830961 0.2801769078 -0.5185989141 0.8072764874
-0.06081229076 -0.1866616309 0.7904596329 0.2572897673 -0.5142155886 0.8166099191
-0.09721764922 -0.1940553039 0.7799107432 -0.394957006 -0.4848344326 0.7760316133
-0.08790026605 -0.17446132 0.7990918756 -0.2133861035 -0.6351166964 0.7399060726
-0.1108389348 -0.1922247261 0.772849679 -0.5969148278 -0.4027466476 0.6848065853
-0.01835734956 -0.07990421355 0.7691763043 0.8000614047 0.410446167 -0.4370597303
-0.07136381418 -0.149653554 0.8172140121 0.08519516885 -0.6192716956 0.7800136805
-0.09731653333 -0.1688347012 0.8000383973 -0.3827064335 -0.5992416143 0.6933342814
-0.1011978835 -0.1585255712 0.8059391975 -0.4793238044 -0.5433325171 0.688570559
-0.1084041297 -0.1493660063 0.8043708205 -0.5042738318 -0.5342106223 0.678262651
-0.1073142812 -0.1582023352 0.8020766973 -0.5183516741 -0.5453658104 0.6583353281
-0.08755944669 -0.1473987252 0.822581172 -0.1746476293 -0.6040226817 0.7713115215
-0.06671195477 -0.1604804844 0.8112172484 0.18160142 -0.6225646138 0.7595726848
-0.07154248655 -0.1565494984 0.815569222 0.1099312529 -0.6246271729 0.7698595524
-0.06595192105 -0.1537419856 0.8141112328 0.1527225822 -0.6184906363 0.7698908448
-0.06318951398 -0.1668515056 0.8029156923 0.2535004616 -0.5795655251 0.7721396685
-0.0652955845 -0.1719804555 0.8000082374 0.2091660351 -0.5928297043 0.7774934769
-0.05733137205 -0.1649276018 0.8022121787 0.3238084018 -0.5982022882 0.7308756709
-0.06083826721 -0.1610724628 0.8069404364 0.2472679913 -0.6183754802 0.7440513968
-0.03725513071 -0.1672461033 0.7861164212 0.668566823 -0.405703336 0.6198628545
-0.04779643193 -0.1698471904 0.7943677306 0.4807457924 -0.5282506347 0.6985957026
-0.05197313428 -0.1678285599 0.7979844809 0.4041766822 -0.5584007502 0.7230858207
-0.04554996639 -0.1759604961 0.7876888514 0.5383478999 -0.4515068233 0.7068145275
-0.07378351688 -0.1022237167 0.7064502835 0.01001121197 0.6100904346 -0.7910702825
-0.05406695604 -0.09255792946 0.6927766204 -0.5050350428 0.2505259812 -0.7486075163
-0.05086439848 -0.08793446422 0.6897464395 -0.630841732 0.2817025483 -0.6753187776
-0.06870478392 -0.09905008972 0.7018287778 -0.1566797197 0.5253124237 -0.7648297548
-0.03485646844 -0.1127606183 0.7235121727 0.6856699586 0.4888516068 -0.5355530381
-0.01892351918 -0.1284928173 0.7276229858 0.7493709326 0.4378713667 -0.4966027141
-0.02197218686 -0.1204849258 0.7297896147 0.7401070595 0.4210167229 -0.5235133767
-0.02337476425 -0.1166690141 0.7350348234 0.7660499215 0.4154829979 -0.4855723977
-0.01931965537 -0.1094548255 0.7413733602 0.8062978387 0.3967355788 -0.4366137981
-0.03450422361 -0.1711366624 0.7811002135 0.6943099499 -0.3735097647 0.6143090725
-0.02530709095 -0.1696030647 0.7707327008 0.7252678871 -0.3457808793 0.5950674415
-0.03780590743 -0.1824358106 0.7788734436 0.6523851752 -0.3884196877 0.6507515311
-0.03260644153 -0.1811197847 0.7732824683 0.6839058995 -0.3694385886 0.6274309158
-0.03186075017 -0.1871791929 0.7700284123 0.6399958134 -0.3893609345 0.6599770188
-0.04347744957 -0.1809078902 0.7831350565 0.5653145313 -0.4342503846 0.6983439922
-0.03622102737 -0.1767943352 0.778285265 0.6672680974 -0.3849587142 0.6342529058
-0.07394281775 -0.1775741875 0.797104001 0.05351130664 -0.6130559444 0.7870325446
-0.06628130376 -0.1765472591 0.796262145 0.178977415 -0.5917084217 0.7831668854
-0.07188038528 -0.1727039367 0.8010226488 0.09567674249 -0.6188142896 0.7756697536
-0.07879392058 -0.1734798849 0.8011443019 -0.03079449944 -0.6301128864 0.7712443471
-0.05793842673 -0.06083950028 0.7387953401 -0.06865420192 0.7721658349 -0.3618170619
-0.04942869022 -0.05809273943 0.7207995653 -0.5721881986 0.4724155068 -0.5754911304
-0.07664952427 -0.07953760773 0.724306941 -0.01144521311 0.6250582933 -0.7779108286
-0.04502911493 -0.07345496118 0.7345379591 0.02486080304 -0.4721997082 -0.551941216
-0.04257433489 -0.07526616007 0.7402791381 0.2053503692 -0.3173219264 -0.5400111675
-0.04176529497 -0.0691659525 0.7297894955 -0.1426991075 -0.1277434975 -0.5230832696
-0.03627848998 -0.07149754465 0.7394480109 0.1562574208 0.2539429665 -0.4930865765
-0.03761336207 -0.06547208875 0.7270069718 -0.2486182153 0.273989439 -0.4897925556
-0.03280345351 -0.07470439374 0.7464132905 0.4091900587 0.476601541 -0.4763741791
-0.0350567773 -0.06867185235 0.7324958444 -0.03248726577 0.4288679361 -0.4785860479
-0.03771763295 -0.0614518784 0.7161462307 -0.5552449822 0.3726252317 -0.4811308384
-0.03349729255 -0.07836615294 0.7372685075 0.3418629766 0.4548089802 -0.4808987975
-0.03216319159 -0.08343733847 0.7441881895 0.6220199466 0.4811424613 -0.4806334972
-0.04642264545 -0.06779557467 0.725726068 -0.2724450827 -0.3087710142 -0.5076380372
-0.04791567102 -0.0620839484 0.7268735766 -0.2823571563 0.3727226257 -0.3218657374
-0.05249170959 -0.060968481 0.7345058322 -0.07216817141 0.7688575387 -0.1505334079
-0.04442051798 -0.0635112375 0.7211885452 -0.4344542921 0.01074666157 -0.4666998684
-0.0354869552 -0.07939323783 0.7518181801 0.6532140374 0.5502293706 -0.4020146728
-0.05218064785 -0.06533636153 0.7445312738 0.2652525604 0.8918474913 -0.1070803329
-0.08891176432 -0.07280275226 0.7319684625 -0.2194930762 0.6338503361 -0.7369887829
-0.08768181503 -0.07736400515 0.7274107337 -0.1922511607 0.6155404449 -0.7608697414
-0.07527307421 -0.06902863085 0.7324899435 -0.008313024417 0.6458911896 -0.7624825835
-0.08124656975 -0.07186490297 0.7311922312 -0.09384453297 0.6440951228 -0.754535377
-0.08443280309 -0.06728369743 0.7350124121 -0.1562061906 0.6687713861 -0.7256317735
-0.06686429679 -0.07102926821 0.7323576212 -0.008915012702 0.6167153716 -0.780990839
-0.06973735988 -0.06633669883 0.7295501828 -0.1264229715 0.6086261868 -0.7217294574
-0.06302260607 -0.06265647709 0.7257834077 -0.294257015 0.5596091747 -0.6661555767
-0.05217305198 -0.0615378134 0.7165321708 -0.5576136708 0.4631606936 -0.5720946789
-0.1172256023 -0.08809065819 0.7367988229 -0.6579840779 0.4694258273 -0.5876273513
-0.1190150157 -0.09416336566 0.7353655696 -0.6796645522 0.4540353715 -0.5751290321
-0.1239839345 -0.07569431514 0.7563831806 -0.6570210457 0.4804107249 -0.5809102654
-0.1314362884 -0.07836155593 0.7630854845 -0.6855359077 0.4523681998 -0.5701357722
-0.1282112747 -0.08235225081 0.758934617 -0.6903542876 0.4486941397 -0.567487061
-0.1056653336 -0.1942279488 0.7766607404 -0.5141415 -0.4366618395 0.7366452813
-0.1009124145 -0.2004553676 0.7814623713 -0.4290760756 -0.4731351435 0.7670872211
-0.07952900976 -0.2014609277 0.7843130827 -0.04651498795 -0.5239845514 0.8261091709
-0.1349101812 -0.1489339322 0.728518784 -0.9373236299 0.130736798 -0.1873490363
-0.1305514276 -0.1370068938 0.7211312056 -0.8337577581 0.2389765382 -0.4369117618
-0.1337103546 -0.1394539922 0.7254954576 -0.8908506632 0.1810775548 -0.3653176427
-0.127490893 -0.1371980011 0.7155333757 -0.7847377062 0.2839667499 -0.4796050787
-0.1311937124 -0.1308380663 0.725581944 -0.8289865255 0.2561015785 -0.4917542636
-0.1363421679 -0.1553153247 0.7242720127 -0.9739894271 0.07663518935 -0.1354584545
-0.1323595047 -0.1470780671 0.7199957371 -0.8883770108 0.1697221696 -0.295253545
-0.1344514042 -0.144863829 0.7403153777 -0.8866211176 0.1876316071 -0.04120354354
-0.1334083974 -0.1381462067 0.7373321652 -0.8505532742 0.240021497 -0.2051211447
-0.132993415 -0.1371923536 0.7313346863 -0.869487226 0.205467388 -0.3038343787
-0.1092706025 -0.1834793836 0.7792106867 -0.5986210108 -0.4021084011 0.6914052963
-0.1057784408 -0.1883229017 0.7815272212 -0.5256080627 -0.4385910034 0.7234016657
-0.09600608051 -0.188565135 0.7839233875 -0.3735349774 -0.4847537577 0.7891573906
-0.1025457159 -0.1941229105 0.783914268 -0.4582571089 -0.48272416 0.744177103
-0.1029937565 -0.1814973354 0.78491503 -0.481126368 -0.474537462 0.7317429185
-0.1039621159 -0.174810648 0.7908092141 -0.4983868003 -0.5433918238 0.6732997298
-0.09450256079 -0.174831301 0.7964970469 -0.3498208225 -0.6240699291 0.6975257993
-0.0994239077 -0.186114639 0.7892327309 -0.4202532768 -0.5468719602 0.7181275487
-0.09872539341 -0.1789422482 0.7924872041 -0.4160067439 -0.5815966129 0.6945672631
-0.1219901815 -0.1788175255 0.7708067298 -0.7475729585 -0.3597424924 0.5579311252
-0.1228669137 -0.1845216304 0.766467452 -0.7634676695 -0.3426034749 0.5467439294
-0.1166752502 -0.1858860999 0.7696336508 -0.7014381886 -0.3636771142 0.610455215
-0.1164438352 -0.1814008802 0.7743303776 -0.7072114944 -0.3723483086 0.5987027287
-0.1214428917 -0.1074803248 0.7281800508 -0.7031806111 0.4291287363 -0.5666587353
-0.08097396046 -0.156976521 0.8158940077 -0.06552654505 -0.6340374947 0.764842093
-0.08407817781 -0.1611547619 0.8120474815 -0.126732111 -0.6376817226 0.7567381263
-0.07422165573 -0.1607205272 0.8112992644 0.09714067727 -0.6294534802 0.7706155181
-0.03484047204 -0.1098219007 0.7120921612 0.6852389574 0.176476419 -0.6015254855
-0.03333608434 -0.1134451255 0.7167729139 0.7097254395 0.3403564095 -0.5597961545
-0.02206431516 -0.1564071178 0.7494125962 0.731705606 -0.04733441025 0.1883136332
-0.02045862004 -0.144457534 0.7295681238 0.7293745279 0.2937428653 -0.2773480713
-0.02033770084 -0.1457192451 0.7401914597 0.7386059165 0.168541804 -0.1166200042
-0.01936238445 -0.1384401768 0.7280212641 0.7370996475 0.377165705 -0.4013493657
-0.01963400468 -0.1388076991 0.7221066356 0.7302964926 0.4349147677 -0.4723843634
-0.02142189816 -0.1519784778 0.743447721 0.7323058844 0.0645384863 0.03391425312
-0.02066893131 -0.1442151666 0.7171507478 0.7166791558 0.4266722202 -0.4444713593
-0.06408876181 -0.1156861782 0.6894735694 -0.1051373929 0.4025223255 -0.8511802554
-0.05015015602 -0.1133136675 0.6940595508 0.08889693022 0.01182241924 -0.8787926435
-0.05014251918 -0.1065537259 0.6939403415 -0.1328655928 0.01069788821 -0.8771551251
-0.05635683239 -0.1064543948 0.6918749213 -0.2573567331 0.1847295463 -0.8645616174
-0.06043531746 -0.122532323 0.6917800903 0.2254856676 0.3366891742 -0.8656638861
-0.05414310843 -0.1228212118 0.6934553385 0.3427524567 0.145120576 -0.8761174679
-0.1022121236 -0.1683490872 0.7954152226 -0.4700079262 -0.5719690323 0.6667974591
-0.07660181075 -0.166654408 0.8059534431 0.06253332645 -0.6328544617 0.7656443119
-0.08213125914 -0.1686420143 0.8053052425 -0.09637998044 -0.6372314095 0.7596086264
-0.09269152582 -0.1626814753 0.805832088 -0.3082166612 -0.5856259465 0.7190676928
-0.08520165831 -0.1630259603 0.806592226 -0.1357633471 -0.5957756639 0.7386565208
-0.06867487729 -0.1651819497 0.8056299686 0.1845134199 -0.6021108627 0.7742852569
-0.03475449607 -0.1587795615 0.7900294065 0.6436357498 -0.4718336165 0.6013871431
-0.04786288738 -0.1525980979 0.8144043684 0.3317936957 -0.6144251823 0.7156896591
-0.05342436954 -0.1591692567 0.8072193265 0.3291079104 -0.6148474216 0.7165575624
-0.02754936367 -0.1594130397 0.778464973 0.7243596911 -0.3470830619 0.5954611301
-0.03055668063 -0.1598370522 0.783949852 0.7010673285 -0.3902700245 0.5940544605
-0.06027798355 -0.1977434903 0.7816464901 0.2548138201 -0.5170922875 0.8016043305
-0.06670971215 -0.09955811501 0.7094510794 0.07864463329 0.6574234962 -0.7440376282
-0.02851695009 -0.08938379586 0.7520480752 0.7775278091 0.4371908009 -0.4493318498
-0.03191126511 -0.09099516273 0.7401670218 0.7268977165 0.4741060138 -0.4952046275
-0.02179222926 -0.1074901372 0.7469021082 0.817053616 0.393725872 -0.4210703373
-0.02490819991 -0.09744270891 0.7448186278 0.8127245903 0.4071124792 -0.41674456
-0.02547699399 -0.1064669266 0.7397345304 0.7861271501 0.4028551579 -0.4617373049
-0.02059607022 -0.1015069187 0.7490303516 0.8151791692 0.3963463306 -0.4223513901
-0.02043021098 -0.09769996256 0.7559581995 0.816740036 0.3975827396 -0.4181374609
-0.02855842002 -0.09725928307 0.7401967049 0.7784340978 0.4177464843 -0.461014539
-0.0239449311 -0.09439985454 0.7518190145 0.8131670356 0.4011413753 -0.4216525257
-0.03531149775 -0.09891398251 0.7055165172 0.7301595807 0.04922613502 -0.3756378591
-0.03672738746 -0.09329690039 0.6983472705 0.299385339 0.01944554411 -0.3453840911
-0.03395279124 -0.1023985669 0.7116160989 0.8325751424 0.1290032119 -0.4160118401
-0.0323671326 -0.1060144156 0.7185398936 0.7871155739 0.2603687942 -0.4735845625
-0.04397362098 -0.09681572765 0.72563833 0.5598970056 0.5210306048 -0.6200600266
-0.04028435424 -0.1030265763 0.7245922089 0.6343278289 0.5038530231 -0.5724275112
-0.03639566898 -0.1062851399 0.7064481974 0.6736011505 0.01158946566 -0.6239976287
-0.03718947619 -0.1003750563 0.700262785 0.8244457245 -0.06805982441 -0.4265203774
-0.03814273328 -0.09783647209 0.7296416163 0.6364645362 0.4833069444 -0.5815443993
-0.02569616772 -0.1248283982 0.7230302691 0.7240121365 0.4597927928 -0.513692081
-0.03164209053 -0.1215386242 0.7178025842 0.6957394481 0.4819378853 -0.5312932134
-0.02854754962 -0.1174597144 0.7231993079 0.7301652431 0.4294326901 -0.5308641195
-0.1206548363 -0.1483324319 0.7969486713 -0.6089065671 -0.529461503 0.5890408158
-0.1327895671 -0.1760485619 0.7520158887 -0.8849669695 -0.2944000363 0.3589099944
-0.1287662387 -0.1740022749 0.7589002848 -0.8563108444 -0.3001106381 0.4183690548
-0.03659702092 -0.1876008064 0.774971664 0.6262266636 -0.394540906 0.6715884209
-0.04072922841 -0.1920331419 0.7764529586 0.5689122081 -0.4433784187 0.691662848
-0.04789113998 -0.1912808567 0.7800405622 0.4558674395 -0.4664570987 0.7435943484
-0.05428447947 -0.1885642856 0.7852900624 0.3390376568 -0.5011594892 0.7952824831
-0.0635625273 -0.1915223151 0.7854014635 0.2075988948 -0.5192477703 0.8272937536
-0.05356430262 -0.1971640885 0.7831671238 0.3514967561 -0.5090350509 0.7795666456
-0.05103862658 -0.1759998053 0.7916721106 0.4261602163 -0.5150780082 0.737221241
-0.05006085336 -0.1810643226 0.7873626947 0.4294637442 -0.4839779139 0.7531420588
-0.07500799745 -0.1889527887 0.792188406 0.008784787729 -0.5272683501 0.8475031853
-0.08002515882 -0.1864775866 0.7956608534 -0.07401082665 -0.5724841356 0.8115040064
-0.07986781746 -0.1933543831 0.7936536074 -0.07685448974 -0.5586950183 0.8223062754
-0.07852491736 -0.2003374696 0.7908819318 -0.06027719006 -0.5342174768 0.842150569
-0.0837361142 -0.1792720854 0.7985417247 -0.1301961839 -0.6033098102 0.7840875387
-0.02950143628 -0.08327004313 0.7560586333 0.7576550841 0.4552095234 -0.4664571285
-0.02617970109 -0.07472527772 0.7644347548 0.7252449989 0.4990800619 -0.4737542868
-0.02532476 -0.08079650998 0.7639388442 0.7603687644 0.4567461908 -0.4566116929
-0.04832083359 -0.07113134116 0.7388939261 0.1132193059 -0.1882692426 -0.4323917031
-0.04192211851 -0.06967968494 0.7512116432 0.4121111929 0.4832459092 -0.3457786739
-0.03793117031 -0.0702951774 0.756265223 0.5400853157 0.6290652156 -0.3607801497
-0.04782807082 -0.06607668847 0.7487559319 0.345969975 0.8277137876 -0.1816086918
-0.03116843663 -0.07690049708 0.7582919598 0.7082504034 0.5202124119 -0.473470062
-0.1038311049 -0.06475386769 0.7442383766 -0.4350431859 0.6371186376 -0.6347156763
-0.09692774713 -0.06646258384 0.7393077612 -0.34644714 0.6414737701 -0.6828790903
-0.08312494308 -0.06078876555 0.7396775484 -0.1436346769 0.6755461693 -0.7212668657
-0.07505699247 -0.06380673498 0.736810565 -0.06488902867 0.6454380155 -0.7563513517
-0.05837566033 -0.05952971056 0.7319028378 -0.359297812 0.5271443725 -0.7062209845
-0.05966249108 -0.05786415935 0.7250815034 -0.4216632247 0.5358192921 -0.6247224212
-0.06483221799 -0.05850785226 0.7307013869 -0.2997301817 0.5762677789 -0.6757537127
-0.04616641626 -0.05730575323 0.713727355 -0.695856452 0.4307075143 -0.532766521
-0.06739261001 -0.06379058957 0.7376779318 -0.1468430758 0.5914379954 -0.7874425054
-0.05587706715 -0.07465625554 0.7052597404 -0.5192501545 0.4194174409 -0.5851085186
-0.06078505889 -0.07751557231 0.7087151408 -0.3803038895 0.4714057744 -0.6353778243
-0.06398268044 -0.09041659534 0.7026280165 -0.2821239829 0.4657385349 -0.7337400913
-0.05379385874 -0.0672724396 0.7118434906 -0.5655010939 0.4288338423 -0.561060369
-0.06727572531 -0.07279729098 0.7216677666 -0.2025225312 0.560243845 -0.6950698495
-0.04725943878 -0.06602888554 0.7045866251 -0.7492141724 0.3521675467 -0.4964306951
-0.05858169869 -0.07046981901 0.7131832242 -0.4433002174 0.4643268883 -0.6089289784
-0.06560745835 -0.07565820217 0.7162232995 -0.2470400482 0.5272125006 -0.6833521724
-0.0668977797 -0.07580562681 0.7281832695 0.05994497612 0.62468189 -0.7780148387
-0.07261199504 -0.07292363793 0.7273250818 -0.05223337561 0.6166285276 -0.7472037673
-0.05803507194 -0.06584075093 0.7190284133 -0.437679708 0.4876887202 -0.6021572948
-0.05284696445 -0.07360716909 0.7353944182 0.2821400762 0.5462988615 -0.707557559
-0.05447169021 -0.06749229133 0.7394744158 0.227465257 0.7761209011 -0.3417798579
-0.04610876366 -0.07228561491 0.7454982996 0.4152543843 0.7086840868 -0.3058125973
-0.04140935093 -0.07806104422 0.7457617521 0.5315952897 0.5419393182 -0.5072263479
-0.06131283939 -0.0687411353 0.7354953289 0.09680727124 0.7479996085 -0.5096742511
-0.1276307553 -0.1253196895 0.7249594927 -0.7454203963 0.3763444424 -0.5463019609
-0.1274621785 -0.1302496046 0.7193344831 -0.7685636878 0.3157928586 -0.5457845926
-0.1237447336 -0.1280484945 0.714492023 -0.7076515555 0.3926054537 -0.5865468383
-0.1090840027 -0.1244534403 0.7032265067 -0.5463533401 0.4627103508 -0.6963887215
-0.1141318828 -0.1246190146 0.7073509693 -0.613833487 0.4417659938 -0.6532629728
-0.1172859222 -0.1225972772 0.7120856643 -0.6566777825 0.4287831187 -0.6195220947
-0.1125738695 -0.1181137562 0.7083043456 -0.5708091855 0.4773701727 -0.6666625738
-0.1185324192 -0.1288577318 0.7087773085 -0.6775467396 0.379555583 -0.6283734441
-0.1110115796 -0.09373439103 0.7266230583 -0.5725601315 0.4992017448 -0.6464058757
-0.1078924909 -0.08861459792 0.7277919054 -0.5154201388 0.5293825269 -0.6692620516
-0.1109304875 -0.08641254157 0.732468307 -0.5719727278 0.5110974312 -0.6341474652
-0.09771810472 -0.0743317157 0.7340452671 -0.3639985323 0.6011990905 -0.707890749
-0.1027577817 -0.07276497036 0.7376462817 -0.4358092248 0.5892882943 -0.6786926985
-0.1077686399 -0.08039566129 0.7348372936 -0.5071759224 0.5437950492 -0.666210711
-0.1016874537 -0.07975878567 0.7309685946 -0.4072348773 0.5726512074 -0.7057757378
-0.08414036781 -0.1497418284 0.8178703785 -0.1318387836 -0.6053180099 0.7723776698
-0.07820916921 -0.1498279721 0.8173903823 -0.02553600445 -0.6127612591 0.7769170403
-0.09545747936 -0.1565625221 0.8097985387 -0.356974721 -0.5715612769 0.7183191776
-0.09577736259 -0.1479946077 0.8145119548 -0.3327942789 -0.568263948 0.7413377166
-0.09133422375 -0.1527975202 0.8133112192 -0.2166759819 -0.6048595905 0.7436716557
-0.1206393018 -0.1513050646 0.7894094586 -0.6536406279 -0.5076945424 0.5503257513
-0.1248887256 -0.1531257778 0.7844715714 -0.7028222084 -0.4894366264 0.5053339005
-0.12970227 -0.09302012622 0.7496240139 -0.7185228467 0.4244371653 -0.5504588485
-0.0834479928 -0.1821638942 0.7920352817 -0.1357442439 -0.5573490262 0.8003377914
-0.07590185106 -0.1922988594 0.7863766551 -0.001588514308 -0.5381074548 0.8427639604
-0.1313792169 -0.1236374602 0.7319294214 -0.7669776082 0.3603514135 -0.5287429094
-0.1309980154 -0.1170685738 0.7342834473 -0.7433324456 0.4068771005 -0.5305848122
-0.03667048737 -0.1144158319 0.6995578408 0.6228902936 0.01007099822 -0.6749158502
-0.04097794369 -0.1090409979 0.6959034801 0.5714662075 -0.1940096319 -0.757270813
-0.03562955931 -0.1285744011 0.7032091618 0.6168880463 0.3194949329 -0.6558284163
-0.03921636567 -0.1203115359 0.6993508935 0.5794948936 0.07295492291 -0.7241653204
-0.02482486889 -0.1375762522 0.7106302977 0.6973551512 0.4727743864 -0.5374779701
-0.01944177039 -0.139238894 0.7135750651 0.7131771445 0.4755921066 -0.5146746039
-0.03458795324 -0.118075192 0.7046420574 0.6604123712 0.20155406 -0.6097240448
-0.08319916576 -0.1214560345 0.6924545169 -0.1201878116 0.5531005263 -0.8231356144
-0.01891932264 -0.09983840585 0.7618011832 0.8186244965 0.3975910544 -0.4144578278
-0.02002460696 -0.09352593869 0.7608678341 0.8167256713 0.3964606524 -0.4192297161
-0.01999857649 -0.08725777268 0.7668371201 0.8062894344 0.4064973891 -0.429110229
-0.06083366647 -0.1500472277 0.8160897493 0.188010484 -0.6171649098 0.7589747906
-0.05993920192 -0.1558256447 0.8105504513 0.2292850614 -0.6262938976 0.7445793152
-0.0557211563 -0.1513482928 0.8120751977 0.2689853013 -0.6219241023 0.7349971533
-0.05051730573 -0.1529736221 0.8078376055 0.3665141165 -0.6057732701 0.6984453797
-0.02259980328 -0.1456202567 0.7570356727 0.7459551096 -0.08338484913 0.2282563746
-0.02335432731 -0.135960862 0.7445446253 0.7317716479 0.1515202671 -0.1050177217
-0.01978023909 -0.1219908893 0.7367013097 0.7689151168 0.4067687392 -0.4624983966
-0.02032497711 -0.1362614036 0.7515192628 0.7693610787 0.08977774531 -0.01442015264
-0.02174673043 -0.1277501583 0.7388545275 0.7475091219 0.3104682267 -0.3282824457
-0.02271411195 -0.1383459717 0.756608367 0.769836843 -0.01915465295 0.1420433372
-0.01926555298 -0.1170595288 0.7424444556 0.8099449277 0.3780379295 -0.4149556458
-0.02187015675 -0.1347476244 0.7633225322 0.7692468762 -0.02275143005 0.1552795023
-0.01986039244 -0.118760705 0.7566151619 0.7982596755 0.2281007171 -0.1939512044
-0.02001200989 -0.1141316891 0.7617357969 0.7999603152 0.2389506996 -0.2000165582
-0.02297763526 -0.1463275552 0.7648276687 0.7514128089 -0.1751194298 0.3631109595
-0.02074993029 -0.1221299618 0.7625153065 0.7878890634 0.1359853297 -0.05996780843
-0.01912989467 -0.1097023338 0.7567454576 0.81096977 0.3358501196 -0.3389263749
-0.02113206498 -0.1281666309 0.7625155449 0.7787663341 0.0671653226 0.03293052688
-0.02046114206 -0.1321200579 0.7568004131 0.7765722275 0.08288855106 0.00276966393
-0.01902427897 -0.1284202337 0.749953568 0.7861956358 0.2011627704 -0.1674418002
-0.0177239012 -0.1243165433 0.7440918684 0.7957940102 0.313454181 -0.3280417025
-0.01835135929 -0.1202883795 0.7495833635 0.798235476 0.3010502458 -0.3027070165
-0.01780594513 -0.1144475266 0.748950839 0.8071109653 0.3767946959 -0.4058299959
-0.02805295214 -0.1626549065 0.7733170986 0.7279312015 -0.3472999036 0.5908879638
-0.03044797853 -0.167378664 0.7765102983 0.7307360172 -0.3426230252 0.5903390646
-0.02367526479 -0.1553906351 0.7650992274 0.7365783453 -0.280816257 0.5068265796
-0.01774308458 -0.1271340847 0.734357357 0.7734827399 0.4115347266 -0.4607353806
-0.02179118618 -0.1476887316 0.7504674196 0.7373291254 -0.01025376841 0.1309886575
-0.02269388363 -0.1514418274 0.7572368979 0.7364264727 -0.1373775154 0.3076675236
-0.02033268288 -0.138943091 0.7376170754 0.739459753 0.2426702678 -0.2222968042
-0.02040544152 -0.1333592832 0.732747972 0.7386201024 0.3521632254 -0.3781307042
-0.02207180858 -0.1423542202 0.7462611198 0.7355923653 0.08666315675 -0.007689271588
-0.02373968624 -0.1659488231 0.766346395 0.7321657538 -0.340180397 0.5900936127
-0.02987654135 -0.1738724709 0.769969821 0.7125064731 -0.3508315086 0.6073358059
-0.07112537324 -0.09460989386 0.7079993486 -0.08628179878 0.5637261271 -0.772505939
-0.0590211153 -0.09079109132 0.6969512701 -0.4105104506 0.4055282176 -0.7105711699
-0.0528576076 -0.09301029891 0.7209540009 0.4437985122 0.6020940542 -0.659255445
-0.05075306073 -0.09944247454 0.7183613777 0.4481828809 0.634683311 -0.6010770202
-0.03995828703 -0.1113721356 0.7174416184 0.6848495007 0.471606791 -0.5452163219
-0.03406061977 -0.1216010004 0.7123249173 0.7134302855 0.4481654167 -0.5343095064
-0.03877360374 -0.1215140298 0.7082275152 0.6738837361 0.3928064108 -0.6142420173
-0.04157503694 -0.125369668 0.702788651 0.5948646069 0.3632621169 -0.6948816776
-0.04729744419 -0.1234947443 0.6956436038 0.4664396644 -0.01105895732 -0.8704110384
-0.05512832478 -0.1029080078 0.7120179534 0.2735642791 0.653288722 -0.6676353812
-0.06188157573 -0.1043261886 0.7068756819 0.05904886872 0.6190366745 -0.7591621876
-0.04857872799 -0.1057451293 0.716037631 0.4495663345 0.5804682374 -0.6127107143
-0.04324515536 -0.1063681617 0.7199984789 0.6079494357 0.5530430079 -0.5540183187
-0.03462416306 -0.07515185326 0.7178762555 -0.2224147022 0.3818519711 -0.493390888
-0.03450657055 -0.07788583636 0.7242802978 0.03870524839 0.4285666943 -0.504678607
-0.03587758914 -0.06877926737 0.717249155 -0.3339844942 0.4092549384 -0.4881494641
-0.03650407493 -0.06275187433 0.7084929943 -0.7232581377 0.3573740125 -0.4711649716
-0.03497123718 -0.07138960063 0.7113296986 -0.5025449395 0.3414214849 -0.4760798514
-0.03512875363 -0.06873628497 0.7046402097 -0.7713717818 0.2972587645 -0.4515092671
-0.03385121375 -0.0791651085 0.7301009297 0.2222063243 0.4483846426 -0.4884408414
-0.03354692459 -0.08515459299 0.7337677479 0.46481812 0.4761466086 -0.5193526149
-0.03544014692 -0.07114388794 0.7234284878 -0.1365631819 0.4119238555 -0.4788278639
-0.037017636 -0.09194017202 0.7341626287 0.6463273168 0.4885003567 -0.5704045892
-0.0427262187 -0.09140452743 0.7302827239 0.5781938434 0.5029371977 -0.6182015538
-0.02633426338 -0.1116758287 0.7306829691 0.7379302382 0.4071026444 -0.5381385684
-0.02741502412 -0.1059126034 0.7329628468 0.7511174083 0.4086423814 -0.5183418393
-0.04405893758 -0.06860437244 0.6979396939 -0.8308683038 0.3014648855 -0.4668736756
-0.04311450198 -0.07718538493 0.6944441795 -0.7927904129 0.2774301469 -0.5360257626
-0.04634533823 -0.08201135695 0.6905189753 -0.7423110008 0.2635146677 -0.61242342
-0.03660295904 -0.07570313662 0.6964700222 -0.8692119122 0.2796654701 -0.4053083062
-0.1281503439 -0.1099860221 0.7391278148 -0.7464647293 0.3986857533 -0.5327556133
-0.1249605119 -0.1056760326 0.7362263799 -0.7337586284 0.4055717885 -0.5449743867
-0.1043876559 -0.1633781046 0.8000717163 -0.5097533464 -0.5509881973 0.6604627371
-0.04052970558 -0.1001263037 0.6946969628 0.4326596558 -0.2807562947 -0.7555579543
-0.1048212498 -0.1025792286 0.7152671218 -0.4895525873 0.5471971631 -0.6787102222
-0.1063625962 -0.09632708877 0.7216904759 -0.5104308724 0.5313075185 -0.6722539663
-0.125155136 -0.176421389 0.764729023 -0.8130751848 -0.3199734092 0.4834390879
-0.1301071495 -0.1818930507 0.7558423281 -0.8536420465 -0.31443277 0.4116372168
-0.1204005107 -0.191215232 0.7663210034 -0.7292746305 -0.3464325666 0.5874555111
-0.1255795062 -0.1851253957 0.7612395883 -0.7901176214 -0.3303486705 0.5098885298
-0.06189968437 -0.08917692304 0.7190158963 0.1744910479 0.639312923 -0.7264252305
-0.06737402827 -0.08464534581 0.7215484977 0.1381844729 0.604947567 -0.7631453872
-0.07177762687 -0.08839906007 0.717046082 0.03490662202 0.6363632083 -0.77013731
-0.06898453087 -0.09354415536 0.7136551142 0.01609427854 0.6427547932 -0.7649469376
-0.06221101806 -0.09425394237 0.7146279216 0.1109128967 0.6831757426 -0.7051706314
-0.06363280863 -0.08241450787 0.7079055309 -0.3003866374 0.4891217649 -0.6828566194
-0.05563455448 -0.08514858037 0.6968061328 -0.5084338784 0.3632619679 -0.6782573462
-0.05142640695 -0.08052712679 0.6956080794 -0.6296162009 0.3286287189 -0.6184132695
-0.07022699714 -0.08746284992 0.7114630342 -0.1147363037 0.5548252463 -0.7558467388
-0.05045101792 -0.07452370971 0.6991083026 -0.6672449708 0.3463091254 -0.5578043461
-0.05993185565 -0.08367865533 0.7027703524 -0.3966561556 0.430888921 -0.680719316
-0.06217029691 -0.07941765338 0.726532042 0.1883987784 0.5934631228 -0.7644941211
-0.05362340063 -0.07944607735 0.7302648425 0.3052527308 0.4996663928 -0.792873621
-0.04733015969 -0.08099386841 0.7363314629 0.4341591001 0.4886961281 -0.7005493045
-0.03747233003 -0.08569396287 0.7402266264 0.6238254309 0.4838167131 -0.5618565679
-0.04321281984 -0.08182686567 0.7404052019 0.5171040893 0.4812422395 -0.6410361528
-0.05486516282 -0.08465100825 0.7252627611 0.4122872949 0.5287408829 -0.7388132215
-0.04920735955 -0.08570103347 0.7293558717 0.493530035 0.5176914334 -0.6744165421
-0.04166397825 -0.08715996891 0.73462677 0.5986838341 0.5035168529 -0.5916225314
-0.0777374059 -0.08592700958 0.7187901139 -0.02206142806 0.6220161319 -0.7792516351
-0.08464375883 -0.08534506708 0.7190602422 -0.1460182816 0.6234235168 -0.7676851749
-0.1095752195 -0.1110223681 0.7120198011 -0.564886868 0.4945341647 -0.6599982381
-0.1176017299 -0.1171503365 0.7159315348 -0.6557297707 0.4504583776 -0.6020584702
-0.09838719666 -0.1637252271 0.8037179708 -0.4114925265 -0.5834962726 0.6949748993
-0.09168771654 -0.1690341383 0.803612411 -0.2840269804 -0.629973948 0.7222531438
-0.1267145723 -0.1637206674 0.7704941034 -0.8087698221 -0.378459096 0.4427325428
-0.1338965893 -0.09938976914 0.7523851395 -0.7329286933 0.4096242785 -0.5423461199
-0.1286691278 -0.09939155728 0.7468159795 -0.7340533137 0.4107778966 -0.5401520729
-0.1280977428 -0.1035777107 0.742361784 -0.7457919717 0.4005190134 -0.5323047638
-0.133160606 -0.1093522534 0.7442162633 -0.7498278618 0.3942146897 -0.5313621163
-0.1222567111 -0.08958455175 0.7408874631 -0.7008196712 0.4483737946 -0.5546146631
-0.1266256571 -0.09280253947 0.7438499928 -0.7176799178 0.426633656 -0.5494371653
-0.1213276237 -0.09984496236 0.73394382 -0.6967440248 0.4343916774 -0.5698798299
-0.1256923676 -0.0981772095 0.7401217818 -0.7227578163 0.4248743355 -0.5449248552
-0.131162256 -0.08727394789 0.7583011389 -0.705883801 0.4367994368 -0.557508707
-0.1238502488 -0.08511022478 0.7466135025 -0.6921842694 0.4544905722 -0.5603414774
-0.1233759746 -0.08007159084 0.751170218 -0.6720513105 0.4695852995 -0.5719022751
-0.08294700831 -0.1914426386 0.7857610583 -0.1352550983 -0.5152893662 0.8428800702
-0.0945347324 -0.200197801 0.7839521766 -0.3258417845 -0.4966035783 0.7929731011
-0.0868312791 -0.2018398643 0.7867127657 -0.1992644966 -0.510405004 0.8189998865
-0.09197885543 -0.1928252727 0.7871600986 -0.278878659 -0.5166178942 0.7994312644
-0.08501505852 -0.196540162 0.7890099287 -0.1658541411 -0.5247457623 0.8235723972
-0.08437883854 -0.1889422834 0.7914766669 -0.1505486518 -0.5409624577 0.8235954046
-0.08863244951 -0.1954427809 0.7820911407 -0.2514066398 -0.5003376603 0.8236939907
-0.07896950841 -0.1167496517 0.6942458153 -0.09378055483 0.5747509003 -0.8096153736
-0.07325839996 -0.1129336357 0.6968425512 -0.05293731019 0.5640127063 -0.8049730659
-0.06436657161 -0.105747886 0.6963308454 -0.2095985115 0.3619107902 -0.8277343512
-0.07410567999 -0.121179767 0.6934592724 -0.02520903386 0.5358121395 -0.8368276954
-0.08239476383 -0.1067550257 0.7030434012 -0.1211420298 0.5953240991 -0.7918078303
-0.07710084319 -0.1088828668 0.7011914253 -0.04367887229 0.5926568508 -0.8019028902
-0.03911947086 -0.15719603 0.7962322831 0.5582191348 -0.5357207656 0.6281182766
-0.04403826967 -0.1522222906 0.8089011908 0.4174337089 -0.5810629725 0.6852895617
-0.04297306389 -0.1554466933 0.8016524315 0.4902158082 -0.5648173094 0.655254364
-0.04661931843 -0.1584023535 0.8052265644 0.4274288118 -0.5905880332 0.680195868
-0.04216739908 -0.1634195894 0.7942404151 0.5486317873 -0.5223367214 0.6510657668
-0.04562271759 -0.1615302265 0.7994541526 0.4840233624 -0.5752049685 0.6579753757
-0.0517359525 -0.1615595967 0.8017786145 0.3913704753 -0.6019444466 0.6912029982
-0.04987615347 -0.1103204861 0.7101204991 0.4049454033 0.4645706713 -0.7206792831
-0.05900773406 -0.1108542979 0.7043166757 0.1509946883 0.531473875 -0.7771831751
-0.06785456836 -0.118514806 0.695472002 0.05197791755 0.5439431071 -0.8338068128
-0.06884478778 -0.1220862642 0.6880064011 0.01303453464 0.5354071259 -0.8432456851
-0.05301893875 -0.1128878221 0.7026590109 0.3086104691 0.3563093245 -0.8663753271
-0.04578628764 -0.1149819046 0.7054528594 0.5823535323 0.36594069 -0.721675694
-0.03067501634 -0.09068065882 0.7300348282 0.4439355731 0.4056707621 -0.4831730425
-0.03244791925 -0.08584740013 0.7261602283 0.2269391418 0.4056524932 -0.4862133265
-0.03156390786 -0.08434570581 0.7189475894 -0.03339042515 0.3421213627 -0.4525032938
-0.03474421427 -0.08778723329 0.7046120763 -0.4700920582 0.2390957475 -0.4005215466
-0.03263872862 -0.08067634702 0.7116512656 -0.3417632282 0.3030739725 -0.4340942502
-0.03628424555 -0.08447925001 0.6969949007 -0.7855403423 0.2003710419 -0.3826181293
-0.03431773186 -0.08063992113 0.70438236 -0.5927106738 0.2574683726 -0.4117839634
-0.03080864064 -0.09113910049 0.7225978971 0.2031878233 0.3428964019 -0.450262785
-0.03018815443 -0.1058522165 0.7269251347 0.6347939968 0.3918535411 -0.5202843547
-0.03323763236 -0.09060767293 0.7118443847 -0.1739757061 0.2791086435 -0.4211219847
-0.03048713505 -0.09838794917 0.72512573 0.4236686528 0.3616964221 -0.4758222401
-0.03206365556 -0.09676276147 0.7176654935 0.1437041312 0.3234289587 -0.460963279
-0.028874062 -0.09685274214 0.7325870395 0.6394999027 0.390617162 -0.4724148214
-0.03159404919 -0.1279430687 0.7093549371 0.6952106953 0.4710913599 -0.5420914292
-0.02621660754 -0.1316446364 0.7133700848 0.7146221995 0.4719874263 -0.5161937475
-0.02772013657 -0.1276886314 0.7171953321 0.7106109858 0.4705706835 -0.5229164362
-0.02253531851 -0.1316748857 0.7239442468 0.7325327992 0.4579698741 -0.503567934
-0.02047459781 -0.133671537 0.7184709311 0.7265868187 0.4670746028 -0.5034742355
-0.1078322008 -0.166850403 0.7926406264 -0.5525668263 -0.5329023004 0.6401962042
-0.1105781421 -0.1617320031 0.7948436737 -0.5658887029 -0.5339459181 0.6266463399
-0.1145362258 -0.1490099579 0.7990397811 -0.5591055155 -0.533170104 0.6329369545
-0.1149952486 -0.1573903263 0.7970046997 -0.5689836144 -0.5352057219 0.6221264005
-0.04327151179 -0.08953423798 0.6903565526 0.03199320659 0.04967127368 -0.4724760056
-0.04890758917 -0.09547877312 0.6932907104 -0.4807142019 0.002981884638 -0.8738026023
-0.08247888833 -0.09453515708 0.7127198577 -0.1071208417 0.6018895507 -0.7879346609
-0.07704297453 -0.09222754836 0.714055717 -0.01179230027 0.6135334373 -0.7867282629
-0.08925085515 -0.08930021524 0.7177381516 -0.2320770472 0.6081826687 -0.7564283609
-0.09648999572 -0.09269072115 0.7178324461 -0.3456811011 0.584558785 -0.7325897813
-0.08984576911 -0.09456511587 0.7146192193 -0.2406063378 0.5907251239 -0.7649955153
-0.08735828102 -0.09777225554 0.7099411488 -0.1850357056 0.5980316997 -0.7772428989
-0.09013599902 -0.1036101356 0.7071963549 -0.2405395955 0.5923352242 -0.7621303797
-0.09336033463 -0.09958634526 0.7114870548 -0.290640682 0.5883074403 -0.7477745414
-0.0986270681 -0.1043071598 0.7095844746 -0.3798791766 0.5717926025 -0.725235939
-0.09960709512 -0.0987213403 0.7153712511 -0.4061568677 0.5699796081 -0.7120574117
-0.09672158211 -0.1222405806 0.6967955232 -0.3703567088 0.4951466024 -0.7854646444
-0.09987003356 -0.1159859523 0.7024270892 -0.3974321485 0.5287771821 -0.7422558665
-0.106131427 -0.1166140437 0.7037653923 -0.4920518398 0.4915516973 -0.7159987092
-0.102911368 -0.1102294624 0.7074193954 -0.4546249211 0.5368646383 -0.7098188996
-0.1028294638 -0.1230144352 0.7001948357 -0.458822757 0.4851573408 -0.7388655543
-0.1121030301 -0.1020086259 0.721529007 -0.5949314833 0.505197227 -0.6231623888
-0.1165924221 -0.09957461804 0.7283913493 -0.6539213657 0.4567974508 -0.6015741825
-0.1198456734 -0.1126378849 0.7213999629 -0.7044371367 0.4427013993 -0.5538684726
-0.1220378056 -0.121825695 0.7175137401 -0.7080286741 0.4228562117 -0.5654382706
-0.1250026524 -0.118133381 0.7236564755 -0.7266064882 0.419804424 -0.5437520742
-0.1339929998 -0.148729831 0.7452124953 -0.8914040327 0.0516458191 0.07307515293
-0.1356815845 -0.1637760699 0.7461866736 -0.9580245018 -0.06351236999 0.2656984627
-0.1347158253 -0.1715622991 0.7484349012 -0.9063663483 -0.2800460756 0.3159011602
-0.09185283631 -0.1504810005 0.8195441961 -0.2697435319 -0.5929132104 0.7579255104
-0.09089077264 -0.1591408104 0.8135429621 -0.2742440104 -0.6101765633 0.7384354472
-0.1247155368 -0.1606846452 0.7765398622 -0.7526970506 -0.464471966 0.4643400013
-0.1195811108 -0.1567271352 0.787504971 -0.6603744626 -0.5131963491 0.5432947874
-0.1219008565 -0.1674196571 0.7756233215 -0.744677484 -0.4335846603 0.4986458421
-0.12625359 -0.1615343243 0.7834911942 -0.7109022737 -0.4482088387 0.5350091457
-0.05144130811 -0.1192543954 0.7001082301 0.3887169957 0.3107580543 -0.840041399
-0.05812573433 -0.1172009036 0.6977493167 0.2004049569 0.3425023258 -0.9074927568
-0.09369726479 -0.1073719189 0.7042860985 -0.291082859 0.5753201246 -0.76394701
-0.08799355477 -0.1103393063 0.701215148 -0.1978436261 0.5879333615 -0.7835527062
-0.08216060698 -0.1131723449 0.6984125376 -0.1182749867 0.5936538577 -0.7908263206
-0.08944120258 -0.1173978001 0.6971920133 -0.2450477928 0.5511210561 -0.791565299
-0.09312735498 -0.1139210612 0.7004116178 -0.2871539593 0.5579705238 -0.7758679986
-0.1320420057 -0.1621887982 0.7593034506 -0.8946880102 -0.267827034 0.3537327349
-0.1324564964 -0.1681522131 0.7565661669 -0.8874653578 -0.2754674256 0.3668266237
-0.1291380376 -0.1682609022 0.7630214095 -0.8566399217 -0.3027497232 0.416947484
-0.1008324325 -0.1513492763 0.8118528724 -0.424228549 -0.5441779494 0.7226702571
-0.1126612276 -0.1690835208 0.7854661942 -0.612577498 -0.5013489723 0.6058511138
-0.121157825 -0.1659063101 0.7830133438 -0.6834061742 -0.4684709907 0.5532638431
-0.1166927814 -0.1710101813 0.7814466953 -0.6803412437 -0.466786176 0.5587463379
-0.1195355132 -0.174348861 0.7752343416 -0.7337632775 -0.384898752 0.5582934618
-0.1081445366 -0.1751622409 0.7859156132 -0.5662257671 -0.4808668792 0.6681140065
-0.1312107444 -0.1605120152 0.7655768394 -0.8695642352 -0.3105280399 0.3816695809
-0.1313594133 -0.1365040541 0.7468442321 -0.8088378906 0.09675878286 -0.1503739506
-0.1322277486 -0.1449939907 0.7559381723 -0.8376456499 -0.09637980908 0.08300793916
-0.1332466602 -0.1537935436 0.7633556128 -0.8714119792 -0.2740899622 0.3080165982
-0.1336874366 -0.1464241743 0.7628549337 -0.8505923748 -0.1914200485 0.1957418472
-0.135493964 -0.1154794097 0.7527832985 -0.7736874223 0.2559064031 -0.3621708155
-0.1347424537 -0.1279516965 0.7566686273 -0.8045907617 0.07703952491 -0.1387683302
-0.1342592984 -0.1379849911 0.7606975436 -0.8299347758 -0.07426212728 0.04854766279
-0.1334924549 -0.119247742 0.7479974627 -0.7702892423 0.2700099051 -0.3799518645
-0.1355881095 -0.1075588986 0.7491019368 -0.7512561083 0.3838042617 -0.5221942067
-0.1307350248 -0.129704386 0.7439004183 -0.781093955 0.2029111236 -0.2956398726
-0.1330679208 -0.1239812225 0.7440625429 -0.7782934308 0.2498084158 -0.3453264832
-0.1335560828 -0.1312146336 0.7511933446 -0.8060435057 0.09037141502 -0.1470458955
-0.1335120648 -0.1148860455 0.7397315502 -0.75757128 0.3868495226 -0.5108045936
-0.1324287802 -0.1395466179 0.7520045042 -0.8153772354 0.008025007322 -0.05254331231
-0.1317233592 -0.1538617313 0.7798073292 -0.7707898617 -0.4118739963 0.4556801319
-0.1304322183 -0.1529116184 0.7861577868 -0.7201985717 -0.4538114071 0.5007657409
-0.1328257769 -0.1550062895 0.7698323727 -0.8486993313 -0.3469126523 0.3850482702
-0.1351926625 -0.1587179154 0.7510524392 -0.9320877194 -0.1358261853 0.3043870032
-0.1345629841 -0.1559594274 0.7570216656 -0.9092336297 -0.1510568559 0.3069414496
-0.1342744976 -0.1506796479 0.7513903975 -0.8906789422 -0.02653964609 0.1596522182
-0.1358512789 -0.1555036604 0.7454699874 -0.9436301589 0.06473851204 0.2138152719
-0.1316170841 -0.127161622 0.7378707528 -0.770408988 0.3138190508 -0.4123928547
-0.1168855205 -0.1609931588 0.7920331955 -0.6017486453 -0.5299600959 0.5950657725
-0.1266725361 -0.1548732221 0.7923853397 -0.6627674103 -0.5066854954 0.5511989594
