# .PCD v0.7 - Point Cloud Data file format
VERSION 0.7
FIELDS x y z normal_x normal_y normal_z
SIZE 4 4 4 4 4 4
TYPE F F F F F F
COUNT 1 1 1 1 1 1
WIDTH 512
HEIGHT 1
VIEWPOINT 0 0 0 1 0 0 0
POINTS 512
DATA ascii
-0.08260055631 -0.1408540905 0.5217434764 0.7525049448 -0.3285036087 0.5088442564
-0.08027912676 -0.1538816541 0.5142730474 0.71759969 -0.09148073941 0.3839968443
-0.0812067315 -0.1461408436 0.5244067907 0.5364611745 -0.3362859786 0.4777239263
-0.07786712795 -0.1600274444 0.5213472247 0.288654089 -0.2064272016 0.373280108
-0.07931116968 -0.1541650593 0.5223303437 0.4049552679 -0.2549374998 0.416072607
-0.07383188605 -0.1681345105 0.5383808613 -0.5689367652 -0.5156143308 0.3915901482
-0.0762250945 -0.1629780382 0.5291113257 -0.08274027705 -0.3509653509 0.3865357935
-0.07576515526 -0.1625792831 0.5342150331 -0.2656301856 -0.4573033452 0.4106657207
-0.08096665889 -0.1444788277 0.530546248 0.3474206924 -0.4699326158 0.5145461559
-0.0776199922 -0.1587484628 0.5266346931 0.1218560934 -0.3207890093 0.4039876461
-0.0773679316 -0.1570995301 0.5328509808 -0.0704388842 -0.4559446871 0.4410473704
-0.08088059723 -0.1498825103 0.5184053779 0.6658037305 -0.1953890622 0.4277721047
-0.07063826919 -0.1589273065 0.5266074538 -0.1275572181 -0.4234084785 0.4646165073
-0.07448791713 -0.1566248387 0.5051196814 0.8117645383 0.02458614111 0.490857929
-0.07305434346 -0.1591033638 0.514529705 0.4061721265 -0.1397430897 0.4724319279
-0.06999275833 -0.1643648744 0.5345985889 -0.4589346051 -0.4907400608 0.4332500696
-0.07277376205 -0.1630349904 0.5193653703 0.2081600577 -0.1665923893 0.450427115
-0.0717400983 -0.1484395415 0.5119194388 0.4795944393 -0.3103398383 0.5245958567
-0.0714655444 -0.1573270857 0.5210295916 0.112347275 -0.3288407922 0.4761567414
-0.07270242274 -0.1540299952 0.51190418 0.5021715164 -0.1888440549 0.4982397258
-0.07205079496 -0.1650915295 0.5248116255 -0.02414831519 -0.2482222766 0.4368288517
-0.01109025721 -0.07151645422 0.5410723686 0.587693274 -0.1641038507 0.7047917247
-0.01635566913 -0.06990300864 0.5468291044 0.6460129023 -0.1447850019 0.715429306
-0.008943173103 -0.0684864372 0.5364752412 0.7737901211 -0.1601563394 0.5676797628
-0.06076235324 -0.1133783609 0.5185722113 0.4404164851 -0.6441420913 0.6222389936
-0.06557010859 -0.1157846525 0.5200922489 0.5103173852 -0.6033060551 0.6107839942
-0.07313469797 -0.1804084331 0.5247713327 -0.6898624301 -0.3420630395 0.2394056916
-0.07049105316 -0.1851861328 0.5272977948 -0.6938304901 -0.4631421864 0.3731096387
-0.07295539975 -0.1737837046 0.5166537166 0.00799686648 -0.1845672131 0.4052349925
-0.07088888437 -0.1757766604 0.5330263972 -0.7757787704 -0.4463778436 0.2827246785
-0.0739768222 -0.1663375944 0.5139609575 0.2684201002 -0.06765205413 0.3931060731
-0.07333405316 -0.1747550666 0.5233110189 -0.5035774708 -0.2724081576 0.2451015562
-0.06910158694 -0.1724937409 0.5384688973 -0.7043841481 -0.5189192295 0.3826660216
-0.07039690763 -0.1700320244 0.5313143134 -0.376963675 -0.3835483789 0.401293695
-0.07480658591 -0.1616105288 0.5070738196 0.7344981432 0.07597862929 0.4650050998
-0.07977579534 -0.1582402736 0.509634912 0.7332237363 0.01161478925 0.3241113722
-0.07377339154 -0.1764765829 0.5283560157 -0.7556086779 -0.3678820729 0.2063865513
-0.07821309566 -0.1622646004 0.5152486563 0.3732019961 -0.09552221745 0.3106193542
-0.07626973093 -0.1690887213 0.5203692317 -0.1439106464 -0.2077896446 0.250688225
-0.07478892803 -0.1710212529 0.5276123881 -0.4133320153 -0.3309881091 0.2825129032
-0.009536854923 -0.06057099998 0.5285909176 0.8634867072 -0.221813634 0.44257465
-0.01463881508 -0.06294292212 0.5346620083 0.7829244137 -0.260160476 0.5356011987
-0.0234925691 -0.09773202986 0.5420730114 -0.2469566762 -0.6951178312 0.6685547829
-0.02501182444 -0.09305211157 0.5460665822 -0.1874600202 -0.6049764752 0.7543828487
-0.02547896467 -0.08404392004 0.553386569 -0.09324001521 -0.4653516114 0.8792190552
-0.05879533663 -0.2004667521 0.5400300622 -0.5985895991 -0.6079474688 0.5181159377
-0.0717844367 -0.1493439972 0.502784133 0.7312325239 -0.2412928343 0.5651263595
-0.07629098743 -0.1474299282 0.5053030849 0.7629544139 -0.2421462238 0.5139484406
-0.07925157994 -0.1458788663 0.5107030272 0.7949777842 -0.2246433347 0.4787697196
-0.07962462306 -0.141278103 0.5138627887 0.7452536821 -0.3391655982 0.5248969197
-0.07635633647 -0.1426410377 0.5080981851 0.7056391239 -0.3677439094 0.567741096
-0.07273828238 -0.1415185034 0.5037879944 0.6569343209 -0.4316541255 0.6171024442
-0.07441799343 -0.1377384216 0.5094868541 0.6860255599 -0.4349437952 0.5824027061
-0.06797589362 -0.1328752786 0.5060321689 0.6124400496 -0.5186135173 0.5940631032
-0.004712680355 -0.08130961657 0.5046001077 0.746270597 -0.3432308137 0.5678278804
-0.07891024649 -0.106331341 0.5436124802 0.5694540739 -0.5812739134 0.5808489919
-0.07504595816 -0.1086687371 0.5363627672 0.5599853992 -0.592081964 0.5774580836
-0.07693798095 -0.1204458252 0.529625833 0.6186139584 -0.5419557691 0.5684464574
-0.07286637276 -0.1166581661 0.5274020433 0.6032053828 -0.5420590639 0.584987998
-0.02152730152 -0.0804130435 0.5532874465 -0.06349557638 -0.442592144 0.8914625645
-0.02071273886 -0.07510693371 0.5527573228 0.2303406596 -0.2353111804 0.9218662381
-0.02180720866 -0.07004080713 0.5508022904 0.4345925748 -0.1004195288 0.8862915635
-0.05000141636 -0.1645756364 0.5867849588 -0.150259167 -0.8155092001 0.5476754308
-0.04324505106 -0.1635902077 0.5898116827 -0.02312256582 -0.8174949288 0.5731236339
-0.009362678975 -0.07728019357 0.5399506688 0.3355399668 -0.3517183065 0.6563974619
-0.01505317539 -0.08260094374 0.5490365624 0.03657136112 -0.4414100945 0.7933799624
-0.01470989175 -0.0884314999 0.5447852612 -0.03479323909 -0.5204473138 0.7339503169
-0.01169558708 -0.08505679667 0.5403072834 0.1316571385 -0.4653004706 0.6660162807
-0.01779641025 -0.08504857868 0.5534872413 -0.1058479548 -0.4830371737 0.8603916168
-0.007237101439 -0.07951880991 0.5340127945 0.3857966363 -0.3762309551 0.5700793266
-0.00396485161 -0.07258132845 0.5311225057 0.6140716076 -0.2714198232 0.523563683
-0.01601950824 -0.07527270913 0.549100101 0.3579154611 -0.2018626034 0.8491075039
-0.007420702372 -0.07407669723 0.5365408659 0.5026420951 -0.2768431902 0.6147887111
-0.01261420641 -0.07750824839 0.544656992 0.2910485566 -0.316369921 0.7458720207
-0.01931524649 -0.09705966711 0.5448726416 -0.196728453 -0.6396871805 0.7274418473
-0.01881305128 -0.09293925762 0.54984653 -0.1056325063 -0.5444254875 0.823243916
-0.003850023961 -0.08396357298 0.5170974731 0.548732996 -0.4120496511 0.5864347816
-0.01530821715 -0.09773999453 0.5352495909 -0.1245385632 -0.6640781164 0.6251627803
-0.01417977735 -0.09393581003 0.5389688015 -0.0753519088 -0.591168642 0.7048590183
-0.01332042739 -0.09618709236 0.5302171111 -0.001883056713 -0.6368027925 0.5898825526
-0.009619767778 -0.09014005959 0.5279493332 0.2043885887 -0.5240131617 0.631888926
-0.07955980301 -0.1472472847 0.5353954434 0.206665948 -0.4961747229 0.5059704185
-0.07362682372 -0.1641048044 0.5471038818 -0.4925188422 -0.5613713861 0.4265272319
-0.05636589229 -0.1663092375 0.5806578398 -0.3134871423 -0.8025938272 0.5068100691
-0.03669704497 -0.2026804835 0.5472106934 -0.1258027107 -0.720164299 0.6783412099
-0.02489431761 -0.1748668849 0.5719004273 0.2650277615 -0.7275779247 0.6321510077
-0.02948854491 -0.1763435602 0.5694344044 0.179129675 -0.7312406898 0.6336014867
-0.01966941543 -0.1721556485 0.5676041842 0.3895356953 -0.6588061452 0.5994771719
-0.06674359739 -0.1209340915 0.5155504942 0.5517691374 -0.5804645419 0.5950351954
-0.01808875985 -0.1003417 0.5401928425 -0.2720868289 -0.7082360983 0.6469383836
-0.06821488589 -0.184307158 0.5328050852 -0.7353751659 -0.5279801488 0.422730267
-0.06782889366 -0.1778807938 0.537930131 -0.7450505495 -0.5316729546 0.399363637
-0.06814020872 -0.1833881587 0.5383742452 -0.7682097554 -0.506223321 0.3913907707
-0.04935441166 -0.1993754506 0.5458196402 -0.371442318 -0.6847679019 0.6100490689
-0.03763918579 -0.1896302402 0.557528317 -0.1025441736 -0.7147402167 0.6911608577
-0.03529351577 -0.1956318617 0.5510939956 -0.1127469093 -0.6976863742 0.7070295811
-0.03919104114 -0.1935400516 0.5539435744 -0.1558494568 -0.6940301657 0.6983631849
-0.008642632514 -0.1934215426 0.5462983847 0.5350893736 -0.504912734 0.6589898467
-0.03218766674 -0.1915467232 0.5556931496 -0.004984953441 -0.677169919 0.722477138
-0.02764020674 -0.1890396029 0.5577238798 0.1254620105 -0.6538878679 0.7345061898
-0.07267757505 -0.1547816247 0.4997366667 0.7101930976 -0.2831021547 0.5886383057
-0.08280479163 -0.1351476014 0.5263496637 0.6908028722 -0.4569862187 0.5601783395
-0.07049307972 -0.1215571538 0.5204840899 0.6096361279 -0.53606987 0.5830869079
-0.0738651529 -0.1519596428 0.5313960314 -0.05826159567 -0.5086548924 0.476668328
-0.07592236996 -0.1247426122 0.5245594978 0.6249316931 -0.5298718214 0.5713634491
-0.07915987074 -0.1305947155 0.5238643885 0.6694841385 -0.4893785119 0.5579078197
-0.07992979884 -0.1262876391 0.5295503736 0.6496722102 -0.5081887841 0.5633315444
-0.0738382116 -0.1250877082 0.5187971592 0.6187887192 -0.5382912755 0.5720543265
-0.009570278227 -0.08354024589 0.5045757294 0.6876741648 -0.3659502566 0.6223278642
-0.007429250516 -0.07658789307 0.507614255 0.7507814765 -0.3515057266 0.557033658
-0.01843076013 -0.08366019279 0.5142951012 0.4704152346 -0.4858874679 0.5755957365
-0.02530700155 -0.09265644103 0.5178059936 0.2005094588 -0.5976783037 0.6194081306
-0.01440623216 -0.08284021914 0.509783864 0.5912234783 -0.4240762293 0.5927543044
-0.01303926669 -0.07772103697 0.5109263659 0.6727240682 -0.3991420567 0.5519750714
-0.02056215517 -0.09091983736 0.5129128098 0.3493762314 -0.5241774321 0.6322252154
-0.02398246713 -0.08714686334 0.5192165375 0.2840722501 -0.5730710626 0.5746058226
-0.007788457908 -0.07267569751 0.5109131336 0.777831018 -0.3521189988 0.5188342333
-0.01135174092 -0.06788142025 0.5163925886 0.8075635433 -0.374353081 0.4542742968
-0.006687229499 -0.095079422 0.5167484283 0.2513351142 -0.5336309075 0.6098957062
-0.008818119764 -0.09580360353 0.5210804939 0.08833985776 -0.5929687619 0.6404693723
-0.003177728737 -0.0933322385 0.5101599693 0.4690769613 -0.4501606822 0.5876533389
0.002259096596 -0.0855339095 0.504969418 0.3407899141 -0.4517679214 0.8113301396
-0.0008247863152 -0.08613530546 0.5103399158 0.3463006318 -0.4673404098 0.7350619435
-0.007204062771 -0.08914348483 0.5206069946 0.3302166164 -0.5089043975 0.583622098
-0.00366781326 -0.08858271688 0.514672637 0.2617169023 -0.5091671944 0.7020608187
0.002309848554 -0.07935216278 0.5102517605 0.5791610479 -0.3659706414 0.6486004591
-0.004649758339 -0.08320906013 0.5220981836 0.4915911257 -0.4096085429 0.5867064595
-2.323365379e-06 -0.07385914773 0.522687912 0.7458111644 -0.2885418534 0.4539461434
-0.005511258263 -0.08218625933 0.5278900862 0.4295493364 -0.4101075232 0.5618365407
-0.01073240675 -0.08981662244 0.5333809257 0.1283923239 -0.5232385993 0.659391582
-0.002573949052 -0.07754048705 0.5255571008 0.5970628858 -0.3436510265 0.5006149411
-0.03423955292 -0.08101438731 0.5520619154 -0.06186634302 -0.4270080924 0.9021165371
-0.0232010521 -0.08931023628 0.5510259867 -0.1075975299 -0.4768915474 0.8718006015
-0.03010517918 -0.07625157386 0.5535354614 0.00733329216 -0.3853603899 0.9070667028
-0.07000932097 -0.09088385105 0.5504227877 0.4027549028 -0.6854469776 0.6045857072
-0.07031104714 -0.09568989277 0.5452444553 0.4498182237 -0.6644172072 0.5957404375
-0.02960070036 -0.07109066099 0.5510197878 0.3097740114 -0.2361415178 0.8702604175
-0.03531546146 -0.07350500673 0.5519191027 0.1983546317 -0.3622410297 0.8533623815
-0.06588830799 -0.1107459366 0.5258517265 0.4722179472 -0.6238885522 0.6182765961
-0.06928803027 -0.1150879487 0.5241794586 0.5549427867 -0.5804556012 0.5928823948
-0.07070869952 -0.1112326533 0.5283551216 0.5477433801 -0.5948446989 0.5869665742
0.004755774513 -0.1804629117 0.5375107527 0.7172811627 -0.4359987974 0.5394118428
0.009138696827 -0.1709609479 0.5324434638 0.922806561 -0.1055336446 0.3271729946
0.005871185567 -0.1741436273 0.5365695953 0.7942065001 -0.3441431522 0.4973493814
-0.003813917981 -0.1674381793 0.5545694828 0.7030080557 -0.4278670847 0.5679084659
-0.007239536848 -0.1791652888 0.5531423092 0.6645072103 -0.4529534876 0.5936906338
-0.006370704621 -0.1667211056 0.5605932474 0.6450028419 -0.4898073375 0.5818349719
-0.008775709197 -0.1711982489 0.5625916719 0.6240807772 -0.5054612756 0.5955160856
-0.01137075573 -0.1676788181 0.5670319796 0.5644500852 -0.594611764 0.571516633
-0.01230638567 -0.1754460037 0.5624116659 0.5583832264 -0.5324577689 0.6270723343
-0.01469314471 -0.1676528305 0.5722452998 0.4844260812 -0.6265658736 0.602678597
-0.01387867145 -0.1723670065 0.5670111179 0.4887907803 -0.609973073 0.5983256102
0.007422713097 -0.1549230814 0.5237108469 0.8340057731 0.2877515256 0.3596947789
0.006353259552 -0.1457324773 0.5173811913 0.6655869484 0.4423519373 0.4380611777
0.003597052768 -0.1453834027 0.5109004974 0.1787220985 0.338104099 0.7636886835
0.004616958089 -0.1532746553 0.5168578029 0.355645448 0.2137838304 0.6768584251
0.008582142182 -0.1677038372 0.5285108089 0.849082768 0.01110658981 0.3736097217
0.006815725006 -0.1607719213 0.5226331949 0.606895268 0.1051952839 0.5182794333
0.006688809488 -0.1648803055 0.5323782563 0.8635392785 0.0006779204705 0.3947754204
0.002420771634 -0.1599044651 0.5405736566 0.7217444777 -0.1683132201 0.5242674351
0.001553922426 -0.1628775597 0.5453624129 0.717915535 -0.3000487685 0.5493618846
0.004521305673 -0.1531518698 0.5304870009 0.753675878 0.1447992027 0.4443699121
0.005629415158 -0.1595197171 0.5319828391 0.8162177205 0.06303477287 0.4150352776
0.005626313854 -0.1672832668 0.5376721621 0.8578442335 -0.1287512779 0.419428885
0.003113226499 -0.1553944498 0.5361475945 0.7297191024 -0.00631181756 0.4873715639
0.006627348252 -0.1495358944 0.5218290091 0.7881013751 0.3772733808 0.3799079359
-0.07793744653 -0.1134303138 0.5374240279 0.5960673094 -0.5621218085 0.572386384
-0.08038819581 -0.1132534295 0.5426604748 0.5927684903 -0.5621465445 0.5747699738
-0.07942701131 -0.1193154529 0.5351485014 0.6209414601 -0.54061836 0.5663337111
-0.07554300874 -0.11374899 0.5318370461 0.6009316444 -0.5606254935 0.5696879029
-0.07488460094 -0.09998937696 0.5455269814 0.4987688661 -0.6323342919 0.5909919143
-0.08110710979 -0.1057881564 0.5501146913 0.5609787703 -0.5864378214 0.584287703
-0.08012823015 -0.09698871523 0.5555346012 0.4670889378 -0.651735425 0.5958485007
-0.08028949797 -0.1015328243 0.5533827543 0.5107975602 -0.6212109923 0.5904095769
-0.07432533801 -0.0955856517 0.5495513678 0.4572033882 -0.6594859362 0.5964133143
-0.03335682675 -0.09432177991 0.5264797211 -0.02314201556 -0.7153422832 0.5911032557
-0.02837303095 -0.0887331292 0.5230770111 0.1833068281 -0.6289488077 0.574223578
-0.03887045383 -0.09327694774 0.5302082896 0.02739858255 -0.7331064939 0.6094999313
-0.02242370881 -0.08018837124 0.5190057158 0.5020517707 -0.5056487918 0.5540017486
-0.0293470975 -0.08263994008 0.525180459 0.3758184016 -0.5862177014 0.5586543083
-0.03389569372 -0.08644217253 0.5273332596 0.2660419047 -0.6396973133 0.5859460235
-0.01622449793 -0.07370606065 0.516938746 0.6755104065 -0.4292764664 0.5057398677
-0.06490720809 -0.1756287366 0.5423619747 -0.673807025 -0.565459609 0.4253181219
-0.052889999 -0.1826115251 0.5521417856 -0.4286470413 -0.6463562846 0.5764898658
-0.04395614937 -0.2012065649 0.5456322432 -0.2673280835 -0.7155153155 0.6425418854
-0.04118207097 -0.1983079761 0.5501822829 -0.1930554062 -0.7078983188 0.6755216718
-0.05264239758 -0.1989337653 0.5415518284 -0.4783388972 -0.6387771368 0.5700669885
-0.05465143919 -0.1686027795 0.5741680264 -0.3218914866 -0.7900884151 0.5043392777
-0.05126349255 -0.1669080853 0.5822922587 -0.2337875962 -0.8094421029 0.5270735621
-0.044059515 -0.1668642163 0.5833935142 -0.1071190462 -0.8052031994 0.5640271902
-0.0492192097 -0.1680062413 0.5772756934 -0.2205631733 -0.7921804786 0.5330159664
-0.03952572867 -0.1691248119 0.5800767541 -0.04556200281 -0.7948250771 0.5753882527
-0.0439347662 -0.1702058762 0.5763245821 -0.1283086389 -0.79209131 0.5511537194
-0.03686079755 -0.1683579683 0.584522903 0.02906500548 -0.8106959462 0.5832645893
-0.03804107383 -0.1649112254 0.5890933275 0.02204667777 -0.8172775507 0.5746331811
-0.04183932394 -0.1773329377 0.5679756999 -0.08441559225 -0.7649777532 0.6068409681
-0.02383743785 -0.1675464511 0.5798067451 0.2374115735 -0.7433247566 0.6233947277
-0.02001294866 -0.1635739207 0.5821316838 0.2841721475 -0.7358213663 0.6116530895
-0.01781441271 -0.1665918827 0.5773460865 0.3437923491 -0.7141999602 0.606628716
-0.02150605991 -0.1701715887 0.5742520094 0.3174134195 -0.7065788507 0.6167374849
-0.03015454672 -0.1836827546 0.5635726452 0.1206270754 -0.7055267692 0.6872351766
-0.03276915103 -0.1756025106 0.5735596418 0.1074253768 -0.7699496746 0.6225426793
-0.03294528648 -0.1799470782 0.5668920875 0.1054765135 -0.7350887656 0.657086134
-0.02301592566 -0.1782813519 0.565530479 0.3138807714 -0.6687532067 0.6458492875
-0.01800635271 -0.1780840158 0.562265873 0.4479630888 -0.5847020149 0.6375838518
-0.02162914164 -0.1823772639 0.5628469586 0.3363032043 -0.6326325536 0.6897333264
-0.0329679288 -0.1869799495 0.5600735545 0.02961519174 -0.7027136087 0.6927888989
-0.02410124056 -0.1834350526 0.558386147 0.2781184614 -0.5965322852 0.6631734371
-0.01722246595 -0.1804051101 0.5578958392 0.4714358151 -0.5233811736 0.6430184245
-0.06170378998 -0.1208674088 0.511126399 0.4907605946 -0.6138281822 0.615570128
-0.06304198503 -0.1175353155 0.5155504346 0.5077562928 -0.6088206172 0.6090048552
-0.06338881701 -0.130255565 0.503275454 0.548374474 -0.5674734116 0.6129306555
-0.06752430648 -0.1260144264 0.5114024282 0.5762265325 -0.5630432367 0.5908360481
-0.05874507129 -0.1256582141 0.506531179 0.4528676569 -0.6144735217 0.6419281363
-0.06360889226 -0.1939409375 0.5340497494 -0.6724005938 -0.5508209467 0.4912247956
-0.0626751408 -0.1982242018 0.5376126766 -0.6578600407 -0.5628364086 0.4957872629
-0.0684420839 -0.1916716844 0.5301089883 -0.7096859217 -0.5315286517 0.4607210159
-0.06645736843 -0.189379856 0.5363489389 -0.7256793976 -0.5377981067 0.424107492
-0.07415591925 -0.1587484926 0.5445079207 -0.2543286085 -0.5511187315 0.4505411685
-0.07143076509 -0.1652159542 0.5422631502 -0.5441856384 -0.538844645 0.4227534235
-0.07014133036 -0.168442741 0.547571063 -0.6649782658 -0.5693477988 0.4061105549
-0.08206930757 -0.1394270808 0.5303459764 0.5342659354 -0.4688774943 0.5425779223
-0.07331945002 -0.1606063098 0.5389509797 -0.3557985127 -0.5196028352 0.4446825087
-0.0782654956 -0.1487129927 0.5405739546 0.1666518599 -0.5447512269 0.4913544357
-0.07421670109 -0.160091415 0.5505304933 -0.2997678816 -0.5990208387 0.4379532039
-0.0768263787 -0.1538986415 0.5442694426 -0.05359166488 -0.5527023077 0.4715618789
-0.0712255165 -0.1662336439 0.5575827956 -0.5363032222 -0.6617228985 0.4000831544
-0.06601849198 -0.1691952944 0.5537437797 -0.6287966967 -0.6326926947 0.4188510478
-0.01651211828 -0.1935676783 0.554841578 0.3829464614 -0.6146042347 0.687148571
-0.01908754744 -0.1865584254 0.5591703057 0.3676350117 -0.600492835 0.7029432654
-0.02075137012 -0.1966676265 0.5478212237 0.2056385577 -0.6203995347 0.7203118801
-0.006788140628 -0.1874623597 0.5457192063 0.6062135696 -0.4769869745 0.5988796353
-0.01076192874 -0.1789921075 0.5579960942 0.5876538754 -0.4989329278 0.6322411299
-0.01183462888 -0.1934658289 0.5502623916 0.4886111915 -0.5456008911 0.6714994311
-0.01434414834 -0.1980055124 0.5507417321 0.4044644833 -0.6052463651 0.6797366142
-0.02702452987 -0.1975820065 0.5488703847 0.05503515527 -0.6635751724 0.7392824888
-0.02118306234 -0.1921614856 0.5513945818 0.253002733 -0.5912268162 0.7279654145
-0.01164651569 -0.187962085 0.5485591292 0.5013613701 -0.5084890127 0.6416159272
-0.007394576445 -0.183904618 0.5504633784 0.6525959969 -0.4550336301 0.6035606265
-0.01372077037 -0.1865074337 0.5527768135 0.4935715795 -0.510440886 0.664382875
-0.01889328659 -0.2014313489 0.5496189594 0.2757691145 -0.6509427428 0.6824224591
-0.02587568015 -0.1942614913 0.5526763201 0.1365261674 -0.630539 0.7607415318
-0.02389518917 -0.2016920149 0.5480552912 0.1372229755 -0.6751269102 0.7019049525
-0.02960791811 -0.202150315 0.5476111174 0.01286258176 -0.6985142231 0.6978923678
-0.009072628804 -0.1299007684 0.5057190061 0.1460285783 0.1574356109 0.9728339911
-0.003329389729 -0.1388841718 0.5035046935 -0.09523605555 0.2786438167 0.9432755113
-0.009370113723 -0.1354317516 0.4975848496 -0.03354712948 0.2125777155 0.970060885
-0.01445499528 -0.1256791204 0.5065228343 0.1202098802 -0.1167237833 0.8849462867
-0.01332001854 -0.1123756543 0.5143588781 -0.009873642586 -0.3475424349 0.7492516041
-0.008305821568 -0.1172307953 0.5059662461 0.147101298 0.04405225813 0.927165091
-0.009381229058 -0.1218581572 0.5100986362 0.1831602156 0.04292819276 0.9101173282
-0.01691590995 -0.1095975786 0.5206671357 -0.1137907282 -0.6180843115 0.6242831349
-0.0113825528 -0.1164223924 0.5120091438 0.07748128474 -0.164500922 0.8260803819
-0.01586948149 -0.102807194 0.5276336074 -0.1000896618 -0.721488297 0.5606006384
-0.01299289241 -0.101124078 0.5223542452 0.05268738419 -0.6614983678 0.5571427941
-0.008144432679 -0.1119761616 0.4989760816 0.3897051513 -0.0405766964 0.9195042253
-0.01760439388 -0.1266623139 0.4961585999 -0.03898133337 -0.1685687155 0.9450696111
-0.0103990566 -0.1169365346 0.498065412 0.2437240332 -0.0737400502 0.9307151437
-0.01806650683 -0.1318487972 0.4955982268 -0.1334808022 -0.1202979907 0.9560512304
-0.01415470429 -0.1226513609 0.4969878495 0.08223884553 -0.118957825 0.9398109317
-0.01200492028 -0.1278313696 0.4969086349 0.05091378838 0.02609672397 0.9522266388
-0.07618862391 -0.1302762777 0.518173933 0.655664742 -0.5017684102 0.5624668598
-0.07007481158 -0.1303152293 0.5109091401 0.6263132095 -0.533675015 0.5667929053
-0.07595639676 -0.1351514757 0.5137964487 0.6841591597 -0.4543833435 0.5699541569
-0.07355730236 -0.144274503 0.522482872 0.2547878027 -0.4898687601 0.520745635
-0.07453145087 -0.1471104771 0.5278140903 0.1264476031 -0.5016944408 0.4977895021
-0.07653391361 -0.1359662563 0.5200350881 0.5605040789 -0.4831570387 0.5476381183
-0.07333140075 -0.1404250413 0.5175278783 0.4261150956 -0.4764797688 0.5444124341
-0.0709104985 -0.1577552259 0.5312362313 -0.2596511841 -0.5092337728 0.4620735049
-0.07095040381 -0.1412023157 0.5121327043 0.4691785872 -0.4554282725 0.5568823814
-0.07099276036 -0.148056373 0.5201986432 0.1654793024 -0.4782910347 0.5172060728
-0.01844098978 -0.1272427142 0.5016658902 -0.01034614351 -0.1878609359 0.9077593684
-0.02299083211 -0.1234406233 0.5034763813 -0.05427540094 -0.5362661481 0.7879348993
-0.05823337287 -0.1441666782 0.493647784 0.4469873607 -0.5096848011 0.7026754618
-0.06692103297 -0.1504719555 0.4962208271 0.6034300327 -0.4444202483 0.6536267996
-0.05312637612 -0.1395985484 0.4894246757 0.4262136221 -0.5464789271 0.7023243904
-0.06357536465 -0.1468588561 0.4934107661 0.5948759913 -0.467592001 0.6513292193
-0.06573349983 -0.1349580437 0.5016006231 0.5893113017 -0.5139792562 0.6225694418
-0.07122180611 -0.1443275511 0.4998076558 0.6427028775 -0.429813683 0.6341870427
-0.06058776006 -0.1347620338 0.5003175735 0.509424746 -0.5536873937 0.6531197429
-0.06631045789 -0.140643239 0.5011497736 0.6003650427 -0.4797815382 0.6298851967
-0.00187987485 -0.07403651625 0.512573123 0.8173280358 -0.318233341 0.4775615931
-0.01034009829 -0.06442346424 0.521128118 0.8596951365 -0.2866438329 0.4211819172
-0.0137995407 -0.06571635604 0.5400999784 0.7710003257 -0.182349667 0.5951372385
-0.007375605404 -0.06574214995 0.532286942 0.8313333988 -0.1845673919 0.5018160939
-0.001750879339 -0.06645619124 0.525852263 0.8783594966 -0.1852851212 0.4285694957
-0.004424904939 -0.06241548434 0.5267360806 0.8870537877 -0.1914962083 0.4180838764
-0.05903020501 -0.08488742262 0.5487679839 0.2661272883 -0.7321141958 0.6191273332
-0.06014968455 -0.09615409374 0.5379114747 0.3401116431 -0.703913331 0.6202165484
-0.06299687177 -0.09264599532 0.5431776047 0.3617812693 -0.700720489 0.6096749306
-0.06967459619 -0.08590882272 0.5538347363 0.3646012247 -0.7132471204 0.5977784991
-0.07430358231 -0.09111941606 0.5538809896 0.4185813665 -0.6826488376 0.5975939631
-0.06315097958 -0.08521897346 0.5523880124 0.2783749104 -0.7321770191 0.6084648967
0.002638337668 -0.1725961864 0.5419225693 0.7478797436 -0.3338656723 0.5349619985
-0.007053885143 -0.1734924614 0.5539459586 0.6618944407 -0.452251792 0.5957933068
-0.0571375899 -0.1163128689 0.5146178603 0.3796617985 -0.6651997566 0.6379597783
-0.05527505651 -0.111626327 0.5182108283 0.3178352714 -0.6929648519 0.6341648102
-0.003433849895 -0.1199634671 0.5064960718 0.3350622952 0.1138928458 0.8985599279
-0.005258975085 -0.1267397553 0.5099974871 0.3312153518 0.2077913284 0.8885554671
0.001794526353 -0.1270950884 0.5094641447 0.4970808327 0.2909124792 0.7527689338
-0.003801588668 -0.1141553819 0.5036148429 0.291618228 0.01535184588 0.9434888363
-0.06177485734 -0.1038949266 0.5303950906 0.3933981061 -0.6699115634 0.6262465715
-0.06639797986 -0.1070711464 0.5294508934 0.4668253362 -0.6363053918 0.6120947003
-0.07373640686 -0.103873916 0.5403310657 0.5088281631 -0.6249065399 0.5911738873
-0.06617374718 -0.0993263796 0.5367583036 0.4210167527 -0.667073667 0.6101076603
-0.0711460337 -0.1046204567 0.5355609059 0.5163738728 -0.62271595 0.584273994
-0.0701951012 -0.1004930213 0.5407675505 0.4672508538 -0.6485968828 0.5985336304
-0.05755067989 -0.1955170333 0.5451980829 -0.5612938404 -0.6080884337 0.5540079474
-0.06035636738 -0.1911019534 0.542398572 -0.6932539344 -0.5017352104 0.5161550045
-0.05848030746 -0.1808719784 0.5470994115 -0.5634877086 -0.595159173 0.504391551
-0.05882135034 -0.1872012764 0.5465294123 -0.6787837148 -0.5061200857 0.5244327188
-0.05088291317 -0.1940612048 0.5488351583 -0.4265398681 -0.6458845139 0.6139174104
-0.05237829313 -0.1888531148 0.5530751944 -0.4004447758 -0.6566019654 0.6349828839
-0.04605168849 -0.1919266582 0.5517680645 -0.307118386 -0.681968987 0.6535023451
-0.04470327124 -0.1891022623 0.5558223724 -0.2744659483 -0.6942020655 0.6625353098
-0.05412446707 -0.1900369823 0.5479921103 -0.5472922921 -0.5672236085 0.5760684609
-0.04463038221 -0.1958227754 0.5469385982 -0.3308091164 -0.6644022465 0.6278599501
-0.06321317703 -0.16696769 0.5727568865 -0.4159156978 -0.7563133836 0.4887135327
-0.06803429872 -0.1679347754 0.5630587339 -0.5897704363 -0.6965402961 0.3998817205
-0.06034988537 -0.1668229401 0.5770571232 -0.3532963395 -0.7800465822 0.5160344243
-0.02857491374 -0.171435982 0.5771899819 0.1714841723 -0.7572092414 0.6246621013
-0.03359747678 -0.1703585088 0.5782242417 0.09344510734 -0.7663131356 0.6005315185
-0.07210522145 -0.1737660468 0.5489683747 -0.7139270902 -0.5775714517 0.388887465
-0.07171216607 -0.1719020754 0.5543743372 -0.6853043437 -0.6107473969 0.3943100274
-0.06885223836 -0.1785452217 0.5460093021 -0.740190208 -0.538674593 0.396129936
-0.06899209321 -0.176300019 0.552113533 -0.7066084146 -0.5780642629 0.4012488425
-0.07241547108 -0.1757160127 0.5422570109 -0.7494149208 -0.5370879769 0.381870538
-0.06823755801 -0.171883449 0.5596103072 -0.6367124915 -0.6505371332 0.4059647024
-0.06549481302 -0.1691537648 0.5675356984 -0.4903784692 -0.7114819288 0.4721473753
-0.01425012201 -0.1184243187 0.5162764788 0.07401533425 -0.2862465978 0.7573310137
-0.02205186896 -0.1098179668 0.5227085352 -0.1149269119 -0.8307231069 0.5142767429
-0.007189240772 -0.1066145673 0.4979849756 0.522051692 -0.150900349 0.8325031996
-0.004748896696 -0.1077705175 0.5029025674 0.1941544861 -0.136967361 0.8901913762
-0.008266179822 -0.1064595208 0.5090646744 0.1030485258 -0.3616984189 0.7814326286
-0.01106874924 -0.1060883775 0.513585031 0.03106086701 -0.5089509487 0.7066428065
-0.01196259353 -0.1016630605 0.5169289112 0.1526281685 -0.6489847898 0.5416831374
0.0006912265671 -0.1016866192 0.4979958832 0.3450957239 -0.1596743613 0.9078356624
-0.00163962692 -0.09445358813 0.5046078563 0.5693567395 -0.3932598233 0.5960282087
-0.006465831771 -0.09836117178 0.5101361275 0.3552337885 -0.5021597743 0.5887738466
-0.004712785594 -0.1031213775 0.5054570436 0.2109896839 -0.3399695456 0.8003057837
-0.004050791729 -0.09965661913 0.4971920848 0.6167099476 -0.2128826976 0.7344713211
-0.05698781088 -0.1207348332 0.5078753233 0.409026742 -0.6500366926 0.6360365152
-0.05398985371 -0.1365486234 0.4940925241 0.3879645765 -0.5595638752 0.7106848955
-0.05980747938 -0.1383583695 0.4933228195 0.5519255996 -0.5230104923 0.6479543447
0.001654344378 -0.07183387876 0.5177226067 0.8689433932 -0.2580118477 0.4213479161
-0.002608825453 -0.06865306944 0.5176410675 0.8478325009 -0.284707725 0.4402604103
-0.0344206132 -0.08831403404 0.544657588 -0.1890751272 -0.6695783138 0.7129383087
-0.02918928303 -0.0889852941 0.547338903 -0.1514022648 -0.5891385078 0.7833766341
-0.04223168641 -0.08670055121 0.5446261168 -0.06356331706 -0.7362079024 0.6658982038
-0.04021479189 -0.09034986049 0.5412642956 -0.09732876718 -0.7464708686 0.6510429382
-0.04598736018 -0.08300868422 0.5480641127 0.02946666814 -0.7099772692 0.6979545355
-0.05343963951 -0.0825510174 0.5499016047 0.1526771784 -0.7614271045 0.6277451515
-0.03642136976 -0.08476176113 0.5474374294 -0.1022798419 -0.5918648243 0.7831488252
-0.05139576644 -0.07903575152 0.5530603528 0.1582911462 -0.7373435497 0.6528084874
-0.04365591332 -0.07873164862 0.5537998676 0.05457386002 -0.5934715867 0.7702724934
-0.03982084244 -0.0803706944 0.5462831259 0.1474378854 -0.6337686777 0.6831357479
-0.03458601236 -0.07584375888 0.5466256738 0.2986946404 -0.5320513844 0.6891200542
-0.04652205482 -0.09095464647 0.5405278206 0.04314451665 -0.749016583 0.6467775106
-0.06035514176 -0.1069550514 0.5263972878 0.3597283363 -0.6671587229 0.6351021528
-0.05919379741 -0.0991775021 0.5321406722 0.3275999129 -0.6978990436 0.6336479783
-0.05229955539 -0.1033226848 0.5248882771 0.2398457974 -0.7080183029 0.6526390314
-0.05398617312 -0.09836728126 0.5307928324 0.2367554754 -0.7243877053 0.6426745653
-0.04678232968 -0.09988091886 0.5279126167 0.0946091786 -0.7441362143 0.6511141062
0.000129868713 -0.1759814918 0.544760406 0.7053098083 -0.4009221792 0.5844337344
-0.003420481458 -0.1829787046 0.5456995964 0.6922364235 -0.4349327683 0.57536906
0.0004838696332 -0.1833069623 0.5416778922 0.6966596246 -0.4530753493 0.5560708642
-0.003714751685 -0.1771381944 0.548772037 0.6914430857 -0.4104038775 0.5932199955
-0.002592894714 -0.1714393795 0.5494046211 0.6912254691 -0.4381359518 0.5731888413
-0.0003926651552 -0.166444838 0.5497021079 0.7054281235 -0.4294213355 0.5635324121
0.001447843038 -0.1696257293 0.5462104678 0.7116926312 -0.4010837674 0.5765818954
-0.0456706956 -0.1041099802 0.5233155489 0.07333254814 -0.7364316583 0.6691272855
-0.04424830154 -0.1144500151 0.5086755753 0.1324478239 -0.7380703688 0.6545760036
-0.02683310211 -0.105807744 0.5027307868 0.384119302 -0.4674350023 0.7099849582
-0.03490926698 -0.1081531048 0.5076155663 0.2569088042 -0.6004192233 0.6776542068
-0.03834999725 -0.1136027426 0.5040000081 0.2308213413 -0.6370530128 0.681643188
-0.01737179421 -0.0999193415 0.5010284781 0.5133106709 -0.3257727921 0.7353249192
-0.03906174004 -0.1088765785 0.5107446313 0.1884547919 -0.6709652543 0.6591054797
0.001432802062 -0.1201934069 0.5028918386 0.2371772379 0.1302376837 0.9096688628
0.001438925159 -0.1128652319 0.5012941957 0.3265507817 0.03230610862 0.8931339383
0.001460989937 -0.1253740788 0.5041641593 0.1843584031 0.2016710937 0.9160031676
-0.001391529804 -0.1069168523 0.4987435043 0.2745059431 -0.04086846113 0.9464766383
0.0003794613876 -0.1346305013 0.506722331 0.09484736621 0.3457137346 0.9259293079
0.001031891443 -0.1399023235 0.5062867999 -0.006584129296 0.3715922236 0.9247744083
-0.007651639171 -0.1258971542 0.4989354908 0.07745569199 0.1903783679 0.974137485
-0.006671687122 -0.1309749484 0.4995359182 0.05382128432 0.2370104194 0.964410305
-0.00278165983 -0.1296400726 0.5039106011 0.09772230685 0.2762752771 0.9465975761
-0.03492943197 -0.09410042316 0.5402421355 -0.1183792502 -0.743083775 0.650030911
-0.03314857557 -0.09567480534 0.5353800654 -0.2426355779 -0.7615738511 0.5997772217
-0.02842866257 -0.09562961012 0.5414738059 -0.2322719842 -0.7199051976 0.6505112052
-0.02819450013 -0.09884685278 0.5355707407 -0.2586126626 -0.7510077953 0.6055930853
-0.03330155462 -0.09914840758 0.5313631296 -0.2220140696 -0.7777243257 0.5786620378
-0.04151815176 -0.09886905551 0.5294899344 -0.03212567046 -0.7634834647 0.6320086718
-0.04441237822 -0.09532624483 0.5330245495 -0.00329863606 -0.7727674842 0.6323118806
-0.04788976163 -0.08682401478 0.5443965197 0.05279556662 -0.7464268208 0.6538923979
-0.04010724649 -0.09335310757 0.5364704132 -0.1068333685 -0.7667679787 0.6228483915
-0.04031567276 -0.08667277545 0.5344713926 0.1370042562 -0.701345861 0.6094454527
-0.02674919367 -0.07669062167 0.5270177126 0.4584208727 -0.5465253592 0.5295098424
-0.01835499704 -0.07179491967 0.5215132236 0.652989924 -0.4567779899 0.477452606
-0.02294111997 -0.07273691148 0.5270021558 0.571161449 -0.4540678859 0.4957057536
-0.01639401354 -0.06764169782 0.5245197415 0.738049686 -0.3524966836 0.4528615773
-0.03615086898 -0.07951359451 0.541590929 0.2738399208 -0.5715211034 0.6601861715
-0.0197899919 -0.06632955372 0.537781179 0.6893166304 -0.3199795187 0.59608531
-0.02298086323 -0.07022866607 0.5344343185 0.5959854126 -0.3968255818 0.5659787655
-0.01861372963 -0.06691411883 0.5327871442 0.7049912214 -0.3339647353 0.5423028469
-0.03185224906 -0.07851089537 0.5330089927 0.3602010608 -0.5569388866 0.5643660426
-0.02689081803 -0.07231898606 0.5386110544 0.5065174699 -0.4347475767 0.6153255105
-0.03679223731 -0.08185248077 0.5361281037 0.2406736761 -0.619512558 0.6042314768
-0.04278255254 -0.08626647294 0.5387955904 0.09237988293 -0.7029647231 0.6409591436
-0.02712012269 -0.07457552105 0.5322831273 0.4815022051 -0.4816293418 0.5497438312
-0.01447766554 -0.06463548541 0.5285765529 0.8002576828 -0.2924385667 0.4922662079
-0.03207696229 -0.07684735954 0.5387430191 0.3715825677 -0.5217908621 0.6244379878
-0.02996595949 -0.07289892435 0.5450325608 0.4399066269 -0.4482363462 0.6821538806
-0.02453525364 -0.06764601916 0.5465533137 0.5896162987 -0.3428194821 0.6927018762
-0.03708826005 -0.1847589165 0.5626429319 -0.05900337547 -0.7246236205 0.6755591631
-0.04446619377 -0.1862523109 0.5607583523 -0.2185984999 -0.7463380694 0.6263440847
-0.04146379232 -0.1828390062 0.5646764636 -0.1434047818 -0.7589105368 0.6262552738
-0.0402973555 -0.176121816 0.5733921528 -0.07226055115 -0.7891501188 0.5975705385
-0.04668626934 -0.182330817 0.5637097359 -0.2617652416 -0.7571653128 0.5914117694
-0.05333158746 -0.1751202643 0.5711573958 -0.3577828705 -0.7575711608 0.5436276793
-0.04880655929 -0.1781579554 0.5690096021 -0.2712196708 -0.7703160644 0.5724876523
-0.0489786081 -0.174155578 0.574409008 -0.2523687482 -0.7885577083 0.5555436611
-0.06452896446 -0.1816024631 0.5488607883 -0.7181265354 -0.5537721515 0.4141940773
-0.06341457367 -0.1854486912 0.5452022552 -0.7380263805 -0.5232627392 0.419975847
-0.05909699574 -0.1850176603 0.5521177053 -0.5834084153 -0.6192296147 0.5074078441
-0.05962864682 -0.1730128378 0.5662698746 -0.5160965919 -0.7166333199 0.4488275647
-0.0584644787 -0.1713668108 0.571007967 -0.4349497557 -0.743601799 0.4870900214
-0.06375402212 -0.1750403792 0.5593996644 -0.6316877007 -0.6536955237 0.4145655334
-0.06246475875 -0.1760261953 0.550625205 -0.6454955339 -0.6010902524 0.4427694976
-0.06570886821 -0.1733391434 0.5473495126 -0.6976934671 -0.5745809674 0.4172354341
-0.05472293496 -0.1837088168 0.5573313832 -0.4477784932 -0.6659698486 0.5907931328
-0.04878405854 -0.1857312918 0.5574727058 -0.3649530411 -0.6837227345 0.6077376008
-0.05753468722 -0.179536134 0.5593250394 -0.5593829155 -0.6711544991 0.4706180692
-0.06144138053 -0.180589065 0.5539852977 -0.6558605433 -0.620223999 0.4298805892
-0.05878910795 -0.1737399101 0.5604959726 -0.4784712791 -0.7112790942 0.4856373966
-0.02439865284 -0.1154428422 0.5130679011 0.04031892866 -0.691691637 0.6284425259
-0.01940804347 -0.1180664077 0.5131922364 0.08967140317 -0.450956434 0.7111977935
-0.02196295373 -0.1134992763 0.5180296302 -0.01300734561 -0.6957044601 0.5812001228
-0.01582082734 -0.121517241 0.5109394789 0.1546588987 -0.2267504185 0.8109132051
-0.01175521035 -0.1044486985 0.4978546798 0.5226616859 -0.1674776673 0.8330934048
-0.009921457618 -0.09907605499 0.4975166917 0.6079267859 -0.2182760984 0.7627621293
-0.05357028916 -0.1246857196 0.5040351152 0.3587691486 -0.6550566554 0.65552634
-0.04611192271 -0.1220733449 0.5016697049 0.1991267949 -0.7186408043 0.6644975543
-0.03920687735 -0.1173345894 0.5074132681 0.0743766427 -0.7332635522 0.6638790965
-0.04499305785 -0.1195586771 0.5066846609 0.1856190264 -0.705206573 0.660231173
-0.05120999366 -0.1201821193 0.5087419748 0.2974037528 -0.6763540506 0.6510549784
-0.03610889614 -0.1133432239 0.5121546984 0.0176265724 -0.7847842574 0.6179671288
-0.03326984867 -0.1161456332 0.5087969899 0.0003468023206 -0.7556251884 0.6522603035
-0.02713940851 -0.1180830076 0.5083503127 -0.02228070982 -0.7354522347 0.671825707
-0.02976168878 -0.1107027605 0.5026935935 0.2648858428 -0.5565128922 0.7004755735
-0.02028893307 -0.105692029 0.5001749992 0.3909538388 -0.4131295085 0.7312843204
-0.06334597617 -0.08792674541 0.5466103554 0.3545151651 -0.705180943 0.6137397289
-0.05906633288 -0.08911348879 0.5428358912 0.2773411274 -0.7159391046 0.6313167214
-0.0549400188 -0.09389737993 0.5357348919 0.2211717069 -0.7318930626 0.6409797072
-0.04959475249 -0.09336085618 0.5344982743 0.1151011288 -0.7444375157 0.654484272
-0.05460835248 -0.08574213088 0.5456660986 0.2164927572 -0.7347652912 0.6422184706
-0.05174631253 -0.08828670532 0.5399190784 0.1448625177 -0.739138782 0.657599926
-0.05022329465 -0.1062602699 0.5210139751 0.1905115843 -0.727119863 0.6508577466
-0.05573870614 -0.1071710661 0.5217621922 0.3233558834 -0.6926758289 0.6426048279
-0.05256495625 -0.1145066842 0.5118283629 0.2988818288 -0.7075464725 0.6393224597
-0.04994627088 -0.1097987816 0.5162333846 0.2037606537 -0.7402941585 0.6360240579
-1.717490522e-05 -0.1338857263 0.5129477978 0.4912549853 0.3830832243 0.744265914
-0.004461967852 -0.1332615167 0.5073808432 0.0836892426 0.1462280303 0.9814774394
0.00441952562 -0.1395534277 0.5151672959 0.5938577056 0.4529957473 0.5468100905
-0.02763792686 -0.1121656448 0.5165567398 -0.03155491501 -0.8300703168 0.5512713194
-0.008660105988 -0.08847797662 0.5019866824 0.6814135313 -0.349598974 0.6388245225
-0.006383559201 -0.09341260791 0.499150902 0.706281662 -0.2866868973 0.6430202127
-0.003580009798 -0.08663659543 0.5022293329 0.7496427298 -0.3370121717 0.5690280795
-0.001387951314 -0.09549788386 0.4985693991 0.6662963629 -0.2659844756 0.6750335097
-0.04740163684 -0.1326148212 0.493258208 0.2566079497 -0.6277465224 0.7295669913
-0.05784281343 -0.1273565888 0.5017151833 0.4556130469 -0.6233635545 0.6305250525
-0.04947343096 -0.1354608387 0.4887435436 0.2982267141 -0.5898026228 0.747918129
-0.05317331478 -0.1288832277 0.4966426492 0.3888051808 -0.6367406249 0.6641056538
-0.05770115182 -0.1336507052 0.4958198369 0.4948682487 -0.5730310082 0.6471281648
-0.05018798262 -0.1254227459 0.4993544519 0.3130406439 -0.678458035 0.6563424468
-0.01871604659 -0.1202249229 0.497682035 0.1500023305 -0.2058572173 0.8987327218
-0.02282450534 -0.1245324165 0.4970765114 0.009499043226 -0.3037517071 0.8814634085
-0.0273775924 -0.1251830608 0.5000729561 -0.08086139709 -0.5526242852 0.7897568941
-0.02324383333 -0.1159252897 0.4986299276 0.2349947691 -0.3743106723 0.8109357357
-0.01506276056 -0.1102972701 0.4984016716 0.4063966572 -0.1876983941 0.8581295609
-0.04407654703 -0.1348194033 0.48929739 0.1917728186 -0.5509175062 0.7865129709
-0.03269298747 -0.1274124086 0.496460706 -0.04425789788 -0.5354064703 0.7976972461
-0.02665597387 -0.1328017116 0.4941701293 -0.1087870747 -0.3055484891 0.9104651213
-0.03134043142 -0.1335009038 0.4932702482 -0.02687540278 -0.3748170137 0.875518322
-0.03687283397 -0.1341049671 0.491058737 0.06824234873 -0.4442039728 0.8403101563
-0.04284023866 -0.1302045733 0.4928552508 0.1437292397 -0.6380373836 0.7434241772
-0.04647063836 -0.1273489147 0.4964888692 0.2339796275 -0.6816781759 0.6905030608
-0.03839989752 -0.1246468127 0.4980141222 0.04117748886 -0.6871997714 0.7168598175
-0.0238901265 -0.1103854105 0.4987857044 0.3060131371 -0.4648285508 0.7381738424
-0.03440958261 -0.1203938946 0.500177443 0.06292053312 -0.6638578176 0.7198514342
-0.0304969307 -0.1163542643 0.5000559092 0.1623064727 -0.5904111862 0.7258433104
-0.04037217423 -0.1198410913 0.502758503 0.08294187486 -0.7145107985 0.6911098361
-0.02143553458 -0.09854548424 0.5048012137 0.4589984417 -0.4321382046 0.6937461495
-0.02827537619 -0.1015919521 0.5082420707 0.3492241502 -0.5305408835 0.6757075787
-0.01487757545 -0.09388365597 0.5024287105 0.5704589486 -0.364249438 0.6940224171
-0.03248523176 -0.1118674576 0.5165142417 -0.007369891275 -0.8175277114 0.5646788478
-0.02875511721 -0.09578719735 0.5148714185 0.3002235591 -0.5784127712 0.6593927741
-0.03630297631 -0.09872407466 0.5240376592 0.001398007036 -0.7155792117 0.6322010159
-0.0321181044 -0.09692116082 0.5203742385 0.1143878177 -0.6573623419 0.6380118728
-0.04151479155 -0.1014338806 0.524825573 0.0008647058858 -0.7406354547 0.6496140361
-0.02365810052 -0.0944333896 0.5094912052 0.4330947101 -0.5168212056 0.6577984691
-0.0152234463 -0.08980787545 0.5052576661 0.57602036 -0.4218016863 0.6610914469
-0.03338716179 -0.1001377329 0.5138895512 0.2697588503 -0.6291773915 0.6509430408
-0.03764417768 -0.1024642885 0.5160366893 0.197590515 -0.67707479 0.6493470669
-0.02860615402 -0.1016336828 0.5297823548 -0.2544992566 -0.7838950753 0.5648947954
-0.02246478386 -0.1026182473 0.532217741 -0.2679904997 -0.7724071741 0.5743837357
-0.02097943425 -0.1062089652 0.5281205773 -0.2094416022 -0.8104353547 0.5441477299
-0.03211877495 -0.1033423617 0.5258424878 -0.1883378923 -0.7984255552 0.5698881745
-0.03008821793 -0.108174026 0.5206207633 -0.09059512615 -0.8255722523 0.5516343117
-0.02684141882 -0.1064481288 0.5240179896 -0.1536615342 -0.8253728747 0.5408133268
-0.04312669858 -0.1074079052 0.5183962584 0.0445741415 -0.7751467228 0.6230447888
-0.0370103009 -0.1082547829 0.5178956389 -0.04406967759 -0.7853026986 0.6109858751
-0.04157719761 -0.1113556549 0.5145311356 0.05244293064 -0.7705098987 0.6293964982
