# .PCD v0.7 - Point Cloud Data file format
VERSION 0.7
FIELDS x y z normal_x normal_y normal_z
SIZE 4 4 4 4 4 4
TYPE F F F F F F
COUNT 1 1 1 1 1 1
WIDTH 512
HEIGHT 1
VIEWPOINT 0 0 0 1 0 0 0
POINTS 512
DATA ascii
-0.06773168594 -0.1044748276 0.5025858283 -0.5808652639 -0.5437479615 0.5685572028
-0.06379003078 -0.1080720797 0.5076437593 -0.5454663038 -0.5112273097 0.6320832372
-0.1315902323 -0.0565511249 0.5415851474 0.311168015 -0.7582731843 0.5701699257
-0.1301530302 -0.1076202095 0.4777133167 0.2986691594 -0.7452471852 0.595528543
-0.1402098387 -0.06372273713 0.5396083593 0.3679203689 -0.7255877256 0.5812539458
-0.03540562466 -0.1001522169 0.5086131096 -0.1822500378 -0.3914394677 0.901625514
-0.0400923565 -0.102426447 0.5056089163 -0.2483681291 -0.4188501835 0.8465998769
-0.05772522464 -0.1002112404 0.5010852218 -0.4995381534 -0.5365642905 0.5842823982
-0.06405743212 -0.1022670269 0.4974049628 -0.5892065763 -0.5911195874 0.4949755669
-0.05104376376 -0.1019608825 0.5006515384 -0.3862970173 -0.4991156459 0.696285665
-0.04516871274 -0.1003548279 0.5039845109 -0.3036467135 -0.4551226199 0.7760846019
-0.06445323676 -0.1063407362 0.4920511842 -0.5699183941 -0.5990098715 0.5210350752
-0.05565841123 -0.1043335646 0.4964885414 -0.443399936 -0.5328657031 0.6443206072
-0.1409375221 -0.1553647369 0.5214090943 -0.6686341166 -0.582736671 0.4609738886
-0.1412636638 -0.1505371332 0.5255051255 -0.6845880747 -0.5740029216 0.4487771094
-0.1421665102 -0.1522688568 0.5161326528 -0.6628918648 -0.5858613253 0.4661360681
-0.1185922101 -0.09884674102 0.4762273431 0.200974077 -0.7416976094 0.63563627
-0.1235843301 -0.1045436785 0.4765480459 0.2831572592 -0.7457332015 0.6012321115
-0.1341157854 -0.06141918153 0.5369573236 0.34852162 -0.7401611805 0.5741208792
-0.02992431447 -0.06820319593 0.5370570421 0.346306026 -0.7199069262 0.5917274952
-0.05163214356 -0.1098652259 0.4987719059 -0.372497052 -0.4744822979 0.7603641152
-0.04616612941 -0.1080257222 0.5020080805 -0.3179166317 -0.4437127113 0.8085548878
-0.05623617396 -0.1105970889 0.4952527583 -0.419593215 -0.5176954865 0.7057028413
-0.06724279374 -0.1191640571 0.5209953785 -0.07752555609 -0.5552062988 0.5541049838
-0.06898553669 -0.1282339394 0.5281493664 0.2426944524 -0.5376752615 0.5573422909
-0.06380663067 -0.1145553216 0.5115126371 -0.3584564924 -0.4715532362 0.673391819
-0.07189244032 -0.1005367562 0.4962151051 -0.6294317245 -0.6067182422 0.4726632535
-0.06646621227 -0.1092241853 0.4980629086 -0.5582973957 -0.5128940344 0.6197193265
-0.142367959 -0.1451567113 0.5207043886 -0.6879971027 -0.5643512607 0.4546660185
-0.1395132542 -0.1439768821 0.5255994797 -0.701669395 -0.5603159666 0.4395090938
-0.1425656378 -0.1368051171 0.5258687139 -0.7280235887 -0.5269382 0.4370249808
-0.1290152222 -0.158881247 0.5319404006 -0.5589728355 -0.629901886 0.5293114781
-0.1346867085 -0.150471434 0.5270694494 -0.6580741405 -0.5865637064 0.4679891765
-0.1310450435 -0.1521552652 0.5315099955 -0.6173980236 -0.6181070209 0.4825144708
-0.1335737705 -0.1453582644 0.5341591835 -0.6427374482 -0.6084888577 0.4564983249
-0.1400852203 -0.06730759889 0.5346248746 0.417513907 -0.6988499761 0.5806723237
-0.05390308425 -0.1149144992 0.503039062 -0.4214481413 -0.1209185198 0.8523029089
-0.05847026035 -0.1146810725 0.4985215962 -0.4505749643 -0.2497336119 0.7766056061
-0.06248292699 -0.1129645109 0.4922675788 -0.4937611818 -0.4549309909 0.6674792171
-0.05941747874 -0.1182720065 0.5030864477 -0.4142485261 -0.05487732962 0.8635266423
-0.04029784352 -0.1090513915 0.5074669719 -0.2917280197 -0.306797266 0.8974059224
-0.02708753012 -0.08394888043 0.5223959088 0.2120255083 -0.6773764491 0.7000063062
-0.06482365727 -0.09412258118 0.5079907179 -0.6031113863 -0.6081413031 0.4517377913
-0.04690877348 -0.08975474536 0.5144267678 -0.2632101178 -0.6079859734 0.6382913589
-0.05464594811 -0.09083335102 0.5132284164 -0.4072620869 -0.609736681 0.5606030822
-0.06034603715 -0.09114578366 0.5132894516 -0.5117478371 -0.6120314598 0.5050890446
-0.03667741269 -0.08793919533 0.5167734027 -0.07139766961 -0.6064822078 0.7424120307
-0.05690256506 -0.09351149946 0.5082522035 -0.4573119879 -0.6053211093 0.5295135975
-0.03923883289 -0.09138871729 0.5130696297 -0.1468235403 -0.5558864474 0.7494162321
-0.05032776296 -0.09697779268 0.5068362355 -0.3883393109 -0.4946141541 0.6777977943
-0.04384694621 -0.09454674274 0.5098555684 -0.2563725114 -0.512206018 0.7327919602
-0.1027145907 -0.1716749221 0.5291500092 -0.01029647607 -0.7185985446 0.6824254394
-0.09175554663 -0.1719323397 0.5305967331 0.2513471246 -0.6818326712 0.6844248772
-0.1397669762 -0.1292853951 0.5536437631 -0.5699026585 -0.6785294414 0.4557948411
-0.1168462858 -0.1289055645 0.5763967037 -0.2121316791 -0.771058023 0.5971716642
-0.1215983778 -0.127303049 0.5684286952 -0.300139606 -0.742523849 0.5580689311
-0.100932166 -0.1327274889 0.5707504153 0.04318456724 -0.7444831729 0.6506162882
-0.116079703 -0.128694877 0.567861855 -0.2099055946 -0.7385635376 0.5799373984
-0.1082644388 -0.1309711486 0.5734476447 -0.07433312386 -0.7570890784 0.6262218356
-0.1236177459 -0.1264573485 0.5615948439 -0.3417408466 -0.7173733711 0.5331867933
-0.1305074841 -0.1254760772 0.5630139112 -0.4450226128 -0.7163039446 0.5218647122
-0.1302565783 -0.1014541686 0.4850157499 0.3162787259 -0.7373425364 0.5963712335
-0.1262288541 -0.09593567997 0.487079978 0.3057536483 -0.7384708524 0.5996587873
-0.1359938681 -0.1167891696 0.5027108192 -0.1386083066 -0.6411867142 0.5275357962
-0.1412695944 -0.1322950274 0.520496726 -0.6136347651 -0.5426978469 0.4584531784
-0.1351504922 -0.1129741222 0.4920227826 0.09456906468 -0.6895322204 0.5614465475
-0.1398551017 -0.1274171323 0.5106833577 -0.3874444067 -0.5895946622 0.4913478196
-0.1341596693 -0.1097864136 0.4868076146 0.2206400782 -0.7156709433 0.5797808766
-0.138522476 -0.1230530068 0.5029929876 -0.2049634606 -0.6274290681 0.5178858042
-0.1330184191 -0.1076093093 0.4939660132 0.114294298 -0.6936219335 0.5643151402
-0.1380283535 -0.1224251315 0.50886482 -0.3039830029 -0.6068990231 0.5034855008
-0.136715129 -0.1176346391 0.4952696264 -0.01237516198 -0.6673591137 0.5458937287
-0.02883210406 -0.07449169457 0.5306997299 0.4088346362 -0.6765378118 0.6111556292
-0.03427929059 -0.07234992832 0.5403433442 0.2963179946 -0.7512805462 0.5252588987
-0.03651983663 -0.07265049964 0.5452438593 0.2528135777 -0.7802969217 0.4417057335
-0.04547147825 -0.07208287716 0.5580693483 0.008783457801 -0.9526423812 0.2267661095
-0.04168609157 -0.07261849195 0.5527538061 0.1176393926 -0.8746679425 0.3137061894
-0.038692303 -0.06898196787 0.5495430827 0.1406799555 -0.8724640608 0.3981313705
-0.07177541405 -0.06511398405 0.5567023754 -0.4209448695 -0.750110209 0.3863291442
-0.06544534862 -0.06638745219 0.5581347942 -0.3078860044 -0.8258023858 0.2266019136
-0.05843985081 -0.07034819573 0.5594909787 -0.2216680795 -0.8933662176 0.2189687341
-0.05101492628 -0.06788508594 0.5446566343 -0.194035098 -0.8346037865 0.3567050695
-0.04471397772 -0.06605809182 0.5488035679 -0.05238537118 -0.8988007903 0.3422219455
-0.06279134005 -0.07077298313 0.5398862958 -0.4414971173 -0.7541655302 0.3291476071
-0.05702738091 -0.0695939362 0.5410837531 -0.3248040378 -0.7779390812 0.3635619283
-0.038223885 -0.06689364463 0.5443154573 0.123980388 -0.8324468732 0.479536593
-0.0403790772 -0.06895771623 0.5378812551 0.1080970466 -0.7423601151 0.5247857571
-0.06140312552 -0.07204084098 0.5348299146 -0.3938958049 -0.6827116609 0.4140599668
-0.04429168254 -0.06795814633 0.5428230762 -0.01734579727 -0.8068403602 0.4532357156
-0.1367539316 -0.1570683122 0.5272964835 -0.6354430914 -0.5989908576 0.4807218313
-0.1388253868 -0.1615655571 0.517627418 -0.6412360072 -0.5923381448 0.4876403511
-0.1416237354 -0.1439123005 0.5317903161 -0.6895233393 -0.5897935629 0.417928189
-0.1298635304 -0.1658079475 0.5227853656 -0.53723526 -0.6501146555 0.5252858996
-0.1281038225 -0.1606453657 0.5266681314 -0.584952414 -0.6196077466 0.5196601152
-0.1328484565 -0.1595340818 0.5223798752 -0.614577353 -0.6072448492 0.5009508729
-0.1218245104 -0.1636516303 0.5277864337 -0.4661293328 -0.6806412339 0.54286623
-0.1425119191 -0.1382053345 0.532917738 -0.7023492455 -0.5793236494 0.4069732726
-0.1213392243 -0.1011701226 0.4809294641 0.2163373083 -0.7044814229 0.6446750164
-0.1118019447 -0.1008082107 0.477053225 0.04023833945 -0.624489367 0.7466893196
-0.1179463416 -0.0951160267 0.4825733006 0.2726820409 -0.7456058264 0.6069402099
-0.1210419759 -0.0529348515 0.5397250056 0.2261767387 -0.7664859295 0.5989213586
-0.1249331832 -0.05780357495 0.5356214046 0.2991666198 -0.7501390576 0.5857686996
-0.02995134331 -0.1014311686 0.5134127736 -0.09531287104 -0.4715111554 0.8590356708
-0.03560554609 -0.1089486703 0.5109353662 -0.292070508 -0.2158348411 0.9026939869
-0.03354599699 -0.09388323128 0.5122681856 -0.08115029335 -0.4934878647 0.8562379479
-0.05541878566 -0.08160427213 0.5187802911 -0.2198538631 -0.6766152382 0.5993751287
-0.06213084236 -0.08254753798 0.517203927 -0.3399393857 -0.6746739149 0.5557090044
-0.06852696091 -0.08590705693 0.5158199668 -0.5243490934 -0.6549805999 0.4850843847
-0.06494743377 -0.1249441877 0.5174636245 -0.02222203463 -0.4335743785 0.6926792264
-0.06875635684 -0.1358989924 0.5298666954 0.4481676817 -0.4809520841 0.603038311
-0.06579139829 -0.1292250007 0.5205141902 0.1419844478 -0.4435348809 0.6600160003
-0.06331555545 -0.1214012429 0.5123646855 -0.1868114769 -0.4104513824 0.7241501808
-0.0519567281 -0.1186894402 0.5125579238 -0.312894851 0.09046701342 0.8870729208
-0.06298209727 -0.1310566664 0.5265491605 0.2446307987 -0.2573724985 0.7011227608
-0.05879698694 -0.1284068823 0.520201385 0.08615122736 -0.1397285014 0.75319767
-0.07762170583 -0.1436570734 0.5427076221 0.5719109774 -0.5542864799 0.6044851542
-0.0773531124 -0.1464732438 0.5373394489 0.5985693336 -0.5232209563 0.6049330235
-0.1310483962 -0.1300248504 0.5685300231 -0.4110583961 -0.7184183002 0.5560751557
-0.1249647886 -0.1346947849 0.5683403015 -0.36250332 -0.7223687768 0.5851602554
-0.124516055 -0.1286827624 0.5727905631 -0.3222300112 -0.7379582524 0.5923028588
-0.1193987504 -0.1371774524 0.5689294338 -0.2483561486 -0.7402347922 0.6208996773
-0.1291063577 -0.1369510442 0.5622729659 -0.4444586337 -0.7116770744 0.5339204669
-0.1223589554 -0.1393085867 0.5645347834 -0.3284446001 -0.7372471094 0.5895043015
-0.1316370368 -0.07237497717 0.520919919 0.3926201463 -0.7092479467 0.584682703
-0.13472718 -0.0711498037 0.5266764164 0.4235692918 -0.6873332262 0.5900394917
-0.1344735473 -0.06723884493 0.5309378505 0.3950794339 -0.7077642083 0.5847458839
-0.1353723556 -0.1257552803 0.560382545 -0.4944685698 -0.7058506012 0.5011134744
-0.1402768642 -0.1285241991 0.5609084964 -0.5081508756 -0.6979439855 0.5024808049
-0.0971859619 -0.1704613864 0.529493928 0.1324700564 -0.6826668382 0.6877719164
-0.06774503738 -0.073057428 0.5334666371 -0.5414361358 -0.6611498594 0.3842068017
-0.04564554989 -0.07012441754 0.5355733037 -0.007151963655 -0.7091590762 0.5106854439
-0.05075146258 -0.07576683164 0.5278664827 -0.04806520417 -0.6653749347 0.5055872202
-0.06478015333 -0.07427475601 0.5277575254 -0.3894987106 -0.6686839461 0.4296834171
-0.05140738562 -0.07115143538 0.5321958661 -0.1062331274 -0.7027593851 0.4928506911
-0.04580763355 -0.07398871332 0.5301017761 0.05086798593 -0.6830785871 0.5276796818
-0.05733662471 -0.07434180379 0.5285063386 -0.2150643319 -0.6728631258 0.4684928358
-0.04055715352 -0.07254995406 0.5320469737 0.1601123959 -0.6981976628 0.5520512462
-0.03467229381 -0.07612272352 0.5292827487 0.3306995928 -0.6726740599 0.5898481011
-0.04606364295 -0.07849245518 0.5249097347 -0.04428875446 -0.6654725075 0.5800126195
-0.04080231115 -0.07725629956 0.527436316 0.1835941225 -0.6616465449 0.5652188659
-0.07203988731 -0.07892780006 0.518799603 -0.4612634182 -0.6833058596 0.5116030574
-0.0600191541 -0.07790884376 0.5233690739 -0.3416049182 -0.6691266298 0.5199238658
-0.07584585249 -0.07645639032 0.5225263834 -0.583591342 -0.6730055213 0.4319882095
-0.06643842906 -0.07883013785 0.5202305317 -0.3941060007 -0.6786950231 0.5258717537
-0.06921035051 -0.0758921355 0.5250520706 -0.5175932646 -0.6651690602 0.43653211
-0.06083862111 -0.06332442909 0.5541868806 -0.1634380519 -0.9602005482 0.02026881278
-0.06812916696 -0.06384935975 0.5466278195 -0.2785598934 -0.8858532906 0.1566603184
-0.08272646368 -0.05961151049 0.5384127498 -0.4504516125 -0.7965100408 0.347301513
-0.08188320696 -0.05652848631 0.5432414412 -0.4036448896 -0.8391199112 0.2844129801
-0.07550618798 -0.06159685552 0.5426211357 -0.3642005622 -0.8419491053 0.2512768805
-0.07670377195 -0.05785241351 0.5463914871 -0.340662092 -0.8728436232 0.2139673382
-0.06713467836 -0.06208496913 0.5524638295 -0.2104714215 -0.9356731176 0.03399201483
-0.06547874212 -0.08680381626 0.5529532433 -0.09514800459 -0.9423982501 0.2765099406
-0.07618484646 -0.1116087064 0.5563421845 0.1109362468 -0.8270428777 0.4723052979
-0.06896467507 -0.0945604369 0.5519872308 -0.04612478241 -0.8870801926 0.3967128396
-0.0694014281 -0.102004014 0.5499505997 0.07132996619 -0.8307375312 0.4267252088
-0.07258667797 -0.1140739173 0.5512984395 0.2233508229 -0.776736021 0.4501553476
-0.07555498928 -0.1225066185 0.5512730479 0.3043096662 -0.7281675935 0.5213683844
-0.07349542528 -0.1061681956 0.5540338159 0.06565763056 -0.8385680318 0.4572687149
-0.08089596033 -0.1237623468 0.5587645173 0.2304641008 -0.7789381742 0.5270327926
-0.07014032453 -0.09911513329 0.5549667478 0.02629638277 -0.8898304105 0.3392188251
-0.07707694918 -0.1183152646 0.5567101836 0.216387257 -0.7956246734 0.4607857764
-0.08023682237 -0.1300249547 0.5561956167 0.3514411151 -0.7260560989 0.5344174504
-0.07833898067 -0.1336734146 0.551787138 0.4450027049 -0.6717637777 0.5559889674
-0.07662217319 -0.1278570294 0.5518257618 0.3805492222 -0.7046533823 0.5193449259
-0.08405137807 -0.1305233687 0.5615974665 0.2914604247 -0.764737606 0.5393012166
-0.06685823202 -0.08638540655 0.5327659845 -0.4169894159 -0.7604432106 0.4007063508
-0.06837384403 -0.08793582022 0.5218911171 -0.6008930802 -0.6535306573 0.4217754602
-0.06634160876 -0.0843623355 0.5400412679 -0.3145764172 -0.8229690194 0.3828760087
-0.0694379434 -0.0842372179 0.5256856084 -0.6027672291 -0.6620115042 0.4024605453
-0.07003235817 -0.07984552532 0.5333576798 -0.5419995785 -0.70733428 0.3751015961
-0.04054567963 -0.08299294114 0.5289242268 0.06169621274 -0.7360341549 0.6314886808
-0.04958243296 -0.08520766348 0.5348997712 -0.06037494168 -0.7803677917 0.5582056642
-0.04576796293 -0.08570910245 0.5195709467 -0.1792278588 -0.6421584487 0.6228089929
-0.05172423273 -0.08729445934 0.5185668468 -0.3188809454 -0.6280088425 0.5818855166
-0.03285467997 -0.08091739565 0.5250260234 0.2260958552 -0.6796118617 0.672703445
-0.05585004762 -0.081634745 0.5465968251 0.03049059026 -0.8949158788 0.3239836395
-0.05915193632 -0.081344001 0.5520042777 0.0006149206893 -0.9656124711 0.1878987849
-0.04605493695 -0.08065476269 0.5373834968 0.1736479998 -0.7770628333 0.5012307763
-0.0498671867 -0.07990015298 0.5451792479 0.1515533775 -0.8795753717 0.2926233113
-0.03811696544 -0.07772553712 0.5357007384 0.3179278076 -0.7513145804 0.4882738292
-0.04122520611 -0.07554475218 0.5416117907 0.2437494695 -0.8052556515 0.4363117516
-0.04127192125 -0.1047187373 0.516487956 -0.2952424884 -0.2809458971 0.8257316947
-0.03958791867 -0.09309795499 0.5215524435 -0.1138263121 -0.5312857032 0.7473756075
-0.04321414977 -0.0909107551 0.5259856582 -0.1054990515 -0.6074456573 0.6851160526
-0.03722280264 -0.09911091626 0.5160756111 -0.1865060329 -0.3779147267 0.8269159794
-0.04531814158 -0.1016898304 0.5217663646 -0.2773234844 -0.3792299628 0.7512665987
-0.03813697025 -0.08716710657 0.5236151218 -0.0173648987 -0.6546941996 0.7145121694
-0.05478497222 -0.08749990165 0.5381201506 -0.1312467456 -0.7697858214 0.5167441964
-0.04764038697 -0.08984213322 0.5304943919 -0.1188109219 -0.6642071605 0.6227126122
-0.05142656714 -0.09441012144 0.5312609076 -0.210579142 -0.5888121128 0.6158695817
-0.04738558829 -0.09708432108 0.5261871219 -0.2233315706 -0.4985864758 0.6872604489
-0.04593459889 -0.1074007303 0.5177180171 -0.3354813457 -0.2129373252 0.8114058971
-0.05074316263 -0.1035433933 0.5236836672 -0.3006464541 -0.3218199909 0.7270138264
-0.06180143356 -0.09036138654 0.5414711237 -0.1926509887 -0.7194527388 0.4735686779
-0.04940858111 -0.1124660522 0.5146182775 -0.3611025214 -0.02344198152 0.8585637808
-0.04454666004 -0.1140907258 0.5107337236 -0.3816060126 0.008938716725 0.9125577807
-0.06833472848 -0.09270874411 0.5274047852 -0.4303228557 -0.6876819134 0.4336865544
-0.06898313016 -0.09771740437 0.5318293571 -0.282836169 -0.7003144026 0.4482622445
-0.06624548882 -0.09100303799 0.5464545488 -0.09889362007 -0.8626407981 0.4010726511
-0.06925071031 -0.09490626305 0.5223981738 -0.4946083128 -0.6326366663 0.4494269192
-0.0688116625 -0.1019432843 0.5434678197 -0.01162785664 -0.7799101472 0.4499267042
-0.07026202977 -0.1042857692 0.5329164863 -0.1769675463 -0.6757611632 0.4737193286
-0.07028957456 -0.107442148 0.5398973823 -0.006183861755 -0.7202827334 0.4772653878
-0.07028390467 -0.1019447222 0.5272734165 -0.312276572 -0.6386814713 0.4717152715
-0.06752759963 -0.09675956517 0.5456328988 -0.03905432299 -0.8256486654 0.4257700145
-0.07280962169 -0.1167554855 0.5336636901 -0.0004252678482 -0.6176669002 0.5238192081
-0.06836658716 -0.09765439481 0.5384672284 -0.1604189128 -0.7585254312 0.4390755892
-0.0677498579 -0.09876947105 0.5168763399 -0.5443614721 -0.6262376308 0.4675676525
-0.06944545358 -0.1057793498 0.5225088596 -0.3489633799 -0.6228461266 0.4900618792
-0.07427486777 -0.1263369173 0.5386357307 0.2169557512 -0.6134119034 0.5562308431
-0.07482756674 -0.1318686604 0.540933609 0.3321170211 -0.61354357 0.5750853419
-0.0665436089 -0.1039332822 0.5143133402 -0.5224581361 -0.6325181127 0.4875878394
-0.07094410062 -0.1136468574 0.5277249813 -0.1497587264 -0.6204855442 0.5158763528
-0.06894313544 -0.1071385816 0.5466017127 0.1448397189 -0.7785418034 0.4620061219
-0.07206874341 -0.1207606345 0.5462990403 0.3060078919 -0.7059574127 0.5200284719
-0.06978432089 -0.1155817062 0.5445975065 0.2681503594 -0.714381516 0.4910529852
-0.0728687942 -0.1268967837 0.5451551676 0.3915939629 -0.6626287699 0.5423293114
-0.07416219264 -0.1371464282 0.5431733131 0.5354728103 -0.5895020366 0.5793089271
-0.06703594327 -0.1114996374 0.5177170038 -0.3070112169 -0.6109819412 0.5059276819
-0.07186454535 -0.1241557449 0.531760931 0.06436689198 -0.620628655 0.5516802669
-0.07031754404 -0.1208081022 0.5275611877 -0.02899529971 -0.6132104993 0.5379449725
-0.07205566764 -0.1305403262 0.5348103642 0.2922364175 -0.5850048065 0.5611712933
-0.05397812277 -0.1095735505 0.5198282599 -0.3248280287 -0.1114433035 0.7852342725
-0.06851228327 -0.1202504635 0.5405884981 0.3552857339 -0.6401475668 0.5051421523
-0.06195598841 -0.1084104404 0.5341103077 -0.01912269555 -0.4902721047 0.5870389342
-0.06085789576 -0.1255714595 0.5251573324 0.1024544686 -0.2236223221 0.7219142318
-0.05861353874 -0.1110576466 0.5272389054 -0.1264108717 -0.3043036163 0.6837455034
-0.0663902536 -0.1132663861 0.5397871137 0.2037625909 -0.6314070821 0.511701405
-0.06393374503 -0.1260355711 0.5302886963 0.2291028947 -0.3581651747 0.6512756348
-0.06782113761 -0.1270391494 0.5366025567 0.393181026 -0.5229444504 0.5646388531
-0.05775252357 -0.1155489311 0.5239032507 -0.1173785031 -0.2083339691 0.7327657938
-0.05636909604 -0.1037280634 0.5263677239 -0.2861225605 -0.2943348885 0.6910463572
-0.0620223023 -0.09986750782 0.5377360582 -0.09872498363 -0.6010882258 0.5313863754
-0.05642287061 -0.1206838563 0.519492209 -0.1207656115 -0.08285232633 0.7970694304
-0.05891410634 -0.09815371037 0.5330623388 -0.2386882454 -0.4808367193 0.5948896408
-0.06192534044 -0.1172720641 0.5304152966 0.06496417522 -0.377062887 0.6438553333
-0.06491168588 -0.1217051521 0.5337606072 0.2262637466 -0.4574421644 0.600476563
-0.1143514737 -0.05164375901 0.5401161313 0.1277490854 -0.7748329043 0.6072755456
-0.1032617092 -0.051223699 0.540117979 -0.04250727594 -0.782096684 0.6169205904
-0.1084517092 -0.1700193733 0.5292320251 -0.1510645002 -0.7318568826 0.6525815129
-0.1230905354 -0.1580195427 0.5344626307 -0.4695152342 -0.6672930121 0.5673161149
-0.1271348596 -0.1531952471 0.5367056131 -0.5476688147 -0.6544614434 0.5170997977
-0.07848974317 -0.08065627515 0.5152491331 -0.5214630365 -0.6917822957 0.4977757335
-0.08481712639 -0.09952371567 0.4865329862 -0.3893687427 -0.6770230532 0.5872804523
-0.08352109045 -0.09422709793 0.4882151484 -0.4294857979 -0.680316031 0.5897161365
-0.1051934659 -0.1004863456 0.4757671952 -0.1054691747 -0.5909143686 0.7936753631
-0.09844629467 -0.09569248557 0.4820923507 -0.1946831346 -0.6593196988 0.7064403892
-0.08980241418 -0.1062886193 0.4799257815 -0.3262314498 -0.5989367366 0.6644269824
-0.07618231326 -0.1092446819 0.4850808084 -0.5176329613 -0.6283270717 0.5386403203
-0.07273756713 -0.1035376415 0.4891118109 -0.6030610204 -0.6277727485 0.4872053266
-0.08903715014 -0.09658122063 0.4844193757 -0.3499935269 -0.6472542286 0.6469772458
-0.09386496991 -0.1001842991 0.4804567099 -0.2800373733 -0.610804975 0.6935651302
-0.08207958192 -0.1059662104 0.4830062985 -0.4531014562 -0.6076486111 0.5839810967
-0.09966494888 -0.1034045145 0.4764065742 -0.1916554868 -0.578363955 0.751822412
-0.04962052777 -0.07663007081 0.5514028072 0.08380978554 -0.9232694507 0.2498100996
-0.04477265477 -0.07541716844 0.5472260714 0.156803757 -0.8660028577 0.3448766172
-0.04396984726 -0.06681067497 0.5545278788 -0.008433853276 -0.9646588564 0.249665767
-0.05131398886 -0.06728111207 0.5577095151 -0.06885772943 -0.9874392748 0.05327312648
-0.03103149123 -0.08829331398 0.5169661641 0.01282205991 -0.5933123231 0.8032203913
-0.0277794376 -0.09577129781 0.5149992108 -0.02740027755 -0.5187180638 0.8541619778
-0.07275184989 -0.08841405809 0.5113982558 -0.6125585437 -0.6477888823 0.4482467473
-0.07016803324 -0.09455489367 0.5050294995 -0.6645508409 -0.6174092889 0.4166257977
-0.07438804954 -0.08955450356 0.5060246587 -0.5953347683 -0.6548037529 0.4585995376
-0.08696504682 -0.1455533653 0.5496481061 0.4300330579 -0.6799403429 0.5900056362
-0.08021723479 -0.1412604004 0.5483926535 0.5106033087 -0.6275866032 0.5861032605
-0.138021484 -0.1364360899 0.5405882597 -0.6715047359 -0.6185324788 0.4017935097
-0.1373752952 -0.1282727122 0.5452818274 -0.6066176295 -0.6378595829 0.4582197666
-0.1391031742 -0.1301859915 0.5405668616 -0.63794595 -0.6111556888 0.4502133727
-0.1403260827 -0.1323052794 0.5351560712 -0.6708647609 -0.5789912939 0.4468944371
-0.1112546846 -0.1304379702 0.5646258593 -0.1155738384 -0.726755619 0.5887184143
-0.1047955975 -0.1337909251 0.5644029379 0.03924083337 -0.7289854288 0.6056019664
-0.1119636446 -0.1413040161 0.5658780336 -0.1131237373 -0.7666507959 0.6206088066
-0.1104943603 -0.1367226839 0.5707948208 -0.1193115562 -0.7555521727 0.6300243735
-0.1044276357 -0.1414750665 0.565194726 0.05163202807 -0.7722958326 0.6320540309
-0.1183522046 -0.1442914009 0.5595766902 -0.2709000111 -0.760289371 0.5871525407
-0.1276901066 -0.1460478455 0.5441150069 -0.5223417878 -0.6876265407 0.481946975
-0.1334138215 -0.1366458386 0.5567041636 -0.530421257 -0.6938922405 0.4868213832
-0.1373853832 -0.1332326233 0.559202075 -0.5240798593 -0.6929957271 0.4949531853
-0.141919449 -0.1356327236 0.5458072424 -0.6379022002 -0.6489710212 0.4069059491
-0.08981046081 -0.1491035372 0.5463609695 0.385276556 -0.6733371615 0.6205913424
-0.06691975147 -0.115002811 0.4888440371 -0.549364984 -0.499928087 0.5520892739
-0.06163452193 -0.1285462826 0.4979706407 -0.5309554935 0.04265519977 0.579370141
-0.06023216248 -0.1248921454 0.5025647879 -0.4578016996 0.07925052196 0.7561353445
-0.05854285508 -0.1367942691 0.5042066574 -0.5213754177 0.3920152485 0.6022615433
-0.06265674531 -0.1230299994 0.4962479472 -0.5087882876 -0.1277353168 0.6297756433
-0.04931730404 -0.1235265955 0.5086349249 -0.4455392957 0.1991739869 0.8108298182
-0.0484321788 -0.1161842868 0.5071188211 -0.4085307121 0.02185525745 0.8894735575
-0.05601770803 -0.1232522652 0.5065843463 -0.4210702479 0.1525878757 0.8501207232
-0.05226032808 -0.1285823435 0.5073354244 -0.4644084275 0.2988806665 0.7483083606
-0.05387088656 -0.1343103349 0.5092526674 -0.4485588968 0.3953099251 0.6888005137
-0.05745845661 -0.1342628151 0.5164450407 -0.08574149013 0.06443756819 0.6795573831
-0.05446843803 -0.1281059533 0.5160708427 -0.1099375486 -0.02091291919 0.7549357414
-0.0598272346 -0.1334359348 0.5219154954 0.1895307451 -0.2003876716 0.6821423769
-0.06006672606 -0.1467635185 0.511333406 0.8319005966 -0.2661861777 0.4857367575
-0.06317198277 -0.1509169489 0.5157216787 0.7714841366 -0.3916846514 0.4950046837
-0.05875328556 -0.1425605267 0.5081357956 -0.168525219 0.3390985727 0.560851872
-0.06457965821 -0.1359781176 0.5048933625 0.3889971375 -0.3481558859 0.4984934926
-0.06342498958 -0.1295402497 0.5039849281 0.08580554277 -0.243423447 0.6245452762
-0.06805872917 -0.1196663901 0.4933588207 -0.2728850245 -0.510854423 0.5108734965
-0.064290829 -0.117811583 0.4980492592 -0.4172627628 -0.2510838807 0.711853385
-0.06074668095 -0.1332231313 0.5093178153 0.2038253695 -0.08018290251 0.7124786973
-0.06376164407 -0.1340593547 0.5162726045 0.1624703109 -0.2206862867 0.7265858054
-0.06526806951 -0.1452196687 0.5200515389 0.6624094844 -0.3603684008 0.5546121597
-0.06309438497 -0.141710639 0.514990449 0.55097574 -0.2400665432 0.5934113264
-0.06112034991 -0.1271154135 0.5100393295 -0.1027282476 -0.05721506476 0.8182795048
-0.06753783673 -0.1413424164 0.5269756317 0.5486296415 -0.4205790162 0.5968081355
-0.06583468616 -0.1394521743 0.5214395523 0.3877782524 -0.3461462557 0.649277091
-0.07055817544 -0.1467436999 0.5305311084 0.6677029729 -0.4970220923 0.5540339947
-0.0714429915 -0.1411663294 0.5360251069 0.6461582184 -0.5101856589 0.5674198866
-0.08215450495 -0.1378367096 0.5538122654 0.4589017928 -0.6696764231 0.5820462704
-0.07124526054 -0.06605552137 0.540583849 -0.3903666735 -0.8198946118 0.2280079573
-0.07997515798 -0.0669984445 0.5309320688 -0.5666133761 -0.7171260715 0.3808999658
-0.06305162609 -0.06631522626 0.5480017066 -0.2641128302 -0.8957278728 0.09072617441
-0.06953560561 -0.07111883909 0.5383089185 -0.5281847119 -0.7372651696 0.257912308
-0.08142667264 -0.05946612731 0.550216794 -0.4194872081 -0.7584986687 0.4784351587
-0.07779580355 -0.062765643 0.5529670715 -0.4294999838 -0.7356033325 0.5088148713
-0.08785475791 -0.05595013127 0.5455539823 -0.339425981 -0.8035822511 0.4742046595
-0.07572699338 -0.06741738319 0.5503922105 -0.4387859106 -0.7483147979 0.4871610105
-0.1266655177 -0.06263733655 0.5299113393 0.3520950079 -0.7325786352 0.5822341442
-0.1290802062 -0.06717062742 0.5258336663 0.3906844258 -0.706615746 0.5890447497
-0.1168934256 -0.07710088044 0.503403604 0.2247752696 -0.772567749 0.589766264
-0.1223353297 -0.07296898961 0.5130959749 0.3151060641 -0.7397589087 0.5918266773
-0.132455036 -0.08220636845 0.5126732588 0.3761364818 -0.7274035811 0.5738568902
-0.1328231692 -0.0764599219 0.5170556307 0.3809625506 -0.7168762088 0.5831991434
-0.134629488 -0.1133114696 0.5454471111 -0.3191564381 -0.7052357197 0.4950780869
-0.1362461448 -0.08882272243 0.5323629975 0.1418015212 -0.7037810683 0.5503548384
-0.1327912956 -0.08673966676 0.5165636539 0.2835623324 -0.7255297303 0.5627112985
-0.1354930252 -0.09579602629 0.5348918438 0.01889900491 -0.7059778571 0.5352383256
-0.1356087476 -0.08276540786 0.5248860121 0.2854310572 -0.709736824 0.5662378073
-0.134967193 -0.09321859479 0.5289381146 0.1041186079 -0.7134928107 0.5438293219
-0.1355969757 -0.107321851 0.5431416035 -0.2087011039 -0.7042580843 0.5084551573
-0.1413595825 -0.07806707174 0.535609901 0.3061546385 -0.6941813827 0.5719632506
-0.1370378733 -0.09926671535 0.5406154394 -0.06417396665 -0.7020864487 0.526145339
-0.1347801983 -0.08854302019 0.5242969394 0.2074125856 -0.7164641619 0.5555262566
-0.1344641298 -0.1025329083 0.5354675055 -0.0850539133 -0.7111942172 0.5217500329
-0.1391339302 -0.07896661013 0.5294862986 0.3291644156 -0.7029622197 0.5728704929
-0.1337873191 -0.09916555136 0.5304429531 -0.0003817831457 -0.7155761719 0.5309311152
-0.1379875988 -0.07700411975 0.5242253542 0.3927675486 -0.7086253166 0.5792709589
-0.1406531036 -0.0729733333 0.5303272605 0.415253371 -0.696855545 0.5844146013
-0.1395033449 -0.08710773289 0.5395249724 0.1307653338 -0.6939980984 0.5510851741
-0.1387857348 -0.09250310808 0.5418578982 0.03050240874 -0.69468081 0.538985312
-0.1359186769 -0.11738199 0.553065896 -0.4312545657 -0.6978250742 0.4832598269
-0.1372772604 -0.1078494489 0.5490366817 -0.2539931238 -0.6966180205 0.5046519637
-0.1280242652 -0.08759644628 0.5010139346 0.3355069458 -0.7374277115 0.5851141214
-0.130599305 -0.08475386351 0.5064315796 0.3591997027 -0.7302442193 0.5805975199
-0.1011885554 -0.1429897845 0.5561183095 0.09731757641 -0.7375227809 0.597471118
-0.09620647877 -0.1413997263 0.5619139075 0.2414317578 -0.7547616959 0.6093425155
-0.09300145507 -0.1354488432 0.5666941404 0.2191771865 -0.74168396 0.6215351224
-0.1180886999 -0.1293803304 0.5567163229 -0.1997530609 -0.7052428126 0.5254620314
-0.09218658507 -0.1387441605 0.5578386784 0.3163652718 -0.7137966156 0.6062194109
-0.1254773587 -0.1267069727 0.5562001467 -0.3465872705 -0.702249825 0.5013660192
-0.1119343862 -0.1316247731 0.5586620569 -0.08046674728 -0.7120121717 0.5537281632
-0.09814888984 -0.1372131109 0.5571504831 0.1951840669 -0.7133729458 0.5874617696
-0.1125177294 -0.142972365 0.5559971929 -0.1463810802 -0.7551564574 0.5773285627
-0.1091514826 -0.1376227885 0.5564653873 -0.04618995264 -0.7283869386 0.5670650005
-0.103623651 -0.1349952221 0.5569294691 0.0872907415 -0.7105638385 0.5696620345
-0.1245791242 -0.1333863288 0.5557429194 -0.3603813946 -0.7290177941 0.5232669711
-0.1153429449 -0.1381805539 0.5560637116 -0.1836677343 -0.7382248044 0.5566209555
-0.1044007838 -0.1454671025 0.5600649118 0.09566637874 -0.7709238529 0.6283391118
-0.1218912899 -0.1501662433 0.5446103215 -0.4162483811 -0.7115945816 0.5356126428
-0.1073611602 -0.1553933322 0.5450091958 -0.04605558515 -0.7433679104 0.6475224495
-0.1150733382 -0.1502751708 0.5484849811 -0.247904852 -0.7425355911 0.5768463016
-0.1158092245 -0.1664185673 0.5301656723 -0.3420052528 -0.7409284711 0.5766516924
-0.1160079539 -0.1722537875 0.5273259878 -0.3267367482 -0.7614052296 0.5592343211
-0.1222731844 -0.1709852368 0.5264821053 -0.3934049606 -0.7285066843 0.5595024228
-0.1205359772 -0.1634673923 0.5341461301 -0.4060283601 -0.6948319674 0.5863608718
-0.1002465561 -0.0870437026 0.4894118011 -0.1174812987 -0.7631999254 0.6284224391
-0.07066747546 -0.09344626963 0.5113787651 -0.633597374 -0.6327569485 0.4444715679
-0.06844751537 -0.09923759848 0.5080861449 -0.6081737876 -0.6410401464 0.4674423039
-0.06943746656 -0.07414267957 0.5521042347 -0.4508219659 -0.7456002831 0.4702503383
-0.05755956843 -0.06795045733 0.5486562848 -0.2563320994 -0.8774860501 0.1647478491
-0.05210430548 -0.06648147851 0.5519803762 -0.141857937 -0.9296537638 0.1669720858
-0.06525557488 -0.07934433222 0.5541172624 -0.2026698887 -0.9043772221 0.2979023755
-0.05954750255 -0.07669385523 0.5562388897 -0.1199749485 -0.9726313949 0.05517965555
-0.06584709883 -0.07206591964 0.5573157072 -0.3110305071 -0.8235556483 0.3205517232
-0.05488851666 -0.07439984381 0.5586634874 -0.09130819142 -0.9924083352 0.01970023662
-0.1256096661 -0.1409285367 0.5579877496 -0.4397461116 -0.7298204303 0.5194265842
-0.1231695116 -0.1457736343 0.5531982183 -0.406022042 -0.7570672631 0.5076968074
-0.1167306826 -0.1471241117 0.5541443229 -0.2654469311 -0.7678643465 0.5765752792
-0.1307991743 -0.1286257207 0.555480659 -0.4722332358 -0.7154380083 0.4954775274
-0.1245863363 -0.1410612911 0.5510924459 -0.4188171923 -0.7306582332 0.5297672153
-0.1321002394 -0.139837876 0.5464498401 -0.5666896105 -0.6791686416 0.4369165897
-0.136274755 -0.1356955469 0.5462424159 -0.6300195456 -0.6592363715 0.4006138444
-0.1302628219 -0.1342948824 0.551586926 -0.4987694621 -0.7063944936 0.4854067564
-0.1239958107 -0.154976666 0.5413512588 -0.469835341 -0.6943799257 0.5416174531
-0.1395384222 -0.1505865157 0.5315332413 -0.6884400845 -0.5716640949 0.4448836148
-0.1329426467 -0.1475038528 0.5415652394 -0.569986999 -0.6839405298 0.4433299005
-0.1415805072 -0.1416196823 0.5398364663 -0.6645743251 -0.6402994394 0.3814011514
-0.1379801333 -0.1413683295 0.544863224 -0.5899899006 -0.6928132772 0.4058770835
-0.1383264959 -0.1364201605 0.5533214808 -0.5318092704 -0.7082759738 0.4617414474
-0.131986171 -0.1408036053 0.5523048043 -0.524156034 -0.6981005073 0.4876604974
-0.06694585085 -0.1570568383 0.5190392137 0.7053925991 -0.467250824 0.5257723927
-0.08086980134 -0.1661500037 0.5265655518 0.4723120332 -0.597573936 0.6254419684
-0.08673216403 -0.170544222 0.5283533335 0.3277794123 -0.6411841512 0.6821069717
-0.08886123449 -0.1568661034 0.5403714776 0.3911375403 -0.6082700491 0.6755516529
-0.09362268448 -0.1649167389 0.5371498466 0.2135329843 -0.6783930659 0.6988338232
-0.08757397532 -0.1663601249 0.5329779983 0.3788438439 -0.6254829764 0.6761994362
-0.09650427103 -0.1515723914 0.5493655801 0.2669586837 -0.7256025076 0.6331326365
-0.1034768671 -0.1533165276 0.5495228767 0.07774925977 -0.7506459355 0.6523488164
-0.07613806427 -0.1507659853 0.5335292816 0.6166668534 -0.5276437402 0.583894074
-0.08735408634 -0.07098159939 0.5172621012 -0.4096474051 -0.7429119945 0.5281716585
-0.08401022106 -0.07261075824 0.5236968398 -0.4930257201 -0.7235739231 0.4735384285
-0.07912877947 -0.07246419042 0.5277038813 -0.5957474709 -0.6874044538 0.4082760513
-0.07432109118 -0.07317376882 0.5316774249 -0.6636133194 -0.6564593315 0.3577974737
-0.08187194914 -0.07659299672 0.5191948414 -0.5031464696 -0.7112020254 0.4890498519
-0.0663337782 -0.08276337385 0.5468296409 -0.1943605244 -0.8919471502 0.3818764985
-0.06835824251 -0.07969396561 0.5419560075 -0.3712471128 -0.8030998111 0.3634809554
-0.0724177286 -0.07385660708 0.5456748605 -0.4931991696 -0.7234389186 0.482109189
-0.07506806403 -0.07383565605 0.5397999883 -0.5050519109 -0.7216054797 0.4720468223
-0.0820159018 -0.06780849397 0.5376245379 -0.4287962019 -0.7339856029 0.5126299262
-0.07851693034 -0.06853867322 0.5440009832 -0.4201267958 -0.735433042 0.5212208033
-0.09533575177 -0.0551402308 0.536338985 -0.2459506691 -0.7907559872 0.5548453331
-0.1018251553 -0.05494318157 0.5348052382 -0.1016037315 -0.7949312925 0.5894399285
-0.1010753587 -0.05782544613 0.5304481387 -0.1259701997 -0.7937466502 0.5886003375
-0.1276432872 -0.07629600912 0.5152503252 0.3612257242 -0.7276008129 0.5828890204
-0.1253437102 -0.07908296585 0.5095227361 0.3043641448 -0.7536556125 0.5806853771
-0.1113477424 -0.08004900068 0.4973483384 0.1146325245 -0.79467839 0.584841907
-0.1189468354 -0.08342910558 0.5008846521 0.2349794209 -0.7730594277 0.587777853
-0.1248159558 -0.09157636017 0.4919041097 0.3061112463 -0.7431758642 0.5933103561
-0.1221775785 -0.08671560884 0.4964633584 0.2742001712 -0.7564840317 0.5904791355
-0.1233018786 -0.08276474476 0.5043849349 0.2852658629 -0.7573404908 0.5867598057
-0.1103937477 -0.1471476555 0.5509796143 -0.1355926245 -0.7358345985 0.576556325
-0.09312430024 -0.143142134 0.5539634228 0.2957404256 -0.713572681 0.609885633
-0.1044420898 -0.1460234225 0.5517649651 0.01381658483 -0.7279468179 0.5884999037
-0.09748923033 -0.1461639553 0.5513036251 0.1926541179 -0.7175092697 0.6050468087
-0.08669566363 -0.1418412179 0.5546212196 0.4096786976 -0.7039794326 0.5784621835
-0.0879837051 -0.1378201991 0.5619602799 0.3345103562 -0.7412135601 0.5814806819
-0.1095475405 -0.1676588058 0.5351678729 -0.1758792698 -0.7386966944 0.6461125612
-0.1129138619 -0.1553732157 0.5472314358 -0.1927613169 -0.7541290522 0.6250204444
-0.111528106 -0.1597923636 0.5430031419 -0.194740966 -0.7275232673 0.6481409073
-0.1184377223 -0.155634746 0.5437976122 -0.3479412794 -0.7278999686 0.5808662772
-0.1150041521 -0.1595267802 0.5378996134 -0.280364573 -0.7144087553 0.6201969385
-0.1036662534 -0.1636187136 0.538834095 0.002936380915 -0.7173397541 0.688305378
-0.1107343063 -0.1638054103 0.5390549302 -0.1931217909 -0.7264080048 0.6545844078
-0.1044915542 -0.08519093692 0.4935381413 0.002683673985 -0.7828903198 0.5935056806
-0.1003525555 -0.08138570189 0.5020039678 -0.1387580037 -0.7717836499 0.5784281492
-0.1067303047 -0.08266117424 0.4986464977 0.01415899023 -0.7790473104 0.5799890757
-0.1119075119 -0.0815326944 0.5027629733 0.09751175344 -0.7760206461 0.5840479732
-0.1015728042 -0.0802115798 0.496424377 -0.1023965254 -0.804902494 0.5810308456
-0.08315285295 -0.07970928401 0.5098295808 -0.4797997773 -0.7122361064 0.5089130998
-0.08570516855 -0.07571069896 0.5130044818 -0.447086513 -0.7289072275 0.5172683597
-0.0903205201 -0.07688577473 0.5089247227 -0.3457062244 -0.7604472041 0.5364806652
-0.09232701361 -0.07318656892 0.5134788752 -0.3236525059 -0.7716049552 0.5425075293
-0.07836173475 -0.08852488548 0.5016155243 -0.5301567316 -0.6787332892 0.5046781898
-0.09482143819 -0.09136770666 0.4869088233 -0.2370046079 -0.7148590088 0.6462648511
-0.07992120832 -0.09362440556 0.4954781234 -0.5361511111 -0.6725288033 0.504797399
-0.07047748566 -0.1111458465 0.4867959321 -0.6007654071 -0.6317105293 0.489813596
-0.07633598149 -0.0975003466 0.4930777848 -0.5702241659 -0.6430080533 0.497310251
-0.07909399271 -0.09916618466 0.4880166352 -0.4907253683 -0.6649456024 0.5565613508
-0.09343858808 -0.08677918464 0.4926818609 -0.2682093382 -0.7395553589 0.6035106778
-0.08770247549 -0.09116073698 0.4926840067 -0.3897376657 -0.702616334 0.5702053308
-0.08915695548 -0.0865400508 0.497199446 -0.3592473567 -0.735537529 0.5563802123
-0.09352529794 -0.08207310736 0.5000053644 -0.2743976116 -0.7676209807 0.576307416
-0.07247245312 -0.1599750221 0.5232153535 0.6331979036 -0.5244171619 0.5591962934
-0.068290025 -0.1506173462 0.5247635841 0.6664648652 -0.5095786452 0.5439605713
-0.07226917893 -0.1546534598 0.5270370841 0.6607180238 -0.5054503679 0.5548810959
-0.07960735261 -0.1567387432 0.5324861407 0.5579720736 -0.5341712236 0.6284450293
-0.1008383781 -0.1653178781 0.5345039964 0.06871806085 -0.6919859648 0.6921633482
-0.0889833346 -0.1599989384 0.5351393223 0.3553104103 -0.598687768 0.6781134009
-0.0819503963 -0.1495047063 0.5416593552 0.5309616327 -0.601916492 0.5918285847
-0.08289152384 -0.161578998 0.5324140787 0.4830971658 -0.5608074069 0.6718689203
-0.07652834058 -0.1601676792 0.5281317234 0.5813757777 -0.555875361 0.5922634006
-0.08408091962 -0.156839177 0.5365839005 0.4917820096 -0.5573358536 0.6685356498
-0.09429755062 -0.1591770947 0.5412364006 0.2321726978 -0.667109549 0.697275281
-0.1003673226 -0.1555285156 0.5431713462 0.12077941 -0.7054684758 0.6610493064
-0.09346438199 -0.1535256207 0.5430432558 0.2907748222 -0.6566177011 0.6619775295
-0.09844084084 -0.1610541195 0.5373803377 0.1413840204 -0.6761536598 0.6782485843
-0.119471401 -0.07915263623 0.5080990791 0.2366595715 -0.7725679278 0.5882557631
-0.1257297099 -0.07156617939 0.519246757 0.3437182903 -0.7256792784 0.5923974514
-0.116197817 -0.07388343662 0.5095283985 0.2181186229 -0.7765523195 0.5899428129
-0.08946282417 -0.06243498996 0.5344253778 -0.3175274134 -0.7538025975 0.5699520707
-0.08299027383 -0.06477290392 0.5426350236 -0.3654151857 -0.7480272055 0.5400414467
-0.09039337933 -0.05316192284 0.5408018827 -0.3928226829 -0.8251065016 0.3936024904
-0.08839758486 -0.06013526395 0.5403252244 -0.313952148 -0.7695459127 0.5429489613
-0.1089658737 -0.08697005361 0.4901750684 0.1184295118 -0.7873461843 0.5999781489
-0.1141703129 -0.08503413945 0.4932097197 0.2031390816 -0.787301302 0.5820543766
-0.1089823321 -0.09611087292 0.4788933992 0.1121137068 -0.7378613353 0.6631034017
-0.1194003969 -0.09274182469 0.4878094196 0.2715696394 -0.759581089 0.5892887712
-0.08833085746 -0.08068174124 0.5052077174 -0.3998803496 -0.7334178686 0.543014586
-0.08273302764 -0.08406926692 0.505356133 -0.4749066532 -0.7175773382 0.5082262158
-0.08293198049 -0.08891960979 0.4973827899 -0.4777036309 -0.6975947022 0.532137394
-0.09396855533 -0.07863861322 0.5047335029 -0.2504251301 -0.7897003293 0.5548194647
-0.078470245 -0.08614653349 0.5095325112 -0.5377867818 -0.685487628 0.4800730944
-0.1089974642 -0.05952128023 0.5271329284 -0.002539180219 -0.7896624207 0.6041049361
-0.1098494083 -0.06251677126 0.5222001076 0.03107276745 -0.7915788293 0.6032320857
-0.1027290002 -0.06143878028 0.5254980326 -0.1438202411 -0.7806303501 0.6061572433
-0.1154839322 -0.07111846656 0.5146582723 0.1787615418 -0.7716197968 0.5938277245
-0.1202651188 -0.06956344843 0.5198779702 0.2281553447 -0.7414501309 0.5979371071
-0.09360277653 -0.05979471654 0.530223906 -0.2821250856 -0.7815153599 0.5446420312
-0.08482030034 -0.06319977343 0.5318211913 -0.4943050444 -0.7452041507 0.4436905384
-0.08960922807 -0.06431823969 0.5272300243 -0.3246041238 -0.7568759918 0.5618755221
-0.0941375494 -0.06613965333 0.5219942927 -0.274874121 -0.7676503062 0.5763406157
-0.08937498182 -0.06923657656 0.5231799483 -0.3846763074 -0.7441740632 0.5215337873
-0.1056682914 -0.07028059661 0.5152750015 -0.02061794698 -0.7744796276 0.589921236
-0.1053456068 -0.06625236571 0.5196917057 -0.07673139125 -0.775005877 0.6047999263
-0.09708991647 -0.0746012032 0.5107149482 -0.2159074247 -0.789150238 0.555609107
-0.1154151782 -0.06504844129 0.5199594498 0.1838483363 -0.7634794116 0.6181969047
-0.1108253077 -0.06721261144 0.5159453154 0.08598641306 -0.7826039195 0.6088288426
-0.1156676486 -0.06109569967 0.5251737833 0.1701080203 -0.7703868151 0.6123653054
-0.1209280416 -0.06008152291 0.5285339355 0.3060253561 -0.7566520572 0.5771234035
-0.1214680225 -0.06359313428 0.524131 0.3140093684 -0.7467150092 0.585918963
-0.1078244373 -0.05665639788 0.5323098898 0.004093039781 -0.7970023751 0.5904012918
-0.1119602844 -0.05260827392 0.534630537 0.07751446962 -0.8112356663 0.5763745308
-0.1139515713 -0.05730589479 0.5292793512 0.1065094322 -0.7933924794 0.5971150398
-0.1180510893 -0.05449483544 0.53453511 0.1867041439 -0.7928109765 0.5729682446
-0.1019076928 -0.09150845557 0.4850124419 -0.07081574947 -0.7387293577 0.6586959362
-0.1086137742 -0.09167441726 0.4843919575 0.1179999933 -0.7643201947 0.6281945109
-0.09956442565 -0.06831051409 0.5163348317 -0.15500094 -0.7838895917 0.5914156437
-0.1035603136 -0.07558396459 0.5033106804 -0.04909522086 -0.8108007908 0.5816850662
-0.1106094196 -0.07589773834 0.5038893819 0.1059672758 -0.796127677 0.5875015259
-0.1099445 -0.07252727449 0.5087473392 0.08815634996 -0.7936648726 0.5941742063
