# .PCD v0.7 - Point Cloud Data file format
VERSION 0.7
FIELDS x y z normal_x normal_y normal_z
SIZE 4 4 4 4 4 4
TYPE F F F F F F
COUNT 1 1 1 1 1 1
WIDTH 512
HEIGHT 1
VIEWPOINT 0 0 0 1 0 0 0
POINTS 512
DATA ascii
0.02502397448 -0.2047909647 0.7135178447 -0.4696212411 -0.400080204 0.7712287307
0.03946923837 -0.2081630975 0.7178201675 -0.2850893736 -0.480119735 0.8152841926
0.03232770041 -0.2056269646 0.7150076032 -0.3954710066 -0.4214410484 0.7985414267
0.01961523481 -0.2032110393 0.7114096284 -0.5463560224 -0.3581001759 0.7566412687
0.01573999226 -0.1976554543 0.7063753605 -0.63117975 -0.2468789965 0.7319151759
0.07193959504 -0.1306873262 0.6184181571 -0.181232661 -0.7100661993 0.6796774864
0.02339226007 -0.1974440664 0.7101237774 -0.5616998672 -0.3380307555 0.7483183742
0.03006259166 -0.1989075541 0.7129220963 -0.443936348 -0.4178173542 0.7755274177
0.09887637943 -0.1344575882 0.6384037137 -0.5116677284 -0.3527037501 0.7787294984
0.02309010923 -0.07478634268 0.6898246408 0.6446544528 -0.5131019354 0.565762639
0.07753960788 -0.1284716874 0.6242946982 -0.2494750917 -0.6827364564 0.6822293997
0.1308804005 -0.08333925903 0.6539230943 0.7340629697 -0.3403120339 0.5450726748
0.01140019577 -0.1929282695 0.701913178 -0.7409729362 -0.190447107 0.6368695498
0.002888706513 -0.1908804625 0.6959365606 -0.8328185081 -0.1542168707 0.5274035335
0.0001088034842 -0.1862798333 0.691511929 -0.8857010007 -0.09577466547 0.4409851134
-0.0006862168666 -0.1754114926 0.6833413839 -0.9258414507 0.06032368541 0.3673563898
0.1018887609 -0.1315701008 0.6428793073 -0.4701765478 -0.3955892026 0.7862221003
0.1006710082 -0.1289658844 0.637293756 -0.3317166269 -0.3272590041 0.8243760467
0.1251624227 -0.0832130909 0.6696388125 0.7390066981 0.003845222061 0.6382242441
0.1227619573 -0.08603622019 0.6760136485 0.5513747931 -0.1241237745 0.6990571618
0.1163787991 -0.08228637278 0.6870180964 -0.0701393038 -0.2920992672 0.8193434477
0.1328569204 -0.09024804831 0.6565281153 0.8134912252 -0.2833844423 0.4546768963
0.127671361 -0.08767791837 0.6664734483 0.7645962238 -0.1373975724 0.5848530531
0.08038724959 -0.08052390069 0.6671956778 -0.2615385652 -0.6065521836 0.7432685494
0.08603179455 -0.0836975053 0.6668919921 -0.3613861799 -0.5818713307 0.7281142473
0.08670753241 -0.07791855186 0.6719102263 -0.3617183864 -0.5873957872 0.7235151529
0.07487975806 -0.08163911104 0.664249897 -0.1822271645 -0.6187678576 0.7637271881
0.09034536034 -0.09415478259 0.660402 -0.412633568 -0.5355962515 0.7079647183
0.119523406 -0.08825119585 0.6567525864 0.4614812434 -0.4602019191 0.5739167929
0.08706039935 -0.1608181894 0.7439618111 0.342631042 -0.5515918136 0.7587658167
0.09780905396 -0.1629126817 0.7349339724 0.5152373314 -0.5547365546 0.6470991373
0.09558090568 -0.1601532996 0.7396307588 0.4458536506 -0.5538108945 0.6980122328
0.001440176507 -0.1686343104 0.6788370609 -0.9254168868 0.1338284761 0.3336848021
-0.001827055123 -0.1684067696 0.6732348204 -0.9368305206 0.1906695962 0.2885186374
-0.0004018306499 -0.1801504791 0.6888802052 -0.8993030787 -0.02051248029 0.4211549163
0.04794956744 -0.2104177773 0.7176424861 -0.1508110315 -0.528216958 0.8348647952
0.01656653546 -0.07976006716 0.6951595545 0.6915186048 -0.472407639 0.5456918478
0.01134128682 -0.08282702416 0.6996644735 0.7193250656 -0.4567810297 0.5221976638
0.01030503307 -0.08521252126 0.6937630773 0.7190497518 -0.4583603144 0.5184928179
0.006211787928 -0.09361898154 0.7013836503 0.7561334372 -0.4331333041 0.4904382527
0.005239369348 -0.08888635039 0.6964979768 0.7467519045 -0.4391002655 0.4979050159
0.01629440859 -0.08509884775 0.6879236698 0.6937317252 -0.4709549546 0.5432642102
0.01683638804 -0.1876741648 0.7099770308 -0.6687832475 -0.2770885825 0.6876838803
0.008393082768 -0.1880540699 0.6996006966 -0.8048393726 -0.1479595751 0.5717597604
0.1144472659 -0.1877393723 0.6873636246 0.8339762092 -0.3793779612 0.3995901644
0.06222265959 -0.1020487323 0.6466062069 -7.050269051e-05 -0.6275735497 0.7763479948
0.0634585619 -0.09579371661 0.6518836617 -0.01492152363 -0.6156989336 0.7865595818
0.0699339509 -0.1025780141 0.6462818384 -0.1114262938 -0.6225529313 0.7718220353
0.1010829359 -0.1236404702 0.6393888593 -0.2892259955 -0.4331580698 0.8126937151
0.1065939814 -0.1208487004 0.6408820152 -0.1401556134 -0.4251128435 0.838717401
0.0656940341 -0.1164129972 0.6349398494 -0.04643482715 -0.6721752286 0.7371971607
0.06528820843 -0.1221009493 0.6296652555 -0.07557077706 -0.6889366508 0.7204300165
0.07100365311 -0.1254827082 0.6236186028 -0.1693794876 -0.7095426917 0.6815145612
0.07723398507 -0.1210208684 0.6332876086 -0.2997389436 -0.6485100389 0.6972386837
0.05835464597 -0.09199432284 0.6550279856 0.07334937155 -0.6277419925 0.7711258531
0.06353231519 -0.08962050825 0.657073319 -0.01668959297 -0.6325766444 0.7719506025
0.05132272467 -0.09273150563 0.6549469829 0.1959901303 -0.6265230179 0.7513374686
0.08407236636 -0.07306718826 0.6745063663 -0.3282654583 -0.6069812179 0.7218025923
0.07868614793 -0.0748115778 0.6706563234 -0.2280466259 -0.6230834126 0.7470582128
0.1198655814 -0.08837879449 0.6830300689 0.2708592713 -0.2321906686 0.8076512814
0.09016721696 -0.07335422933 0.6783019304 -0.3652533889 -0.6024363637 0.7089143991
0.08570471406 -0.06891949475 0.6787995696 -0.3105509579 -0.6346912384 0.7063673735
0.09560222924 -0.0725492686 0.6828073859 -0.3828631341 -0.607429862 0.6955463886
0.1037995145 -0.07822806388 0.672175169 -0.02821567468 -0.3598323464 0.6676999331
0.09361086041 -0.07756721973 0.6747937799 -0.3952921033 -0.5610536337 0.6961450577
0.1006583795 -0.07556515932 0.6774876714 -0.2017211169 -0.4736483097 0.6783279777
0.1205831096 -0.07900798321 0.6685348749 0.5745409727 -0.03540584445 0.6220349073
0.1152256131 -0.07738441229 0.6728897691 0.3400049508 -0.174583137 0.6461873055
0.06961358339 -0.09702131897 0.6505239606 -0.1021939069 -0.6182260513 0.7766732574
0.1072123423 -0.08363628387 0.6634479761 0.14012447 -0.5117741227 0.6349004507
0.09970152378 -0.0828711614 0.6661606431 -0.07448542863 -0.5385436416 0.6703969836
0.1190411896 -0.08307541907 0.6620818377 0.5134900808 -0.3061848581 0.5977396965
0.1263803244 -0.0819419995 0.6626864076 0.7597978115 -0.09406527877 0.5842786431
0.1133188158 -0.08190696687 0.665042758 0.3621807992 -0.2775479555 0.6304519773
0.09779201448 -0.0906798318 0.6604337096 -0.1590877324 -0.5156602859 0.6774101257
0.1039711311 -0.08915784955 0.6603834629 0.0009090797976 -0.5005120635 0.6487096548
0.1119949743 -0.08730883896 0.6601014137 0.2143826932 -0.4806468487 0.6114184856
0.09356892854 -0.08444789052 0.6714118123 -0.4265330732 -0.5377358198 0.725510478
0.09280616045 -0.09009450674 0.6663945317 -0.4579243958 -0.5254982114 0.7164889574
0.1127878278 -0.1670065075 0.7083862424 0.8087480068 -0.3868142962 0.4411885738
0.1315168589 -0.1105962843 0.6431253552 0.7336608171 -0.4849799573 0.473851949
0.1263099611 -0.1155556291 0.6416295767 0.6196278334 -0.4717427492 0.6080331206
0.1212910488 -0.1191905886 0.6416141391 0.4859933257 -0.4944829047 0.6371815205
0.1130188257 -0.1235562935 0.6652086377 -0.7312778831 -0.4522974789 0.5073267221
0.1091268957 -0.1239897534 0.6587981582 -0.6545371413 -0.5041143894 0.5523144007
0.1071071476 -0.1182895526 0.6596053839 -0.6569301486 -0.5185447335 0.5379577875
0.1094184294 -0.1288422793 0.6557199955 -0.6254165769 -0.5122148991 0.5791386366
0.1096610054 -0.1350028962 0.6515984535 -0.5860268474 -0.5243199468 0.6144982576
0.1047306135 -0.1238652542 0.6521034837 -0.576598525 -0.5473609567 0.6019951105
0.09730497003 -0.1236348003 0.6444103122 -0.4736264944 -0.5002333522 0.7200969458
0.1053005829 -0.1311178505 0.6487615705 -0.5438148379 -0.5230507255 0.6505683661
0.11129006 -0.08038148284 0.6900466681 -0.3235750794 -0.3954688907 0.8571799397
0.1006132811 -0.07575333118 0.6838353276 -0.3629807234 -0.5263918638 0.7578372359
0.110794723 -0.07710914314 0.67966187 0.03436747938 -0.323137641 0.7333371043
0.1181747988 -0.07985708117 0.6786613464 0.209918648 -0.1729115546 0.7332354188
0.1087809578 -0.07777395099 0.6857376099 -0.2097169608 -0.4132641852 0.796860218
0.1029464453 -0.0951776728 0.6711800694 -0.5135117173 -0.4407400191 0.7342594862
0.08214530349 -0.1692749858 0.7414731383 0.3193619847 -0.5717038512 0.7551705837
0.0610367395 -0.2095541209 0.7146654725 0.08388465643 -0.5815718174 0.8052554131
0.05347430706 -0.2086485028 0.7157883644 -0.04785219207 -0.5536507368 0.8174225092
0.02080254257 -0.08091386408 0.6888903379 0.6637035012 -0.4999986887 0.55211097
0.02055623941 -0.08485839516 0.6838721633 0.6687056422 -0.4908584952 0.5577382445
0.006918095052 -0.08780750632 0.7018237114 0.7378003001 -0.4420005381 0.509845674
0.009796099737 -0.09235396981 0.6961765289 0.7477380037 -0.4387800395 0.4981353879
0.007213539444 -0.1684665978 0.7004817128 -0.8805404305 -0.09581933171 0.4497684538
0.009808684699 -0.1685170978 0.7082896829 -0.8211397529 -0.2085672617 0.5170096159
0.01866954751 -0.1930403113 0.7122756839 -0.6127255559 -0.3380713761 0.7088538408
0.004840034526 -0.1782858968 0.6927548647 -0.8746667504 -0.09863010049 0.467125535
0.007781148423 -0.1784629375 0.698235929 -0.855342865 -0.1018496603 0.4984602332
0.006699685473 -0.1744303405 0.70309937 -0.8245260715 -0.1856835932 0.5321862698
0.003265616717 -0.173782602 0.6902087927 -0.9082508683 -0.05435726047 0.4145912826
0.00436919136 -0.1700903922 0.6958497167 -0.8783100247 -0.05037033558 0.4575602412
0.04281701148 -0.06914664805 0.6779149771 0.3573926985 -0.6530151367 0.6654013991
0.1098693833 -0.1916477084 0.6929945946 0.8058848381 -0.3988341391 0.4362581968
0.1134582534 -0.1760727465 0.6950666308 0.8472893834 -0.35614115 0.3916375041
0.1201928705 -0.1836708188 0.6828024983 0.8487144113 -0.3705281317 0.3765813112
0.113883771 -0.1837813407 0.6935440898 0.8307693601 -0.3742705584 0.4107073843
0.08288940042 -0.1311052591 0.628588438 -0.3473211229 -0.6332165599 0.6869106889
0.08093308657 -0.1261389852 0.6317147613 -0.3454707563 -0.6216731071 0.6972771883
0.1147879437 -0.1820103526 0.687630713 0.850889802 -0.3535520136 0.3883822262
0.1176154092 -0.1371759921 0.6492496133 -0.3471578062 -0.2507977486 0.5064669251
0.1129115894 -0.1363241374 0.6452059746 -0.2277924269 -0.5021031499 0.5993442535
0.06282845885 -0.1243721917 0.6243184209 -0.04392279312 -0.7092795968 0.6937384009
0.05733926594 -0.1168161184 0.6346706748 0.0879117623 -0.6658010483 0.7377690673
0.002721270313 -0.1669802368 0.6883901358 -0.7885664701 0.03987548873 0.4222019017
0.003030189313 -0.1486297846 0.682467103 0.08262649924 -0.1505561173 0.4210355878
0.005605935119 -0.1622099131 0.6983708739 -0.5750954747 -0.1770454645 0.487113148
0.005209048279 -0.1593130827 0.6905956864 -0.4274162352 -0.1123273149 0.4170534313
0.004675080534 -0.1524551809 0.690164566 -0.1060073897 -0.2052909732 0.454384923
0.003616497619 -0.1551314294 0.6850714087 -0.2254693657 -0.09260585159 0.4096810222
0.001627620659 -0.1624421328 0.6831136346 -0.5978999734 0.03689048439 0.3895162642
0.001162235392 -0.1549292654 0.6789415479 -0.2576256692 -0.02275069058 0.3726763129
-0.00025982238 -0.1613491029 0.6774148941 -0.6047993302 0.07838451117 0.3367976546
0.09873467684 -0.1129446551 0.6445015669 -0.1643752009 -0.4970961809 0.7998763919
0.09711420536 -0.1066647694 0.6456300616 -0.04928463697 -0.5572029948 0.6947814226
0.1051440984 -0.1064692587 0.6448622346 0.1316815019 -0.5387876034 0.6766685843
0.1085844189 -0.1134746447 0.6429337263 0.118071802 -0.4442192316 0.8249029517
0.1145205647 -0.1103239805 0.6430444121 0.2905008495 -0.4673613906 0.7453637123
0.1167585179 -0.1049455628 0.6448879242 0.3829243779 -0.5168294311 0.639057219
0.1122106984 -0.1754814386 0.7008994818 0.8363558054 -0.3657250702 0.4079124928
0.1133662909 -0.170133993 0.7032253742 0.8312150836 -0.3644018471 0.4193260372
0.1109421924 -0.172930494 0.7079631686 0.7972166538 -0.401976645 0.4485454261
0.05847486854 -0.1237310022 0.6297814846 0.05724135786 -0.6718245745 0.7285439372
0.0543213971 -0.1251062751 0.6263218522 0.1339528114 -0.665019691 0.7197839022
0.06434969604 -0.128265366 0.6197291613 -0.07758953422 -0.7191810608 0.6794320345
0.0303205438 -0.1260171831 0.6379203796 0.4883650839 -0.5268021822 0.6937639713
0.03466523439 -0.1307152063 0.6337687969 0.4411889613 -0.5522243381 0.702993989
0.04234777763 -0.1274849474 0.6276575923 0.3233736455 -0.5914778113 0.7334226966
0.0387060605 -0.1165151596 0.6417834759 0.3665556908 -0.5910713673 0.7134875059
0.09715089947 -0.1677570492 0.7298361659 0.5371052027 -0.5721859932 0.6188423038
0.09283871204 -0.1680101752 0.7354097366 0.4668470323 -0.5658400655 0.6766008735
0.08870120347 -0.1730378568 0.7335780263 0.4431427419 -0.5844346285 0.6737595201
0.1109016836 -0.09314655513 0.6808887124 -0.442714572 -0.3751530647 0.810606122
0.1100410819 -0.08527640253 0.6849494576 -0.3650288284 -0.3683620393 0.8519027233
0.116235368 -0.08809351176 0.6886171103 -0.2907922864 -0.3031963408 0.8719105124
0.1176620796 -0.09451428056 0.6866147518 -0.4314071536 -0.2761999965 0.841519177
0.07055704296 -0.08993430436 0.6575735211 -0.1306612343 -0.6280573606 0.7645343542
0.07480160147 -0.09322275966 0.6554887891 -0.2141902596 -0.610450685 0.7623358965
0.06740808487 -0.0839670673 0.6618154645 -0.07851255685 -0.6222422719 0.7761169672
0.07529458404 -0.0881722793 0.6601259112 -0.208041355 -0.6150391698 0.7576364875
0.08058807999 -0.09101141244 0.6599189639 -0.302529037 -0.5829973221 0.7423604727
0.1280397177 -0.09631659836 0.6471608877 0.7157593369 -0.5298449993 0.453838855
0.1163295209 -0.09880057722 0.6484364867 0.4171108007 -0.5468599796 0.5201459527
0.08937137574 -0.1015123576 0.6537637115 -0.3697583079 -0.5612280369 0.6993880272
0.09364490956 -0.09886975586 0.6571851373 -0.38625139 -0.538099587 0.6773478389
0.1001512408 -0.09911392629 0.6541668773 -0.1389824301 -0.543100059 0.6314991713
0.09761172533 -0.1023317948 0.6501566172 -0.08631397039 -0.5599261522 0.6597396135
0.1229077503 -0.1029373631 0.6448889971 0.5515980721 -0.5159004927 0.5787468553
0.109498091 -0.1025037244 0.6477417946 0.2143905461 -0.5398044586 0.6194059849
0.1212592497 -0.1254758537 0.6421129704 0.5037817955 -0.5999947786 0.4125869572
0.1066152826 -0.1373812854 0.642963469 -0.4428115189 -0.4222896099 0.7245277166
0.1160518602 -0.1278602183 0.6412915587 0.2447820902 -0.5201387405 0.5192999244
0.109277688 -0.1270326376 0.640547514 -0.07642365992 -0.3722271323 0.8604055047
0.1139263362 -0.1200893447 0.6409584284 0.1351071149 -0.37031582 0.8838179708
0.09752688557 -0.1179213077 0.6486672163 -0.471647799 -0.5583966374 0.6690228581
0.1026972905 -0.1164923981 0.6539775729 -0.5892052054 -0.5629573464 0.5760834813
0.09273254126 -0.113741219 0.6482474208 -0.3832475841 -0.5949863195 0.7047091126
0.09192158282 -0.1079657301 0.6524049044 -0.441535145 -0.6021672487 0.6606224775
0.08419769257 -0.1061814949 0.6481540799 -0.3646476567 -0.5848265886 0.7243953347
0.1135860234 -0.1332079172 0.6580794454 -0.737722218 -0.3397703767 0.5444921255
0.1352268159 -0.09321911633 0.6519480348 0.8175269961 -0.4083260298 0.4025728703
0.1343739778 -0.08756623417 0.6505151987 0.7658268213 -0.4306571186 0.4695332348
0.100775443 -0.1028060615 0.6640566587 -0.5796397328 -0.4793203771 0.6567712426
0.09556765109 -0.09633619338 0.6638498902 -0.5159997344 -0.5101401806 0.6878861785
0.1088666916 -0.09323745966 0.6567024589 0.0964185521 -0.4958656728 0.616247654
0.1157125011 -0.09270837158 0.654861927 0.3118326068 -0.4944401979 0.5807591677
0.1206578761 -0.09502670914 0.6513421535 0.4729264081 -0.5161581039 0.528729558
0.1117252633 -0.09718739241 0.6525986195 0.1901965886 -0.530608058 0.5645260811
0.1270440966 -0.09225899726 0.6514981389 0.6664658189 -0.4957960248 0.5201796293
0.09884472191 -0.08477075398 0.6747266054 -0.405382663 -0.5052980185 0.7578753233
0.1051919237 -0.08427748829 0.6799874902 -0.3378587961 -0.423899591 0.8376861811
0.1064767838 -0.09092057496 0.6771999002 -0.4066182375 -0.4360920787 0.797748208
0.1005009487 -0.1689238101 0.7254394293 0.5918702483 -0.5562016964 0.5806898475
0.1051621363 -0.1675391942 0.721981287 0.650368154 -0.5240616798 0.5474351048
0.1043412611 -0.1729888618 0.717828095 0.6764208078 -0.5025051236 0.5369382501
0.1088275537 -0.1700085849 0.7128207088 0.743114531 -0.4547408521 0.487185359
0.04598589614 -0.1699596196 0.742726624 -0.2563625276 -0.5632170439 0.7851350904
0.04880040139 -0.1588241011 0.7514664531 -0.1563813835 -0.5439246297 0.8221592307
0.06161727756 -0.1577753276 0.7499287724 0.02591814101 -0.561725378 0.8241232038
0.07290607691 -0.07334342599 0.6712952256 -0.1465635598 -0.6384527087 0.7515733838
0.06778180599 -0.0765164718 0.6674188375 -0.0609781146 -0.6494445205 0.7537347078
0.02620644122 -0.07925602049 0.6828459501 0.6132646203 -0.5325331092 0.5831220746
0.04820378125 -0.08622736484 0.6609201431 0.2445248812 -0.6283571124 0.7373232841
0.05429289117 -0.08783496916 0.6585256457 0.141551286 -0.6399731636 0.7535526752
0.06148729846 -0.08563329279 0.6601492763 0.01793659851 -0.6332316399 0.7696434855
0.019154232 -0.09174130112 0.6800432801 0.6992095113 -0.4699794948 0.5383188128
0.01325516216 -0.09060203284 0.6879936457 0.7341626883 -0.4426267445 0.5121814609
0.002705531893 -0.1842396706 0.697637856 -0.8462737203 -0.1472433358 0.5054308176
0.008590974845 -0.1833995283 0.7029101849 -0.7839767337 -0.18840532 0.5907850862
0.01080515329 -0.177255109 0.7065143585 -0.7767654061 -0.2080133259 0.5942224264
0.02637859248 -0.1921504438 0.7125380039 -0.5223749876 -0.3797529936 0.7505787611
0.03321091458 -0.1940912008 0.7169346809 -0.3899398148 -0.454177469 0.7998690605
0.01686004363 -0.1802551895 0.7128041387 -0.6977032423 -0.3192394078 0.6376277208
0.02247998305 -0.1810473353 0.7166213393 -0.6129379869 -0.4006977379 0.6624599695
0.0143755991 -0.1866602004 0.7047770619 -0.7439078093 -0.193413496 0.6351840496
0.03216321394 -0.1864924431 0.7228829861 -0.4413922727 -0.4998709857 0.7406476736
0.02599400096 -0.1870036423 0.719707787 -0.5566194654 -0.4344019294 0.7068994045
0.03807717562 -0.07447521389 0.6774636507 0.4463297725 -0.605786562 0.6530558467
0.03332047909 -0.0792139098 0.676477313 0.5030238032 -0.5778613687 0.6416370869
0.0270970352 -0.08369484544 0.6786111593 0.5983239412 -0.5320106149 0.5978180766
0.03163951263 -0.07462513447 0.6816554666 0.536356926 -0.5752872825 0.61311692
0.07279444486 -0.2081892937 0.7117246389 0.2671398818 -0.5779034495 0.7438514233
0.08420912921 -0.2054713815 0.7093923092 0.4273608923 -0.5658993125 0.684933424
0.06436874717 -0.2050372213 0.7165017724 0.1433878988 -0.5954830647 0.7872658372
0.04616314545 -0.1980755776 0.7187878489 -0.2052583694 -0.5165255666 0.8303943872
0.1226170436 -0.1720835716 0.676938355 0.945217669 -0.03843364492 0.2306032628
0.1170049757 -0.1684127599 0.693541944 0.8610183597 -0.3317509294 0.3854582608
0.1182081699 -0.1707197875 0.6870465279 0.8605607152 -0.333198607 0.3851188421
0.1158315763 -0.1749976724 0.6896824241 0.8571730256 -0.3457881808 0.3816525936
0.1184865162 -0.1748767644 0.6821161509 0.8895415068 -0.2950217724 0.3373437524
0.1176686436 -0.1473324597 0.6796876192 0.1428305507 -0.3725705445 0.4529301524
0.114263542 -0.1286836267 0.6706435084 -0.4987474978 -0.4224973619 0.4829452932
0.1146411225 -0.1412920654 0.6561572552 -0.7328309417 -0.1365911514 0.5560606122
0.1180046424 -0.1614843756 0.682539463 0.5712507367 -0.3267530799 0.4107857347
0.1167719737 -0.1524693072 0.6764990091 0.1852586418 -0.3179558218 0.4442734122
0.1151664034 -0.1391863674 0.6720921397 -0.2298103571 -0.3645864427 0.4690487683
0.1139295995 -0.1305324584 0.6651520133 -0.6393790841 -0.3410009444 0.5074363351
0.115752399 -0.1452570856 0.6709536314 -0.1479200572 -0.3014637828 0.4749614894
0.01255509444 -0.107636027 0.6769439578 0.7556114793 -0.4402430356 0.4847836494
0.01238248125 -0.1032233611 0.6817473173 0.7607247829 -0.4289446771 0.4869378805
0.01536855847 -0.09669680148 0.6819702983 0.7481560707 -0.4349756837 0.4999669194
0.05343515798 -0.09835101664 0.6497902274 0.1331071109 -0.6291675568 0.7629087567
0.03989614174 -0.09680354595 0.6560466886 0.3920976818 -0.5957920551 0.6973537207
0.04412660003 -0.09208806604 0.6579135656 0.3111267388 -0.6152338386 0.7193697691
0.0415180698 -0.08715326339 0.6640915275 0.3830905259 -0.5986080766 0.6998223066
0.03686614707 -0.09140658379 0.6623720527 0.4539349079 -0.5809696317 0.675383687
0.00261784438 -0.1386118829 0.6684234738 0.8023042679 -0.2464052737 0.4392118454
0.002650192007 -0.1441906989 0.6783204675 0.3154462874 -0.1694956422 0.4109413028
0.002510471037 -0.1440740973 0.6653795242 0.6823496222 -0.2058483213 0.4593566358
0.002497248817 -0.152029112 0.6740567684 0.1403837651 -0.1110105515 0.4394574463
0.002558880253 -0.1457438916 0.6718885303 0.437271744 -0.1731512249 0.437574774
0.001513244933 -0.1593078226 0.6708852053 -0.4508765936 0.05757325888 0.3105127811
-0.0006629113923 -0.1511196643 0.668802619 -0.2119915932 -0.02127033286 0.2289492786
0.005116514862 -0.1462178677 0.6596481204 0.4480480552 -0.1580440998 0.4305847287
0.001769424765 -0.1517383158 0.6621652246 -0.0606399402 -0.05329398438 0.2976025045
-0.001146403374 -0.1634029746 0.6675319672 -0.9565132856 0.1780394912 0.1392757446
0.001475235331 -0.1575383395 0.6646039486 -0.4660915732 0.06340019405 0.2491156012
0.01676604524 -0.1292830706 0.64836514 0.6918587089 -0.4541942775 0.5598371029
0.01441089716 -0.1277135313 0.6546816826 0.7286505699 -0.4458351135 0.5198341608
0.002683422761 -0.1306123585 0.677414 0.8089701533 -0.3160902858 0.4164631963
0.002502378542 -0.1268420815 0.6848762035 0.6348819137 -0.3932273686 0.4479213953
0.004777291324 -0.14012824 0.6928347945 0.1641905606 -0.3309083879 0.4725911319
0.004489988554 -0.1407537013 0.684956193 0.4032472372 -0.2774970531 0.4410993457
0.002799040871 -0.1333154291 0.6874189973 0.4008945525 -0.3563950658 0.4583334923
0.004090023693 -0.1461394131 0.6883608103 0.123353295 -0.2563425303 0.4583413303
0.005127572455 -0.1463774592 0.6961290836 -0.08677693456 -0.3004322052 0.4858476222
0.006445577368 -0.1558493525 0.7014589906 -0.4294768274 -0.2545522153 0.5034859776
0.007620475721 -0.1634696424 0.704782486 -0.6645857096 -0.2113780081 0.5130714774
0.006482935045 -0.1536041796 0.6961897016 -0.1875204891 -0.239700377 0.4807980061
0.003298925469 -0.1363637894 0.6785085797 0.6634964347 -0.2753190398 0.4191046059
0.07609315217 -0.1040773094 0.6465261579 -0.2137698233 -0.6147217751 0.7560501099
0.08198423684 -0.1016839743 0.6512602568 -0.3376366198 -0.5901102424 0.7318910956
0.083564125 -0.09569897503 0.6560823321 -0.3606577516 -0.5751357079 0.7333267927
0.07553688437 -0.09906928986 0.6497152448 -0.2066135854 -0.6151627302 0.7571383119
0.08751057833 -0.1111687943 0.645098567 -0.3483867049 -0.5709147453 0.7412703633
0.05741468817 -0.1290189922 0.6216385365 0.04147141799 -0.6754574776 0.7046368122
0.0611503832 -0.1291383505 0.6277076602 0.01661094092 -0.6661739349 0.7203161716
0.07228025049 -0.1306347102 0.6274926662 -0.1476791352 -0.6847112179 0.6890869141
0.06687746197 -0.1308243126 0.6260743737 -0.08074478805 -0.6838206053 0.6962040663
0.07422674447 -0.1248176247 0.6299498677 -0.2292466462 -0.6798060536 0.6922943592
0.0472342819 -0.10308671 0.6488891244 0.2560560405 -0.6115243435 0.7399992943
0.06376092136 -0.1094357669 0.6412154436 -0.02708500251 -0.6281759739 0.7757565379
0.05871976539 -0.1073948294 0.6427792311 0.04992586374 -0.6233073473 0.7763971686
0.05373787507 -0.104245998 0.6453351974 0.1396784037 -0.6182685494 0.7715885639
0.04213549569 -0.1217630878 0.6326361895 0.3514331877 -0.5849658847 0.7275316715
0.04726480693 -0.1188380569 0.6347926855 0.2654268742 -0.6049723625 0.7483178973
0.04810301587 -0.1256028414 0.6268180609 0.2417946756 -0.6206728816 0.743856132
0.05189693719 -0.1212304309 0.6316274405 0.1946540624 -0.6511095166 0.7307808399
0.04611579701 -0.1130828708 0.6406661272 0.2613284588 -0.608289957 0.7464548945
0.0520683825 -0.114289701 0.6375806332 0.1620994955 -0.6282699108 0.7563158274
0.03747045994 -0.1218807101 0.6380539536 0.3860441744 -0.5802467465 0.7121770382
0.04888756201 -0.17477265 0.7396970987 -0.2095667571 -0.5807014704 0.7820612192
0.06331671774 -0.1741294861 0.7406893969 0.04921840504 -0.5750255585 0.8147452474
0.05635956302 -0.1723248512 0.7404666543 -0.04994639754 -0.5845215321 0.8087434769
0.05314594135 -0.1671438962 0.7446442842 -0.1088224426 -0.5669881701 0.8123912215
0.09384521097 -0.1732289195 0.7296429873 0.5204141736 -0.5731971264 0.6307133436
0.1222443283 -0.09780748934 0.6798097491 0.1185918301 -0.1794888228 0.7779996395
0.1150985956 -0.1014061943 0.6804913282 -0.5261945724 -0.2693478167 0.8009200692
0.1306941211 -0.09260216355 0.6622544527 0.758276999 -0.3073898852 0.518007338
0.124234125 -0.09203315526 0.6756762266 0.6510014534 -0.1848751605 0.6875463724
0.1265782714 -0.09427183121 0.6704384685 0.5277119279 -0.2371837199 0.6344650388
0.1304768622 -0.1039422601 0.6546543241 0.3971720934 -0.4114234447 0.5465581417
0.1323614269 -0.09795387834 0.6560302377 0.5370752811 -0.3786115348 0.4884875119
0.1341326535 -0.09884727746 0.649579823 0.7490987182 -0.4433069229 0.4343706369
0.1298820823 -0.09901897609 0.662309885 0.2688818574 -0.3219730556 0.5644037724
0.1258153617 -0.1025434434 0.6704995632 -0.1490705162 -0.2551098466 0.689050436
0.09760858119 -0.1109283864 0.6542782784 -0.5134372115 -0.5973392725 0.6111829877
0.1019344628 -0.108605139 0.6609681249 -0.6090791821 -0.5381646156 0.5762152076
0.09703821689 -0.1062454879 0.6577796936 -0.543213129 -0.5428138375 0.6367199421
0.1143209487 -0.1164086238 0.6706885695 -0.6742652655 -0.4433209598 0.5695384145
0.1249937639 -0.1088555381 0.6424205899 0.571444571 -0.4754571021 0.6561262012
0.09130116552 -0.1190839782 0.6432957053 -0.3944494128 -0.574972868 0.7159175873
0.08634455502 -0.1164664477 0.6406759024 -0.353974551 -0.5844549537 0.7281713486
0.08275624365 -0.1196533665 0.6365203261 -0.3693680465 -0.6086980104 0.7020032406
0.09005405754 -0.1218105555 0.6374115944 -0.3542051315 -0.5757049918 0.7316013575
0.0876891315 -0.1275223196 0.6348008513 -0.4275973737 -0.5580483079 0.7101082802
0.09314195067 -0.1317558587 0.6348313093 -0.4830080867 -0.390757978 0.7743833661
0.1086676642 -0.09914201498 0.6741628647 -0.5309849381 -0.3482196331 0.7695842385
0.1132307574 -0.1051187739 0.6753037572 -0.5667566657 -0.2492486984 0.7842646241
0.1194592416 -0.1162772849 0.6770221591 -0.646030724 -0.3482734561 0.6627531648
0.1185850054 -0.1067037731 0.6810085773 -0.5700080395 -0.2254438102 0.7820138931
0.1167354584 -0.1115100309 0.6767519116 -0.6262268424 -0.2981237471 0.6967365742
0.1277386993 -0.1061230153 0.6607427001 0.1089428887 -0.3652839661 0.6208893061
0.1290848702 -0.1096224189 0.6548674703 0.2743920684 -0.4674285948 0.5141407847
0.1257469803 -0.1094312295 0.66483289 -0.1013642773 -0.365319103 0.6278182268
0.1231780872 -0.1147579923 0.6695334911 -0.3683085144 -0.3842446506 0.6178938746
0.1226505935 -0.1085586548 0.674454391 -0.4527605772 -0.2582125068 0.7456433773
0.1194819063 -0.1297969371 0.6782838106 -0.4062409997 -0.3966712952 0.561340332
0.1177206114 -0.138961792 0.6808529496 -0.121691756 -0.386080265 0.4968207777
0.1171066836 -0.1592177004 0.6895327568 0.5565466881 -0.348788321 0.4170173407
0.1318985075 -0.1066061854 0.6481743455 0.5790548325 -0.496437192 0.4752084911
0.1268058568 -0.1160756275 0.6556174755 0.1703887582 -0.4541234076 0.5198253989
0.1247425526 -0.1212007627 0.6477180719 0.465316236 -0.5748734474 0.4109251797
0.121018447 -0.1216485128 0.6682952046 -0.4047341049 -0.4562199712 0.551371932
0.1230645552 -0.120502539 0.6605511308 -0.07008478791 -0.4869977534 0.5086618662
0.1287765354 -0.1150312126 0.6479240656 0.5021542907 -0.4860351384 0.4764184654
0.1240415424 -0.1207551062 0.65368855 0.2171158195 -0.5322747827 0.4576505423
0.1187960505 -0.1465697587 0.6647235751 -0.1961898953 -0.08884038776 0.447039783
0.1216255277 -0.1506022215 0.6726911664 0.2793168724 -0.07833443582 0.344227165
0.1168992743 -0.1463534683 0.6587840319 -0.4497608244 -0.06595814973 0.4973306656
0.1196180135 -0.1325130612 0.6707020402 -0.4572359324 -0.2690276504 0.5312541723
0.120216541 -0.1554397792 0.6670765281 0.221976757 -0.00119349116 0.3441406786
0.120119758 -0.1230679303 0.6745594144 -0.639249444 -0.3894217312 0.5891378522
0.1231059358 -0.1671417803 0.6733880639 0.9063583016 0.1007944494 0.1823344678
0.1188231334 -0.1384878755 0.6667535901 -0.4045041203 -0.1864531189 0.5068902969
0.1209363565 -0.1294816583 0.6479772329 0.1068216786 -0.4431418478 0.440256089
0.1190729812 -0.126778692 0.6675127149 -0.6302069426 -0.3430695534 0.5799633861
0.1194988787 -0.1303997338 0.6550980806 -0.2597205639 -0.3611851037 0.5046305656
0.1214023978 -0.1249101311 0.6569815278 -0.06184902415 -0.4764825106 0.4811489284
0.05421128124 -0.1624048501 0.7495567799 -0.09044525027 -0.5610770583 0.8211089969
0.0595713146 -0.1641003788 0.7483223677 0.002602326218 -0.5643852949 0.8191848397
0.06317334622 -0.1668441147 0.7448884249 0.04466445744 -0.5659146309 0.8215472698
0.04884463176 -0.07326316088 0.6722332239 0.2330167443 -0.6592499018 0.7106385231
0.05485438928 -0.06962996721 0.6740580797 0.1268361062 -0.6795865297 0.7221379876
0.04947796464 -0.06711217016 0.6773186326 0.2365915477 -0.6827855706 0.685654521
0.0619764626 -0.08005061001 0.6644538641 0.02810263261 -0.6471481919 0.7584049106
0.05762088299 -0.07730231434 0.667175889 0.09632046521 -0.6482423544 0.7528142333
0.06211589649 -0.07366095483 0.6703529954 0.03010937199 -0.6700838208 0.7395296097
0.03929390013 -0.08152586967 0.6712111831 0.4054972827 -0.6002459526 0.6872730851
0.03615325689 -0.08624341339 0.6675907373 0.4656039178 -0.5789650083 0.6692045927
0.04334145784 -0.0777901113 0.672003746 0.3620526493 -0.6194150448 0.6956634521
0.05465044454 -0.08369792998 0.662463069 0.1431134492 -0.6344202161 0.7591209412
0.04654430971 -0.08248209208 0.6667595506 0.2889856994 -0.6177793741 0.7226791382
0.05262483656 -0.07950598747 0.6660336256 0.1699097008 -0.6381483078 0.7493489385
0.02755663544 -0.1950508207 0.7178562284 -0.4656225443 -0.4424783587 0.7582342625
0.0354841128 -0.1992727071 0.7162983418 -0.3449960053 -0.4700497687 0.8111635447
0.03966203332 -0.1941771209 0.7184407115 -0.3111992478 -0.4915933311 0.8044278622
0.04842810333 -0.1835319549 0.7318603992 -0.1990616024 -0.6057493091 0.7656178474
0.04922826216 -0.1790230274 0.7360652089 -0.1965719163 -0.5936980844 0.7751005888
0.03867348656 -0.1593044847 0.7476890683 -0.3015541434 -0.5274114609 0.7913895249
0.03296917677 -0.1810643375 0.7266644835 -0.4562987089 -0.5220513344 0.7192949653
0.04233359545 -0.1809567511 0.7316803932 -0.3084841073 -0.5806346536 0.7469596267
0.07287065685 -0.2035773844 0.7158234715 0.2564199865 -0.5884053111 0.7650390863
0.06799346954 -0.2008727193 0.7190701365 0.1768255681 -0.5766792297 0.7932105064
0.078989245 -0.2042036802 0.7131237388 0.343018502 -0.5784798861 0.731621623
0.07805519551 -0.1997446716 0.7169249058 0.3216313422 -0.5764064193 0.7491887212
0.1012120694 -0.1921549141 0.7054137588 0.6904222369 -0.4417480826 0.5727185011
0.1044716313 -0.1966160387 0.6984395981 0.7292754054 -0.4362042248 0.5173533559
0.1006205603 -0.2006224394 0.7024142146 0.6574229598 -0.4635377526 0.5894277692
0.1102391779 -0.1817026436 0.7018277049 0.8195247054 -0.3730040491 0.4344618022
0.1058145463 -0.1883279085 0.70258075 0.7510131598 -0.4198414683 0.5083599091
0.1094004288 -0.1857749075 0.696370542 0.8196998835 -0.3701562881 0.4333085716
0.1225538179 -0.1604496241 0.6751950979 0.6904630661 -0.00614486495 0.2532814145
0.121318154 -0.1677644253 0.6820281744 0.9247259498 -0.1193372309 0.2729759514
0.1212810799 -0.1404025257 0.67521137 -0.01422566269 -0.2165575475 0.4334286451
0.1192595437 -0.1647312939 0.6872699261 0.7844424248 -0.2556115985 0.3547814488
0.1200186834 -0.1555356085 0.6832412481 0.4844230115 -0.2647799551 0.3935657442
0.1181482822 -0.151505664 0.6869478822 0.3105012476 -0.3593510389 0.4626238644
0.1171552464 -0.157643348 0.6716881394 0.1308480203 -0.2097893059 0.4665955901
0.1211273521 -0.1624275297 0.669095993 0.5381582975 0.05529058352 0.2717803419
0.1174869388 -0.1520725638 0.6604557037 -0.2028339207 -0.02725498192 0.4442659318
0.044164408 -0.1586958021 0.744128406 -0.2271561772 -0.5447907448 0.7855357528
0.03161402419 -0.1592018008 0.7421628237 -0.4093133509 -0.516784668 0.7485473156
0.04956458881 -0.1621694416 0.7463695407 -0.1707471907 -0.5529672503 0.8069598079
0.03765918687 -0.1594687998 0.7415974736 -0.3232891262 -0.5367782116 0.7650254369
0.007417968009 -0.09556122869 0.6912889481 0.7612406611 -0.4274821281 0.4875783622
0.01138798892 -0.09925943613 0.6874588132 0.7589868903 -0.4285316467 0.4899465442
0.005473298486 -0.1005953401 0.694976449 0.7692452073 -0.4227107167 0.4790522456
0.004632895812 -0.09951090068 0.7022409439 0.7641797662 -0.4255021513 0.4846624434
0.04171596467 -0.1018371806 0.6518663168 0.3554213643 -0.60435462 0.7120019794
0.0308885593 -0.1053344607 0.6551934481 0.5179297328 -0.5624784827 0.6400081515
0.01319139358 -0.111777246 0.6720837951 0.7432482839 -0.4554740787 0.4888108671
0.01799036935 -0.1029850766 0.6719676852 0.7145887613 -0.4677833915 0.5184093714
0.03218428791 -0.1118807495 0.6493585706 0.4995969534 -0.5701711774 0.6490390301
0.03817663342 -0.1107978821 0.6463513374 0.4015287459 -0.5910255909 0.6919805408
0.03683010116 -0.1046807393 0.6516357064 0.4233403504 -0.5872702599 0.6881470084
0.03552995622 -0.1015054211 0.6572639942 0.4675841033 -0.5794424415 0.6587444544
0.03199155629 -0.1177082136 0.644743681 0.4734692872 -0.5702121854 0.6700284481
0.02562863007 -0.1053465977 0.6601970792 0.5988650322 -0.5388867259 0.5918597579
0.03078155965 -0.09568109363 0.664842546 0.5380414724 -0.5591179132 0.6253812313
0.02311378345 -0.1006799862 0.6675181389 0.6479321122 -0.5078856945 0.5646086931
0.03048244119 -0.1012269855 0.6614267826 0.5523765683 -0.5578854084 0.6181693673
0.03177710995 -0.09045592695 0.6681699157 0.5301930308 -0.5528358817 0.6346363425
0.02650592476 -0.09255163372 0.6711381674 0.6013568044 -0.5297145844 0.5973848104
0.02856476046 -0.08751285076 0.6741899252 0.5700986981 -0.5384812951 0.6150434613
0.03308552131 -0.08388023823 0.6730867624 0.4946012199 -0.5694762468 0.6553617716
0.00765218772 -0.1401510984 0.6562546492 0.8113328815 -0.283306241 0.5068209171
0.009227617644 -0.1324272305 0.6590817571 0.7949799299 -0.3394829333 0.4953086674
0.004439357203 -0.1388280243 0.661809504 0.8418873549 -0.2591922283 0.4724740088
0.07527530938 -0.1116106063 0.6412855983 -0.2248920202 -0.6180884242 0.7526133657
0.0702644065 -0.1081631482 0.6428332329 -0.1251550764 -0.6248340607 0.7670732737
0.08106275648 -0.1113010645 0.6428492069 -0.3264579177 -0.6008221507 0.7271325588
0.07271227986 -0.1157570407 0.6365271211 -0.1867779493 -0.6570745707 0.7248466015
0.08389274031 -0.1790563166 0.7306639552 0.4015049636 -0.6001746058 0.6893353462
0.106125921 -0.1071562469 0.6660205126 -0.6324112415 -0.458705157 0.6183915138
0.1090373024 -0.1049779356 0.6705929637 -0.594841063 -0.3319292367 0.7216385603
0.1100261807 -0.1145557165 0.6658287048 -0.6617375612 -0.5524540544 0.5052916408
0.0663203299 -0.1619051099 0.7471386194 0.08833816648 -0.5636960864 0.8203408122
0.07021186501 -0.1663998812 0.7458496094 0.1506240219 -0.5649895668 0.8098506331
0.08162607253 -0.1630710661 0.7445949316 0.3051131964 -0.5573292971 0.7661916614
0.07644163817 -0.1588359177 0.7484665513 0.1976007372 -0.5617263913 0.8004069924
0.03884954751 -0.1881017983 0.7256926894 -0.3395844698 -0.5350927114 0.7706862092
0.04257137701 -0.1935062259 0.7247326374 -0.2693089247 -0.5441094041 0.7923961282
0.02607564069 -0.1747340262 0.7266652584 -0.5631507039 -0.4880012572 0.6661382318
0.02671531402 -0.1810463965 0.7224590182 -0.5650131106 -0.4587630928 0.6853010058
0.0167322848 -0.1743499488 0.7166209221 -0.705744803 -0.3782582581 0.5947646499
0.02028023452 -0.1736940444 0.7214061022 -0.6458722353 -0.4402087629 0.6202867627
0.0305830203 -0.1756341457 0.7298556566 -0.4980017841 -0.5191038847 0.6914290786
0.03537597135 -0.1750252247 0.7336571813 -0.4351511002 -0.5450438857 0.7154754996
0.0614733845 -0.1961921901 0.7231478095 0.05821320787 -0.5701836348 0.8148155212
0.08760834485 -0.200140208 0.7124713659 0.4526931942 -0.5539335608 0.6970536709
0.09383301437 -0.2028229833 0.7068279982 0.5572524071 -0.5220053196 0.6450464725
0.09620415419 -0.1968154311 0.7076417208 0.6066090465 -0.4857580662 0.6279434562
0.1057050228 -0.180755958 0.7069836855 0.7504299283 -0.4292522371 0.4975829124
0.1060607955 -0.1774035245 0.7115754485 0.7245649099 -0.4583638906 0.5120232105
0.1022450402 -0.183653757 0.7111101747 0.6807704568 -0.4506075084 0.5774940252
0.0970813036 -0.1858734339 0.7141792178 0.6152440906 -0.4657662213 0.634242475
0.02524222434 -0.160800755 0.7354246974 -0.5173335671 -0.4942818284 0.6926418543
0.01993289404 -0.1653685272 0.7279080153 -0.6242010593 -0.4601775706 0.6292851567
0.02437934652 -0.1657593548 0.7316351533 -0.5711839795 -0.4891213179 0.6588425636
0.06990399212 -0.1726501137 0.7412499785 0.1422672868 -0.5732975006 0.8040928841
0.08320701122 -0.1736683846 0.7361639738 0.3707342446 -0.592384994 0.712438345
0.08685483038 -0.1685507894 0.7380312681 0.3828047216 -0.5850718617 0.712636292
0.07519441098 -0.1687783003 0.7427327037 0.2106934339 -0.5747368932 0.7895330787
0.02273929119 -0.1154564768 0.6544303298 0.6419982314 -0.5164905787 0.5658797622
0.01780201867 -0.1223831475 0.6536770463 0.6954519153 -0.4694914818 0.5417701006
0.02640138008 -0.1108900383 0.6547263265 0.5916999578 -0.5411595106 0.5955816507
0.02685719356 -0.1170169786 0.6481108069 0.5678698421 -0.5475165248 0.6139467359
0.01198275574 -0.1379674673 0.6513485909 0.7586206198 -0.3336266279 0.5396611691
0.01869185641 -0.1337191463 0.6443448663 0.6714562178 -0.430134654 0.5890185237
0.01851341687 -0.1088020131 0.6649302244 0.6977822781 -0.4876649976 0.5244969726
0.01508375257 -0.1148499995 0.664973855 0.7441027164 -0.455794543 0.4881339669
0.04871385545 -0.1978540272 0.7255541086 -0.1554166228 -0.5680958629 0.8031340837
0.05233843252 -0.1941766143 0.7279288769 -0.09793827683 -0.5913065076 0.7976493835
0.04487423971 -0.2065586746 0.7213169932 -0.2073186338 -0.5325169563 0.8195610046
0.05870975927 -0.1796254367 0.7366970181 -0.01391870342 -0.5928000212 0.8009547591
0.05586375669 -0.1828899682 0.7335478663 -0.06135580316 -0.6099262238 0.7889291048
0.06215170026 -0.1916972697 0.7266669869 0.03431947157 -0.6010322571 0.7956616879
0.06477963179 -0.1862015426 0.7311960459 0.07798808068 -0.6008930206 0.7948505878
0.04818723723 -0.1900162101 0.7265304327 -0.1959171891 -0.5651744008 0.793759346
0.05615662411 -0.1889382005 0.728146255 -0.07914981991 -0.6053862572 0.7860873938
0.05166938528 -0.2026408613 0.7223213315 -0.1056111977 -0.5516227484 0.8225582838
0.05521634221 -0.1979639977 0.7240666151 -0.05607991293 -0.5696721077 0.8175271153
0.05890487134 -0.2021711022 0.7202146649 0.008741412312 -0.5599124432 0.8262985349
0.03512654081 -0.1691308469 0.7368466854 -0.4046936929 -0.5417714715 0.7342910767
0.04246785864 -0.1757545918 0.7361836433 -0.3106508553 -0.5747132301 0.7537790537
0.04043775797 -0.1655371934 0.7433717847 -0.3060574532 -0.5451107025 0.7793921232
0.04004186019 -0.1701341569 0.7398952246 -0.3389465511 -0.5527838469 0.7572391033
0.03060996905 -0.1643882841 0.7371690273 -0.4561361074 -0.520383954 0.7200477123
0.09318425506 -0.1829057336 0.720431149 0.5640298724 -0.5270058513 0.6352283955
0.08766165376 -0.1868346334 0.7215222716 0.4808367789 -0.5456223488 0.6795216799
0.08926921338 -0.1809439063 0.7245996594 0.4942600131 -0.5672028661 0.6560564637
0.09158837795 -0.1893925965 0.7166887522 0.5317801237 -0.5197855234 0.6649531722
0.09276498854 -0.1935456991 0.7127494216 0.5495336056 -0.496768564 0.6704250574
0.08739426732 -0.193549782 0.7159363627 0.4568711817 -0.5336454511 0.7092077732
0.09723359346 -0.1771816611 0.7210248113 0.590431571 -0.5366498232 0.6009722352
0.02078186907 -0.1126175746 0.6597254276 0.6704470515 -0.4985833168 0.5479313135
0.01784529164 -0.1184988245 0.6592348218 0.695025444 -0.4829348326 0.5257912278
0.01282320358 -0.121388711 0.6633148193 0.7519719005 -0.4465812147 0.4844587743
0.01209426858 -0.1263944954 0.6597195864 0.7614973187 -0.4137665033 0.4930437207
0.006348960102 -0.1220719516 0.674139142 0.7793548703 -0.4275877774 0.457792908
0.02432435937 -0.1272885352 0.6421120763 0.5988476872 -0.4986500144 0.6242769957
0.02546314709 -0.131423533 0.6385151148 0.5781185031 -0.4718133807 0.6630634665
0.02705141716 -0.1227034181 0.644197762 0.5458922982 -0.5299537182 0.6404455304
0.02219555154 -0.1212885007 0.64903301 0.6338674426 -0.4981428087 0.589941442
0.08166570216 -0.1907461137 0.720695138 0.3812122643 -0.5561938286 0.7273522019
0.06870967895 -0.1956241578 0.723259747 0.1708347797 -0.5863778591 0.7885266542
0.07402715832 -0.1972299218 0.7203685045 0.2613015175 -0.5830489993 0.7683705688
0.005583577324 -0.11274831 0.6833142638 0.7796823978 -0.41805318 0.4659114778
0.009093930013 -0.1146821603 0.676250875 0.7654458284 -0.4370158315 0.4719923437
0.007771574892 -0.1061897427 0.6862025261 0.7771428227 -0.413108319 0.4747079909
0.007942731492 -0.1295253336 0.6645069122 0.7934616208 -0.374741286 0.4726984203
0.004332617857 -0.1314825863 0.6703081727 0.8391162753 -0.3151021302 0.4377581477
0.01134420745 -0.1174414679 0.6700602174 0.7571052313 -0.4444209933 0.4787873328
0.009290608577 -0.1238127947 0.6679816842 0.7651570439 -0.4352880418 0.4743389785
0.07796113938 -0.1777740717 0.7355937958 0.2853537798 -0.5954346061 0.7498457432
0.06518176943 -0.1811721623 0.7349877357 0.08706916124 -0.59103477 0.8012127876
0.07168085128 -0.18295829 0.7326488495 0.2021472752 -0.6042687893 0.7668311
0.07154575735 -0.1772376895 0.7374519706 0.1756994426 -0.5850690007 0.7893977761
0.08209282905 -0.1834991872 0.7278748155 0.3862118125 -0.5924956203 0.7062474489
0.07669617981 -0.1862577349 0.7285212278 0.292118907 -0.6085071564 0.7370606065
0.07689741254 -0.1914791465 0.7241191268 0.3020645678 -0.5832449198 0.7517444491
