# .PCD v0.7 - Point Cloud Data file format
VERSION 0.7
FIELDS x y z normal_x normal_y normal_z
SIZE 4 4 4 4 4 4
TYPE F F F F F F
COUNT 1 1 1 1 1 1
WIDTH 512
HEIGHT 1
VIEWPOINT 0 0 0 1 0 0 0
POINTS 512
DATA ascii
-0.09053400159 -0.1332002133 0.5505478382 -0.713209033 -0.3728892505 0.5878428221
-0.08715230972 -0.134758532 0.5542902946 -0.6720191836 -0.3686179519 0.6345336437
-0.07983936369 -0.141409412 0.5598595142 -0.605507791 -0.3914214373 0.6909402609
0.0368033573 -0.04466342181 0.5266523957 -0.06729836017 -0.7294626236 0.6702028513
0.0352682732 -0.04008181766 0.5303318501 -0.0963729322 -0.7503890395 0.6417176723
0.03307760879 -0.03619161621 0.5399592519 -0.1146594658 -0.777772665 0.6112823486
0.03280885145 -0.03198505566 0.5349766016 -0.1495826393 -0.784624517 0.5931625962
0.03981366381 -0.05252408609 0.5172276497 -0.01962352172 -0.6882538199 0.7229595184
0.01513080299 -0.06337928772 0.5102186203 -0.3378572166 -0.6203901172 0.6861057878
0.0341428481 -0.05294574797 0.5152217746 -0.05584381148 -0.6419225335 0.7630779147
0.008962126449 -0.06572969258 0.5179258585 -0.3278239071 -0.6315918565 0.7002602816
0.00430237595 -0.06717465073 0.5077761412 -0.4644652009 -0.5912740231 0.6521184444
-0.0936890021 -0.124012202 0.550701499 -0.7632204294 -0.3937392533 0.5119856
-0.07935776561 -0.08958709985 0.6035801172 -0.586373806 -0.5435456634 0.5968096852
-0.04719492793 -0.09086687118 0.6207489371 -0.07247444987 -0.6544499993 0.7517753839
0.01372946613 -0.04466350377 0.5206292272 -0.4156476557 -0.6064065695 0.6026317477
0.01522624679 -0.03984740749 0.5250415206 -0.4122899473 -0.6481949687 0.5736664534
0.02832294814 -0.03003326245 0.5330821872 -0.2243250459 -0.767018795 0.5729842186
0.006581987254 -0.04689131305 0.5191990137 -0.5335752368 -0.5654438734 0.5785441995
0.03012740612 -0.03784139454 0.5255283117 -0.1534889042 -0.7134483457 0.6445155144
0.02326605469 -0.04441471025 0.5199620724 -0.2449400127 -0.6402652264 0.656067431
0.03377037868 -0.04444785416 0.5189366937 -0.05540260673 -0.6752142906 0.7173275352
0.02812917344 -0.04253780097 0.5212765932 -0.166474089 -0.6708933115 0.6696329713
0.02278059535 -0.03671615198 0.5272875428 -0.2914593518 -0.6974192858 0.5930526257
-0.09081158787 -0.02368897013 0.5526569486 0.5688639283 -0.5692637563 0.5933561325
-0.08963534236 -0.0277958326 0.5468122363 0.591434598 -0.5565302968 0.5828074217
-0.08523468673 -0.0221362859 0.5446779132 0.5641485453 -0.5777682662 0.588775754
0.02015930228 -0.0666083321 0.5128014684 -0.2749856412 -0.6726706624 0.6769112349
0.01230555493 -0.06793959439 0.510178566 -0.3695697784 -0.6393941641 0.657628417
0.01683201641 -0.07197128981 0.5144271255 -0.2633786201 -0.6637795568 0.6972584724
-0.05644097179 -0.09019105881 0.6187514663 -0.2026592344 -0.6232305765 0.7537599206
0.01651166566 -0.02725451626 0.534666419 -0.3167048395 -0.7402024269 0.557382226
-0.006418707781 -0.02613283508 0.5346683264 -0.5916215777 -0.5636875033 0.5757433176
0.007839792408 -0.02646894939 0.5354620814 -0.4297897816 -0.6694399118 0.5608617663
0.003035462694 -0.02823117748 0.5313280225 -0.4415887892 -0.6522863507 0.5826857686
-0.005216218531 -0.02960667945 0.5297484994 -0.5369211435 -0.5875970125 0.5958108306
0.01371430419 -0.04947633669 0.5172433853 -0.4028561711 -0.5840263963 0.6344773769
0.01901959628 -0.05320407078 0.5157009363 -0.311439693 -0.6041271091 0.6822676659
0.02747762576 -0.05033516511 0.5158882141 -0.157395795 -0.6330013275 0.7174008489
0.006059032865 -0.04954944924 0.5283369422 -0.5063961148 -0.5798919201 0.6310120821
0.00613253843 -0.05323569104 0.5242145658 -0.4902114272 -0.6007879376 0.6252495646
0.006554800086 -0.04576960206 0.5331532955 -0.4868787825 -0.5837227106 0.6397910118
-0.04840895906 -0.05105011538 0.4937104881 0.1007612869 -0.6542434096 0.7430203557
-0.05170378461 -0.04768261686 0.4979197383 0.1538972259 -0.6641424894 0.7279758453
-0.0539746806 -0.05158026516 0.4944713414 0.2022222579 -0.6375285983 0.7406911254
-0.07751443237 -0.02367423661 0.5351067185 0.5383628607 -0.591701746 0.5993911624
-0.08203412592 -0.02671020478 0.5378756523 0.5666199923 -0.5736138821 0.5895172954
-0.08591262251 -0.02801107801 0.5416612029 0.5882053971 -0.5634434819 0.5785329342
-0.07687375695 -0.01812806539 0.5396754742 0.5303100944 -0.6030595899 0.595820725
-0.07626349479 -0.01395620126 0.5435410738 0.5057342649 -0.6310094595 0.5881189704
-0.05191943794 -0.05952811986 0.4878153205 0.1569678932 -0.6105297804 0.7732146978
-0.04946721718 -0.0552175492 0.4899539948 0.1207369044 -0.6352772117 0.7580026984
-0.03780262917 -0.05999783427 0.4870377183 -0.09864532202 -0.6346111298 0.7576004267
0.004632786848 -0.06471466273 0.5139526725 -0.4374771714 -0.6129072905 0.6509137154
0.02671264671 -0.06770703197 0.5153134465 -0.1709222943 -0.6605080366 0.7259098291
0.02562641725 -0.06176771224 0.5200911164 -0.1894152611 -0.6325008869 0.7402501702
0.01391249802 -0.05143192038 0.5360228419 -0.3427728415 -0.6306961775 0.6921458244
0.0290062055 -0.05928678811 0.5241740942 -0.1612816006 -0.6352442503 0.7477065325
0.01520153042 -0.0477691628 0.5418960452 -0.3400556743 -0.6328477263 0.6917957067
0.01516759396 -0.05530202016 0.5299264789 -0.318192333 -0.6297655702 0.700548172
0.01341003273 -0.06064975634 0.5213565826 -0.320853889 -0.6266881227 0.7014413476
0.02558990195 -0.05694424361 0.5277530551 -0.2040258497 -0.6344445944 0.7344670296
0.02139557339 -0.05367285013 0.5327752829 -0.2576708198 -0.6336236596 0.7177475691
0.01857383549 -0.05949654058 0.5234046578 -0.2700909078 -0.6298065782 0.7159341574
0.01938152499 -0.05071605369 0.5373888016 -0.2875182331 -0.633793354 0.7080897093
0.01028677169 -0.05685744435 0.527251184 -0.3648006618 -0.6266286373 0.6873967052
0.01035110746 -0.04612175375 0.5388107896 -0.3583713472 -0.6418894529 0.6776478291
0.01245895121 -0.04371361807 0.544670403 -0.3566016555 -0.6401091218 0.680339396
0.009829092771 -0.05320510268 0.5310019255 -0.3665424585 -0.6318939924 0.6826869845
0.01457178593 -0.04204258695 0.5498158932 -0.3557132483 -0.6371295452 0.6836906075
0.02975436486 -0.05836886168 0.5142443776 -0.1340998858 -0.635194838 0.7593703866
0.03120912611 -0.03610642627 0.5457858443 -0.1276891232 -0.7821749449 0.605366528
0.01909720711 -0.03975219652 0.5517417789 -0.3071062267 -0.6653163433 0.6700158119
0.02689972147 -0.0492775254 0.5359801054 -0.1922522783 -0.6739429832 0.6975684762
0.03120517917 -0.05427544191 0.5275420547 -0.1288596243 -0.680152595 0.7112674117
0.02043561265 -0.0460341312 0.5443701148 -0.2876892388 -0.640704751 0.7018300295
0.024759572 -0.038475696 0.5485275984 -0.2232542932 -0.7175461054 0.6422858238
0.02739368007 -0.04265160114 0.542242229 -0.1845386773 -0.7150685191 0.6571833491
0.03378729895 -0.04912734404 0.529728651 -0.09400410205 -0.7144452929 0.6834157705
0.03354981169 -0.0622247532 0.5171617866 -0.0967573598 -0.6454988718 0.7557321787
0.03412825242 -0.0416575186 0.5366197228 -0.08983681351 -0.7535675764 0.6428163052
0.03580095246 -0.05653951317 0.5197297931 -0.06841692328 -0.6733381152 0.7310787439
0.03665085882 -0.05181062967 0.523240149 -0.05776602775 -0.6974885464 0.7073652744
0.01787119918 -0.05760398135 0.5108292699 -0.281789124 -0.6071276069 0.7148742676
-0.0005206251517 -0.06417385489 0.5047777891 -0.5305396318 -0.5670314431 0.6290740967
0.008745061234 -0.06261139363 0.5077536106 -0.4119124413 -0.590803206 0.6696142554
-0.005767704453 -0.06440852582 0.4987952411 -0.5679609179 -0.5191485882 0.6386040449
-0.09460288286 -0.1162366197 0.5546063781 -0.7770676613 -0.3946349621 0.489441216
-0.09710031748 -0.1109653041 0.5559776425 -0.7887189388 -0.3939385712 0.4712202549
-0.09929890931 -0.1016014516 0.5566677451 -0.8034510016 -0.3913915455 0.4486414492
-0.03859493881 -0.08848353475 0.619422853 0.02533125132 -0.661545217 0.7479320765
-0.01082383096 -0.03138838708 0.5265617967 -0.511839807 -0.6009019613 0.6115109324
-0.009401603602 -0.02052155696 0.5366752148 -0.5322093964 -0.6030199528 0.5938856006
-0.004041422624 -0.01668147743 0.5464157462 -0.5394527316 -0.5651260018 0.6205727458
-0.001302746707 -0.01575579308 0.5517116785 -0.5111302733 -0.5720804334 0.6379063725
0.002424296457 -0.02161159553 0.5519592762 -0.4503185451 -0.5722410679 0.6800886393
-0.002640997758 -0.02348957956 0.5402976274 -0.5861615539 -0.5530135632 0.5920339823
0.001598417293 -0.02460128814 0.5464752913 -0.5037024021 -0.5613472462 0.6477720737
0.02716129832 -0.02629363351 0.5378559232 -0.2243448198 -0.8057788014 0.5367909074
-0.007817563601 -0.0132522285 0.5459246039 -0.5347860456 -0.5955206156 0.5979641676
-0.01260824315 -0.008282572962 0.5466784239 -0.4607278407 -0.6357316375 0.6160186529
-0.01757223345 -0.01367192902 0.5372793078 -0.4168842137 -0.6457629204 0.6335751414
-0.02207313105 -0.007921781391 0.5394743085 -0.3477374911 -0.6859982014 0.6320621371
-0.01415919326 -0.01195549592 0.5411714315 -0.4852618575 -0.6366474032 0.5971692801
0.02689398453 -0.03329640627 0.5486385226 -0.2081233263 -0.766186595 0.6049671173
0.01004007272 -0.02802965976 0.5533154607 -0.389401257 -0.6197868586 0.6800020337
0.01144029852 -0.03369072825 0.5536512136 -0.3755021989 -0.6118691564 0.6949337125
-0.07936165482 -0.06490214169 0.4994204342 0.4886223376 -0.5682353973 0.6605246663
0.003319440875 -0.1038321108 0.5789982677 0.6420230269 -0.5318017602 0.5478323102
0.009070025757 -0.1040287986 0.5704340935 0.7161337137 -0.4728880227 0.5099353194
-0.08092164993 -0.1345710605 0.5588602424 -0.6281203032 -0.3700422943 0.6786029935
-0.07841370255 -0.1404249668 0.5709949732 -0.4833177328 -0.5020247102 0.7065078616
-0.002462592674 -0.05530049279 0.5058291554 -0.5226685405 -0.5519493222 0.6322875619
0.005441214424 -0.05514412373 0.5084436536 -0.4219017923 -0.5790633559 0.6642407775
-0.001124071539 -0.05039402097 0.5097253919 -0.4809277952 -0.5804924965 0.6329926252
0.00911635533 -0.05149143562 0.5162751079 -0.4707193673 -0.5727028847 0.6243705153
0.004225427285 -0.05112041906 0.5126719475 -0.4661523402 -0.5789529681 0.6332406998
0.01302321535 -0.05389688537 0.5126113296 -0.3443028927 -0.6025541425 0.682742238
-0.01521344949 -0.02859241143 0.5253128409 -0.4658793807 -0.6160107851 0.6347259283
-0.02827782184 -0.0116302846 0.533487618 -0.2705945969 -0.6905043125 0.6630296707
-0.03465370834 -0.007739861496 0.5357738733 -0.1527748108 -0.7334122062 0.661016643
0.005898899864 -0.05991681293 0.5186672211 -0.435983032 -0.6141967773 0.6539303064
-0.09146828204 -0.09287651628 0.5811696053 -0.7724680901 -0.4442797005 0.4532504976
0.01277768519 -0.1031301767 0.537874341 0.4342402816 -0.5226631761 0.5674253702
0.01445481274 -0.0774795264 0.5184845328 -0.1596116573 -0.6236284971 0.6959244013
0.01411451586 -0.08350730687 0.5226638317 -0.02268944681 -0.6003493071 0.6662968397
0.01355943177 -0.09163047373 0.5289722085 0.1665454507 -0.5681760311 0.6253497601
0.01043251716 -0.0879720971 0.5269970298 0.1043804213 -0.5787451863 0.6388011575
0.01122014038 -0.1095876843 0.5467786789 0.6147267818 -0.4919773042 0.5283712745
0.01220128313 -0.1136610806 0.5427151322 0.6580387354 -0.484613508 0.5189993382
0.01076037623 -0.09784244746 0.5363274217 0.3394388258 -0.5387811065 0.5879387259
0.01099087298 -0.105186373 0.5433954 0.5151848793 -0.5089011788 0.5499104261
0.01009655092 -0.07202337682 0.5153568983 -0.2550542355 -0.6398553848 0.716576457
0.01332068723 -0.0983492434 0.5316729546 0.3062411547 -0.5444253087 0.5951220989
-0.09520348907 -0.08656532317 0.5440718532 -0.3914843202 -0.4390010834 0.4918858707
-0.08888306469 -0.06171525642 0.5189174414 0.4831905961 -0.5362969637 0.5793276429
-0.09287019074 -0.06770174205 0.5343862176 0.1606277078 -0.4906262159 0.5357757211
-0.09243971109 -0.0626238957 0.5325334668 0.3002808094 -0.5027403831 0.5457872152
-0.09115389735 -0.06653110683 0.5277855396 0.2662118971 -0.5080060959 0.5528382063
-0.08739606291 -0.0608802177 0.5132059455 0.5704301 -0.5510644913 0.5938959718
-0.09162865579 -0.05787587911 0.5292412639 0.4494042397 -0.5177531242 0.5588760972
-0.0903365612 -0.0708289668 0.5248422623 0.2016402781 -0.5084124207 0.5551465154
-0.09003894031 -0.05742387846 0.52265203 0.5371436477 -0.5338827372 0.5750030875
-0.09474039823 -0.07151031494 0.537469089 0.02683705464 -0.4764621854 0.5232301354
-0.08959117532 -0.06711021066 0.5200739503 0.3407251239 -0.5248926878 0.5702160001
-0.09700692445 -0.07993924618 0.5444389582 -0.2555700541 -0.4466327131 0.4968275428
-0.09590943903 -0.07564694434 0.5410863757 -0.1141387522 -0.4613530934 0.5097979307
-0.09402124584 -0.07798279077 0.5342897177 -0.08678466082 -0.4739342928 0.5235471725
-0.09812686592 -0.08640681952 0.5491357446 -0.4608977139 -0.4257207513 0.4785271883
-0.09670093656 -0.09149823338 0.5494314432 -0.5706534982 -0.4186785221 0.4735210836
-0.09997911751 -0.09602906555 0.5549447536 -0.756362319 -0.3969109654 0.4536739588
-0.09528722614 -0.08244616538 0.5382620096 -0.2396100461 -0.4574812651 0.5089005232
-0.09151621163 -0.07525416464 0.5294672847 0.04402146488 -0.4907266498 0.5392128825
-0.09019631147 -0.04942867905 0.5272761583 0.6192774773 -0.5360178351 0.5736930966
-0.09073598683 -0.03929993138 0.5365403295 0.6114808321 -0.5434666276 0.5749893785
-0.08750686795 -0.03355154395 0.5373088717 0.6088672876 -0.5455738902 0.5758429766
-0.08885870129 -0.04265087843 0.5312395096 0.6146439314 -0.5401299 0.574780941
-0.08982136846 -0.03171795607 0.5425242782 0.6089482903 -0.5469099283 0.5745020509
-0.07662726194 -0.05145047605 0.5072675943 0.5376256108 -0.5761396885 0.6146530509
-0.0855878517 -0.06253600866 0.508346498 0.5593859553 -0.5595857501 0.6109991074
-0.08213432133 -0.06174111739 0.5033953786 0.5422683358 -0.5674262643 0.6191444397
-0.05766948313 -0.1465076804 0.5676962137 -0.1993322521 -0.5699777603 0.7835958004
-0.05263153091 -0.1472140253 0.5683290362 -0.113834247 -0.6233593822 0.7502922416
-0.07216794044 -0.1506882757 0.5695033669 -0.3668459058 -0.4949471056 0.7858555317
-0.07556438446 -0.08825581521 0.6071181297 -0.5245968699 -0.5671206117 0.633993268
-0.06846529245 -0.09471064061 0.6078740954 -0.4332624376 -0.5968769193 0.6720035672
-0.06009204686 -0.09395331144 0.6135488749 -0.2882534862 -0.622797966 0.7225139141
-0.05490651727 -0.09767799824 0.6137835979 -0.1898878813 -0.6461525559 0.7389727235
-0.05127095431 -0.09442692995 0.6175662875 -0.1290050149 -0.6481486559 0.7484531999
-0.04922962934 -0.09818755835 0.6143271327 -0.1048932076 -0.6620563269 0.7385882139
-0.09049700201 -0.1040559188 0.5756334662 -0.7698052526 -0.4468642175 0.4555195868
-0.03071311861 -0.08905056864 0.6188437343 0.1520483643 -0.6428602934 0.7479127049
-0.0354141295 -0.09359420091 0.6166996956 0.09923616797 -0.6576533318 0.7441934347
-0.03565062582 -0.09755332023 0.612878561 0.110303916 -0.6680654287 0.7353752851
-0.04200492054 -0.09338098019 0.6164485812 0.002505506622 -0.6681526899 0.7431178093
-0.006423109677 -0.1056669205 0.5900922418 0.5370317101 -0.5758422613 0.6146284938
-0.004848109093 -0.1086050645 0.5849993229 0.5823475718 -0.5592551231 0.5894783735
-0.006449447945 -0.1006977558 0.593642652 0.5178553462 -0.5761021972 0.6283903122
-0.002077255165 -0.09978497773 0.5896035433 0.5810569525 -0.5521122217 0.5970939994
0.01681968756 -0.03044115007 0.5520448685 -0.325923413 -0.6888964772 0.6406411529
0.02242671512 -0.03390746936 0.551873982 -0.263869524 -0.7381814718 0.6176946759
0.002556111664 -0.02935047075 0.5421727896 -0.5194284916 -0.5653245449 0.6321187019
0.006078462582 -0.02955412492 0.5490041971 -0.3900578022 -0.6126002073 0.6848968863
0.006037027109 -0.0339307338 0.5435768366 -0.391251117 -0.6428995728 0.6541500092
-0.0002352231531 -0.03234348074 0.5356311202 -0.5556076765 -0.5702748299 0.5981078148
0.003760356689 -0.03560581431 0.538094759 -0.5088050365 -0.5922830701 0.6131181717
0.0093710972 -0.03757027909 0.5455808043 -0.3603926599 -0.6505075693 0.6683844328
-0.007646769751 -0.09736218303 0.5991514921 0.4769507051 -0.5919282436 0.6478495002
-0.05055194348 -0.04372612014 0.5013662577 0.143414557 -0.6712227464 0.7211257815
-0.01557571627 -0.04927156866 0.5038205981 -0.4570660591 -0.6013782024 0.6481236219
-0.04564983025 -0.05929677561 0.4877578914 0.04785379395 -0.6322020888 0.7680697441
-0.04133469611 -0.04796135053 0.4963882267 -0.02090810984 -0.675188005 0.7337186337
-0.03654823452 -0.05400031433 0.4915975928 -0.1071612611 -0.6554812789 0.7459577322
-0.04382804781 -0.05402318016 0.4911754131 0.0134187052 -0.6543531418 0.7523175478
-0.05810854957 -0.05922681093 0.4898045063 0.2523121834 -0.5836077929 0.7699856162
-0.06221110001 -0.0558235012 0.4942060709 0.3446349204 -0.5987790227 0.7192148566
-0.06655599922 -0.06031357124 0.4919301569 0.4088445604 -0.5700240135 0.7100357413
-0.06382706761 -0.03538784385 0.5134451985 0.3683252633 -0.6324426532 0.6811932921
-0.06055093184 -0.03094493225 0.5161741376 0.310947597 -0.6479098797 0.6935643554
-0.05701244995 -0.03417823836 0.5121183991 0.2554827929 -0.6612023115 0.7032319307
-0.06905570626 -0.01545741223 0.535009563 0.4644578099 -0.6255919337 0.6230822802
-0.06707142293 -0.01931060664 0.5303909779 0.4122329652 -0.63357687 0.6493526101
-0.07275222242 -0.02111896127 0.5330355167 0.4917394817 -0.6100634933 0.6174708009
-0.07102171332 -0.01308791898 0.5395032763 0.4791934788 -0.6364198923 0.6030604839
-0.04974502325 -0.03661916405 0.5076773167 0.1192606688 -0.6785376072 0.7194954753
-0.06651333719 -0.0248548165 0.5252366066 0.4038513303 -0.6264994144 0.6648851633
-0.07227700204 -0.02489194088 0.5292449594 0.4812871814 -0.6056998968 0.630050838
-0.07966773957 -0.0286751315 0.5321978927 0.5570341945 -0.5736072063 0.5978353024
-0.08407947421 -0.03338617831 0.5318270326 0.5980256796 -0.548222363 0.5844815373
-0.08778530359 -0.1037937179 0.5804407001 -0.735095799 -0.4781797826 0.475022018
-0.08070713282 -0.1359229833 0.5644531846 -0.5836580992 -0.401281178 0.6988637447
-0.08611556888 -0.1298043132 0.558242619 -0.6865386963 -0.39490363 0.6061649323
-0.08702347428 -0.1225868613 0.5623110533 -0.7171286941 -0.4333804548 0.5420512557
-0.08523823321 -0.1212424412 0.5677360892 -0.6641845703 -0.4722772539 0.568385601
-0.08903036267 -0.124454163 0.5563826561 -0.7245202661 -0.4169908762 0.5467489362
-0.08955242485 -0.09769901633 0.5769222379 -0.7883672118 -0.4309353828 0.4390410483
-0.0772049278 -0.1479212195 0.5683827996 -0.4688466489 -0.4917212129 0.7305059433
-0.081097655 -0.1297260821 0.5684750676 -0.5847318769 -0.4629193842 0.6578904986
-0.08208353817 -0.1280280799 0.5627677441 -0.6443981528 -0.435928762 0.6175963879
-0.01505518891 -0.02319893427 0.5294440389 -0.4583011568 -0.616006434 0.636377275
-0.02336621657 -0.01525654271 0.5319678783 -0.3415223956 -0.6616556644 0.6655403972
-0.01519898791 -0.01934252493 0.5340455174 -0.4416657686 -0.6231784821 0.6443970203
-0.02036599815 -0.0247338023 0.5248728991 -0.3845459521 -0.6389565468 0.6624197364
-0.01184467971 -0.0350288488 0.5209820271 -0.5132396817 -0.6015657187 0.6112059355
-0.009239905514 -0.0422693491 0.5139525533 -0.5470011234 -0.577750802 0.6049211025
-0.01307349466 -0.04472497851 0.5095895529 -0.4880966842 -0.6023580432 0.6286538243
-0.01523936726 -0.03945087269 0.5138131976 -0.4498130977 -0.6170054674 0.643832922
0.0003595810849 -0.1339007467 0.5559835434 0.6513876915 -0.5269017816 0.5457366109
0.006279443391 -0.1318046302 0.5502532125 0.6752347946 -0.5156196952 0.5272718072
-0.01192798745 -0.1425106823 0.563593626 0.4805189073 -0.6276369691 0.6082027555
-0.001763039269 -0.1293365359 0.5614423156 0.6524465084 -0.5140029788 0.5546497703
-0.08231559396 -0.05532314256 0.5093696713 0.5715600252 -0.5546035767 0.6046563387
-0.08627910167 -0.05308553204 0.5192653537 0.5945143104 -0.5485880971 0.5876260996
-0.08534351736 -0.05562204868 0.5145828128 0.5815358162 -0.5541759729 0.5955090523
-0.07895246148 -0.05743787438 0.5050423741 0.5482290387 -0.5652522445 0.6155304909
-0.07193511724 -0.05257831886 0.5029752851 0.482265383 -0.5848311186 0.6504600048
-0.03017242439 -0.1368312389 0.5763708949 0.181427151 -0.6681241393 0.7194603682
-0.03266568854 -0.1440875381 0.5719700456 0.1292818934 -0.6856735349 0.7149609923
-0.02654198557 -0.1271893978 0.5826384425 0.2535465658 -0.6597198248 0.7065187097
-0.01784467325 -0.1225804836 0.5835428238 0.3995967805 -0.6300060153 0.6627703905
-0.01459623221 -0.1134903729 0.5900878906 0.4618730247 -0.6194472313 0.6322420835
-0.06372083724 -0.1362924576 0.5779759288 -0.3479357958 -0.6080392599 0.7072201371
-0.06796140969 -0.1464766562 0.5737000704 -0.3172049224 -0.5437482595 0.7666404843
-0.06261075288 -0.1412846595 0.576221168 -0.2724628747 -0.5856253505 0.7524298429
-0.05714487657 -0.1414445192 0.5738204122 -0.2026562244 -0.5968674421 0.7688891888
-0.06201617047 -0.146060124 0.5716264844 -0.2438805699 -0.5593842268 0.7811959982
-0.05148839951 -0.139882192 0.5736367702 -0.1364632249 -0.6263911128 0.7645463347
-0.04629517347 -0.1359255612 0.5770148039 -0.07682491094 -0.682536602 0.7247508168
-0.04430726171 -0.1451917589 0.5687393546 -0.01086723991 -0.6857215762 0.7254211307
-0.05592050403 -0.1407868862 0.5685852766 -0.177792266 -0.6037302017 0.769945085
-0.07399167866 -0.09455620497 0.6056458354 -0.4976180792 -0.5839039087 0.6394437551
-0.06611025333 -0.09092663229 0.6128356457 -0.3691589534 -0.602463007 0.7073302865
-0.07125978917 -0.08825550973 0.6113541722 -0.4006814361 -0.6013672352 0.6911383867
-0.05308082327 -0.1136416569 0.5976324677 -0.1770336926 -0.6843214035 0.7055185437
-0.0480334796 -0.1113972887 0.6001403332 -0.07594274729 -0.6939710975 0.7130748034
-0.03485469148 -0.1049392447 0.6061783433 0.1356781274 -0.6624913812 0.7365682721
-0.02605775185 -0.1033328772 0.6049551964 0.269533366 -0.6381672621 0.7205842137
-0.02843737416 -0.1011056304 0.6089948416 0.2464336157 -0.6426730752 0.7251833081
-0.08165527135 -0.10147167 0.5937073827 -0.6160728931 -0.5573551655 0.5555102229
-0.08985951543 -0.0917140469 0.5869749188 -0.7404817343 -0.4650947452 0.478757143
-0.02428936586 -0.09696684033 0.6107475162 0.2719026506 -0.6269155145 0.7300109267
-0.02586142533 -0.09150024503 0.614931643 0.2374664992 -0.629226923 0.7394168377
-0.03036486171 -0.09595869482 0.6131954193 0.1926042438 -0.643484056 0.7365759611
-0.01305895764 -0.1083194986 0.5937441587 0.4600295126 -0.6136283278 0.6406954527
-0.01314416621 -0.09570302069 0.6046518087 0.4068622291 -0.6016168594 0.6836051345
-0.01863998733 -0.09328375012 0.6097559929 0.3200872242 -0.61731565 0.7181805372
-0.02639189735 -0.1078038663 0.6014861465 0.2595401406 -0.648022294 0.7108267546
-0.01927621476 -0.09948512167 0.6060606837 0.3549124599 -0.6113201976 0.7031726241
-0.02004966885 -0.1122196689 0.5949416161 0.3674769998 -0.6382987499 0.6709876657
-0.02091891319 -0.1044693813 0.6004578471 0.3227195144 -0.6314448118 0.7005748749
-0.0129949525 -0.103611663 0.5980379581 0.4480798244 -0.6095595956 0.6537672281
0.02281060442 -0.02797506936 0.5448099375 -0.2806575894 -0.7696434259 0.5675393343
0.007791250944 -0.02221075818 0.5510658622 -0.4263984561 -0.6366900206 0.6304144859
0.01661011018 -0.02655681223 0.5479668379 -0.3400161266 -0.7113204598 0.601903975
0.006338929757 -0.04132502526 0.5371125937 -0.4922387302 -0.5863546133 0.6322067976
0.0302669853 -0.02990908362 0.5426320434 -0.1717687696 -0.8007192016 0.5710337162
0.0136156287 -0.02180592902 0.545532763 -0.3749421537 -0.7112076879 0.5675890446
0.004507911857 -0.01696400344 0.549131453 -0.4645110667 -0.6339790821 0.5971279144
0.02059590258 -0.02416572347 0.5396074653 -0.2916899025 -0.7605312467 0.5494078994
0.01529391762 -0.02406555973 0.5394124389 -0.361335814 -0.7092314363 0.5596733689
0.003375942819 -0.01896476373 0.5418477654 -0.468568325 -0.6317750216 0.5834265351
0.007958183065 -0.02296935208 0.5402235985 -0.4480494559 -0.6484963894 0.5733918548
-0.03709256649 -0.03709551692 0.5071111917 -0.09653834999 -0.6816875935 0.7220394015
-0.04345366359 -0.03650590032 0.5073315501 0.006819218397 -0.6851506233 0.7258290052
-0.03900909424 -0.03330971301 0.5107520819 -0.06839558482 -0.6803352237 0.7215946913
-0.04434261099 -0.03228027746 0.5110700727 0.04130467027 -0.6820349097 0.7265592217
-0.0332538709 -0.03372265026 0.5112550259 -0.1823915243 -0.6762729883 0.7121655941
-0.02725282684 -0.03210738301 0.5142395496 -0.2701514065 -0.6644927263 0.6941023469
-0.02737598121 -0.03667669743 0.5091798902 -0.2626447678 -0.6684247255 0.6948378086
-0.02218730189 -0.03460163251 0.5143222213 -0.343853265 -0.6497659087 0.6755467057
-0.0187025778 -0.03181220964 0.519905746 -0.4073288441 -0.6341512203 0.6481642127
-0.01160097588 -0.05480663851 0.5014235377 -0.5179878473 -0.5644621849 0.6392138004
-0.02578914165 -0.0536964424 0.4954887629 -0.2914396822 -0.6277818084 0.7112990022
-0.01984414458 -0.0587092936 0.4931253791 -0.3927308619 -0.594653666 0.6993867159
-0.0317100063 -0.05525179952 0.4921928644 -0.1923338473 -0.638620913 0.7377126217
-0.0242480468 -0.0590271391 0.489602387 -0.3116364479 -0.6061472893 0.729473114
-0.02995062619 -0.06037271768 0.487036556 -0.2117869258 -0.6159209013 0.757784009
-0.008709376678 -0.0608208254 0.5020403266 -0.4916399419 -0.5831068158 0.6465711594
-0.01146261394 -0.06184898689 0.4966661036 -0.5165234208 -0.5519279838 0.6523355842
-0.06770278513 -0.05594061688 0.497195214 0.4180622995 -0.589107573 0.6894040704
-0.07570576668 -0.06234347448 0.4970105886 0.4712989032 -0.5712490082 0.6710785627
-0.07539137453 -0.0579068847 0.5004589558 0.4930205941 -0.5738105178 0.6527130604
-0.05068493634 -0.03185608983 0.5120150447 0.1428016722 -0.6771806479 0.7192515135
-0.05375311896 -0.02825368941 0.5159498453 0.1862535924 -0.6744304895 0.7141525745
-0.03176533803 -0.02217664756 0.5229943395 -0.2144476175 -0.6754703522 0.7025551796
-0.02809856646 -0.01849411801 0.5272941589 -0.2589921057 -0.6729062796 0.6898439527
-0.02623752877 -0.02402772568 0.5234211683 -0.2975080311 -0.6568229795 0.683619082
-0.02285952307 -0.02078999393 0.527613461 -0.3414586782 -0.651920557 0.6716864705
-0.02753041312 -0.02691201307 0.5186145902 -0.2631393373 -0.6657930613 0.6952605844
-0.05951865017 -0.05088537559 0.4979795814 0.2922217846 -0.6298444867 0.7112783194
-0.06453270465 -0.05184551701 0.499845922 0.3749502897 -0.6074081659 0.6929077506
-0.05700376257 -0.04661395773 0.4998976886 0.25306651 -0.6487579942 0.7149208784
-0.06249221414 -0.04676245153 0.5013929605 0.3516955972 -0.6282968521 0.693423152
-0.05799021944 -0.04248870537 0.5040964484 0.2803661227 -0.6520842314 0.7016689181
-0.06191563234 -0.04054291546 0.5075389147 0.3535186052 -0.6420022845 0.6794502139
-0.08057945967 -0.0516160056 0.5134270191 0.5840517879 -0.555701375 0.5915970206
-0.07733095437 -0.04689177498 0.5123434067 0.5458042622 -0.5770728588 0.6062399149
-0.07481887937 -0.1188778132 0.5812978745 -0.5200302005 -0.5871657133 0.618529439
-0.08099769801 -0.1136193126 0.5795457363 -0.6278070211 -0.5463660359 0.5512009263
-0.07895552367 -0.1101303771 0.5857934952 -0.5873039365 -0.5689448118 0.5707204342
-0.08123913407 -0.1049149856 0.5842738748 -0.6642817259 -0.5208572149 0.5241199136
-0.08645696193 -0.0958224982 0.5836035609 -0.7267564535 -0.4797782302 0.4818513393
-0.06001713499 -0.1144341528 0.5951432586 -0.2813904881 -0.6667873263 0.6869264245
-0.08929917216 -0.1161526367 0.5650524497 -0.7623117566 -0.4310460687 0.482178539
-0.09132313728 -0.1189079657 0.560298264 -0.7693898082 -0.4002718627 0.4974309504
-0.09309341013 -0.112414524 0.5603512526 -0.7767055631 -0.4093179703 0.4780735373
-0.09787403792 -0.1063539982 0.5592077971 -0.7977266312 -0.3987888396 0.4520389736
-0.09267687798 -0.10641215 0.5697270036 -0.7816210389 -0.4305450916 0.4509947896
-0.0936678648 -0.09906699508 0.5715350509 -0.7924345732 -0.4145609736 0.4470046461
-0.09681706131 -0.09877517819 0.564006269 -0.8082342744 -0.3909264207 0.4403539002
-0.09451532364 -0.1042339355 0.5628780723 -0.7900055051 -0.4070720375 0.458386898
0.002716470277 -0.03972373158 0.5331339836 -0.5874157548 -0.5484927893 0.5940933824
0.01521512121 -0.03589099273 0.5282825232 -0.4088891447 -0.6741093397 0.5590521097
0.008288632147 -0.03334029764 0.5290969014 -0.4428320825 -0.6512364149 0.5725457668
0.003180579748 -0.0402877368 0.5240207314 -0.5472016931 -0.5896492004 0.5641899109
0.0191142112 -0.03153491393 0.5315483212 -0.3377322257 -0.7163230777 0.5634664893
0.001961854519 -0.03592483327 0.5266808271 -0.5179995894 -0.6054508686 0.5746805072
-0.005956983659 -0.03857455775 0.5249382854 -0.5909401178 -0.5557186007 0.5791970491
-0.008323369548 -0.04134689644 0.520049572 -0.5551040769 -0.5665482283 0.6011763811
-0.002616176149 -0.03489171714 0.5305555463 -0.600967586 -0.5529666543 0.5765584707
0.01271980442 -0.03085218556 0.5312296748 -0.3841658831 -0.6866946816 0.5724500418
0.01238599606 -0.1216124594 0.5451886654 0.7098988295 -0.485045284 0.5104848146
0.0110817533 -0.1279983968 0.5460503101 0.6937390566 -0.5006090403 0.517629683
0.004757661838 -0.1073719859 0.5734745264 0.6876164079 -0.4980157316 0.527895689
-0.03089652397 -0.1489804089 0.568287909 0.1566351354 -0.6865054369 0.7061870694
-0.02331646532 -0.1441948712 0.5667167306 0.2979157865 -0.6497072577 0.6971294284
-0.01133626234 -0.1363342404 0.5646587014 0.498360157 -0.5883187056 0.6193270683
-0.004569207318 -0.1351637989 0.5600972176 0.5989605784 -0.5476613045 0.5734634995
-0.0610915944 -0.1376603395 0.5694832206 -0.2678183317 -0.5720646977 0.7725343704
-0.06591831893 -0.1451856047 0.5656492114 -0.3589062095 -0.4929833114 0.7924783826
-0.0676888451 -0.1354126483 0.5680831671 -0.4077679217 -0.5092293024 0.7500300407
-0.07361099124 -0.1347081512 0.5651715994 -0.4909470975 -0.4447175562 0.7439708114
-0.07328361273 -0.1451468021 0.563895762 -0.4884338081 -0.4494234622 0.7443845868
-0.06964995712 -0.1077675298 0.595836699 -0.4422318041 -0.6289448142 0.6364657283
-0.03442274779 -0.1235238165 0.5878327489 0.1310727745 -0.6867412925 0.7129733562
-0.0280115176 -0.1189676374 0.5910987258 0.2287423015 -0.6669980288 0.6983792186
-0.02754394524 -0.1232803389 0.5863376856 0.2401560545 -0.6691803932 0.696936965
-0.02267954499 -0.1204619408 0.5888849497 0.3098676205 -0.6544098258 0.6859529614
-0.03827193007 -0.1015553474 0.6099994183 0.08235940337 -0.6758753061 0.7289354801
-0.03501977026 -0.0432170853 0.5020989776 -0.1382961571 -0.6852808595 0.7137066126
-0.04434800521 -0.04183594137 0.5026611686 0.03424569964 -0.6838225126 0.7269781828
-0.024673298 -0.04235984012 0.5052570105 -0.3055481017 -0.6594781876 0.6854268312
-0.01983774267 -0.0402761437 0.5108879209 -0.380396992 -0.6332988739 0.6650871634
-0.02062796615 -0.04592712969 0.5045884848 -0.3719252646 -0.6374386549 0.6686326861
-0.02111727186 -0.05067082867 0.499384135 -0.3684472442 -0.6259640455 0.6865295768
-0.02847612463 -0.04878643528 0.4978079796 -0.2289320529 -0.6633206606 0.7084598541
-0.03493817151 -0.04867679253 0.4963565767 -0.1188744009 -0.66937989 0.7317245603
-0.06157688051 -0.02673211507 0.5206708908 0.3243432939 -0.6450195909 0.6890742183
-0.05975095183 -0.02196857519 0.5239863992 0.2920038104 -0.6572929025 0.6914455891
-0.04668301344 -0.02833813988 0.5150841475 0.06683272123 -0.6818846464 0.7252498865
-0.03511986509 -0.02886212617 0.5150004029 -0.1396688223 -0.6822217107 0.7173772454
-0.07522260398 -0.0311123617 0.5258862972 0.5175727606 -0.582108438 0.6257730126
-0.0808532238 -0.03602370247 0.5259275436 0.5762373805 -0.5501143932 0.6039674878
-0.07813047618 -0.03997689486 0.5216480494 0.5525880456 -0.5687682629 0.6090472937
-0.08271312714 -0.04480236024 0.5196542144 0.5841698647 -0.555785954 0.5914507508
-0.08633220941 -0.04675948247 0.5241137743 0.5980618 -0.5469305515 0.5853716135
-0.06731949002 -0.0448388271 0.506829977 0.4296100736 -0.6189333797 0.6551700234
-0.07274796069 -0.0470027402 0.5079733729 0.5127080679 -0.5928490162 0.6208406687
-0.07011821121 -0.04004120827 0.5131216049 0.4717969894 -0.6032486558 0.6426959634
-0.074396424 -0.03983766213 0.5178170204 0.5134055614 -0.5860398412 0.6251888871
-0.07123434544 -0.1249552369 0.5804222822 -0.4718286991 -0.5993049741 0.6419793963
-0.06979678571 -0.1387662888 0.5762768984 -0.3986541629 -0.5667461753 0.7125409245
-0.06945104152 -0.132518962 0.5782793164 -0.4231009781 -0.587338686 0.6811976433
-0.06565471739 -0.127717033 0.5802696943 -0.41121912 -0.6239556074 0.6591431499
-0.05906170607 -0.1344773471 0.5739530325 -0.2711932659 -0.6309710145 0.7216791511
-0.07689574361 -0.1232376248 0.5767415762 -0.5377737284 -0.5593512058 0.625428915
-0.0788712576 -0.1298163682 0.5734255314 -0.5286690593 -0.5248201489 0.6561839581
-0.0753133148 -0.1465476751 0.5730785728 -0.4125318825 -0.5109684467 0.7485747337
-0.07506334037 -0.1357168853 0.5757089257 -0.4600498676 -0.5419406891 0.6929833293
-0.07543391734 -0.1283936948 0.5691519976 -0.5447697043 -0.49053213 0.6707325578
-0.06511086971 -0.1315331161 0.5734208226 -0.3676797748 -0.5773998499 0.7266568542
-0.07236231863 -0.1263821125 0.573946178 -0.482740432 -0.5581050515 0.6711264849
-0.05925931782 -0.130282715 0.578053236 -0.2923645079 -0.6621360779 0.6841907501
-0.05329630896 -0.1350184828 0.5761067867 -0.1832613647 -0.6740941405 0.7120285034
-0.08897939324 -0.1098620221 0.5723734498 -0.7442348599 -0.4546593726 0.4850444198
-0.00658833608 -0.1344374418 0.5658095479 0.5732463598 -0.5703747869 0.5872412324
0.0007027602405 -0.1235885695 0.5645416379 0.6971844435 -0.4834453464 0.5275900364
0.001292428467 -0.1176029444 0.569498539 0.6808749437 -0.4999000728 0.5344075561
-0.02959952131 -0.1432663649 0.5679128766 0.1959603876 -0.6756985784 0.7009390593
-0.03757283837 -0.1474340707 0.5695925951 0.05907256156 -0.695355773 0.7129302621
-0.03904270753 -0.1418569684 0.5732102394 0.02935518138 -0.6876243949 0.7202790976
-0.03907104582 -0.1372243762 0.5752429962 0.03823805973 -0.6781739593 0.7291179895
-0.04512514174 -0.1407074183 0.5723261237 -0.06130645052 -0.6717529297 0.7371504903
-0.02715259232 -0.1378977299 0.5716029406 0.2346559912 -0.6573236585 0.7058012486
-0.02205969766 -0.138726145 0.5691430569 0.3185566664 -0.6452138424 0.6901476979
-0.02621415257 -0.1336473972 0.5763785243 0.236439839 -0.6540194154 0.718383491
-0.01030092314 -0.1312716454 0.5692864656 0.5237609744 -0.5723287463 0.6189885736
-0.003983277828 -0.1276760101 0.5666873455 0.6277061701 -0.5215743184 0.5747463703
-0.01651990414 -0.1398687959 0.5679611564 0.4154345691 -0.6386290789 0.6454850435
-0.02016288787 -0.1351087391 0.5729395747 0.3558458388 -0.6324012876 0.6826094389
0.009507880546 -0.1153626293 0.5538942218 0.7194932103 -0.4751363695 0.5064838529
0.006762500852 -0.1126336232 0.5662888885 0.7134492397 -0.4777897 0.5121314526
0.01062336098 -0.1110079661 0.5569184422 0.7232539058 -0.4718211591 0.5042220354
0.009775211103 -0.1081291214 0.5626741052 0.7246844769 -0.4706792533 0.5032253265
0.007488999981 -0.1140709594 0.5604040027 0.7191164494 -0.4755652547 0.5065748096
0.004967506044 -0.1184397563 0.5633897781 0.7037587762 -0.485760808 0.5183852315
0.001792536932 -0.1260721833 0.5584642291 0.6856509447 -0.4963349998 0.5313969851
0.005017203745 -0.1212945729 0.5567544103 0.7060000896 -0.4832873046 0.516661346
0.0112093268 -0.1159578338 0.5484933257 0.7211550474 -0.4738826454 0.5053421259
0.008192806505 -0.1232686341 0.5510066748 0.6985547543 -0.4954226315 0.5156546831
-0.08388408273 -0.08874624223 0.5990250111 -0.639159739 -0.5176210999 0.5675882697
-0.08369315416 -0.0953611508 0.5895595551 -0.6578487158 -0.5210825801 0.526657939
-0.0770554617 -0.1057703793 0.5898186564 -0.5850446224 -0.5705268979 0.5716102123
-0.06850387901 -0.1034051627 0.5998579264 -0.4328015149 -0.6290829182 0.6418408155
-0.03105537035 -0.1147141308 0.5955865979 0.1664209515 -0.6796622872 0.7092457414
-0.02529900335 -0.1153932586 0.594768405 0.2648009658 -0.6600703001 0.7023653984
-0.03393746912 -0.1189275458 0.5922187567 0.1259198636 -0.6867923737 0.7127410769
-0.04478713498 -0.1078574732 0.6038612127 -0.02626262419 -0.6945666671 0.7185093164
-0.03921688348 -0.1074372754 0.6038386226 0.06781007349 -0.6752782464 0.7295918465
-0.03650627658 -0.1143997535 0.5968987942 0.07495052367 -0.6900827289 0.71695292
-0.0421615243 -0.1119644493 0.5995336771 0.002249171026 -0.6898422837 0.7204599977
-0.04196628928 -0.1157120913 0.595861733 -0.0150499288 -0.6839925647 0.7251517773
-0.0309137404 -0.1105522066 0.5992296338 0.1620839983 -0.6770994067 0.713028729
-0.003118343884 -0.04489933699 0.5220693946 -0.6216155887 -0.5356410146 0.5697579384
-0.006271357182 -0.04675240442 0.5171493888 -0.5734773278 -0.5586878061 0.5938370228
-0.002529051853 -0.05809805542 0.5110926628 -0.5288590789 -0.5728344917 0.6241931319
-0.008227683604 -0.05415264517 0.5078719258 -0.5352880359 -0.5708193183 0.6203247905
-0.007294824813 -0.05064767972 0.5123529434 -0.5566291213 -0.5661582351 0.6042784452
-0.01208420843 -0.04994070902 0.507620275 -0.5068152547 -0.5837016106 0.6331762671
0.0006165881059 -0.0552829802 0.5164219737 -0.5419973135 -0.5803452134 0.6054503322
-0.002489491832 -0.05056201667 0.5175100565 -0.6041917205 -0.5463802218 0.5785521269
0.001600961667 -0.04537219927 0.5255208015 -0.626360476 -0.5382240415 0.5635017157
-0.05554627627 -0.01571619883 0.5283347368 0.2111699581 -0.6786964536 0.7013955712
-0.06101537496 -0.01786866039 0.5280365944 0.3141905963 -0.6573432088 0.6811252832
-0.06350301206 -0.01533565484 0.5321710706 0.3659509718 -0.6534091234 0.6581321955
-0.06589388847 -0.03126055375 0.5189272165 0.39283517 -0.6249450445 0.6729792356
-0.07480223477 -0.03501041234 0.5218515992 0.5204545259 -0.5760386586 0.6298568845
-0.03699227795 -0.1314677149 0.5808821321 0.0803020969 -0.6667200327 0.7395018935
-0.0447184816 -0.131951198 0.581474483 -0.04357280955 -0.6838120222 0.7280958891
-0.03985741362 -0.1269479841 0.5852999091 0.04038669541 -0.6835864186 0.7234514952
-0.03146103024 -0.1307084262 0.5798213482 0.1709165424 -0.6612759233 0.722224772
-0.07850426435 -0.1230593324 0.5710291862 -0.606299758 -0.4995401204 0.6156226397
-0.08275159448 -0.1188368946 0.5736353993 -0.6339095831 -0.5093955398 0.5785934925
-0.08951797336 -0.1093225405 0.5665262938 -0.7372160554 -0.4475889802 0.493348062
-0.08571448177 -0.1149672344 0.568872273 -0.7079924345 -0.4726471901 0.5135122538
-0.08363578469 -0.1119561642 0.5746912956 -0.6814090014 -0.4969688356 0.5252142549
-0.08511015028 -0.1066710576 0.5763519406 -0.7143203616 -0.4778952003 0.4967187345
-0.06080812588 -0.1273279935 0.5830104351 -0.3422735929 -0.6500130296 0.6776404381
-0.06264314055 -0.1189457923 0.5902895331 -0.334225893 -0.6567736268 0.6751205921
-0.05419072509 -0.1298671514 0.5831769109 -0.2112244517 -0.6637839675 0.7173818946
-0.06642005593 -0.1143516451 0.5924074054 -0.3759588599 -0.6459385753 0.6600221395
-0.06831817329 -0.1194180995 0.5855569243 -0.4280102253 -0.6294979453 0.6434850693
-0.07053849101 -0.1131929383 0.5897411704 -0.4505669773 -0.6245387793 0.633177042
-0.07746955007 -0.1172197834 0.5768389106 -0.5916720629 -0.5538092852 0.5840088725
-0.07140333951 -0.1153710559 0.5835124254 -0.4978031814 -0.6027003527 0.6131079793
-0.06423570961 -0.1090008914 0.5966762304 -0.3647625446 -0.6571555138 0.6589400172
-0.05343296006 -0.1080065072 0.6015688777 -0.1884426475 -0.6820133924 0.6973813772
-0.05817037821 -0.1095871478 0.5997902751 -0.2919105887 -0.6741768718 0.6753964424
-0.0547038205 -0.1038152277 0.6081935167 -0.1896149516 -0.6637738347 0.7223188877
-0.06306307763 -0.1045724228 0.6021687984 -0.3634332418 -0.6505314708 0.6661598086
-0.04915186763 -0.1053442135 0.6066130996 -0.09972125292 -0.6815861464 0.7206178904
-0.06429414451 -0.1003533229 0.6058418751 -0.3743601143 -0.628570199 0.6792246699
-0.0587689057 -0.09899141639 0.60849154 -0.2731960714 -0.6451264024 0.7088086605
-0.04498405755 -0.101294972 0.6102859974 -0.03088641725 -0.6825309992 0.7296887636
-0.01296139974 -0.1261407584 0.5754585862 0.475037843 -0.5869908333 0.6421154141
-0.01706763543 -0.1300922036 0.5743811131 0.4095804691 -0.6179661155 0.6574039459
-0.02201369777 -0.1291537285 0.5779693127 0.3272834718 -0.6527680159 0.6825674176
-0.01425289735 -0.1343767196 0.5711176395 0.4506426454 -0.6118532419 0.6469067335
-0.007118165493 -0.1397765428 0.5631530881 0.553861618 -0.5932309628 0.5832728148
-0.007705669384 -0.1260867268 0.5726839304 0.5611918569 -0.5535012484 0.6123352647
-0.012795249 -0.1182188019 0.5840509534 0.4815398455 -0.6049854159 0.6297215819
-0.00852080062 -0.1141791493 0.5839944482 0.5502974987 -0.5819466114 0.5968863964
-0.006477280986 -0.1165192798 0.5792742372 0.5792688727 -0.5614639521 0.5850394964
-0.001324845594 -0.1160430759 0.5738753676 0.6448799968 -0.5258460641 0.5527330637
-0.002645392902 -0.1218233556 0.5702697635 0.6437633634 -0.5137441754 0.5620781183
-0.01412419695 -0.1225731149 0.5797771811 0.4563944936 -0.6062124372 0.6378392577
-0.005649226252 -0.1202964708 0.5751678944 0.5932175517 -0.5440249443 0.5903933644
-0.07740525156 -0.09472116828 0.6004871726 -0.5534363389 -0.5648168921 0.6066051722
-0.08177333325 -0.0945712775 0.5963935256 -0.6273375154 -0.5330173373 0.5672973394
-0.07348241657 -0.09912019223 0.6017490625 -0.5003179908 -0.5968995094 0.6260256767
-0.0774628818 -0.09907470644 0.597689271 -0.5829834938 -0.5598306656 0.5856828094
-0.07439080626 -0.10391891 0.5951974988 -0.5101267695 -0.6072873473 0.6085115075
-0.06331972033 -0.1217169166 0.5838489532 -0.3655836284 -0.6530855298 0.6610425711
-0.05790270865 -0.1226335689 0.5853500962 -0.2660883367 -0.6640905738 0.6862777472
-0.05327907205 -0.1220447272 0.5876774192 -0.1758201122 -0.6727378368 0.7109469771
-0.04782249406 -0.1158608645 0.5956218243 -0.109890677 -0.6774857044 0.7239512205
-0.05350651219 -0.1180920154 0.5932520628 -0.2019619942 -0.6747039557 0.7094092965
-0.04927333072 -0.01606415026 0.5269566774 0.09726154804 -0.6906196475 0.7109832764
-0.03785759583 -0.01144026034 0.5318491459 -0.086493738 -0.7175580859 0.6859201193
-0.0430380255 -0.007733715698 0.5344647169 -0.01755214669 -0.7374605536 0.6719287038
-0.04872950166 -0.01084022224 0.5321226716 0.09262365103 -0.7150284648 0.6869549751
-0.05263828114 -0.007321493234 0.5360623002 0.1549133956 -0.7368648648 0.6535581946
-0.04988329485 -0.02404458262 0.5197609663 0.1152023152 -0.6782698631 0.7190833092
-0.05505083129 -0.02435182594 0.5202829242 0.2066414207 -0.6715369821 0.7107366323
-0.04507884756 -0.02046797238 0.5222956538 0.02285117842 -0.6890839338 0.7233102322
-0.05294330418 -0.0197728537 0.524063766 0.166034773 -0.6757174134 0.7138745785
-0.04067569599 -0.02548294142 0.5176512599 -0.04211810231 -0.6848375201 0.723276794
-0.03570951894 -0.02448466606 0.5194583535 -0.1394203305 -0.6824466586 0.7157054543
-0.04001790285 -0.01676571555 0.5265488029 -0.07375056297 -0.6939910054 0.7107288837
-0.03828943893 -0.0210852325 0.5227737427 -0.1038398445 -0.6839223504 0.7163059711
-0.04582723603 -0.1212977841 0.5904316902 -0.06983202696 -0.6886967421 0.7200562954
-0.04534201324 -0.1255629063 0.5869727135 -0.05735325441 -0.688225925 0.7224519253
