# .PCD v0.7 - Point Cloud Data file format
VERSION 0.7
FIELDS x y z normal_x normal_y normal_z
SIZE 4 4 4 4 4 4
TYPE F F F F F F
COUNT 1 1 1 1 1 1
WIDTH 512
HEIGHT 1
VIEWPOINT 0 0 0 1 0 0 0
POINTS 512
DATA ascii
-0.101895228 -0.1475453824 0.5032565594 0.6909991503 -0.4264709949 0.5440014005
-0.1047744676 -0.1466885507 0.5110034347 0.8073707223 -0.3001651764 0.486371547
-0.1019522548 -0.1613828093 0.5063433051 0.2667804062 -0.2467594445 0.4540588856
-0.1026799008 -0.1676505506 0.5151706934 -0.2107403576 -0.3098546863 0.3171381354
-0.1032115445 -0.1540957987 0.5077391267 0.5600503683 -0.2628070712 0.4809327126
-0.1041607186 -0.1572191715 0.515386343 0.2491174489 -0.3191585541 0.375836581
-0.1054762825 -0.1544542909 0.520555377 0.256169945 -0.3608243167 0.333381027
-0.1006594747 -0.1500689238 0.5408586264 -0.0004050825082 -0.5938588381 0.482339412
-0.09917972237 -0.1569101661 0.5483628511 -0.2715328038 -0.6071367264 0.4642489254
-0.1040306315 -0.1395154744 0.5256555676 0.497977674 -0.5660099983 0.5189369321
-0.09152404964 -0.1742306948 0.5652046204 -0.5767927766 -0.6355826259 0.5016975999
-0.1019252166 -0.188451618 0.5214419365 -0.7569053173 -0.4932303429 0.4026314616
-0.1015665084 -0.1788817048 0.5121486187 -0.2354331166 -0.3840635121 0.488057524
-0.101625368 -0.1724720895 0.5107617974 -0.1596339196 -0.3154387474 0.4213879406
-0.1012256369 -0.1693211496 0.5052946806 0.1656837612 -0.2918111384 0.532615304
-0.102177836 -0.1766275316 0.5182573199 -0.6058138013 -0.3460257351 0.2661533952
-0.03147904575 -0.0919200629 0.5494664907 0.2794788182 -0.5178889036 0.7143357396
-0.06976253539 -0.166530177 0.5780591369 -0.1745639741 -0.7417756319 0.6305769682
-0.08308652043 -0.1714687645 0.5675564408 -0.4068306684 -0.6661863327 0.5931376815
-0.06700684875 -0.1730784178 0.5755691528 -0.1244562715 -0.7536367774 0.6388886571
-0.07436805964 -0.1713739634 0.572496891 -0.2539906502 -0.714084506 0.6178714037
-0.07544764131 -0.1667788029 0.5747225285 -0.27417624 -0.7104492188 0.6144627333
-0.0810059309 -0.1671997905 0.5723294616 -0.364772737 -0.6828337908 0.5954192877
-0.07881130278 -0.2045816481 0.5420919061 -0.3913356066 -0.6525456905 0.6415299177
-0.07853143662 -0.1974939108 0.5485317707 -0.3985332549 -0.6545490623 0.6351631284
-0.1026962847 -0.1460779011 0.5361824036 0.2392311394 -0.5373940468 0.4458250701
-0.1012608707 -0.1357530653 0.5350441337 0.3506093323 -0.5903445482 0.4881335795
-0.1007422134 -0.1638166159 0.5519398451 -0.4334991574 -0.6165279746 0.4165856838
-0.1029555202 -0.1355131865 0.5296221375 0.5413822532 -0.5250747204 0.4721308053
-0.1030704603 -0.1408592165 0.5321733356 0.415288955 -0.5218369961 0.4564000666
-0.09529007971 -0.1697019488 0.5630573034 -0.5847713947 -0.6256697178 0.5106788278
-0.02546240017 -0.07482340932 0.5278618932 0.7282359004 -0.4245588183 0.5065833926
-0.03375483677 -0.07747928053 0.5434009433 0.6266277432 -0.3854880631 0.6490460038
-0.03970715776 -0.08374495059 0.5375512242 0.340416193 -0.5134037137 0.6132152081
-0.03498873115 -0.08236782998 0.5281865001 0.3916717768 -0.5404320359 0.5279061198
-0.02902840823 -0.07561536133 0.5359099507 0.7016724944 -0.3952298164 0.5789387822
-0.05336892977 -0.09513006359 0.5358105302 -0.1699252725 -0.6998141408 0.6258770227
-0.04669554159 -0.08984083682 0.5355995297 0.06605060399 -0.6184920669 0.6110732555
-0.03200763464 -0.07897035033 0.5321281552 0.5477082133 -0.4670860469 0.5540698171
-0.06161723658 -0.09660182148 0.5459122062 -0.08536674827 -0.6778321266 0.6657096744
-0.07881099731 -0.09059090167 0.5473267436 0.2421139479 -0.795597434 0.5126636624
-0.07240444422 -0.09233071655 0.5475828052 0.1292119175 -0.7487156391 0.5672324896
-0.06615897268 -0.08811581135 0.5481278896 -0.006013220176 -0.7385577559 0.6582891941
-0.1034373492 -0.1145107374 0.5450896621 0.5806360841 -0.6151701808 0.5312495232
-0.1021203548 -0.1204804704 0.5358044505 0.608533442 -0.5965864658 0.5204262137
-0.1023351625 -0.1318859309 0.5534805059 0.1336411536 -0.6221485734 0.5048730373
-0.1037434489 -0.1195285395 0.5524374247 0.3909865618 -0.6227138042 0.5249061584
-0.1009150222 -0.1315249205 0.5410376191 0.3246540129 -0.5999962091 0.5042098761
-0.1006637514 -0.1329859942 0.5474429131 0.1879190058 -0.6128700376 0.5026313663
-0.1018220335 -0.1175192595 0.5409218073 0.5872763991 -0.6042423248 0.5271787643
-0.1005359069 -0.1375857294 0.5405412912 0.2203524411 -0.5970205665 0.4942004979
-0.10004244 -0.1432694793 0.5457056165 0.02625764348 -0.605956614 0.4855337441
-0.1001968756 -0.1384397894 0.5521278977 0.006301461719 -0.6208813787 0.4942806959
-0.1013843194 -0.1245615408 0.5402311683 0.4680329561 -0.6005474329 0.5155338645
-0.09932531416 -0.1516538113 0.5528826118 -0.2525158525 -0.6182197928 0.4726926684
-0.09960935265 -0.1494796723 0.5470187664 -0.1117700711 -0.6067020893 0.4755105674
-0.1018167734 -0.1466167867 0.5549482703 -0.1734770238 -0.6336034536 0.4608584046
-0.1004431322 -0.1560340822 0.5556878448 -0.3695067763 -0.6299985647 0.4508606493
-0.1017568186 -0.129822582 0.5350469947 0.4647336304 -0.5901062489 0.5015072823
-0.1032273695 -0.1237942502 0.5464606285 0.4032877684 -0.6135380268 0.5117954016
-0.1024159491 -0.1095760986 0.5508889556 0.5523303151 -0.6358345151 0.5371153951
-0.1037612706 -0.1044330522 0.5559689999 0.5172067881 -0.6660556793 0.5335491896
-0.1031158939 -0.1445608586 0.5166425705 0.5248041749 -0.5301143527 0.5116732717
-0.09869161248 -0.1482980847 0.5087034702 0.3996349275 -0.5545874834 0.5147464871
-0.100695461 -0.1521248519 0.5146948099 0.2484528571 -0.5336582065 0.4862631857
-0.09998323023 -0.1720720381 0.521813035 -0.5002923608 -0.5030916929 0.3918029964
-0.1006160229 -0.1588612795 0.4986370206 0.5785218477 -0.2039416581 0.5837064385
-0.09459211677 -0.1593800187 0.4994530082 0.1882061809 -0.5650866032 0.5511780381
-0.09876233339 -0.1724176407 0.5160855055 -0.4253205061 -0.515915513 0.423833102
-0.09561439604 -0.1668797731 0.5082744956 -0.1824655831 -0.539253056 0.4815666676
-0.09967368096 -0.1786852032 0.5233832002 -0.7254551649 -0.4830578268 0.3668545783
-0.09841151536 -0.1555933505 0.4944087863 0.6796545982 -0.2587867975 0.6124358773
-0.0944738239 -0.1632353365 0.5033274889 0.01565806195 -0.5199611187 0.5210762024
-0.09106504917 -0.1537089646 0.4909300506 0.4633723199 -0.5514102578 0.6156997681
-0.09822555631 -0.1594232172 0.5107798576 0.02633693442 -0.5407498479 0.4769083858
-0.09739174694 -0.1525704116 0.5036186576 0.347584039 -0.5625673532 0.5344163179
-0.06722088903 -0.1717084646 0.5811828375 -0.1374419034 -0.7560993433 0.639475584
-0.05933575332 -0.212089166 0.5396968722 0.01975560002 -0.6879836917 0.7172302604
-0.05259124935 -0.2114021033 0.5390316844 0.1800870001 -0.69343853 0.6899827719
-0.07386778295 -0.1813897789 0.5665938854 -0.2761034369 -0.7290150523 0.6064550281
-0.07915393263 -0.1762787551 0.5667893291 -0.3523434997 -0.6934345365 0.5982812047
-0.05037736893 -0.1931019276 0.5536010861 0.2992076576 -0.6666252613 0.6635864973
-0.0549441725 -0.1912017167 0.5587254167 0.1867314875 -0.7338139415 0.6490120292
-0.09107813239 -0.1801671088 0.5616608262 -0.6177906394 -0.6296631098 0.4630509317
-0.08582656831 -0.1764306277 0.5694831014 -0.4699863791 -0.6342192292 0.5982145667
-0.1019054279 -0.1645901948 0.5446603894 -0.3484998345 -0.542299211 0.3919911981
-0.1009105444 -0.1687938273 0.5495372415 -0.5685891509 -0.5777465701 0.3888837397
-0.103699483 -0.1569658667 0.5359216928 0.04994691536 -0.4789481759 0.3979313076
-0.1065494865 -0.1443288475 0.522703588 0.7015762329 -0.3851120472 0.4113810956
-0.03766885027 -0.2042156905 0.5376303196 0.491392076 -0.5764462948 0.6430179477
-0.03502395377 -0.1976274997 0.5400445461 0.5719706416 -0.5333353877 0.6228808761
-0.03607813269 -0.1925010979 0.5436608195 0.5896098018 -0.5306392908 0.6087661386
-0.05538743362 -0.09876462072 0.531421423 -0.190045476 -0.742990613 0.6028574705
-0.04241520539 -0.09254169464 0.5241609812 0.1725297719 -0.621163249 0.548053205
-0.03212376311 -0.08769884706 0.518211484 0.4636338055 -0.5250751376 0.5034678578
-0.05028931797 -0.09567050636 0.5298740268 -0.07138136774 -0.691231966 0.588947475
-0.02348476648 -0.08462958038 0.5119071603 0.7193830013 -0.438257277 0.4652195275
-0.04817945883 -0.09713631123 0.5239267945 0.07052752376 -0.6823441386 0.5543919802
-0.041815456 -0.1146948561 0.526120007 -0.3411302567 -0.7806363702 0.5209941268
-0.03777879104 -0.1139420196 0.5304656625 -0.3812734485 -0.7339619398 0.5605382323
-0.09360025078 -0.1498362124 0.4939714372 0.5401905179 -0.586791575 0.6004451513
-0.09636875987 -0.1468957663 0.4989162087 0.5780869722 -0.578545332 0.5731980801
-0.09977240115 -0.1508319229 0.4974698126 0.6887439489 -0.3577249646 0.5894830227
-0.05888083577 -0.08656617254 0.5506580472 -0.0883602798 -0.54510957 0.8078978062
-0.04436320066 -0.1072387546 0.5373074412 -0.2890017331 -0.678504765 0.6526122689
-0.04907860234 -0.1026311815 0.5427421927 -0.2845028043 -0.6306363344 0.7129398584
-0.03946900368 -0.1059686169 0.5412330031 -0.1489248276 -0.6252025366 0.7381921411
-0.02931441553 -0.08097440749 0.5458312631 0.6876558661 -0.4890027344 0.5347855091
-0.0406206809 -0.08183196932 0.5444821119 0.2884225845 -0.4684455991 0.7275770903
-0.03535660356 -0.08014185727 0.5474317074 0.4783724546 -0.3943923712 0.7591412067
-0.04105608538 -0.08371654898 0.5505914092 0.049245134 -0.4674367905 0.872151792
-0.04852635786 -0.08267563581 0.5510735512 -0.02480835468 -0.4194530249 0.9009401202
-0.08508217335 -0.0964371413 0.5414011478 0.3845410645 -0.7564783096 0.5262769461
-0.09359136224 -0.1073506996 0.5402796268 0.5013661385 -0.6551011205 0.5589157343
-0.07755782455 -0.09172353148 0.5420663357 0.2037923932 -0.8083025217 0.5439264178
-0.09476322681 -0.1016947851 0.5438610911 0.4862903655 -0.6856497526 0.5389198065
-0.08960187435 -0.1006308571 0.5421411991 0.4471229315 -0.7192373872 0.527369976
-0.0847569406 -0.08988121897 0.5488536358 0.3382957578 -0.8106071353 0.4766570032
-0.09461403638 -0.09563422203 0.5548104644 0.4085289538 -0.7553902268 0.5043817163
-0.08913853019 -0.09537377208 0.5451947451 0.4143970013 -0.7559702396 0.506003499
-0.08917464316 -0.09371770918 0.5503972769 0.3842206895 -0.7740709186 0.4967602491
-0.1014723331 -0.09867696464 0.557636559 0.4616785645 -0.7151167989 0.5238862634
-0.09516080469 -0.09815747291 0.5487117171 0.44919011 -0.7284085751 0.515106976
-0.09949311614 -0.1021159738 0.5498702526 0.485609889 -0.6966062784 0.5227850676
-0.09247071296 -0.1429798752 0.4962441921 0.5560708642 -0.5758703351 0.598766923
-0.08610726893 -0.1430962086 0.4920971692 0.463493824 -0.5776302218 0.6589998007
-0.08760714531 -0.1487858593 0.4887469709 0.4738305211 -0.5981047153 0.6446365714
-0.07386764139 -0.1423463523 0.4862469137 0.2345571518 -0.5679676533 0.7772846222
-0.07999864966 -0.1462489069 0.487177074 0.3366580307 -0.5793195367 0.7196605206
-0.07410042733 -0.1754969954 0.5768689513 -0.2118706107 -0.714807868 0.6654548049
-0.07026131451 -0.1807042062 0.5722091198 -0.2097501457 -0.7156983614 0.6627504826
-0.08110648394 -0.1754405946 0.5734414458 -0.3562642038 -0.6528252959 0.6630632877
-0.0759024471 -0.1794543564 0.5716395378 -0.2975048721 -0.6829128265 0.662807703
-0.04618506879 -0.09158016741 0.5303803086 0.02378265373 -0.6507943869 0.5795360208
-0.02503143996 -0.07695397735 0.5219739079 0.6756894588 -0.4622136652 0.4720551968
-0.04114121199 -0.08809268475 0.5283759236 0.179223001 -0.6058292985 0.5539083481
-0.02920033224 -0.08095541596 0.5225739479 0.5391356349 -0.4994376004 0.4970631301
-0.03620466962 -0.08769324422 0.5233604908 0.3201251626 -0.5604558587 0.5323306322
-0.02702728473 -0.08296529204 0.5181341171 0.5939024091 -0.4783459008 0.4895334244
-0.0549800843 -0.1737778932 0.5719329119 0.1508810669 -0.7177475095 0.6263533235
-0.05005619675 -0.1726562679 0.5691481233 0.2541908622 -0.6921458244 0.5986492634
-0.04836812243 -0.17916058 0.5667936206 0.304798156 -0.6945397258 0.6199623942
-0.0310817752 -0.1765217334 0.5525049567 0.6095740199 -0.5412731171 0.5747626424
-0.06387794018 -0.1660993844 0.579782784 -0.05671140552 -0.7480949163 0.639953196
-0.04263063893 -0.177418977 0.5666774511 0.4471690953 -0.6509189606 0.6078301072
-0.03828488663 -0.09572350234 0.5516598225 -0.04934061319 -0.5118603706 0.8551738262
-0.04791050032 -0.09872248769 0.5478433967 -0.2018283457 -0.5745638609 0.7842632532
-0.04385922104 -0.0955619365 0.5508628488 -0.09868801385 -0.5289332271 0.8380907178
-0.03808566183 -0.08884143829 0.5515014529 0.03846882656 -0.4887599051 0.8568185568
-0.04784641787 -0.08960850537 0.5510297418 -0.1375720799 -0.5014002323 0.8533781171
-0.04939213768 -0.1876372546 0.5583910942 0.3408009112 -0.6882628202 0.6160188317
-0.0455654785 -0.1825962812 0.561029613 0.3859163523 -0.6841167212 0.5949265361
-0.06786559522 -0.1881575435 0.5598669648 -0.138104558 -0.7485054135 0.5893124342
-0.06566537172 -0.1867241263 0.5647875071 -0.06068607047 -0.7747436762 0.6222133636
-0.04097607359 -0.1785281003 0.5617577434 0.4618285298 -0.6606958508 0.5759224296
-0.05156204477 -0.1838422567 0.5643407702 0.2444419861 -0.7331037521 0.6170992255
-0.05954623967 -0.1854307801 0.5659942031 0.07470206171 -0.7627105713 0.6328366995
-0.05781505257 -0.1816165745 0.5705646873 0.0979642719 -0.7404310703 0.6564928293
-0.06414141506 -0.1830429882 0.5694653392 -0.05481271446 -0.7626200318 0.6392525434
-0.07259341329 -0.1906450093 0.556722939 -0.2473601401 -0.7407326698 0.5947954655
-0.06055057794 -0.1900632083 0.561329186 0.06275042146 -0.7610471845 0.6392593384
-0.07222147286 -0.1864108443 0.5628335476 -0.2425454706 -0.7516815662 0.5963722467
-0.05835491419 -0.1981874555 0.5493575335 0.09204512089 -0.6760431528 0.7016320229
-0.079958193 -0.2093108594 0.5376796126 -0.4007776678 -0.6449976563 0.6409916282
-0.08422677964 -0.2050986886 0.5363683105 -0.5629457235 -0.5998342037 0.5640643239
-0.1025374234 -0.175324738 0.527584374 -0.749650836 -0.3973725438 0.2180668265
-0.1043676287 -0.1644154489 0.5222178698 -0.2229547799 -0.3662182093 0.2582212389
-0.1033980846 -0.1696793288 0.5255506039 -0.480145216 -0.3866091371 0.2448837906
-0.1034187376 -0.1633924395 0.5313495398 -0.2131299824 -0.4327556789 0.3402478695
-0.1023955047 -0.1719079763 0.5320527554 -0.6099426746 -0.4319448769 0.2805905938
-0.1014105678 -0.1738578528 0.5386682153 -0.7273092866 -0.4782896042 0.3193573356
-0.09941688925 -0.1941502243 0.5235665441 -0.7488434911 -0.5034148097 0.4306545854
-0.09629175812 -0.1975269616 0.5268820524 -0.7410947084 -0.5076963902 0.4388633668
-0.1002394632 -0.161204204 0.5357510448 -0.2337649167 -0.5439674258 0.4159434438
-0.1032647789 -0.1462693065 0.528077662 0.2968478501 -0.5599226356 0.4934372604
-0.102025494 -0.151981011 0.5337629914 0.07361261547 -0.5678177476 0.4753755629
-0.09758795053 -0.1740077138 0.5442665815 -0.7029553652 -0.5401470065 0.3576608896
-0.1006729156 -0.1578511745 0.5422439575 -0.1752904505 -0.5893548727 0.4679131508
-0.1009752899 -0.1568347961 0.5305491686 -0.01691514254 -0.5364207029 0.440446049
-0.1045668125 -0.1392437816 0.519665122 0.6262201071 -0.5461423397 0.5255779624
-0.07845360041 -0.1909256876 0.5532215238 -0.413305968 -0.6909478307 0.5692918897
-0.08181641996 -0.1915361434 0.546210289 -0.5066244006 -0.6055870056 0.5284233093
-0.0684831515 -0.1974508464 0.5485118628 -0.1636461914 -0.6753762364 0.6723805666
-0.07521610707 -0.1931208819 0.5489374399 -0.3301001787 -0.6527395248 0.5864365101
-0.06882796437 -0.1943230033 0.5544053316 -0.1607589126 -0.7228755951 0.6578151584
-0.09692724794 -0.1384490728 0.5063350797 0.6153417826 -0.569111228 0.5452236533
-0.02378489636 -0.1861593574 0.5320026875 0.8390324116 -0.3939519823 0.3608002067
-0.03564995527 -0.1790876985 0.5565916896 0.5619292259 -0.5992693901 0.5636863112
-0.04263457656 -0.1854396909 0.5561742783 0.4981347024 -0.6315693259 0.5927041173
-0.03554069251 -0.1876578629 0.5468520522 0.5785740018 -0.5471907854 0.6003751755
-0.02604978904 -0.1320954561 0.5150678158 0.4632052183 0.1277107298 0.527493
-0.02648878284 -0.119507581 0.5166522861 -0.2747375369 -0.2528806031 0.7677717209
-0.02234851941 -0.1289408207 0.508943975 0.1631222218 0.1447392106 0.7188334465
-0.03286388516 -0.1196628809 0.5275495052 -0.07286210358 -0.4363684952 0.5452901125
-0.02511811629 -0.1261901855 0.513864696 0.0826491639 -0.01728120632 0.6793521643
-0.02826184034 -0.1285145879 0.5190896392 0.316341728 -0.04211363196 0.5240373015
-0.02916806005 -0.1213587373 0.5211138725 -0.08331844211 -0.2778363526 0.6380369067
-0.03530165553 -0.1228676662 0.5214069486 -0.1781050712 -0.5910817981 0.4538129866
-0.01394055411 -0.1117888913 0.504288733 0.2441393435 -0.1726339906 0.7585325241
-0.02311121486 -0.1135587096 0.5155326128 -0.0575585179 -0.3589729667 0.708122611
-0.0198399052 -0.117659919 0.5086062551 -0.07884962112 -0.134783119 0.8110046387
-0.01253367588 -0.1067479625 0.5055019855 0.4203390479 -0.3029969037 0.6807041168
-0.03239944577 -0.1136743128 0.5279536843 -0.3174463511 -0.6035864949 0.6269834042
-0.02298882604 -0.1085015312 0.5184834599 0.08357889205 -0.524238348 0.6184949875
-0.01751782 -0.1097809076 0.5103369951 0.1999553144 -0.3352478743 0.6904612184
-0.02880964428 -0.1104107052 0.5251361132 -0.1293209791 -0.6163224578 0.6005963683
-0.02700114995 -0.1143932268 0.5202502608 -0.1878130883 -0.4352195561 0.6882436872
-0.01905447058 -0.122846894 0.5043544173 -0.1984291524 0.05909290537 0.9110940099
-0.0164645873 -0.1182737723 0.503688395 -0.002272426151 -0.0240332596 0.8522564769
-0.0307606291 -0.1999222338 0.5351632833 0.5621277094 -0.5407494307 0.6253793836
-0.02824115194 -0.1849511862 0.5402041078 0.6241050959 -0.5250887275 0.5719960332
-0.02294694632 -0.1911686659 0.5291293263 0.8204528689 -0.4339659214 0.3658151031
-0.02793139778 -0.1891466379 0.5352020264 0.6928746104 -0.4767644107 0.5255079865
-0.02729990333 -0.1949492991 0.5337631702 0.5791198015 -0.5449824333 0.6061074138
-0.03119530156 -0.191662237 0.5411388278 0.5905274749 -0.5301014185 0.6077616811
-0.04518195614 -0.1107617021 0.5061212778 -0.1308521479 -0.6565641165 0.7010804415
-0.05290663987 -0.11497242 0.5090601444 -0.1725974232 -0.7413824201 0.6260093451
-0.02305935137 -0.1001846194 0.4980708361 0.2023902833 -0.4259928167 0.8479575515
-0.02944668569 -0.1038280353 0.499838382 0.1636900008 -0.4917342067 0.7955058217
-0.01450483408 -0.09524764866 0.5034953356 0.4841641784 -0.4086889923 0.6580121517
-0.0969261229 -0.1346127689 0.5116072893 0.6276664734 -0.5667933822 0.5334804654
-0.1012713015 -0.1324877441 0.5195354223 0.6214191914 -0.5722775459 0.5340226889
-0.09665964544 -0.1280076355 0.5165569186 0.5984559059 -0.5894460082 0.5416371822
-0.102683641 -0.1307007521 0.5246594548 0.6351572275 -0.5693710446 0.5215169787
-0.09791101515 -0.1239565834 0.5252014995 0.6066835523 -0.5924397707 0.5293837786
-0.06995571405 -0.1200602502 0.5065373182 0.1278486699 -0.7480571866 0.6484943032
-0.04080745578 -0.1024158075 0.5464911461 -0.1103209704 -0.5781386495 0.7979987264
-0.0348462984 -0.1018187478 0.5504166484 -0.02564074658 -0.5476270914 0.831510365
-0.05235805735 -0.101140067 0.5183143616 0.1329431236 -0.6878708005 0.566398561
-0.03004068136 -0.0906810686 0.5101178288 0.6166627407 -0.4729253054 0.4909368157
-0.0550099425 -0.1011658162 0.5253040791 -0.06762562692 -0.7403396964 0.5785132051
-0.06041469052 -0.1056363285 0.5177117586 0.04303409159 -0.7495244145 0.5917767882
-0.04285630211 -0.09674263746 0.5145500302 0.3454209566 -0.5951273441 0.5341265798
-0.03736830875 -0.09368099272 0.5149550438 0.4067948461 -0.5531058908 0.5168366432
-0.06159434095 -0.1151213869 0.512693882 -0.08607307076 -0.7831069231 0.6080080271
-0.06276585907 -0.0929094404 0.5413417816 -0.09033580124 -0.7388389111 0.6645038128
-0.05930717289 -0.09596395493 0.5366282463 -0.1799544841 -0.7494673729 0.6282715201
-0.06898258626 -0.09163253009 0.5416445136 0.02661393583 -0.7895837426 0.5987283587
-0.07575490326 -0.09697619081 0.536257267 0.1630311906 -0.7996957302 0.5730696917
-0.07515373081 -0.1018353924 0.5337982774 0.2068481445 -0.7258656621 0.6223726869
-0.06618030369 -0.1009433046 0.5371506214 0.02816181444 -0.6970387697 0.6661502719
-0.05619611964 -0.1004117057 0.5434520841 -0.171162203 -0.6266348362 0.7254598141
-0.07911930978 -0.1017856225 0.5389524698 0.2731591463 -0.6844078302 0.6047104597
-0.07155035436 -0.1009206995 0.5417342782 0.1217253879 -0.6636294127 0.6398090124
-0.06606420875 -0.1004804149 0.5433356762 0.01385685988 -0.6476088762 0.6676406264
-0.08574531227 -0.1015733257 0.536770463 0.4014643729 -0.7160685062 0.5683829784
-0.06408450007 -0.1777014583 0.5734137297 -0.06018599495 -0.7551435232 0.6461133361
-0.05916679278 -0.1780536771 0.5749319196 0.02054130845 -0.7341433167 0.6646639109
-0.04703925923 -0.1767510474 0.5724025369 0.3323558867 -0.6794347763 0.653328836
-0.05619241297 -0.09304248542 0.5409203172 -0.212671265 -0.6646959782 0.7040455341
-0.05072368309 -0.08925648779 0.5422446132 -0.1179910079 -0.6073999405 0.7485739589
-0.05225222558 -0.0862563625 0.5472679138 -0.0916890651 -0.5545634031 0.8117445111
-0.06028599665 -0.09023895115 0.545114994 -0.1122942269 -0.6611107588 0.7337752581
-0.05575251207 -0.09483470023 0.547182858 -0.182262212 -0.6375885606 0.736787498
-0.04045636579 -0.1996468306 0.5416217446 0.479735136 -0.5807844996 0.6476197243
-0.04356293008 -0.2062847316 0.5393645167 0.3819809854 -0.6338074207 0.6648130417
-0.0628670752 -0.196721077 0.552185595 -0.01643969677 -0.7127325535 0.6956313848
-0.05704174191 -0.1959483922 0.5547509193 0.1143602505 -0.718033433 0.6795606613
-0.05310949683 -0.199014768 0.5505310893 0.1982115656 -0.6802870631 0.7001132369
-0.05351638794 -0.2059574127 0.5429824591 0.1314961612 -0.6861158609 0.7083967924
-0.08317362517 -0.1998157501 0.5392667651 -0.5629668236 -0.5677991509 0.5572835803
-0.08962132037 -0.1906585544 0.5407196283 -0.7083654404 -0.5460574031 0.444652617
-0.09772913158 -0.181542024 0.5289893746 -0.7767674327 -0.5052424073 0.370909512
-0.093631275 -0.1884573996 0.532448411 -0.7478744388 -0.5129051805 0.4143857956
-0.07514843345 -0.2109933496 0.5392266512 -0.2899449468 -0.6681331396 0.6822990775
-0.101290673 -0.185027346 0.5277632475 -0.7894803882 -0.4915260077 0.3660110235
-0.09844644368 -0.1891013235 0.5305297375 -0.7739323378 -0.4900265336 0.3980356753
-0.09502793103 -0.1940486878 0.531514883 -0.7563390136 -0.4880233705 0.4354967177
-0.1007139087 -0.1797682792 0.5334759355 -0.8186189532 -0.4737575352 0.3123425245
-0.09822084755 -0.1852586567 0.5354221463 -0.7824836969 -0.4921933115 0.3759550452
-0.08976521343 -0.1984741241 0.5364983678 -0.6895851493 -0.5288801789 0.4895904064
-0.09121758491 -0.2018227875 0.5315227509 -0.7181739807 -0.5097109675 0.4731478095
-0.09724045545 -0.1694870144 0.5571638942 -0.6379733086 -0.6190402508 0.4535982311
-0.09890089929 -0.1674494594 0.5373213887 -0.4154216945 -0.5312224627 0.3882710934
-0.1027923897 -0.1478842497 0.5210837722 0.3888680637 -0.5258750916 0.4906761348
-0.1016456485 -0.1579158306 0.5237295628 0.01666269079 -0.5137850642 0.445394963
-0.09994409233 -0.1673985273 0.5301229358 -0.3482680619 -0.5050401092 0.3966324627
-0.1017237529 -0.1428904235 0.5076742768 0.6300970912 -0.5573139787 0.539560318
-0.1010789946 -0.1362253577 0.5157468915 0.6518995166 -0.5414246321 0.5295572877
-0.03398188204 -0.1825272441 0.5495693684 0.6096987724 -0.5410750508 0.5783094764
-0.06548435241 -0.1393318474 0.484374553 0.1122045517 -0.6242253184 0.7709801197
-0.05524890125 -0.1333450377 0.4928931594 -0.119791843 -0.7186632156 0.6816519499
-0.06005790457 -0.1357875913 0.4900399446 -0.07267607003 -0.6914417148 0.7045545578
-0.00928275194 -0.09322913736 0.5087327361 0.7317890525 -0.3997319937 0.5409470797
-0.009512506425 -0.08865110576 0.5126641393 0.7894721627 -0.3722447157 0.477481544
-0.02802007273 -0.09992337972 0.5355198979 0.1831266135 -0.5248377323 0.6871005893
-0.02165206522 -0.09711702913 0.5256507993 0.3123763204 -0.5004031062 0.5436028242
-0.02660773695 -0.1026162431 0.528365612 0.06994779408 -0.5729584694 0.5629547834
-0.03501090035 -0.110754326 0.5347464681 -0.2903550267 -0.6768227816 0.6288163066
-0.03450915217 -0.1041040048 0.543598175 -0.005096592475 -0.5710692406 0.7965429425
-0.03057265282 -0.1056186631 0.5326305628 -0.06422699243 -0.6084415317 0.6173501015
-0.02030781843 -0.09841968119 0.5207297206 0.3518234789 -0.4978240132 0.4881749451
-0.01354996394 -0.09034368396 0.5178913474 0.6385423541 -0.4101709723 0.4575333595
-0.02177632414 -0.136945188 0.5098522305 0.1850341111 0.1683577001 0.6189323068
-0.01925314218 -0.1295075566 0.5044873357 -0.05565487593 0.1702165902 0.8293594718
-0.02178065665 -0.1742235273 0.5258242488 0.9016072154 -0.1831404418 0.275842458
-0.02457490563 -0.1810001433 0.5348460674 0.8421459794 -0.3518936634 0.3998891711
-0.01789420471 -0.1673436463 0.5133011937 0.9800823331 0.01959289983 0.1019500419
-0.02188084647 -0.1821119338 0.522931695 0.6614786983 -0.2259938866 0.3672629893
-0.02065962739 -0.17420578 0.5167676806 0.5469822288 -0.05101378262 0.3757840693
-0.0243464727 -0.1747350544 0.5211965442 0.1890273392 -0.08482635021 0.6531956792
-0.02515461668 -0.1781982034 0.5293741822 0.5115737915 -0.2435926944 0.5516218543
-0.02316463739 -0.1686037034 0.5149070024 -0.05512926355 0.09679587185 0.7182433605
-0.02376837842 -0.163294971 0.5230855942 0.6090429425 0.00878221821 0.5485405326
-0.02248650789 -0.1575870663 0.5120221376 0.1426316798 0.2466861159 0.6894120574
-0.02318729274 -0.1581051201 0.5176523328 0.4760193229 0.1421413422 0.6029640436
-0.01569403708 -0.09560343623 0.515227139 0.593283236 -0.4322206974 0.4573749006
-0.01878121868 -0.1046018451 0.5151555538 0.3038903475 -0.5249021649 0.5864835382
-0.01333330851 -0.09946473688 0.5105469227 0.5805320144 -0.4455816448 0.544709146
-0.02515003271 -0.1051495373 0.5229488611 0.09939660132 -0.5748348236 0.5407876372
-0.0161450319 -0.09963230044 0.4992949963 0.1962873787 -0.4070209861 0.8231243491
-0.01060373709 -0.1010737419 0.5038013458 0.592797935 -0.4110893905 0.6425693631
-0.01906228252 -0.115387179 0.4958784282 0.127733022 -0.07776225358 0.9749847651
-0.01897964813 -0.1090779155 0.4960259199 0.07018924505 -0.2231222838 0.9495173097
-0.08201533556 -0.1261329651 0.503346324 0.3783119023 -0.68660146 0.617904067
-0.07938209921 -0.123058565 0.5066467524 0.3282771409 -0.7147769332 0.6079694629
-0.08801083267 -0.1268584579 0.5077460408 0.5198995471 -0.6422427297 0.5575729012
-0.09235474467 -0.1331134886 0.5062354803 0.5983247161 -0.58484447 0.5470716953
-0.09391287714 -0.1289189309 0.5114762783 0.5908451676 -0.5901838541 0.5497320294
-0.09915538132 -0.112079002 0.5405903459 0.5618762374 -0.6252215505 0.5412459373
-0.1014767513 -0.1247660443 0.5301162004 0.6309979558 -0.5803492665 0.5141482353
-0.09593629092 -0.1126260981 0.531745851 0.5536604524 -0.6292133927 0.5449666381
-0.09939465672 -0.1160244867 0.5348867774 0.5773547292 -0.6175325513 0.5305266976
-0.09982527047 -0.106632188 0.5457801223 0.524133563 -0.6581448317 0.5402815342
-0.06835836172 -0.1167399436 0.5105104446 0.08181121945 -0.7603527904 0.6388024688
-0.06241742894 -0.1182075366 0.5082479119 -0.04381413013 -0.7637757659 0.6369411349
-0.08083858341 -0.1123554185 0.5212403536 0.3253865838 -0.7220675349 0.6035302281
-0.07204784453 -0.1140896529 0.5138126612 0.1738554239 -0.7528680563 0.6317977905
-0.07780519873 -0.1155441478 0.5164811611 0.3147424161 -0.7214565873 0.6052134037
-0.09137575328 -0.1205186993 0.5223834515 0.5159396529 -0.6337505579 0.5558286309
-0.08654727787 -0.1184541881 0.5173025131 0.4505954385 -0.6671901345 0.5864933729
-0.07480996102 -0.118437387 0.5102385879 0.2421474755 -0.7304720283 0.6286135912
-0.08445227146 -0.1209579259 0.5115230083 0.4260883927 -0.685574472 0.5882094502
-0.03928962722 -0.1037793458 0.5072514415 0.2020368427 -0.6214935184 0.6307367682
-0.051547952 -0.1104075313 0.5118798614 -0.0535040535 -0.7329440117 0.5971477032
-0.04550920054 -0.1053747609 0.5097782612 0.1295239776 -0.6656194925 0.6228258014
-0.05702363327 -0.1090062708 0.5143877268 -0.0266355183 -0.7520746589 0.6046780944
-0.03345327824 -0.1009858251 0.5050112009 0.3119924963 -0.5709760785 0.6448575854
-0.03211908042 -0.09572008252 0.506449163 0.4804894924 -0.5234946012 0.6096765995
-0.02497789823 -0.09126670659 0.5055528879 0.6411903501 -0.4503978193 0.5591742396
-0.03943348303 -0.09837110341 0.5091078281 0.3711506724 -0.5813733935 0.6062328815
-0.04852612689 -0.1008736864 0.5131353736 0.2581669092 -0.6462708712 0.5790519118
-0.01953985915 -0.08736962825 0.5073319674 0.8091675639 -0.3804993927 0.446603179
-0.02143515833 -0.09418088198 0.5007713437 0.5473965406 -0.4556163847 0.6827448606
-0.0179263521 -0.0825195089 0.5132268667 0.7963249683 -0.4029001296 0.4499711096
-0.06106466427 -0.1722027212 0.5806069374 -0.0517545864 -0.7599682808 0.6454073191
-0.05109428242 -0.1748631895 0.5754100084 0.2090148032 -0.7103561163 0.6508157253
-0.05630442128 -0.170921728 0.5771463513 0.1050176248 -0.7230547071 0.6457412243
-0.04535735026 -0.1968074441 0.5478752255 0.4110337198 -0.6119841933 0.6694439054
-0.05131044984 -0.2013710737 0.5452295542 0.2045332044 -0.6582454443 0.6968966722
-0.04646429047 -0.2026779652 0.5427664518 0.3351054192 -0.6271466613 0.6770629287
-0.04435830936 -0.1918466538 0.5514300466 0.4677655995 -0.6104307771 0.6352224946
-0.0592267774 -0.2045600861 0.5458355546 0.03704148903 -0.6817499995 0.7197439075
-0.0638646856 -0.2011755556 0.5474803448 -0.05487673357 -0.6919498444 0.7183904052
-0.06825697422 -0.211837098 0.5390673876 -0.1838235408 -0.6916710138 0.6973057389
-0.06594277918 -0.2068375796 0.5428852439 -0.1100470647 -0.6887819171 0.714643836
-0.07372941822 -0.200612396 0.545748055 -0.2885975838 -0.6512008309 0.6946135759
-0.07264751941 -0.2069000751 0.5431153774 -0.2368977517 -0.6807785034 0.6857383251
-0.08438299596 -0.1958422512 0.5445930362 -0.5555852652 -0.5851299763 0.5889360309
-0.0956459716 -0.1759616286 0.5586733222 -0.6419642568 -0.6246281266 0.4445902705
-0.09576838464 -0.1773858517 0.5523920059 -0.6649755836 -0.6053097248 0.4347282648
-0.09288021922 -0.1815475971 0.5506148338 -0.6647428274 -0.6052175164 0.4371243119
-0.0969877243 -0.1800476909 0.5439815521 -0.7371843457 -0.5462400317 0.3856990933
-0.09498164058 -0.1868820041 0.5397091508 -0.7440825701 -0.5144580007 0.4173026085
-0.08790925145 -0.1909903437 0.5470739603 -0.6277020574 -0.5751897693 0.5047576427
-0.08465813845 -0.1895443201 0.5541809797 -0.5306940079 -0.6488550305 0.5362396836
-0.08967462927 -0.1855714023 0.554575026 -0.626205802 -0.6081517339 0.4758386016
-0.08598522097 -0.1756648272 0.5631391406 -0.4986176193 -0.6623538733 0.5468374491
-0.07814259082 -0.1837564111 0.5625805855 -0.3886722624 -0.718344152 0.562811017
-0.08948852867 -0.1692435592 0.5651774406 -0.524291873 -0.6323286891 0.5685719252
-0.09064492583 -0.1788100004 0.5554226637 -0.6347205639 -0.6253833771 0.4410103858
-0.04932023957 -0.1203814894 0.5114389062 -0.2390369177 -0.8111231923 0.5271205902
-0.05099819601 -0.1164812595 0.5150416493 -0.2511149943 -0.8007816076 0.5409346819
-0.0452988781 -0.1158741787 0.5204428434 -0.2894576192 -0.8089915514 0.5098915696
-0.02745623328 -0.09819924831 0.5024309158 0.3598140478 -0.5091921091 0.6926398277
-0.07438863814 -0.1348309964 0.4918238819 0.2632842958 -0.6546239257 0.7006751895
-0.08266991377 -0.1357822269 0.4945800602 0.3974325657 -0.6304634809 0.6612891555
-0.067839697 -0.1354441941 0.489982307 0.1033618674 -0.6712555885 0.7213178873
-0.07897351682 -0.1374783665 0.4888328314 0.3474777639 -0.6205102205 0.6984526515
-0.06708964705 -0.1238258779 0.5019032955 0.06434197724 -0.7578808069 0.6437453032
-0.07343624532 -0.1299533248 0.4951572716 0.2313378453 -0.7079002261 0.6657003164
-0.02630979195 -0.1717357934 0.5369714499 0.7478500009 -0.3130646646 0.4918617308
-0.02601955831 -0.1638084054 0.5308608413 0.7848827839 -0.1451853216 0.4616903961
-0.0255756788 -0.1443299949 0.5178616047 0.808357954 0.2243448943 0.4502003491
-0.02624744549 -0.1526860595 0.525182426 0.7698207498 0.02954317071 0.4730324447
-0.02656389214 -0.1574332267 0.5292245746 0.7458615899 -0.07881470025 0.489618808
-0.02388513274 -0.1515464187 0.5186692476 0.7746623158 0.168045029 0.5228667855
-0.02859438956 -0.1787269264 0.5465326309 0.6268361807 -0.5182518363 0.5815261006
-0.02617302723 -0.1783364713 0.5400435328 0.7593358159 -0.4086362123 0.4851030111
-0.02340519987 -0.1699625552 0.5300241113 0.3765979409 -0.3066975176 0.500831008
-0.02211735211 -0.1584598273 0.5243086219 -0.1521682888 -0.2810124755 0.6233596206
-0.05128541216 -0.1373299509 0.4913538694 -0.193327263 -0.579010725 0.7516373396
-0.05629917234 -0.1199961677 0.5074785352 -0.1593709588 -0.7940978408 0.5839629769
-0.01895413175 -0.162989676 0.5078557134 0.2298806012 0.2195400447 0.4586865604
-0.01869681478 -0.1512592137 0.5127594471 -0.4496386945 -0.1578326076 0.573146224
-0.02029680647 -0.1706547737 0.5210215449 0.9272239208 -0.09535774589 0.2116980255
-0.01940640807 -0.1634574682 0.5170942545 0.4650425315 -0.09891274571 0.319388479
-0.03307107091 -0.1290388852 0.5167849064 0.1469140798 -0.3418523669 0.4283055067
-0.04098536447 -0.1227901876 0.5150312185 -0.2417785674 -0.7644985318 0.4652430117
-0.04293927178 -0.1245703027 0.5094513893 -0.2824965417 -0.7655573487 0.5539287925
-0.03402591124 -0.1317670047 0.5120567679 0.3064020574 -0.1986445785 0.4714805186
-0.03800800443 -0.1287756711 0.5105040669 0.03858548775 -0.4503240883 0.5161527395
-0.03936915472 -0.1184406132 0.5227983594 -0.3500500023 -0.797940433 0.4882291853
-0.01852685213 -0.155101344 0.5076418519 -0.2572703362 0.1464932412 0.7940635085
-0.084511213 -0.1305807233 0.5004802346 0.4370290637 -0.6496803164 0.611897409
-0.07658372819 -0.1258382946 0.5015022755 0.276109308 -0.7228824496 0.6301113367
-0.07799433172 -0.1310713589 0.4990989268 0.3227697909 -0.6768077612 0.6259661317
-0.06823006272 -0.1287733763 0.4968695343 0.1183718815 -0.7235578895 0.6617990732
-0.08777223527 -0.135504365 0.5000820756 0.5116708279 -0.6184875965 0.5949286819
-0.09300953895 -0.1401614249 0.5012488365 0.5640764832 -0.5897979736 0.5741084218
-0.09007915854 -0.1233025566 0.513448894 0.516975522 -0.6380040646 0.5649685264
-0.09536505491 -0.1237986758 0.5203673244 0.587714076 -0.6008371115 0.5416805744
-0.09037703276 -0.1153270453 0.5230073929 0.491512984 -0.6569399834 0.5650373101
-0.09682626277 -0.1184948012 0.5282279253 0.5805296302 -0.6104354858 0.5373959541
-0.06181699038 -0.1122820973 0.5181992054 -0.07080957294 -0.7775483131 0.6111930609
-0.06464525312 -0.1048028097 0.5267096758 -0.09879402816 -0.7963987589 0.5940734744
-0.04448656365 -0.1110964268 0.5308258533 -0.347987622 -0.7444128394 0.5657761693
-0.05855759606 -0.1081873029 0.5259082317 -0.1598867476 -0.7780998945 0.5902724266
-0.06512569636 -0.108172223 0.5217627287 -0.05927038565 -0.7914716601 0.606000185
-0.0481489487 -0.1135518029 0.5238469839 -0.2578885853 -0.780662775 0.5494820476
-0.05475237966 -0.1127755642 0.5218966007 -0.1736214608 -0.7650337219 0.5931118727
-0.06665831804 -0.1130265817 0.5154286027 0.02634927444 -0.7768369913 0.6212530732
-0.07050579041 -0.1089036539 0.5217951536 0.08324592561 -0.7700824738 0.6080021262
-0.05662369356 -0.1047759727 0.5329898 -0.2002191544 -0.7315760255 0.6312263608
-0.05183106288 -0.1086193696 0.5296154022 -0.258279264 -0.7621772885 0.5772404075
-0.05248431489 -0.1044542789 0.5368251204 -0.2522646189 -0.6914957166 0.6577544808
-0.09067761898 -0.1109275892 0.5289095044 0.4711044729 -0.6637955308 0.5724979639
-0.08539701998 -0.1116272211 0.5237744451 0.3773507774 -0.7072630525 0.597606957
-0.0757265985 -0.1043993831 0.5273035765 0.2199307829 -0.7614927888 0.6078532934
-0.08188526332 -0.103276737 0.5324770808 0.3396014273 -0.7193768024 0.5986710191
-0.08522197604 -0.1077681258 0.5278171897 0.3942332864 -0.6980021 0.5959867239
-0.0878085345 -0.1063378155 0.5325701237 0.4404458702 -0.680087328 0.5813968778
-0.0154868504 -0.09001070261 0.5227441192 0.6244670749 -0.4058565497 0.5272725821
-0.02944768034 -0.09997871518 0.5404161215 0.1579262167 -0.5209437609 0.7443264723
-0.02134726383 -0.09390170872 0.5335203409 0.4079376161 -0.449261874 0.6410771608
-0.01818539202 -0.09171274304 0.5287325978 0.5184388757 -0.4243440628 0.5866114497
-0.0110102864 -0.08317323029 0.5167145133 0.8151069283 -0.3726489842 0.4423133433
-0.01725982688 -0.0864328444 0.5310345888 0.5487014651 -0.4521805942 0.5761615038
-0.03024573438 -0.0983280316 0.5487377048 0.1194806099 -0.5219475627 0.789657712
-0.02709964663 -0.09592998028 0.5444883704 0.2073743343 -0.5055437088 0.7453131676
-0.02323446423 -0.08968470246 0.5389977098 0.425103277 -0.481990844 0.6405128241
-0.02822377719 -0.08790091425 0.5452791452 0.4715607464 -0.5022485256 0.6256245375
-0.02547732554 -0.08441976458 0.5414560437 0.5944521427 -0.4864984155 0.565746665
-0.01426907443 -0.08575777709 0.5260575414 0.6276501417 -0.4248174727 0.5356763005
-0.02407138608 -0.09538409114 0.5390018821 0.3036449254 -0.4722244442 0.6966424584
-0.07807806879 -0.187866509 0.5579148531 -0.3862468302 -0.7313520908 0.5575791597
-0.08275982738 -0.1851904839 0.5573555231 -0.4818852842 -0.6972833276 0.5213574171
-0.08357781917 -0.1831076592 0.5625405908 -0.5028417706 -0.6876462698 0.5209398866
-0.03024272807 -0.1389089674 0.5070941448 0.1376871616 0.08333671093 0.6586623192
-0.03736829758 -0.1345947832 0.5021549463 -0.2483116835 -0.3638917506 0.7475841641
-0.02713297121 -0.1382854581 0.5125078559 0.7121914029 0.247633338 0.4481117725
-0.04580567777 -0.1374094635 0.4931362867 -0.2167675495 -0.5102092624 0.7926920652
-0.04072690383 -0.137384966 0.4972541928 -0.2811993957 -0.3554556072 0.807421267
-0.05510067195 -0.135761857 0.4870254695 -0.1587978154 -0.6735295653 0.720362246
-0.05750287697 -0.1284821481 0.4969473481 -0.07889378816 -0.7391700149 0.6660771966
-0.06321830302 -0.1304728389 0.4943034947 0.008080152795 -0.7406741977 0.6695561409
-0.04946439341 -0.1234318316 0.506239593 -0.161403507 -0.822812438 0.5377161503
-0.0593919605 -0.1013119444 0.5387467146 -0.1302443594 -0.6768445969 0.6887201667
-0.07067642361 -0.09735524654 0.5347664356 0.05110631883 -0.8072775006 0.5802801251
-0.06639659405 -0.1008630767 0.530333519 -0.04236686602 -0.7999622822 0.5922591686
-0.07053412497 -0.1042106673 0.5261867642 0.08332510293 -0.7838577032 0.601036787
-0.05966255814 -0.10170874 0.5294229388 -0.1710355133 -0.7869221568 0.5906677842
-0.01270398963 -0.07831574976 0.5206640959 0.783297956 -0.4254235923 0.453061372
-0.01906509511 -0.0767936036 0.5189632177 0.7869754434 -0.4178459346 0.453751266
-0.0231057927 -0.07733445615 0.5359795094 0.7472933531 -0.3841801286 0.5379965305
-0.01515171211 -0.07919906825 0.5272604227 0.7684109211 -0.4090306461 0.4871079326
-0.01913044974 -0.08011133224 0.5327236056 0.7426616549 -0.4424567521 0.4959096611
-0.02783452347 -0.07677798718 0.5418887734 0.7306833267 -0.3771993518 0.5674064755
-0.02435264923 -0.1436517388 0.5102139711 0.476739198 0.2857355475 0.658700645
-0.0280272793 -0.1480659246 0.5030348897 -0.4434877038 0.1522332877 0.8690750003
-0.02329608798 -0.1504484862 0.5079792142 0.102288425 0.3103075325 0.7269483805
-0.02048845589 -0.1241072863 0.4970032871 -0.1475356072 0.1029239297 0.9717655778
-0.01944697648 -0.1434766352 0.5024633408 -0.3256486952 0.2639433146 0.9008324146
-0.0223353412 -0.1396571994 0.4998252988 -0.3644010425 0.2367070466 0.8965204358
-0.02132974938 -0.1324308217 0.4995263219 -0.3163129389 0.1997475326 0.9218350649
-0.01948374696 -0.1496168226 0.5033103228 -0.3511662781 0.2971889079 0.8835527897
-0.01808619127 -0.1366918832 0.5041547418 -0.3579237461 0.132199496 0.8768700957
-0.01844858192 -0.1457553208 0.5077046752 -0.530162096 0.03254058585 0.7743991613
-0.03509745002 -0.1330035776 0.491569519 -0.07430710644 -0.1243002564 0.9463444352
-0.04132818803 -0.1386766136 0.4895894527 -0.2071221173 -0.2435598969 0.9161766171
-0.03131722659 -0.1274190396 0.4924313128 0.04899993911 -0.06680009514 0.9629935622
-0.03611031547 -0.138603732 0.4921336472 -0.2597425282 -0.09893144667 0.9255715609
-0.02663072571 -0.1292508692 0.4952262938 -0.1380369663 0.09405712783 0.9447537065
-0.04768016189 -0.142088756 0.4872991741 -0.2798549831 -0.4238643348 0.8570951819
-0.05913366377 -0.1401624978 0.484493643 -0.01410994399 -0.5602117181 0.8054049611
-0.04453697056 -0.1321039796 0.4977715015 -0.2138992846 -0.6531540155 0.7225754857
-0.04486626387 -0.1262901425 0.5038291216 -0.1701518446 -0.7689595819 0.6105792522
-0.04545139894 -0.1352719069 0.4873125851 -0.1431635022 -0.3830050826 0.8866484761
-0.02623614855 -0.122714974 0.4941801131 0.1581909806 -0.005980777554 0.9801813364
-0.04695575684 -0.1244740263 0.4972886145 0.04893156141 -0.5967047215 0.7270602584
-0.05226295814 -0.1256358773 0.499029696 -0.05444261804 -0.714209497 0.6565285325
-0.04209034145 -0.1298735887 0.4895255864 0.03202765808 -0.4086259604 0.86023736
-0.04825763404 -0.1278596073 0.4934824109 0.006616986357 -0.5879126787 0.7481449246
-0.04226979986 -0.1249618381 0.4938261807 0.1260870695 -0.4839942753 0.7983318567
-0.03617001697 -0.122740835 0.4932514131 0.2407791913 -0.3741184771 0.8534777164
-0.04900253564 -0.1315197349 0.4892641902 -0.03989685699 -0.5827177763 0.7600512505
-0.02607309259 -0.1165791005 0.4940327108 0.2461309135 -0.1809505671 0.937051177
-0.03383106738 -0.1184156239 0.4960083365 0.2881865203 -0.3610580862 0.8492981195
-0.04118461534 -0.1130588427 0.5020311475 0.1298587322 -0.5765981674 0.7159516215
-0.03180520982 -0.1136083454 0.496994704 0.3086112738 -0.4022387266 0.8195952773
-0.04100114852 -0.1193038821 0.499307543 0.1563688368 -0.4734072089 0.7839024663
-0.03572241589 -0.1090685129 0.5009130836 0.2180458158 -0.5440453887 0.7307306528
-0.02547426149 -0.1059527099 0.4969749451 0.3996368051 -0.4130144119 0.8046776652
-0.02488605492 -0.1480938643 0.4989000857 -0.4511437416 0.1281380802 0.8744341731
-0.0241596438 -0.1552540958 0.5010641217 -0.4724674821 0.1904920042 0.8464682102
-0.02190027758 -0.159366861 0.5038884282 -0.4561235011 0.313279599 0.8255307078
-0.02958083153 -0.1530417502 0.499042511 -0.4270763993 0.1044929177 0.8555632234
-0.03533247486 -0.1491598189 0.4950158894 -0.3884366751 -0.04803679511 0.8812032342
-0.03134438023 -0.1425352842 0.5010784268 -0.46359846 0.03032494336 0.882935226
-0.03830673546 -0.1444334686 0.4919059575 -0.3626725972 -0.1459302157 0.9058810472
-0.03036423773 -0.1365474313 0.4947967529 -0.3710313141 0.05814136565 0.9058340192
-0.03318667039 -0.1425682306 0.4940779209 -0.3896830678 -0.03313402459 0.8989118934
