# .PCD v0.7 - Point Cloud Data file format
VERSION 0.7
FIELDS x y z normal_x normal_y normal_z
SIZE 4 4 4 4 4 4
TYPE F F F F F F
COUNT 1 1 1 1 1 1
WIDTH 512
HEIGHT 1
VIEWPOINT 0 0 0 1 0 0 0
POINTS 512
DATA ascii
0.004621315282 -0.04813860357 0.5460931063 0.4224732518 -0.661509335 0.6132766008
0.000596765487 -0.0468265973 0.551441133 0.3260363936 -0.7691990137 0.5451655388
-0.01137161255 -0.05728664622 0.5657099485 0.1050817743 -0.7490528822 0.5600871444
-0.01510662306 -0.06393879652 0.5670467019 0.00653478317 -0.7166667581 0.6142583489
-0.106337212 -0.09742073715 0.5200580955 0.7020336986 -0.4856985807 0.3309448659
-0.1072606444 -0.103387624 0.5165734291 0.7768934369 -0.4150956869 0.2406859398
-0.1062138975 -0.08641628176 0.5287753344 0.5701287985 -0.6140696406 0.496489197
-0.110072948 -0.1137177199 0.5146638155 0.8817564845 -0.3253223896 0.05447692797
-0.1077913493 -0.09205809981 0.5274398327 0.631959796 -0.5599361062 0.3991314173
-0.1112263948 -0.120137006 0.5136548877 0.9316485524 -0.2851201594 -0.07375153899
-0.0929922685 -0.105059877 0.496389389 0.6273446679 -0.4665884674 0.6133825779
-0.08140964806 -0.06934629381 0.5212608576 0.3107779622 -0.7309972644 0.6054149866
-0.07247696072 -0.0875312835 0.4978403747 0.1738989949 -0.7044123411 0.6815363765
-0.05343855545 -0.03943744674 0.5566547513 -0.2709943354 -0.7844398022 0.5386009812
-0.0280564446 -0.06286463886 0.56424582 -0.4917958379 -0.4385271668 0.7194647193
-0.02653845586 -0.06845474988 0.5635888577 -0.515347898 -0.5217703581 0.6434479356
-0.02362577431 -0.06912373006 0.5697776079 -0.3753134608 -0.5035681129 0.7674405575
-0.01638638973 -0.05031919852 0.5655534267 0.05174447596 -0.5678766966 0.3410366178
-0.01733518206 -0.05662192777 0.5668969154 0.01709714718 -0.4427423179 0.822794497
-0.02251649089 -0.05103366449 0.5670841932 -0.1686289757 0.1677562147 0.8981413245
-0.02346327901 -0.05941130221 0.5684691668 -0.2840263844 -0.1075276807 0.8416483402
-0.02830405906 -0.05417691916 0.565651238 -0.3930446506 -0.1755203605 0.8428305387
-0.03553946689 -0.04345991835 0.5611748099 -0.264318943 -0.2895058692 0.6507670283
-0.04750762135 -0.03917888552 0.5562453866 -0.3609072268 -0.7302839756 0.5349963307
-0.0409463644 -0.04125684127 0.5577186942 -0.2947202027 -0.7854256034 0.3609778583
-0.02761125006 -0.04796019197 0.565132618 -0.2535594106 0.1081543341 0.8624266982
-0.009133865125 -0.04679696262 0.5613429546 0.1939919591 -0.8964357972 0.1591422707
-0.06242633238 -0.1484214962 0.5575464964 0.0320655182 -0.6600874066 0.7372045517
-0.05584350601 -0.153149277 0.5535259247 0.1771630645 -0.6401873827 0.746047318
-0.06048282608 -0.1441089809 0.5622842312 0.1184917763 -0.715565145 0.677664876
-0.05672186986 -0.148963362 0.5574746728 0.1817674786 -0.6734104753 0.7103608847
-0.04640851915 -0.04717549309 0.5482485294 -0.389999032 -0.7121466398 0.5799739361
-0.04088394716 -0.04888448864 0.5565103889 -0.4810722768 -0.6134544015 0.5877376199
-0.03626361489 -0.05129081011 0.5599662066 -0.4803278148 -0.4708528221 0.6968595982
-0.0350124836 -0.05747362226 0.5560284257 -0.5981546044 -0.5088580251 0.5843814611
-0.004296252504 -0.04909561202 0.5583762527 0.2715064883 -0.8530828357 0.4364163578
-0.09109920263 -0.09877704829 0.5115590096 0.2203592509 -0.5569236875 0.5699446201
-0.09607818723 -0.1088443771 0.5100554228 0.4428163767 -0.4733311832 0.3936237693
-0.09660828114 -0.1112916097 0.5243268013 -0.09391351789 -0.4962837696 0.4188485742
-0.09703977406 -0.1129944474 0.5329091549 -0.4129715264 -0.5082694888 0.4301301539
-0.09628077596 -0.1099893898 0.5177102089 0.1522352099 -0.486960113 0.4099729061
-0.09397168458 -0.1050493717 0.5155628324 0.1595348716 -0.519448936 0.4830722511
-0.09148700535 -0.09897696227 0.5053120852 0.4757241309 -0.5368834138 0.5375234485
-0.09848926216 -0.1140829101 0.5131405592 0.402461797 -0.4412679374 0.3198657632
-0.09828036278 -0.1145618036 0.539422214 -0.5882163644 -0.5129603744 0.4069463313
-0.09290382266 -0.09617729485 0.5204014182 0.1009822413 -0.5934782624 0.5335413814
-0.09224820882 -0.08891443163 0.5182724595 0.2936947048 -0.6362614036 0.5487723351
-0.09632541984 -0.1047674268 0.5326240659 -0.27031672 -0.5626530647 0.4528493881
-0.08985791355 -0.09227090329 0.5093788505 0.3505554795 -0.5963609815 0.6055270433
-0.09319604188 -0.1025075838 0.5212329626 -0.05185777321 -0.5541018248 0.5268796682
-0.09469587356 -0.1063831374 0.5265865326 -0.2169976085 -0.5398668051 0.4915134013
-0.105565168 -0.09266094118 0.5354777575 0.1819939464 -0.5906909704 0.4830959737
-0.1015453264 -0.1156157106 0.5438081622 -0.668659389 -0.4792935252 0.3658571541
-0.1047089174 -0.1006844789 0.5386077762 -0.1380360126 -0.5334522128 0.4268576801
-0.1017637327 -0.1193175539 0.55014503 -0.8015024662 -0.476352185 0.3401654065
-0.101586327 -0.1220170036 0.5586518645 -0.7455479503 -0.5477058887 0.3597310483
-0.1049074382 -0.1031887606 0.5115830898 0.7396883368 -0.4403218627 0.3480761349
-0.1072177738 -0.1142377928 0.5059623718 0.8800776601 -0.3093337715 0.1828808337
-0.107152082 -0.1091484129 0.5109907389 0.8339344263 -0.3570059538 0.1996424794
-0.1040607393 -0.108142443 0.5044640303 0.7677085996 -0.405469656 0.3858711123
-0.1022603214 -0.08666115999 0.5219666958 0.5446914434 -0.6260021329 0.5471243262
-0.1024258062 -0.09365645051 0.5152389407 0.6095097065 -0.5595235229 0.5196177363
-0.10966786 -0.1189793646 0.5079720616 0.9679933786 -0.2423972934 -0.002466320526
-0.1003749073 -0.1078494415 0.4992009699 0.7072643042 -0.443261832 0.5423932672
-0.09869642556 -0.09642695636 0.5061564445 0.6318442822 -0.5207744241 0.5614407659
-0.09426083416 -0.08144903183 0.5175896287 0.4724666774 -0.6711364985 0.5695092082
-0.09134546667 -0.08279244602 0.5115911961 0.4641961455 -0.6624471545 0.5863001943
-0.08794163913 -0.08669336885 0.5072024465 0.4399648309 -0.6492975354 0.6137905121
-0.09324418753 -0.04972258583 0.5554560423 0.3806077242 -0.7209733129 0.5772050023
-0.09489519894 -0.05626395345 0.5528565049 0.451271534 -0.6897087693 0.5625985265
-0.05690770596 -0.1197284907 0.5912790298 0.07397228479 -0.7939813733 0.5993568301
-0.05141454935 -0.1223018765 0.5859228373 0.163811788 -0.7795568109 0.5958801508
-0.09526246786 -0.06125679985 0.548470974 0.4929483533 -0.6685043573 0.5568166375
-0.1008515731 -0.0580435507 0.5516155362 0.4746460319 -0.676399529 0.5627273917
-0.1009143889 -0.06313798577 0.5483522415 0.4937829673 -0.6672939062 0.5571779013
-0.1026204452 -0.07493423671 0.5352246761 0.5147691965 -0.6615868211 0.5451842546
-0.1017353684 -0.06922457367 0.5421361327 0.5079072118 -0.6615667939 0.551628232
-0.08685673773 -0.04509353265 0.5546656847 0.309215337 -0.7411000133 0.5950168967
-0.08073356748 -0.03988551721 0.5556551218 0.2374611944 -0.7521196008 0.6142714024
-0.07713131607 -0.08360506594 0.5030314326 0.248368457 -0.7346155643 0.6233512759
-0.07790470123 -0.09178244323 0.4958330691 0.2774119377 -0.6520028114 0.6954184771
-0.0832207948 -0.09132425487 0.4994037747 0.3841380477 -0.6198177338 0.6705565453
-0.06998609751 -0.08071515709 0.5035890341 0.1294052601 -0.7496467829 0.6453461051
-0.05905395374 -0.03845127672 0.5553894043 -0.1502955705 -0.8046325445 0.5611496568
-0.06421982497 -0.03971272334 0.5530857444 -0.02728329413 -0.7879152894 0.6111031771
-0.04944065213 -0.04399698228 0.5536565781 -0.3660869598 -0.7571652532 0.5294342041
-0.06423319131 -0.04507151991 0.5467466116 -0.02668120712 -0.7786346078 0.62445122
-0.05565590039 -0.04306947812 0.5512798429 -0.2284139097 -0.7888335586 0.5614179969
-0.05252022669 -0.04679265618 0.5459316969 -0.2760258317 -0.749630332 0.5955407023
-0.07538002729 -0.04119498655 0.5522071719 0.2050745636 -0.7697924376 0.604065001
-0.07106816024 -0.03796008602 0.5557666421 0.1215561554 -0.7739839554 0.616605103
-0.05222131312 -0.1438018531 0.5605172515 0.3070544004 -0.6696433425 0.6722559929
-0.04431437701 -0.1377950162 0.5622441173 0.450175643 -0.642912209 0.6098021865
-0.09947621077 -0.146832943 0.5342582464 -0.7945272923 -0.3927605748 0.4353942573
-0.1087437123 -0.1302966326 0.5201533437 0.08662862331 -0.2790921628 0.01839123666
-0.1064990312 -0.136927247 0.5248036385 -0.4166815579 -0.3184281886 0.1777604371
-0.02401213907 -0.04723240808 0.559212029 -0.1753399521 -0.780064702 0.2535854876
-0.03157929331 -0.04770358279 0.5589365363 -0.3423914909 -0.7143076062 0.3725140691
-0.01586225443 -0.04675538465 0.5598169565 0.00658677239 -0.8550859094 0.09791533649
-0.03511858732 -0.05687862262 0.5454639792 -0.5536580682 -0.6382253766 0.4833164811
-0.03592533246 -0.05160758272 0.5523701906 -0.4992779195 -0.6459103823 0.5412664413
-0.02852311358 -0.04929938167 0.5541293621 -0.3172029853 -0.7040292025 0.51275599
-0.02981046028 -0.053807877 0.5485447645 -0.4040674269 -0.6834957004 0.4769287407
-0.02423461527 -0.05159081519 0.5504847169 -0.260487169 -0.7284889817 0.4602032304
-0.01449206471 -0.04830761626 0.5531151891 -0.01755044796 -0.8056054115 0.4251139462
-0.02826768905 -0.06748674065 0.5567569137 -0.6450740099 -0.4921409786 0.5632999539
-0.005602982827 -0.04699843004 0.5524970889 0.1802194417 -0.8260192871 0.439207375
-0.001521306345 -0.08267311007 0.515191555 0.2174700797 -0.6092706323 0.7588147521
-0.08894057572 -0.06809682399 0.5280929804 0.4361358881 -0.6886284947 0.5743527412
-0.1002419591 -0.07643622905 0.528809607 0.5105887055 -0.6670652628 0.5423488021
-0.09121060371 -0.07731150836 0.5194629431 0.4508955479 -0.6916176081 0.564027667
-0.09268186986 -0.07212473452 0.5267834663 0.4783379436 -0.6784271598 0.5574234128
-0.09548250586 -0.09814728796 0.5290180445 -0.06397928298 -0.597592175 0.479875803
-0.09410833567 -0.09000921994 0.523352325 0.2078278512 -0.6380360126 0.521040082
-0.09324519336 -0.09026011825 0.5046408772 0.5115516186 -0.6018766761 0.611604929
-0.09860122204 -0.08749543875 0.515824914 0.5237974524 -0.6210757494 0.5801189542
-0.09697782248 -0.09007360041 0.5108853579 0.5323156118 -0.5990863442 0.5954042673
-0.1024535522 -0.1059146821 0.5399394631 -0.2802824676 -0.5504723787 0.4354558289
-0.09827639908 -0.09036783874 0.5282692313 0.2099019587 -0.635776639 0.5189415812
-0.09503760934 -0.07876551151 0.5240710974 0.4647624791 -0.683262527 0.5622707605
-0.1013314724 -0.08231957257 0.5254175067 0.5089278817 -0.6616207361 0.5502204895
-0.1045003235 -0.08112040162 0.530632019 0.5255449414 -0.6557804942 0.541862309
-0.1062334403 -0.1263698339 0.5148783326 0.37367782 -0.3275358677 -0.05772858486
-0.09975486994 -0.1145359799 0.501904428 0.8805385828 -0.3983247578 0.2452028096
-0.1010577604 -0.1193844005 0.5252550244 -0.1744794101 -0.4145777822 0.2869125903
-0.09973827004 -0.1170660779 0.5198426843 0.1463417858 -0.4335957468 0.3008398712
-0.09981384128 -0.1185701862 0.5329225659 -0.3416031599 -0.462346673 0.3363977969
-0.1066356301 -0.1019211709 0.5319656134 -0.02586329542 -0.5041431189 0.3828136921
-0.1075005084 -0.1115092784 0.528883338 -0.03844087943 -0.4188570976 0.2412340492
-0.1086839512 -0.1224964485 0.5247318745 0.003809965216 -0.3189624846 0.0669265613
-0.109733291 -0.113253668 0.5216396451 0.5706142187 -0.3799939156 0.08526272327
-0.1095861197 -0.1072121859 0.5223009586 0.6957108974 -0.4292580485 0.1495152265
-0.1056666598 -0.108041361 0.5350769162 -0.3295468688 -0.4658313394 0.3556485772
-0.1046530902 -0.1162818521 0.5383262038 -0.6548398733 -0.4109857976 0.3012625277
-0.1058919132 -0.1206409559 0.5338231325 -0.730391264 -0.364756912 0.2512810826
-0.1032736003 -0.1215102971 0.5427639484 -0.8680294156 -0.3952570856 0.289455086
-0.1019661501 -0.1205923632 0.5146822929 0.09803290665 -0.3628392816 0.2352772206
-0.10450349 -0.1295829862 0.5260695815 -0.6799740195 -0.3083648086 0.2061162442
-0.1052370295 -0.1258362234 0.5302177668 -0.7545278668 -0.3239788711 0.2076379508
-0.1025132015 -0.1196984649 0.5072978735 0.6656709909 -0.3816414773 0.08619876951
-0.103325069 -0.1298700422 0.5187759995 -0.3326683939 -0.3138810396 0.1924544275
-0.09526920319 -0.09824256599 0.4997131824 0.5931261778 -0.5208220482 0.6031838059
-0.09435228258 -0.1379200518 0.5470691919 -0.7292494774 -0.4643376172 0.493296802
-0.1015445068 -0.1284203976 0.5531477332 -0.7568807602 -0.5146466494 0.3897503316
-0.09730564803 -0.1327584237 0.5516560674 -0.7582010031 -0.5035092831 0.40728423
-0.09658477455 -0.1281030476 0.563331008 -0.6688017249 -0.6199364662 0.4038201272
-0.07451632619 -0.1177951396 0.5920258164 -0.2097490579 -0.76949054 0.5972559452
-0.06978975981 -0.1207723171 0.5897356272 -0.1710982323 -0.7787131071 0.5985251665
-0.09762258083 -0.1194310337 0.5630471706 -0.6735773087 -0.5960372686 0.4176689088
-0.03916306421 -0.1327470094 0.5617531538 0.5095572472 -0.6432804465 0.5666764975
-0.06438397616 -0.1191058606 0.5926148891 -0.085198991 -0.7951047421 0.5989425778
-0.0582253933 -0.1258491427 0.587074995 0.08827193081 -0.7868674994 0.6085679531
-0.09410014749 -0.06026460975 0.5424705744 0.4544431269 -0.6773834825 0.5767288804
-0.09000807256 -0.06562622637 0.5331934094 0.4316177964 -0.6857847571 0.5801140666
-0.08724752069 -0.1003124043 0.4937812388 0.5343071222 -0.5090363026 0.6727157235
-0.08198096603 -0.09839648753 0.491448313 0.3989204168 -0.5343245864 0.7305250168
-0.08811204135 -0.09398207068 0.4970009029 0.4717797935 -0.5893993974 0.6544807553
-0.08305802196 -0.08217446506 0.5085125566 0.3255158961 -0.7312909365 0.5921614766
-0.08246324956 -0.08673059195 0.5033218861 0.3571682572 -0.670884192 0.6318361759
-0.06272563338 -0.068817541 0.5170167685 -0.05826707929 -0.7675203681 0.6364747882
-0.05087435991 -0.138874054 0.5638831258 0.3389126062 -0.7037013173 0.6073451042
-0.07155804336 -0.1427183598 0.563737452 -0.1735442877 -0.7065216303 0.6752158403
-0.04662062228 -0.1506549567 0.5528149605 0.4395034909 -0.604788959 0.6635770798
-0.05009180307 -0.1466629952 0.5559438467 0.3514480293 -0.6262335181 0.6868101358
-0.04449191689 -0.1430399269 0.5567244887 0.4634383023 -0.6072981954 0.6416350603
-0.0380538255 -0.141108945 0.5520581603 0.6006834507 -0.5507390499 0.5782796144
-0.03265050054 -0.1431559324 0.5436648726 0.7075850368 -0.4634482265 0.5152366757
-0.02821805887 -0.1391459852 0.5385603309 0.8041458726 -0.3487812877 0.4557170272
-0.04208561033 -0.1517190337 0.5486585498 0.5113526583 -0.5800992846 0.6281794906
-0.0368950069 -0.1448987871 0.5478096008 0.6183517575 -0.5356938839 0.568456471
-0.08001734316 -0.161608696 0.5465273857 -0.3367008865 -0.5999659896 0.714191556
-0.07523831725 -0.1616788059 0.5500042439 -0.2151881605 -0.6242098212 0.7343329191
-0.0864386186 -0.1586665809 0.5480286479 -0.4693226516 -0.5589329004 0.6707947254
-0.09894795716 -0.1426057965 0.5404038429 -0.7556270361 -0.4104851484 0.5025302768
-0.1004579216 -0.1410654783 0.534814775 -0.8339467645 -0.36814785 0.3715957999
-0.003344610799 -0.05702182651 0.537035346 0.2548685968 -0.6217159033 0.5744585395
-0.01277063321 -0.05282866955 0.5440587997 -0.008210715838 -0.6306139827 0.5668766499
-0.0004551495367 -0.05168590695 0.54228127 0.3029166758 -0.6331453323 0.6012055278
-0.02191453986 -0.05451975018 0.5444369912 -0.2350660414 -0.626932919 0.5382803082
-0.0104655223 -0.05589050055 0.5400657058 0.06614989042 -0.6240839362 0.5612194538
-0.007109176833 -0.05015840009 0.5463315845 0.1268492639 -0.671806097 0.5697460175
0.006503868848 -0.05310535803 0.5421590805 0.4827317297 -0.6347501874 0.588983953
0.002996457042 -0.05356311053 0.5477332473 0.4180524051 -0.7069864869 0.5340411663
-0.009352306835 -0.05842612311 0.5601597428 0.2539569438 -0.7722160816 0.5523731112
-0.006296904292 -0.06045855582 0.5543674827 0.3018940091 -0.7076238394 0.6093463302
0.008273211308 -0.05746683106 0.539088428 0.4804664552 -0.6426214576 0.5832239985
-0.003405601718 -0.05524572358 0.5558302402 0.3191128969 -0.7832261324 0.4957067668
-0.003064313671 -0.06261143088 0.5490071177 0.3265249133 -0.691049397 0.621520102
0.002389377216 -0.05993371829 0.5442783237 0.4050302804 -0.6612091064 0.6080316901
-0.09093209356 -0.1523562968 0.5515608191 -0.5590941906 -0.569934845 0.5908760428
-0.08652245253 -0.05398935452 0.5426164269 0.3677457571 -0.7140992284 0.5946577787
-0.08412379771 -0.04872791469 0.5498815775 0.3103800416 -0.7402861118 0.59159863
-0.07808236033 -0.04584473744 0.5473664403 0.2559227645 -0.7509016991 0.6061252356
-0.077788122 -0.05003994331 0.5428726673 0.2371431142 -0.744438827 0.6210753322
-0.08901495486 -0.05269951373 0.5507573485 0.3802474439 -0.716445148 0.5773156881
-0.08518377692 -0.07571570575 0.5219297409 0.3633982241 -0.7099393606 0.5949085355
-0.07834873348 -0.07655294985 0.5103030205 0.2899607718 -0.7443224788 0.5993579626
-0.08635447174 -0.0798432827 0.514421463 0.3821540475 -0.7179558873 0.5786904097
-0.07784751803 -0.07359202951 0.5178208947 0.2821364403 -0.7364954948 0.6125400662
-0.07241944969 -0.125673458 0.5867062807 -0.1733111292 -0.7756450176 0.6056198478
-0.00448574638 -0.08211154491 0.5269655585 -0.01575760171 -0.6396394968 0.6215791702
-0.0002002545807 -0.08553402871 0.5217846036 0.1422315687 -0.6206049919 0.6902201176
-0.01608404145 -0.08363160491 0.5320630074 -0.3071919978 -0.6515476108 0.5413628817
0.004712837748 -0.0859888792 0.5183718801 0.2841175795 -0.6128110886 0.7366546988
-0.01075385977 -0.08050111681 0.5324772 -0.2180828601 -0.6497997046 0.551900208
-0.002915959572 -0.07746307552 0.5301837325 -0.0304521285 -0.6390134096 0.6075594425
0.004266738892 -0.08006796986 0.525495708 0.1633457541 -0.6192203164 0.6724387407
-0.0969343707 -0.07087257504 0.5308046937 0.4998746514 -0.6640957594 0.5559311509
-0.09552524239 -0.06636413932 0.5366556644 0.496365279 -0.6627193093 0.5607011318
-0.09092739969 -0.06041043997 0.5376427174 0.4195221066 -0.6911628246 0.5874013305
-0.06369511038 -0.08052800596 0.5045611858 -0.002284901682 -0.7432675362 0.6567994952
-0.05953482166 -0.0764188841 0.5081445575 -0.1026705727 -0.7659068108 0.6249024272
-0.06631102413 -0.0760826543 0.509116292 0.02307132259 -0.7630388737 0.640786171
-0.07244525105 -0.07434352487 0.5111911893 0.1700799763 -0.7622717023 0.6140879393
-0.04136648402 -0.1384875178 0.5560532808 0.5567619205 -0.5744802356 0.5995645523
-0.08598629385 -0.1504322141 0.5541139245 -0.4812148213 -0.6095743775 0.6231467128
-0.08307465166 -0.1332043409 0.5704832673 -0.4221440256 -0.720718205 0.5490604043
-0.07929991931 -0.138004601 0.567284584 -0.3442792594 -0.7189999819 0.5913595557
-0.09005000442 -0.1378363669 0.5618619323 -0.5734419227 -0.6457973719 0.4922368526
-0.08899628371 -0.1430590451 0.558549583 -0.5448388457 -0.6280157566 0.5403889418
-0.07785652578 -0.1422824264 0.5624917746 -0.3308511674 -0.6846277714 0.641058147
-0.07910017669 -0.1539928317 0.5519580245 -0.3640286922 -0.6000108123 0.7010040879
-0.0742803514 -0.1510037035 0.5560749173 -0.2354957163 -0.629365921 0.7383476496
-0.02773837373 -0.1445440203 0.5403748751 0.7635526061 -0.4305609465 0.4716888368
-0.05500176921 -0.1598622054 0.5478793383 0.2176413238 -0.6551984549 0.7210045457
-0.04814825207 -0.1602557451 0.5464863777 0.3265017867 -0.630576849 0.7020858526
-0.06180242822 -0.1567345262 0.5510046482 0.04910122231 -0.6448224783 0.7534596324
-0.1004374847 -0.1336946636 0.5401182175 -0.8236516118 -0.4091812372 0.3804391921
-0.09961228073 -0.1279195398 0.5439935923 -0.8092899323 -0.4439801276 0.3789461553
-0.1038035974 -0.1352636516 0.5357023478 -0.8789029717 -0.3732552528 0.2894784212
-0.1044587642 -0.1419105232 0.52976197 -0.8863329291 -0.339600563 0.3109879792
-0.104406558 -0.1268536597 0.5377619863 -0.8788556457 -0.3748452961 0.2684245706
-0.01907165535 -0.0618625097 0.5349355936 -0.13583076 -0.6307539344 0.5304540992
-0.00869275257 -0.06005895883 0.534586072 0.1257859319 -0.6277815104 0.5581288338
-0.02633005567 -0.06247956678 0.5359883904 -0.3204617202 -0.6312941313 0.5116360784
-0.0155792078 -0.05877044052 0.5379360914 -0.05424587429 -0.6238187551 0.541834414
-0.03105153888 -0.0606973283 0.5394129157 -0.4462268949 -0.6264307499 0.5012122393
-0.01585308835 -0.0672942847 0.5282759666 -0.1298318505 -0.6367160082 0.6057037711
-0.02039866522 -0.07102362812 0.5244997144 -0.1718960106 -0.6312767267 0.6297324896
-0.01496055443 -0.07350889593 0.5214059949 -0.04828317836 -0.6268838644 0.6696454287
-0.0002040320542 -0.06922859699 0.523732245 0.2126844674 -0.6287965775 0.7058823109
-0.007698376197 -0.07236325741 0.5216163993 0.08663754165 -0.6266195178 0.6937601566
-0.03098195046 -0.0687154308 0.5280615687 -0.3953850865 -0.6366531849 0.5685858727
-0.02649345808 -0.07545886189 0.5439478159 -0.723542273 -0.5501386523 0.414739579
-0.03070798144 -0.06927058101 0.5438299179 -0.6838456988 -0.5763444304 0.4422380328
-0.03190831468 -0.06403986365 0.5530561209 -0.699796021 -0.5012016892 0.506175518
-0.02717232145 -0.0701097697 0.5519541502 -0.7018184662 -0.4846152663 0.5192207694
0.00780294789 -0.06398448348 0.5334367752 0.356654048 -0.6324370503 0.5794132948
-0.0202757176 -0.07501817495 0.5438982844 -0.5473874211 -0.5620241165 0.4541036785
-0.01780973375 -0.07359137386 0.563519001 -0.3383117914 -0.566462338 0.6831923127
-0.01316925976 -0.07189290226 0.5561801195 -0.2243230343 -0.578576088 0.644336462
-0.001338940579 -0.06749992073 0.5402944088 0.08410707116 -0.6092185974 0.5752628446
-0.007317426149 -0.06971467286 0.5485579967 -0.07027079165 -0.5937132835 0.6126720309
-0.01399506163 -0.07244241983 0.546391964 -0.3146525621 -0.5773633122 0.5334560275
0.000500015798 -0.06664483994 0.5455519557 0.1808353812 -0.6133250594 0.6465676427
-0.02139536291 -0.07532337308 0.5503625274 -0.5452574492 -0.5587024093 0.513313055
-0.007420646027 -0.0698954761 0.5423040986 -0.1133219302 -0.593989253 0.5454005003
-0.007946089841 -0.0698274672 0.5548155308 -0.05248270556 -0.591624856 0.6738204956
-0.0105872741 -0.0646250844 0.5578576922 0.1805096418 -0.6951150298 0.6485142112
-0.01370655093 -0.06820430607 0.5627039075 -0.01659918204 -0.6436150074 0.6876176
0.005615543108 -0.06429178268 0.5393941402 0.3402453959 -0.6343067288 0.6217532158
-0.01857257634 -0.07268569618 0.5698589087 -0.2719251513 -0.5830940008 0.7379729152
0.004000408575 -0.06913201511 0.5319179296 0.1883344054 -0.6154571176 0.5924785137
0.003278539749 -0.07526286691 0.5285292268 0.09803875536 -0.6015939116 0.6487760544
-0.001391892321 -0.06915529817 0.5349054337 0.03670987114 -0.6062988043 0.5434256196
0.009872520342 -0.07256730646 0.526524961 0.313919425 -0.6182934642 0.681398809
0.01153529994 -0.06625940651 0.5294992924 0.4326483309 -0.6341115236 0.6318859458
-0.01215904299 -0.0721802786 0.5390293002 -0.3000721037 -0.5818693042 0.4760348499
-0.02880386077 -0.1021535695 0.5637745261 0.03701681271 -0.6426209807 0.5977737308
-0.02266992256 -0.08413784206 0.569378376 -0.1983697414 -0.5882242918 0.7045134306
-0.02256901935 -0.08128289878 0.5632873774 -0.3134687841 -0.6029801965 0.6538347602
-0.02772670239 -0.09401358664 0.5527326465 -0.2206484973 -0.6635084152 0.5145357847
-0.03148725629 -0.1120162755 0.5661114454 0.2261268049 -0.6542975307 0.5916848183
-0.02356861345 -0.08218728006 0.5574647784 -0.363422513 -0.624271214 0.594808042
-0.02490729652 -0.08379301429 0.5506205559 -0.4131692946 -0.6503711939 0.5238440037
-0.007396647241 -0.07604250312 0.5339720845 -0.20846048 -0.5836960077 0.5591120124
-0.0172112193 -0.07681942731 0.538874805 -0.4836359918 -0.5733265281 0.4770128429
-3.426475814e-05 -0.07603161782 0.5173506737 0.2588436306 -0.6209497452 0.7387716174
0.003714473452 -0.07247070223 0.5206327438 0.3049405217 -0.62535429 0.7180384994
0.009817696176 -0.07751207054 0.5224754214 0.3243469298 -0.61221838 0.7210338712
0.005622708239 -0.0786908716 0.5190767646 0.3126112521 -0.6180277467 0.7212444544
-0.08815336972 -0.1339117885 0.5558630824 -0.5789358616 -0.602271378 0.4990561008
-0.08376108855 -0.1378793269 0.559823513 -0.4901041687 -0.6484446526 0.5431459546
-0.09723863006 -0.1227272227 0.5474005342 -0.7400534749 -0.5157395005 0.3976175189
-0.0902524218 -0.1409440637 0.5521703959 -0.6640973687 -0.5141789317 0.538667798
-0.09280928224 -0.1329799891 0.5603487492 -0.660264492 -0.6018604636 0.4385433197
-0.08179115504 -0.1190585196 0.5887436867 -0.3179556727 -0.7406988144 0.5895357728
-0.08092676848 -0.12374603 0.5842440128 -0.3323251009 -0.7431833744 0.5757776499
-0.1006143913 -0.1194172278 0.5685285926 -0.6537304521 -0.6393130422 0.4039227366
-0.08624841273 -0.1243540645 0.5788545012 -0.4180180728 -0.7186665535 0.5536336303
-0.08406476676 -0.06246489286 0.5305156708 0.3336687386 -0.723988831 0.5993064642
-0.06886830926 -0.07221323252 0.5184215307 0.08609713614 -0.7388755679 0.6266393065
-0.08953592926 -0.1319555342 0.5673890114 -0.559433341 -0.6781619787 0.4673462808
-0.0884225294 -0.1268660426 0.5740655065 -0.4733932018 -0.7102026939 0.5161926746
-0.09238214791 -0.1263507009 0.5686983466 -0.5501456857 -0.6794597507 0.4698386192
-0.09612128884 -0.1244782656 0.5590721369 -0.686017096 -0.5936225653 0.3993800581
-0.08389922231 -0.132370621 0.5647197962 -0.4066402018 -0.7086469531 0.5432880521
-0.08910408616 -0.1281740963 0.5569076538 -0.5417906642 -0.626316905 0.4812656045
-0.09294494987 -0.1250819713 0.5511897802 -0.6411756873 -0.5659320354 0.4356821477
-0.06393500417 -0.1389491111 0.5682376027 0.02319742367 -0.7744980454 0.6254063249
-0.05591554567 -0.1407319903 0.5654799938 0.2345007211 -0.7350735664 0.6328188181
-0.06412883103 -0.1271684915 0.5850534439 -0.03468571603 -0.7905852795 0.6084045768
-0.05482020602 -0.08471676707 0.5020852089 -0.2109474093 -0.7098855972 0.6598036885
-0.05776771158 -0.08788112551 0.4978245795 -0.1447581053 -0.6927936077 0.688372314
-0.06617374718 -0.0848698765 0.499130249 0.05846764147 -0.7244940996 0.6834375858
-0.07225976139 -0.09277763963 0.4925415516 0.1674022079 -0.6621905565 0.725107491
-0.07630715519 -0.09601649642 0.489934653 0.2582124472 -0.5765659809 0.767888248
-0.06760549545 -0.08831497282 0.4940235913 0.0717491284 -0.7082549334 0.6971405745
-0.05760590732 -0.09184749424 0.491597116 -0.1478271186 -0.6688355803 0.7116968632
-0.0121672703 -0.09781654179 0.5114704967 -0.1602081209 -0.3012990355 0.8815962672
-0.0169102177 -0.1023870558 0.5094771981 -0.2883687615 -0.1537814587 0.8732298613
-0.03648642451 -0.133137688 0.5563288331 0.6208052635 -0.5331159234 0.5431764722
-0.03104767017 -0.1298382133 0.5526861548 0.7416612506 -0.430999577 0.4841432273
-0.03384866565 -0.1369213164 0.5507175326 0.6791851521 -0.499465555 0.5298631191
-0.02848123014 -0.1365914047 0.5444849133 0.7728767991 -0.4111383259 0.4744814932
-0.09527104348 -0.1509319842 0.5394480228 -0.6929718256 -0.4381539226 0.5671098232
-0.09170781821 -0.1580234766 0.5437315702 -0.5831983089 -0.5091015697 0.6242479086
-0.09104067832 -0.147058636 0.5486647487 -0.6496856213 -0.4853990972 0.5798252225
-0.08022925258 -0.1561194956 0.5462037325 -0.3716311455 -0.5828819871 0.6992519498
-0.08503366262 -0.1523910165 0.5462936163 -0.4848584235 -0.5552951694 0.652100265
-0.08974726498 -0.1533003002 0.5411059856 -0.5904741883 -0.4939422309 0.6037701964
-0.0628085658 -0.1626598388 0.5477275252 0.02812257037 -0.6455904841 0.7577546835
-0.06907210499 -0.1615007222 0.5477153063 -0.1106462106 -0.6325445771 0.7561997175
-0.08072956651 -0.1478655934 0.5532083511 -0.3967322409 -0.5639838576 0.7088080049
-0.08014404029 -0.1434112489 0.5573047996 -0.3991392553 -0.5954791307 0.6627122164
-0.06889726967 -0.1474535614 0.5581440926 -0.1215316281 -0.6427796483 0.744787395
-0.06651396304 -0.1527563781 0.5545048714 -0.06509598345 -0.6335203648 0.7657129765
-0.07180921733 -0.1541479528 0.5519455075 -0.1829043031 -0.6137850881 0.756575942
-0.03588624671 -0.1527955979 0.5432181358 0.6077513099 -0.5484628677 0.571549654
-0.03198281303 -0.1490557194 0.5397647023 0.6870923638 -0.4996809959 0.5088743567
-0.02502424829 -0.1422804594 0.5333289504 0.8341497183 -0.3321455121 0.4138374329
-0.05397729576 -0.06011521444 0.5307227373 -0.2300792336 -0.7529732585 0.6161407828
-0.0603395775 -0.06378315389 0.5272021294 -0.1213118732 -0.7568594813 0.6213073134
-0.08528891951 -0.05963074788 0.5423785448 0.3412857652 -0.7108882666 0.583509326
-0.08110642433 -0.05966270342 0.5345822573 0.3008865714 -0.7295752764 0.6014534831
-0.07535667717 -0.06128177419 0.5317063332 0.1741700023 -0.7488125563 0.6169265509
-0.07549811155 -0.06726098806 0.5253288746 0.2157870978 -0.7425098419 0.6202740073
-0.07163791358 -0.05650029704 0.5335931778 0.1331012547 -0.7598716617 0.6295539141
-0.07947611064 -0.06329077482 0.5271740556 0.2627495825 -0.7371481657 0.6163198948
-0.05370318145 -0.05296260118 0.5392999053 -0.2543844581 -0.7455103397 0.6138578057
-0.06211093441 -0.05665973946 0.5333110094 -0.07376552373 -0.7715325356 0.6236541271
-0.04848658293 -0.05068139359 0.5419706106 -0.3570857346 -0.7226141095 0.5911834836
-0.05109985545 -0.05723761767 0.5347092152 -0.285554409 -0.7408642173 0.6046319604
-0.0426152125 -0.05976435915 0.5377392173 -0.4440594316 -0.6911871433 0.5507016778
-0.0349237211 -0.06280323863 0.5448213816 -0.6469528675 -0.5922288895 0.4769174755
-0.04824069515 -0.05615498871 0.5398463011 -0.3786381185 -0.7085236907 0.5720751882
-0.04309753329 -0.05825253576 0.5442473888 -0.4912082255 -0.6404924989 0.5477997661
-0.03920512274 -0.05902320892 0.5507254004 -0.5555445552 -0.5742169619 0.5496816635
-0.04329333454 -0.05326234549 0.550224781 -0.4813858867 -0.659912765 0.5516085625
-0.09160706401 -0.1189731732 0.5817402005 -0.4263349175 -0.6996867061 0.5731108189
-0.09636612982 -0.1189630702 0.5747200251 -0.5800377727 -0.6656033993 0.4607236683
-0.07034188509 -0.06538315117 0.5218868256 0.09652961791 -0.764768064 0.6281395555
-0.06635938585 -0.06089144945 0.5267033577 0.03168860823 -0.7789126635 0.6222105026
-0.06421338767 -0.06516814232 0.5217767358 -0.02449523844 -0.7854163051 0.6165685654
-0.05813409761 -0.06486424804 0.5222598314 -0.1585004032 -0.7598216534 0.6299111843
-0.07321802527 -0.1378330141 0.5671363473 -0.2085102499 -0.7607613802 0.6031268239
-0.06529740989 -0.1354028285 0.5731735826 -0.0003111999831 -0.7977013588 0.6016923189
-0.07106452435 -0.1348120272 0.5737524033 -0.1283179522 -0.7814371586 0.6018015146
-0.05807170272 -0.1283082813 0.580983758 0.0883871913 -0.7845810652 0.5975574255
-0.06865367293 -0.1322899461 0.5788599253 -0.08347016573 -0.7834045887 0.6085878015
-0.0625795126 -0.1319946349 0.5796198249 0.04458213225 -0.7878954411 0.6101754904
-0.0593960695 -0.1335548162 0.5744825006 0.1167756096 -0.7921652198 0.5888260603
-0.03354472294 -0.1062604934 0.5598424077 0.002853321843 -0.6459845304 0.4853233099
-0.03626735881 -0.1157503054 0.5656287074 0.2364281714 -0.6672769785 0.5099036098
-0.02840792015 -0.08964597434 0.5481727719 -0.3863300085 -0.6453975439 0.4481905997
-0.02674399875 -0.0816559419 0.5459145308 -0.6165328622 -0.5651661158 0.4174734056
-0.03136920184 -0.1015511379 0.5541189909 -0.09056191891 -0.6860587001 0.4810313284
-0.03728948161 -0.1216367707 0.5708222985 0.4151048362 -0.6853436232 0.5527784824
-0.03091103025 -0.1044487134 0.5711293817 0.1418398768 -0.641117394 0.6245259047
-0.02760022506 -0.09896227717 0.5691862106 0.04176617414 -0.6216468811 0.6524404287
-0.03641046956 -0.1275743097 0.5657807589 0.4784385562 -0.687676847 0.5401143432
-0.03453490883 -0.1132542714 0.5712371469 0.2839059532 -0.6645088792 0.5870257616
-0.02680726908 -0.0901401341 0.571366787 -0.08319210261 -0.6045004129 0.6837080717
-0.02379648015 -0.07664912939 0.5581652522 -0.5063517094 -0.5592690706 0.5822031498
-0.03137856349 -0.09944903105 0.5595911145 -0.1196376011 -0.6197026968 0.5050946474
-0.02915280499 -0.09304344654 0.5601037145 -0.2139068246 -0.6034286022 0.5376088023
-0.02769912966 -0.08801493049 0.55770123 -0.3320693672 -0.5884889364 0.5298057795
-0.02890856378 -0.09416751564 0.5660788417 -0.1018797755 -0.6109640002 0.6039658785
-0.02300594561 -0.07729738951 0.5678181648 -0.3440254331 -0.5684038997 0.6942211986
-0.02666498348 -0.08691522479 0.5640187263 -0.2501806319 -0.5905014277 0.6094039083
-0.04972882569 -0.1310509592 0.5733397007 0.3086687326 -0.7575438023 0.5687047839
-0.0432398282 -0.1315440387 0.5689065456 0.4054499567 -0.7202208638 0.558695972
-0.04763855413 -0.1266104579 0.5783188939 0.2854449153 -0.7578072548 0.5813667178
-0.05345121771 -0.1365353018 0.5693998337 0.261297375 -0.7631309032 0.5901454687
-0.05367806181 -0.1317410022 0.5770841837 0.2118810266 -0.7739562392 0.5914017558
-0.04962328449 -0.07952109724 0.5109292865 -0.3413196802 -0.7107342482 0.5979810953
-0.05320205167 -0.07570379972 0.5140095949 -0.2726576328 -0.7273685932 0.6141259074
-0.05318110809 -0.07943626493 0.5058167577 -0.2481803298 -0.742708981 0.6185052395
-0.05006036162 -0.08629541099 0.4980642796 -0.3167033195 -0.6900786161 0.6488180757
-0.05442945659 -0.07000641525 0.5177820325 -0.2431411296 -0.7422734499 0.6154310703
-0.04769636318 -0.0743772611 0.5172598958 -0.3991405964 -0.7130292058 0.5724294782
-0.04487656057 -0.08209511638 0.5073000193 -0.4142949879 -0.7023686171 0.5709168911
-0.0229487922 -0.1107774377 0.5189369917 -0.1117510721 -0.1685178578 0.6814054847
-0.02247687615 -0.1230079308 0.5251141787 0.632284224 -0.07839889824 0.4045782983
-0.05074776709 -0.09206245095 0.4936212003 -0.2794570625 -0.6610010862 0.6935597062
-0.0445061177 -0.08676287532 0.5036997795 -0.4367369413 -0.6790928245 0.5843089223
-0.04411270469 -0.09094811231 0.4980973601 -0.4041953087 -0.6468150616 0.642162323
-0.03037525527 -0.08399733156 0.5243061185 -0.5261698961 -0.6998393536 0.4775829315
-0.02589979768 -0.09145702422 0.5350797772 -0.2706639171 -0.6754713655 0.45608446
-0.02499898523 -0.09600124508 0.5400089025 -0.1347550005 -0.5768405795 0.4360028803
-0.02581832185 -0.1106010079 0.5435138345 0.2782277167 -0.4708176851 0.440279156
-0.02520099282 -0.1255022585 0.5438961387 0.7097237706 -0.359785229 0.4375844896
-0.02487678267 -0.1044978201 0.5417240858 0.1096130684 -0.5041174293 0.4331250191
-0.03212259337 -0.1118101627 0.5516186953 0.1480808854 -0.6923477054 0.5060479641
-0.02916897461 -0.1154788584 0.5458812118 0.3736643493 -0.5253407955 0.4741241932
-0.0293871332 -0.1245719492 0.5486555696 0.6448168159 -0.4307305515 0.4702877104
-0.03046344407 -0.1024004295 0.5457264781 -0.07833395898 -0.7281748056 0.4952759445
-0.03475403413 -0.1209475249 0.5606814623 0.3261295855 -0.6940224767 0.5245813131
-0.02907024324 -0.09686085582 0.5484227538 -0.2150907218 -0.6855400205 0.4703317583
-0.02602407895 -0.08985354751 0.5421521068 -0.3205336034 -0.6212612987 0.4397569597
-0.03198727965 -0.1231161281 0.5556060076 0.496784687 -0.5480578542 0.4942608476
-0.03278094903 -0.117091842 0.5572949052 0.2774549723 -0.6413177848 0.5033012629
-0.03364288434 -0.1285093874 0.5593038797 0.6030970812 -0.5655952692 0.5100497007
-0.03023916855 -0.1176473796 0.5517036319 0.3916228116 -0.5273147225 0.477551192
-0.02536746673 -0.1014746204 0.5269001126 -0.2765173018 -0.4314673245 0.6386165023
-0.02557321452 -0.1072325483 0.5282517076 -0.1369111538 -0.366918385 0.6524840593
-0.02351767756 -0.1045507863 0.5169887543 -0.4560363293 -0.2303340882 0.8005920649
-0.02577783167 -0.09504193813 0.5288640261 -0.3494699895 -0.5580232143 0.5726280212
-0.02721950412 -0.1083051488 0.5372284055 0.09758957475 -0.4916307628 0.5282434821
-0.02682147734 -0.1013565287 0.5347848535 -0.09030097723 -0.5567948818 0.5233181119
-0.02768328041 -0.1206334308 0.5402485132 0.3995147049 -0.3554025888 0.5561013222
-0.02664477937 -0.1156279519 0.5344090462 0.1666880399 -0.3384146988 0.6118479371
-0.02488092333 -0.1134612411 0.5270385146 -0.02735055424 -0.2616795003 0.6911481619
-0.009699069895 -0.08675763011 0.513949275 0.09670179337 -0.5845640898 0.8033850789
-0.01827306487 -0.1071295738 0.5229347348 -0.1527841985 -0.1198497564 0.8056899905
-0.02208426222 -0.1110622585 0.5320670009 0.1496071219 -0.3190031052 0.6023035049
-0.02099726908 -0.1170562729 0.5318915844 0.2858882546 -0.2131921798 0.6373829842
-0.0193022266 -0.1001513004 0.5226559043 -0.3225684464 -0.2290070504 0.7766759396
-0.02658156119 -0.08617287129 0.5295723081 -0.4513058662 -0.731518209 0.4935645461
-0.002466555685 -0.09172805399 0.5179228783 0.1175653115 -0.5298656225 0.7585617304
-0.02118274942 -0.08889004588 0.5305732489 -0.5036809444 -0.4260566831 0.6297706962
-0.02191378176 -0.08396515995 0.5350064635 -0.5051977634 -0.5810984373 0.5255515575
-0.007807055954 -0.0874235034 0.524392128 -0.04318766668 -0.615740478 0.6498063803
-0.01334749628 -0.09584904462 0.5205553174 -0.2708755136 -0.2787954807 0.8025912046
-0.008450556546 -0.09678868949 0.5170841813 -0.1092628464 -0.2994423211 0.8403494358
-0.01523694117 -0.09168353677 0.5250064135 -0.3152619004 -0.3965105414 0.7096662521
-0.02753471397 -0.09199389815 0.5187155008 -0.477912873 -0.5832849145 0.601962328
-0.02550900728 -0.09819223732 0.5162573457 -0.5056368113 -0.3888902962 0.716465354
-0.03331038728 -0.08519265801 0.5184389949 -0.5472747684 -0.6738852262 0.4946664572
-0.03969308361 -0.08765749633 0.5079327226 -0.4862995446 -0.6697862744 0.5570164919
-0.03523156047 -0.08920586854 0.5114796162 -0.5308329463 -0.6465009451 0.5454026461
-0.04128116742 -0.0834331587 0.5116327405 -0.4994633496 -0.6736884713 0.5435184836
-0.02169474028 -0.1330300122 0.5256899595 0.9305961728 -0.003841179656 0.3502962589
-0.02057832293 -0.1274585873 0.5218938589 0.9736109972 0.02274568751 0.2128326744
-0.0208756607 -0.1327014267 0.5318741202 0.896697402 -0.1312867403 0.3953020275
-0.02172007412 -0.1384461373 0.5302501321 0.903529644 -0.1384557039 0.397890836
-0.02352484874 -0.1326993853 0.5390761495 0.8621295691 -0.2644282579 0.4213265181
-0.05965602398 -0.0529246442 0.5384578109 -0.1210487038 -0.7632802725 0.6240269542
-0.06634289026 -0.05406356603 0.5362991691 0.021733623 -0.7749431133 0.6289134026
-0.05913988501 -0.05067566037 0.5441999435 -0.129170239 -0.7444004416 0.615763247
-0.07511843741 -0.05320482701 0.5385681391 0.1955910623 -0.7501952648 0.6312256455
-0.06521713734 -0.05024129525 0.5418664813 0.007767413277 -0.7666230202 0.6386418939
-0.07152965665 -0.04886159301 0.5438329577 0.1431058049 -0.7590652108 0.6218532324
-0.08829756081 -0.05841982737 0.5486381054 0.3800339401 -0.6927008629 0.5741584897
-0.07829015702 -0.05535873398 0.5449661613 0.2187240422 -0.7240710855 0.6052063107
-0.0754783228 -0.1312440336 0.5765090585 -0.2374741137 -0.7608447671 0.5835461617
-0.08182375878 -0.1296731681 0.5758362412 -0.3783560693 -0.7379950881 0.5542833805
-0.07807759941 -0.1275271773 0.5807160139 -0.289196521 -0.7504914403 0.590190649
-0.03857187554 -0.06359705329 0.5388965607 -0.5836746097 -0.6449168324 0.4913919568
0.005959909875 -0.06433553994 0.5275740623 0.3311202824 -0.639991045 0.6888459921
-0.01083244942 -0.06463510543 0.5301680565 -0.01158217527 -0.6481600404 0.590133667
-0.03600224853 -0.07057322562 0.5337475538 -0.5574182868 -0.6523278356 0.4941777885
-0.04090609401 -0.06537783891 0.5323773026 -0.4953764379 -0.6798758507 0.5219801068
0.002082791179 -0.05818592384 0.5342615247 0.3912148178 -0.6258168817 0.5890951157
-0.00391279161 -0.06237352267 0.5310542583 0.1599119604 -0.6510835886 0.602393508
-0.02665670402 -0.06653875858 0.5311784744 -0.3513000309 -0.6469350457 0.5193487406
-0.02928746492 -0.0755148977 0.5381615758 -0.6765689254 -0.5895758271 0.4356904626
-0.008724223822 -0.1085644886 0.5181293488 0.6111141443 -0.3878541887 0.2987529635
-0.005631218664 -0.103292428 0.5175714493 0.5057551861 -0.4512332976 0.4350891709
-0.01134882774 -0.1143845692 0.5195221901 0.7155222893 -0.249514088 0.3613944352
-0.0157352481 -0.102562584 0.5175709724 -0.3048873842 -0.07567415386 0.86699754
-0.02207566425 -0.1231963634 0.5356550217 0.5602677464 -0.2400569618 0.525759697
-0.01910279132 -0.1133685112 0.5258150697 0.1370282024 -0.1351840198 0.67736727
-0.01786942594 -0.1174864247 0.520833075 0.4353463054 -0.07062876225 0.4530076981
-0.02085856907 -0.1271054596 0.5307556987 0.845716238 -0.176750049 0.3097752631
-0.02125089429 -0.1226854399 0.5183501244 0.6676533222 -0.04172593728 0.1192770898
-0.02155799232 -0.112909399 0.5098462105 -0.4364156127 0.2073691934 0.8499912024
-0.01650112495 -0.1092003211 0.5127257705 -0.1166476831 -0.03233161569 0.7005873919
-0.01999134198 -0.1182965785 0.5144692063 0.212235406 -0.01089833677 0.2996304929
-0.03913928196 -0.09144899249 0.5031191111 -0.5091044903 -0.6296858191 0.5857647061
-0.02345083281 -0.1078485548 0.5122573376 -0.5001831651 -0.02912344038 0.8231191039
-0.02825061604 -0.1016497761 0.5089799166 -0.525184691 -0.2863476872 0.7380231619
-0.02823588066 -0.1074966863 0.5047565103 -0.5331100225 -0.1147477403 0.7357643247
-0.0263177231 -0.08114109188 0.5366997123 -0.5495923758 -0.7050409913 0.4425914884
-0.03020052239 -0.0802962333 0.5313293338 -0.5718983412 -0.6896412373 0.444018513
-0.03596802428 -0.07596916705 0.528238833 -0.542817235 -0.6745070815 0.4928570986
-0.03899577633 -0.07721275836 0.5212148428 -0.5260369182 -0.6717401147 0.5191454887
-0.03867652267 -0.069993563 0.5282930136 -0.5589806437 -0.6401681304 0.5266004205
-0.0431451723 -0.07181586325 0.5233170986 -0.4784890115 -0.6789503694 0.5559527874
-0.03027913347 -0.08020164818 0.5177618861 -0.3629251719 -0.6438926458 0.5884910226
-0.01881517842 -0.08324690908 0.5158475041 -0.09718539566 -0.6094557047 0.7128726244
-0.006572957616 -0.07977378368 0.5157991648 0.1474241912 -0.6114013791 0.7526031733
-0.01909862831 -0.07749801129 0.518633306 -0.1489624679 -0.6372503042 0.6321246624
-0.02782949433 -0.07640891522 0.5224676132 -0.37579602 -0.6415163279 0.5566778183
-0.01243944839 -0.07739342749 0.517691493 -0.001062372583 -0.6301276088 0.6781235933
-0.04269209504 -0.07851686329 0.5148300529 -0.4647964239 -0.691313982 0.5434556007
-0.02904229052 -0.08659917861 0.510926187 -0.3196769953 -0.6251985431 0.6385762095
-0.02270303853 -0.08727575839 0.5118585825 -0.1713179201 -0.6049591899 0.7100043297
-0.04377597198 -0.06737309694 0.5272438526 -0.4487344921 -0.6861404181 0.5659509897
-0.04844295606 -0.06933469325 0.5233338475 -0.372544378 -0.7121562958 0.5838968754
-0.04718769714 -0.06329467893 0.5301454067 -0.3444084227 -0.7282146215 0.5901308656
-0.05273337662 -0.06535844505 0.5252773166 -0.2716084719 -0.7408329844 0.609038353
-0.0346333757 -0.09568223357 0.5030147433 -0.5506678224 -0.5450277925 0.6308087111
-0.03722864762 -0.09849712253 0.4976889491 -0.5408207774 -0.5346412659 0.6482072473
-0.01885478199 -0.09251213819 0.5084767342 -0.1688961983 -0.525596559 0.7641971111
-0.01325032674 -0.09054507315 0.5094793439 -0.07040993124 -0.5445054173 0.7602756023
-0.008710961789 -0.09303404391 0.5126289129 -0.02839303017 -0.4657476246 0.8545185924
-0.02299872227 -0.1012137383 0.5056535006 -0.4154598713 -0.2578981221 0.8112711906
-0.0289008487 -0.09671398997 0.5122141838 -0.5423803926 -0.4590179026 0.6615438461
-0.03015337698 -0.1035187989 0.501470089 -0.5792133808 -0.2687497139 0.7349804044
-0.03102834709 -0.09108091146 0.5067567825 -0.4077261686 -0.5924777389 0.6397051811
-0.02461688966 -0.09484991431 0.5062065125 -0.3102250695 -0.5079749227 0.7386758924
