# .PCD v0.7 - Point Cloud Data file format
VERSION 0.7
FIELDS x y z normal_x normal_y normal_z
SIZE 4 4 4 4 4 4
TYPE F F F F F F
COUNT 1 1 1 1 1 1
WIDTH 512
HEIGHT 1
VIEWPOINT 0 0 0 1 0 0 0
POINTS 512
DATA ascii
-0.01683700271 -0.1741807908 0.8059005737 -0.4389479458 -0.4838984311 0.7527740598
-0.02306457795 -0.2084986269 0.7789927125 -0.553442955 -0.4786673188 0.678063333
-0.01866851747 -0.2114008367 0.7807255387 -0.4625862539 -0.5189089775 0.7120454907
-0.02286225371 -0.1687830091 0.805957377 -0.4990906417 -0.4774736464 0.7194880843
-0.01708360203 -0.1693890244 0.8090748191 -0.4354596436 -0.481816709 0.7584498525
-0.01021769363 -0.1681161374 0.8128607273 -0.2992127836 -0.4913893938 0.814589262
-0.02332025953 -0.08770943433 0.7480921745 -0.5905206203 0.5216729641 -0.6154465079
-0.03093120456 -0.08788885921 0.7571020126 -0.6420621276 0.4918444753 -0.5878107548
-0.02643213235 -0.08473220468 0.753544569 -0.6120958328 0.5324487686 -0.5842896104
0.05553974584 -0.1483735889 0.713144958 0.6644774079 0.1948231459 -0.7020888329
0.04928224906 -0.1455952823 0.7036986947 0.4940396547 0.3157220781 -0.7678946257
0.02378520742 -0.1411264688 0.7021522522 0.1548835188 0.4981689453 -0.801404357
0.01847499982 -0.1386582702 0.7025466561 0.05857298523 0.5686968565 -0.7939150333
0.04680838436 -0.1407481879 0.7096206546 0.5539188981 0.3209021688 -0.7558220029
0.03968629614 -0.1384167224 0.7082494497 0.4149825573 0.4214614928 -0.7576690316
0.03336124867 -0.1381631792 0.7066223025 0.3061040938 0.4722649157 -0.7670841813
-0.04462223127 -0.09964218736 0.7695009708 -0.6984642744 0.4383595586 -0.565605402
-0.02751516923 -0.09614945203 0.7464575171 -0.6332784295 0.4749870002 -0.609819591
-0.0108546121 -0.1736497581 0.8088084459 -0.3417872488 -0.5022531748 0.7880125642
-0.005995206069 -0.1762168705 0.811444521 -0.2729646564 -0.5136196613 0.8115267754
-0.02236402407 -0.09289330244 0.7433819175 -0.5855088234 0.5115448833 -0.6285036206
-0.01519472897 -0.09416244924 0.7368039489 -0.4809690714 0.5518838763 -0.6808987856
-0.01403163746 -0.08842147142 0.7409697175 -0.4567818642 0.578071475 -0.6732458472
-0.004797845148 -0.07589580864 0.7454537749 -0.3225114048 0.647044003 -0.6901753545
-0.002017703373 -0.08034432679 0.7406880856 -0.2769037783 0.6230974793 -0.7197262645
0.004557390232 -0.07857980579 0.7395163178 -0.1546771526 0.6447815299 -0.7440218329
0.003637643298 -0.07490230352 0.743052721 -0.1770326942 0.6508508325 -0.7357605696
0.01118099969 -0.07795457542 0.7398399711 -0.05753606185 0.6510263085 -0.7535257339
0.02107379772 -0.1397963911 0.6917607188 0.08409068733 0.6255862713 -0.7658841014
0.0269818455 -0.1423646957 0.6884972453 0.1828750372 0.6519468427 -0.7321767807
0.009908143431 -0.1396850348 0.6943019032 -0.08109673858 0.566174686 -0.818292737
-0.001094974577 -0.1408080012 0.6965389848 -0.2374698371 0.5025400519 -0.8209595084
-0.007572169416 -0.1391673833 0.6961455345 -0.3221909702 0.4713266194 -0.820122838
0.005027190782 -0.1369033158 0.6957750916 -0.1343096197 0.546164453 -0.8254590034
-0.006843114737 -0.2122423649 0.7858906984 -0.3056299686 -0.5772227049 0.7559810877
-0.01387668401 -0.2107580006 0.7843452692 -0.3920639753 -0.5415225029 0.7423366904
0.01799534634 -0.2145431489 0.7881518006 0.1432085782 -0.5874482989 0.7900056839
0.05716202781 -0.1417528093 0.7174452543 0.7651393414 0.2682405412 -0.5634500384
0.06613936275 -0.1865881532 0.7597744465 0.8301585913 -0.2911046445 0.4597668648
0.06949296594 -0.1911996305 0.7526547313 0.8664200306 -0.2674898207 0.4056995809
-0.03936024383 -0.1832285672 0.7730241418 -0.7281553149 -0.3869716823 0.5656524301
-0.042775888 -0.176594153 0.772066772 -0.7357323766 -0.3837731481 0.5580169559
-0.04554338753 -0.1786905825 0.7664576173 -0.7341507673 -0.3805973232 0.5622316599
-0.04362139106 -0.1893968135 0.7647961974 -0.7245770693 -0.3972442448 0.5631097555
-0.04310709983 -0.1838614941 0.767713964 -0.729431808 -0.3875162601 0.5636031628
-0.03332768008 -0.09619548917 0.7522755265 -0.676060617 0.4526482224 -0.5813419223
-0.03610381112 -0.08985826373 0.7580984235 -0.6583357453 0.4612939358 -0.5945225954
-0.04183901846 -0.1035388634 0.7597241402 -0.7109327912 0.4284494519 -0.5574487448
-0.03821313009 -0.09450444579 0.7628442049 -0.6832370758 0.4466250241 -0.577545166
-0.04318130016 -0.09452928603 0.7659547329 -0.6886389256 0.4441657066 -0.5728443265
-0.03841522709 -0.09631441534 0.7572630644 -0.6907246113 0.4413849711 -0.5719176531
-0.04212635756 -0.08807183057 0.7650754452 -0.6691941023 0.454051882 -0.5881555676
-0.03867191076 -0.1154515669 0.7459018826 -0.7269071937 0.427180469 -0.537678957
-0.04157412425 -0.114945136 0.7509783506 -0.7306169271 0.4168875515 -0.5406731367
-0.03727895766 -0.1102031171 0.747713685 -0.7221446633 0.4269365668 -0.5441927314
-0.03836902976 -0.1055159941 0.7525087595 -0.7190273404 0.4231496155 -0.5512852073
-0.03216794133 -0.1100459695 0.741909802 -0.6955028772 0.4416452646 -0.5653650165
-0.02788934112 -0.1125992015 0.733918488 -0.6557968855 0.4616247714 -0.5968568921
-0.0198954884 -0.100483045 0.7350987196 -0.5503386259 0.5144078135 -0.6557006836
-0.0248766169 -0.1070764437 0.7352614403 -0.6180243492 0.4744491279 -0.6259548664
-0.02717099153 -0.1040587351 0.7404285073 -0.6574680209 0.4571669698 -0.5982940793
-0.03303327411 -0.1057513282 0.7449062467 -0.700199306 0.4398852289 -0.5621709824
-0.01000956073 -0.09522201866 0.7325733304 -0.3976573646 0.5662988424 -0.7168245912
-0.005701836664 -0.09737738222 0.7282972336 -0.3259148598 0.5800499916 -0.7432733774
-0.01377154421 -0.1007216647 0.7300980091 -0.4458243847 0.5503002405 -0.6999586821
0.01491128933 -0.14096497 0.6981973052 0.009795729071 0.5905736089 -0.7967376113
0.03708510101 -0.1414972991 0.7018836141 0.3567734957 0.4583190978 -0.7772021294
0.03515020758 -0.1416749954 0.6957793236 0.310885191 0.5707060695 -0.7384010553
0.03116118722 -0.1413783133 0.7012652755 0.2639527917 0.4880633056 -0.7846878767
0.02547839098 -0.1414102018 0.6966919899 0.1644102633 0.5858311057 -0.7640556693
0.04472227767 -0.141620189 0.70364815 0.4776401818 0.4013953507 -0.7760054469
0.03334384784 -0.142337516 0.6897165775 0.2668228149 0.6408341527 -0.7192132473
0.005872805137 -0.2124147415 0.7886746526 -0.05575813353 -0.60695678 0.7917725444
0.02737990208 -0.2125979066 0.7846836448 0.2904808819 -0.5421622992 0.7721505165
0.06538248062 -0.1926342845 0.7576315403 0.8024618626 -0.3419196904 0.489022404
0.079727754 -0.09347916394 0.7194319963 -0.8007171154 0.1866752058 -0.3914943337
0.07340320945 -0.09782355279 0.7355436683 -0.3226779699 -0.05084173754 -0.4447666109
0.07103893161 -0.0989003405 0.740922153 -0.1880865097 -0.1614073813 -0.4584759772
0.07817608118 -0.09568190575 0.7247235775 -0.5917948484 0.1736403257 -0.4174551368
0.0717041567 -0.09253483266 0.7322698832 -0.7146337032 -0.371534586 -0.3858763874
0.04054361209 -0.2115870714 0.77985847 0.4881828129 -0.4749148488 0.7237778306
-0.01724694483 -0.2047698349 0.7851278186 -0.477858007 -0.4956924617 0.721717298
0.04062167555 -0.1369635165 0.6924787164 0.1105167344 0.5638074875 -0.7434556484
0.04473105446 -0.1325893551 0.6958956718 0.007121609524 0.5200484991 -0.7591668367
0.03917433694 -0.1423332691 0.6917588711 0.2896949649 0.5278189182 -0.7803578377
0.05076136813 -0.1302915066 0.698233664 -0.05666967854 0.4017527103 -0.8272826672
0.03748246282 -0.135556668 0.6971592307 0.1628852338 0.6058072448 -0.7369219661
-0.02116522007 -0.1364174634 0.7074626088 -0.557679832 0.4839456975 -0.6741080284
0.008636587299 -0.1404689401 0.7005729675 -0.08661887795 0.5685395002 -0.8080397248
-0.01490617357 -0.1385837495 0.7045560479 -0.4474936426 0.4779024124 -0.7398022413
-0.005072943866 -0.1388868392 0.7032224536 -0.2978319526 0.5187743306 -0.7651407123
0.002422818448 -0.1394505054 0.7019791603 -0.1830138415 0.5478597879 -0.7866280079
-0.01409535948 -0.124476254 0.7116268277 -0.4245165884 0.554181993 -0.7120010853
-0.01655142196 -0.1296462417 0.7086308599 -0.4810138047 0.5296578407 -0.6959792376
0.05888965726 -0.1083273068 0.7440589666 0.7455112338 0.2532602251 -0.6160269976
0.02734117955 -0.07622829825 0.7426469922 0.1829713434 0.6588254571 -0.7272050977
0.03425088525 -0.08244229108 0.7401374578 0.2529865205 0.5944554806 -0.7617096305
-0.02314787172 -0.1334112287 0.7117536664 -0.5867937803 0.4817110002 -0.6483898759
-0.03186775371 -0.1384672672 0.7163938284 -0.6810254455 0.4300540686 -0.592458725
-0.0007967561251 -0.09987761825 0.7248696089 -0.2447998822 0.5947552919 -0.7623019814
0.03442994505 -0.1269025356 0.7046408057 0.2277470529 0.5809364319 -0.741356492
0.04085586965 -0.1249500066 0.7032835484 0.02768537588 0.5201730728 -0.7665832043
0.03006088547 -0.1300483048 0.7007975578 0.1678512692 0.6141777039 -0.7446146011
0.03783418983 -0.1299551874 0.6997594237 0.05961450189 0.565474093 -0.7564466
0.04406092316 -0.1281034052 0.6997284889 -0.05833860114 0.5138137937 -0.7719764113
0.04856202006 -0.1231099889 0.7013527751 -0.2078717053 0.4504618943 -0.7956481576
0.06193515286 -0.1765190363 0.7793499827 0.7817420959 -0.345177114 0.5191546679
0.06323359907 -0.1130307242 0.7446579933 0.7685039639 0.1839264631 -0.6119795442
0.06245338917 -0.1081473082 0.7493548393 0.7501549125 0.2559028268 -0.6092720628
0.06965066493 -0.1053840667 0.7601144314 0.7363547683 0.3003239036 -0.6053269506
0.06738246977 -0.1104551554 0.7544077635 0.7712188959 0.2671109736 -0.5769500732
0.03791349009 -0.2076283842 0.7822135091 0.4546814561 -0.4946811199 0.73395437
-0.02156292275 -0.1990823895 0.7860253453 -0.5587531924 -0.4648718238 0.6851010323
-0.02382227033 -0.1926714033 0.7877303362 -0.5953577161 -0.4542447627 0.6618545651
-0.0184104275 -0.1923268288 0.7911553383 -0.5167679787 -0.4865485728 0.6933155656
-0.02927043661 -0.1713752002 0.7976296544 -0.6141938567 -0.4533267319 0.6427134871
-0.02416819893 -0.1742464155 0.8012414575 -0.5552735329 -0.4728915691 0.6828211546
-0.03111340478 -0.1183286607 0.7342422009 -0.6772064567 0.4523054957 -0.5781179667
-0.02788919769 -0.1183799803 0.7297307849 -0.641089797 0.475597769 -0.5990125537
-0.03664305806 -0.1204977259 0.7392975092 -0.7149637938 0.4349412918 -0.5470830798
-0.03409302235 -0.1157534495 0.7401076555 -0.708319962 0.4348989725 -0.5555688143
-0.01875144243 -0.1247894466 0.7146810889 -0.5123555064 0.5276706219 -0.6713095307
-0.02253898978 -0.1155246645 0.7253214717 -0.5849051476 0.5051525235 -0.6320006847
-0.01742139272 -0.1131950244 0.7231532931 -0.4914211631 0.53944242 -0.6789188981
-0.0003839680576 -0.2107917219 0.7878924012 -0.2151200175 -0.5736396909 0.7878286242
-0.007019654848 -0.2063896507 0.7887892723 -0.3295605481 -0.5541225076 0.7630160451
0.009852853604 -0.1289759576 0.7041301727 -0.05960569158 0.5908862948 -0.8004416227
0.003471205011 -0.1334429085 0.7030585408 -0.1585389078 0.5812541842 -0.7900426388
0.001515142852 -0.1208661497 0.7095580697 -0.1820841283 0.6045526862 -0.774830699
0.004938706756 -0.12572442 0.7031846046 -0.1142201126 0.585920155 -0.8022122383
0.007003123406 -0.131176874 0.6987902522 -0.09884004295 0.5701313615 -0.8139064908
0.01369525306 -0.1292320192 0.6983498335 -0.02008725889 0.5947973132 -0.8023654222
0.01251766272 -0.1344609112 0.7014601231 -0.02188822255 0.5825030208 -0.811353147
0.02120095864 -0.1258510947 0.7067205906 0.1420422345 0.5910408497 -0.7826305032
0.02714625932 -0.1210229844 0.7099888921 0.2485769689 0.5963488221 -0.7629836798
0.02919754013 -0.1262661219 0.7071608305 0.2511570752 0.5850142241 -0.768101573
0.02669673786 -0.132864058 0.7056295872 0.1808206439 0.5870620012 -0.7683088183
0.01992334798 -0.132128641 0.7033102512 0.1095011681 0.5762876868 -0.7976318598
0.03205379471 -0.1317374259 0.7074988484 0.2487450391 0.5932534337 -0.7487101555
0.0620724149 -0.09655936062 0.755684793 0.6850663424 0.3407174945 -0.634414494
0.06471784413 -0.1040936783 0.7543378472 0.7455685139 0.2940174639 -0.5960105658
0.06997361034 -0.1052783132 0.7509650588 0.3727740049 0.03998760879 -0.53644526
0.0694898963 -0.1008200273 0.7540372014 0.3005187809 0.01521084737 -0.5409029722
0.06867688149 -0.09668511152 0.7468366027 -0.1551792324 -0.2941949368 -0.4671489298
0.04508534074 -0.1208065599 0.7050719261 -0.08987828344 0.4682916403 -0.7894437313
0.03282066062 -0.1223140731 0.7078933716 0.189951852 0.5655729175 -0.760866642
0.05641627312 -0.1370759606 0.7056794167 0.3515913785 -0.1304295808 -0.8413537145
0.05896444246 -0.1414491534 0.7109811902 0.4945989549 -0.100674212 -0.7798351049
0.05486806482 -0.1427198946 0.707593441 0.4815794826 0.06312126666 -0.7805507779
0.06041842327 -0.1482476294 0.7158542871 0.6870846152 0.00730970921 -0.6866172552
0.06329354644 -0.1337049454 0.7089166045 0.1957506686 -0.2347238213 -0.813305974
0.0639417097 -0.1427732706 0.7151529193 0.4946133494 0.108085297 -0.6104176044
0.05749191344 -0.1325227171 0.7239354253 0.7321663499 0.3998528719 -0.4987640381
0.05352440476 -0.1261106431 0.7242103219 0.5764799714 0.5444662571 -0.5375106335
0.05383519456 -0.1200261638 0.728887856 0.6226775646 0.5483438373 -0.533739388
0.05533570796 -0.1155182272 0.7331395149 0.6542899013 0.4174760282 -0.6268290281
0.04850673676 -0.1195860282 0.7230991721 0.4250041246 0.6574087143 -0.6118489504
0.06098918989 -0.1398364455 0.7231531143 0.8267456293 0.2896668911 -0.4761383235
0.06023193151 -0.1282221079 0.7315833569 0.7771122456 0.4269579947 -0.4491294026
0.06270784885 -0.1368072927 0.7287988663 0.8209826946 0.3354847729 -0.4482877851
-0.02665154822 -0.1474538743 0.7087264657 -0.6116610765 0.4500202835 -0.646700263
-0.0191693604 -0.142665416 0.7024185658 -0.5069215298 0.4498214126 -0.7231000066
-0.02330169082 -0.1422736347 0.7071624994 -0.5665994883 0.4458599389 -0.6860459447
-0.03991433606 -0.1345962584 0.7335355878 -0.7231065035 0.4166967273 -0.550884366
-0.04111461341 -0.1443308294 0.7273831367 -0.7127688527 0.4178793728 -0.5633115172
-0.04212618992 -0.139511764 0.731392324 -0.7185582519 0.4193479419 -0.5547525883
-0.03390970826 -0.1474894583 0.7160682678 -0.6732347012 0.42692554 -0.6024755239
-0.03706977144 -0.146418497 0.7214913964 -0.6885011792 0.4241706133 -0.5865027905
-0.04448570311 -0.1534706205 0.7530297637 -0.7316863537 0.03900388256 -0.006443225779
-0.04526109993 -0.1682778448 0.7614403367 -0.7344920039 -0.2191533595 0.3441282511
-0.04397404939 -0.1412249506 0.7466077805 -0.7296637893 0.2482572645 -0.2882517576
-0.04247924313 -0.1400543302 0.7400407195 -0.7261490226 0.3156131506 -0.4057404101
-0.04377280176 -0.1356629282 0.743291378 -0.728538692 0.3489687443 -0.4243299961
-0.04468527436 -0.1556873918 0.7463855147 -0.7279540896 0.1021305323 -0.1054713503
-0.04528176785 -0.166876182 0.755815208 -0.7316948771 -0.1316950619 0.2176963985
-0.04322447628 -0.1467443109 0.740940392 -0.7259396315 0.2434004098 -0.3086419404
-0.0445487611 -0.1615549177 0.7533145547 -0.7309031487 -0.05436040089 0.1087295189
-0.04416292161 -0.1521672159 0.7416912913 -0.7258242369 0.1910850555 -0.234746471
-0.04419848695 -0.1482584029 0.7352163792 -0.7228733897 0.3178166449 -0.4119064808
0.01162790786 -0.1200446635 0.7076386809 -0.02304342948 0.6197540164 -0.7796614766
0.006378072314 -0.1181490496 0.7106056213 -0.107788384 0.6116690636 -0.7777715921
0.01798319072 -0.1191253886 0.7080777884 0.09812838584 0.6234006286 -0.7724327445
0.05143576115 -0.08196592331 0.7387545705 -0.2241649926 -0.04099234194 -0.5679469109
0.05244276673 -0.08036395162 0.73284477 -0.1787500381 0.628125608 -0.5835214853
0.06266973913 -0.08502513915 0.7302956581 -0.4626902044 0.0366330184 -0.4739750922
0.05699235946 -0.08408711106 0.7362400889 -0.3637923002 -0.2171867937 -0.5136889815
0.0568238385 -0.08188609034 0.7304494977 -0.2834873796 0.542252779 -0.5426646471
0.04107592627 -0.07772345096 0.7403569221 0.08297413588 0.6501765251 -0.6891245842
0.04559730738 -0.08074200153 0.7366449833 0.006416880991 0.6437951922 -0.6655542254
0.0739338994 -0.08705804497 0.7177911997 -0.7306217551 0.4576255381 -0.4833400548
0.07399982214 -0.08932287991 0.723030448 -0.7456064224 0.1505540311 -0.4306510985
0.05075624585 -0.1743436456 0.7940269709 0.6420277953 -0.417311728 0.6361910701
0.05458218604 -0.1938000023 0.7733861804 0.744638443 -0.358163625 0.556830585
0.06872928888 -0.1679485887 0.7531828284 0.8652273417 -0.08947473764 0.1925364882
0.07070942968 -0.1666307896 0.7458972931 0.9114779234 0.03441463783 0.05217444152
0.07103220373 -0.1821036935 0.7524140477 0.9164355397 -0.1231848896 0.3041229546
0.06814324111 -0.1618098766 0.7521327734 0.8526131511 -0.05214917287 0.1197036728
0.06810689718 -0.1577883214 0.7475400567 0.8521611691 0.0190359354 -0.0006566283992
0.06916018575 -0.1511252522 0.7419407964 0.8778623939 0.1403723359 -0.1568850428
0.06634108722 -0.1585476696 0.7387858033 0.8095089197 0.06490128487 -0.1687124521
0.06669839472 -0.1685694605 0.7582877874 0.8177142739 -0.1880192161 0.2855292261
0.06759905815 -0.1498388499 0.7307899594 0.8402358294 0.2277970016 -0.3863135576
0.0659115538 -0.1756576002 0.7659415007 0.7982071042 -0.3275880516 0.4859819114
0.06652921438 -0.1646950841 0.7384870648 0.8009755611 0.004931376316 -0.09348083287
0.06699918211 -0.1790299118 0.7571750283 0.8022032976 -0.2855173349 0.4031865001
0.06666310132 -0.1732416153 0.7516000867 0.8011524081 -0.1847684234 0.2325312942
0.06734246761 -0.1558156461 0.7288375497 0.8327232599 0.2038637251 -0.3756378591
0.06660636514 -0.1510038674 0.725188911 0.8160341978 0.2557177544 -0.487662971
0.07072259486 -0.1779278219 0.7455961704 0.9093555808 -0.03439487144 0.1389894038
0.06959734857 -0.1552568823 0.7362967134 0.8867365122 0.1801569164 -0.2283597142
0.06716460735 -0.1618687809 0.7324380875 0.8215761185 0.1108074039 -0.243069917
0.06811767817 -0.1722873151 0.7418476343 0.8346623182 -0.04957513139 0.04598788917
0.05393074453 -0.2004639506 0.7719703913 0.7074469924 -0.3887475729 0.5776890516
0.05285800621 -0.2058578432 0.7732487321 0.6780939102 -0.3966733515 0.608052969
0.01127946191 -0.1703528911 0.8161566257 0.01610150374 -0.5032522082 0.8611319661
0.008018721826 -0.1663086116 0.8188338876 -0.03075337969 -0.4913821816 0.8677722216
0.0106046116 -0.1758379489 0.8134365678 0.01989163831 -0.5076083541 0.8591837883
0.001855682465 -0.1670570523 0.817063868 -0.1179887727 -0.4864803553 0.8628525138
-0.003417544067 -0.1697678715 0.8146427274 -0.1957416832 -0.5086820126 0.8360017538
0.04466075078 -0.1700147837 0.8037084341 0.5019296408 -0.4418048859 0.7407372594
0.03774045035 -0.1697716415 0.8075308204 0.4087233841 -0.4631323218 0.7787044048
0.03259778768 -0.1708414704 0.810644865 0.3411956131 -0.4783144593 0.8070902228
0.04499110207 -0.1747784764 0.7997874618 0.5296609402 -0.4629083574 0.7053663135
0.03958868235 -0.1759592146 0.8044394255 0.4277991652 -0.4859952927 0.7600728869
-0.01976555027 -0.1775677353 0.8012713194 -0.4969651997 -0.4865386188 0.7125496268
-0.04276815057 -0.1288923919 0.7410814166 -0.7279213071 0.4291079342 -0.5347750187
-0.03692602366 -0.1253488064 0.7355380654 -0.7073783278 0.4408206642 -0.5522381663
-0.03376879171 -0.1272458434 0.7293455601 -0.6981133223 0.4475854337 -0.5586316586
-0.007947642356 -0.1242548674 0.7088110447 -0.3275603056 0.5779257417 -0.7430812716
-0.00957951881 -0.1201022863 0.7129423618 -0.3495627046 0.5825610757 -0.7315631509
-0.004068110604 -0.1192117706 0.7108564377 -0.2663271427 0.5983769894 -0.7522805333
-0.01961971633 -0.1047523245 0.73082757 -0.5394811034 0.5185822845 -0.6607765555
-0.007024962921 -0.1028388739 0.7245131731 -0.3343630135 0.5817283392 -0.7384586334
-0.01302606426 -0.104896836 0.7261061072 -0.4271272123 0.5592318177 -0.7063549757
-0.02279083245 -0.1110465229 0.7304179668 -0.5800113678 0.4939956665 -0.6401653886
-0.02837847918 -0.1907210648 0.7838920951 -0.6723589897 -0.4134088755 0.6121830344
-0.03087564744 -0.1952858716 0.7759944797 -0.6926023364 -0.4060061872 0.5957632661
-0.01327853184 -0.2011903822 0.7889648676 -0.4311268926 -0.5234218836 0.732517004
-0.03178611398 -0.2006875873 0.7761295438 -0.6818961501 -0.4094234407 0.6057270765
-0.03889576718 -0.1885824353 0.7696589828 -0.7195483446 -0.3955616951 0.5705373287
-0.02607764862 -0.1993366182 0.7789229751 -0.6335462332 -0.4315437675 0.6312301755
-0.0219258666 -0.2026904225 0.7813336253 -0.5559948087 -0.4654006958 0.6747742295
-0.02705339529 -0.2045118809 0.7768477798 -0.6264014244 -0.4393531978 0.6415503621
-0.03596428782 -0.1965247691 0.7722625136 -0.7008035779 -0.4035824239 0.5878230333
-0.02479038574 -0.1835872382 0.7936114073 -0.5987362862 -0.4689675272 0.6478265524
-0.03232970461 -0.1742628515 0.7921957374 -0.6796503663 -0.4190341532 0.6018438935
-0.0281737484 -0.176847145 0.7948642969 -0.6336910725 -0.4499540627 0.6281831264
-0.02931788191 -0.1805971116 0.7901697755 -0.6688348055 -0.4236108661 0.610232234
-0.03455504775 -0.1772785038 0.7868258357 -0.7005729079 -0.4050070643 0.5871429443
-0.03742091358 -0.1770157963 0.7820621133 -0.7140907049 -0.3984412849 0.5754712224
-0.03767278418 -0.1816287786 0.778057158 -0.7233322263 -0.3888590932 0.57054919
-0.03305107728 -0.1872342974 0.7820674181 -0.7125122547 -0.3913398385 0.582359612
-0.03613083065 -0.1876105666 0.7765243053 -0.720257163 -0.3882487416 0.5747899413
-0.0003781078267 -0.2050098926 0.7918995023 -0.2048360556 -0.5501641631 0.8044054508
-0.000975751027 -0.1262697428 0.7046205401 -0.2110480964 0.5815737247 -0.78148669
-0.003536633914 -0.1354108602 0.6981024742 -0.2571612597 0.5248271227 -0.8095638752
-0.01024620328 -0.1323162615 0.7023899555 -0.3551106155 0.5204473138 -0.7704758644
-0.01230199076 -0.1367797703 0.6995067596 -0.3883885741 0.4668334126 -0.7909445763
-0.003620391944 -0.1334941983 0.705113709 -0.2755929828 0.5540804863 -0.7556077838
-0.01146639418 -0.1337883919 0.7074066997 -0.4057641327 0.5226476192 -0.7169750929
0.04267313704 -0.1296964139 0.7126358747 0.3802171648 0.5823174715 -0.7004694939
0.04480559751 -0.1355427206 0.7106794119 0.4744987786 0.4449539483 -0.7330254912
0.04522364587 -0.1257789135 0.7167133093 0.3679068387 0.6431825161 -0.6563817859
0.05151179433 -0.1405017525 0.7130329013 0.6427847147 0.3064718544 -0.6782591939
0.04948597774 -0.1253264546 0.7202407122 0.4298028052 0.6271640062 -0.6021438241
0.04838858917 -0.1319592744 0.7153323889 0.4815120697 0.4923000634 -0.6807919741
0.05488526449 -0.1365233809 0.7183841467 0.6684360504 0.3800994754 -0.5689439178
0.02462216094 -0.1279208362 0.70146662 0.170885697 0.6171066761 -0.7585950494
0.01781555265 -0.1248273328 0.7020988464 0.05509319901 0.6341466904 -0.7707638144
0.02695483528 -0.1373349577 0.6928018928 0.172531575 0.649443388 -0.7370971441
0.03131849691 -0.1358848512 0.6971464753 0.2144830525 0.6422786713 -0.7327219844
0.02174326219 -0.132315293 0.6955581903 0.100775063 0.6398476362 -0.7588409781
0.01773629896 -0.1364869475 0.6943981051 0.0313385427 0.6195030212 -0.7780845761
0.02296189964 -0.1156803966 0.7120236158 0.1869381517 0.604734838 -0.7709362507
-0.005516443402 -0.1133947447 0.7159671187 -0.2944280207 0.5959498882 -0.7461209893
-0.0119106276 -0.1168274283 0.7169970274 -0.3856503963 0.5769610405 -0.7181149721
-0.009709239006 -0.1110522002 0.7201373577 -0.373352319 0.5783648491 -0.7251306772
0.03962127492 -0.08225277811 0.7439677119 0.3102488518 0.564480722 -0.7558045387
0.04457808658 -0.07985942066 0.7474651337 0.3095015287 0.4513087869 -0.6875182986
0.03950092942 -0.08658502251 0.7400765419 0.2681569457 0.5599493384 -0.7836669087
0.04472951964 -0.08976527303 0.7411760688 0.3708835244 0.4765835404 -0.7920369506
0.05833385885 -0.09592738003 0.7500287294 0.6594349146 0.3226748705 -0.6709353328
0.0604641661 -0.1014744416 0.7496207356 0.7060136199 0.2925799489 -0.6393274069
0.05500174314 -0.09483665973 0.7451360822 0.6235663891 0.3056468368 -0.7193322778
0.0480038859 -0.08712159842 0.7457773089 0.4700045288 0.4701343775 -0.7420327067
0.06326405704 -0.08889390528 0.7436330914 -0.2535507083 -0.284303695 -0.4962100387
0.06371769309 -0.08721375465 0.7377355695 -0.5323290229 -0.4207954407 -0.5603202581
0.06781341881 -0.08825475723 0.7319373488 -0.6592874527 -0.2242512107 -0.4711429179
0.0693224147 -0.08504543453 0.7240584493 -0.6549013257 0.2867825925 -0.5128263831
0.03293159977 -0.07546685636 0.7444358468 0.2065416276 0.6454955935 -0.7349079251
0.02624939196 -0.08177214861 0.7378421426 0.2139367908 0.6258315444 -0.7490535378
0.0677497983 -0.1368597448 0.7134897709 0.1551468372 0.1744568646 -0.6244814992
0.07176952064 -0.1251614988 0.70675385 -0.5012713075 0.1408121735 -0.7126149535
0.06318422407 -0.1497832388 0.7210621834 0.777520895 0.2173089236 -0.5788467526
0.06412839144 -0.1451151818 0.7260344625 0.8222942948 0.2379480004 -0.4974116981
0.07006055862 -0.1441441774 0.7353324294 0.9010410905 0.2712527514 -0.3347966075
0.068342112 -0.1397698373 0.7243465781 0.5364869833 0.2578587532 -0.4871049523
0.0707969591 -0.1295668483 0.7099214792 -0.2670594156 0.1702841967 -0.6789188385
0.06673714519 -0.1451614499 0.7202919722 0.5730230212 0.2532513142 -0.5614611506
0.06785271317 -0.1243162304 0.7213603854 0.1136876047 0.2792408168 -0.6014708281
0.06495144218 -0.1289759427 0.7348620892 0.7724749446 0.3786394 -0.4656114876
0.07088518888 -0.1304585338 0.7194858193 0.0588866435 0.2113221139 -0.5593671203
0.06886851043 -0.1344115287 0.7296643257 0.5579006672 0.2827464044 -0.4529947042
0.06827831268 -0.1382871419 0.7356643081 0.8604043126 0.3125306964 -0.3764129281
0.07050164044 -0.1337912232 0.7242895961 0.3023206592 0.2333369106 -0.4959903955
0.0677010864 -0.1294447631 0.7274944186 0.4292465448 0.3003931344 -0.5127049088
0.0654520914 -0.1241123304 0.7280211449 0.4251697063 0.3482259214 -0.5569212437
0.06161478534 -0.1949430853 0.7637566924 0.7973486781 -0.3459009826 0.4941211641
0.05900801346 -0.1972508281 0.7687043548 0.7794779539 -0.3583841324 0.5127930641
0.06064875051 -0.1879532486 0.7698884606 0.8018860221 -0.3318484426 0.496791333
0.06253203005 -0.1880323738 0.7646801472 0.8023239374 -0.3352012634 0.4938493967
0.0265400596 -0.1686913073 0.8126456141 0.2505683899 -0.4830777049 0.8316387534
0.0279108379 -0.174326852 0.8094787002 0.2876113057 -0.5016004443 0.815156579
0.03412774205 -0.1780932099 0.8061249852 0.3683556318 -0.5036321282 0.7808195353
0.01948219724 -0.1745841056 0.8112290502 0.1607367694 -0.5108686686 0.8398854733
0.01700599119 -0.1707901657 0.8137483001 0.1137400419 -0.4969398975 0.8569244146
-0.008884982206 -0.1794228405 0.8074156642 -0.3011243939 -0.5292415619 0.7902502418
-0.01122777257 -0.182764262 0.8038607836 -0.3860103488 -0.5177806616 0.7564232349
-0.002932922216 -0.1827307194 0.8096604347 -0.2290641069 -0.529530704 0.8164409399
0.006271645892 -0.2001470029 0.7966172695 -0.07677878439 -0.5581508279 0.8234737515
-0.02067917399 -0.119861722 0.7211641669 -0.5399130583 0.5209041238 -0.6479818821
-0.02458261885 -0.1247888505 0.7199406028 -0.6200451255 0.4895156026 -0.6101012826
-0.02633876167 -0.1212916598 0.7245311737 -0.638984561 0.4827211201 -0.5977859497
-0.03110334277 -0.1319526434 0.7207999229 -0.6810138226 0.4450749159 -0.5808597207
-0.03048367426 -0.1265528351 0.724932909 -0.680151701 0.4607407153 -0.5695874095
-0.02460166998 -0.1300485581 0.715770185 -0.6177257299 0.4809164703 -0.621782124
-0.03804388642 -0.1385876536 0.7277188897 -0.7104457617 0.4210896194 -0.5636222363
-0.03482343629 -0.1347494572 0.7247537374 -0.6983375549 0.4356344938 -0.5679117441
-0.03659660369 -0.1325153261 0.7294670939 -0.7099581361 0.4318546653 -0.5558440685
-0.02802615985 -0.134594366 0.716114223 -0.6438954473 0.4596402943 -0.610319078
-0.02737092227 -0.1406205595 0.7119536996 -0.6330654621 0.453412354 -0.6272732615
-0.03538912162 -0.1402248442 0.7225400805 -0.6914582253 0.4315102696 -0.5786702633
0.01456645969 -0.1980402023 0.796854198 0.08671811223 -0.5549569726 0.8261643052
0.01210350823 -0.2026008368 0.7941197753 0.04440616816 -0.5632820725 0.8193117976
0.01360785123 -0.2094453424 0.7907770276 0.07048168033 -0.5654196739 0.8196770549
0.007214349229 -0.2070332319 0.7921372652 -0.05558139086 -0.5571551323 0.8250541687
0.01219606865 -0.1148901209 0.7117388248 -0.01922416314 0.6197455525 -0.7809659243
0.0007555779302 -0.1158275008 0.712777257 -0.1931681931 0.6089729071 -0.7659531832
-0.00220072805 -0.1091373414 0.7173259258 -0.2482177019 0.6024278998 -0.7574906945
0.005067232996 -0.1119036824 0.7146742344 -0.1292290241 0.6132047176 -0.7790777683
0.01095632929 -0.1057452336 0.7189133763 -0.03157455474 0.6037518382 -0.7921949029
0.005339145195 -0.1063556597 0.7189612985 -0.1313012838 0.608094275 -0.7824698687
0.04056132212 -0.115201883 0.7101300359 0.03574202582 0.4903274179 -0.7853661776
0.02950837277 -0.1164540574 0.7135249376 0.278332442 0.5834333301 -0.7608988285
0.04562800005 -0.113554962 0.7249364257 0.4854640961 0.5664489269 -0.6624959111
0.05087774247 -0.1136799604 0.7300293446 0.582813859 0.468806833 -0.6524845362
0.03565320373 -0.1186068878 0.7150987983 0.3329113722 0.5877706409 -0.7340983152
0.03864572197 -0.1121791825 0.7211396694 0.4168804586 0.5482147336 -0.724909246
0.04350167513 -0.1193657294 0.7189167738 0.3782638013 0.6232175827 -0.6809409261
0.04063600302 -0.1242476478 0.7141704559 0.3641479313 0.5973035097 -0.7139986753
0.056522239 -0.08452094346 0.7519975901 0.4501888752 0.2910440862 -0.6380392909
0.06702101231 -0.09284576029 0.7407386303 -0.3183634281 -0.4263929725 -0.3575924933
0.06556278467 -0.09716464579 0.7513179183 0.8298945427 0.3086495399 -0.3584469259
0.06697548181 -0.1002943963 0.7600770593 0.709184587 0.3240199089 -0.6215811372
0.06007047743 -0.08978536725 0.7504242659 0.7601501346 0.3644195199 -0.4446592033
0.04956929386 -0.0822673887 0.7496501803 0.4361049831 0.4340410829 -0.6746133566
0.05592998117 -0.08454083651 0.7452071309 -0.002370724222 -0.2000383139 -0.5754982233
0.05350706354 -0.08920018375 0.7483714223 0.5864722133 0.3799467683 -0.7080716491
-0.001918321126 -0.08642555028 0.7357035875 -0.2783479691 0.6163620353 -0.7320431471
0.00427753618 -0.08881108463 0.7318879366 -0.1612659097 0.6093708873 -0.7749097347
-0.0009102969198 -0.09325195849 0.7301186323 -0.2470824718 0.5923920274 -0.7617452145
-0.004787315615 -0.09065068513 0.7332811952 -0.3177149594 0.5977717042 -0.7347932458
0.006943251938 -0.1018042937 0.7221612334 -0.1111878529 0.6080315113 -0.783059299
0.005154078826 -0.0942190662 0.7278092504 -0.1492569447 0.6008683443 -0.7846075892
0.009897876531 -0.09764873236 0.7252625823 -0.06989812106 0.6028229594 -0.7902631164
0.01148429513 -0.08935432881 0.7310438752 -0.04605903476 0.6080286503 -0.7883485556
0.01468508877 -0.08143717796 0.736813724 -0.002141154837 0.6416673064 -0.7663571835
0.007796084508 -0.08257180452 0.7353345752 -0.1007005349 0.6324828863 -0.7659152746
0.01957981475 -0.08916136622 0.7316585779 0.09456343204 0.6086956859 -0.7819732428
0.02012329921 -0.08032470196 0.7380862236 0.08845940232 0.6490598917 -0.75265944
0.06569873542 -0.1276971698 0.7065807581 -0.1391112059 -0.1391093433 -0.8427829146
0.06329551339 -0.1218688339 0.7042710185 -0.3860383332 0.1505471021 -0.885147512
0.05305599794 -0.1346853375 0.7006340623 0.1089757383 0.1649866551 -0.8809991479
0.05709085986 -0.1307116002 0.7021675706 -0.06836265326 0.1422892213 -0.9111958742
0.04914467037 -0.1389720142 0.6994428635 0.3186940849 0.1518390328 -0.846873939
0.04511892796 -0.1388848871 0.6959230304 0.2221796215 0.4243386686 -0.8344175816
0.05663191155 -0.1234007031 0.7009949088 -0.2810177207 0.3368807435 -0.8400834799
0.07554650307 -0.1016929969 0.7314388752 -0.1522421837 0.2777677774 -0.4769151211
0.06790103763 -0.1111012548 0.7325485349 0.2980965078 0.323682338 -0.5395777822
0.07244399935 -0.1074268222 0.746367991 0.4280066788 0.2845512331 -0.5497450233
0.0688515082 -0.1112300307 0.7422223687 0.5114842057 0.3099450171 -0.5639099479
0.06549434364 -0.114463158 0.7359228134 0.522905767 0.3356601894 -0.5692065358
0.07194056362 -0.1057513431 0.7290981412 -0.01847325452 0.3017668724 -0.4970929921
0.07350815833 -0.1053402424 0.7403414249 0.2041111887 0.2829658389 -0.5217986703
0.06961721182 -0.1335982829 0.7404444814 0.8522304893 0.2835701108 -0.4131885171
0.06397605687 -0.1207247004 0.7382226586 0.7449595928 0.3390268385 -0.5641348362
0.06718695164 -0.1270288676 0.7400455475 0.8012185097 0.308083564 -0.4865262806
0.07012939453 -0.1151528731 0.7513463497 0.7699962854 0.2904598117 -0.5587317348
0.07003472745 -0.1285834014 0.7445867658 0.8393141627 0.2745645344 -0.4449153543
0.0663344264 -0.1172415763 0.747399509 0.7953221798 0.2279087007 -0.5502274632
0.06740153581 -0.1225293055 0.7457274795 0.818421483 0.2428722233 -0.5012793541
0.0591273047 -0.1172945201 0.7372828722 0.7535584569 0.3460376561 -0.5352343917
0.06372814626 -0.1770921946 0.7720847726 0.7944228053 -0.3373131752 0.5050579309
0.06337849051 -0.1822176576 0.7680778503 0.798944056 -0.3343125582 0.4998580813
0.02543507889 -0.1794257462 0.8073731065 0.2619792819 -0.5215297937 0.8116872311
0.03025860712 -0.1824877113 0.8044839501 0.3226980865 -0.5258693099 0.7838537097
0.02003161795 -0.1834460795 0.8071950078 0.1798005402 -0.5379992127 0.8193064332
-0.005467099138 -0.1840807945 0.8034312725 -0.2836019695 -0.5312098861 0.7781424522
-0.003481109394 -0.1917237937 0.8010440469 -0.2523091435 -0.5657327771 0.7839516401
0.001092343475 -0.195377782 0.7990264893 -0.1789679229 -0.5698990822 0.7990881801
0.004145550542 -0.1768933535 0.8107709289 -0.101500228 -0.5328642726 0.8176077604
0.0117583489 -0.1808283329 0.8083003163 0.03192296997 -0.5426976681 0.8264193535
0.007449752651 -0.1945960671 0.7995780706 -0.05896513909 -0.562659502 0.8192925453
0.004518981557 -0.18941769 0.8051708341 -0.09622143209 -0.5610839128 0.8205870986
0.003470759606 -0.1824108213 0.8107152581 -0.1007053778 -0.5306690931 0.8385210633
0.008171023801 -0.1856648773 0.808188796 -0.01850115135 -0.5446178913 0.834269464
0.01482047047 -0.1852763444 0.8053526878 0.113244921 -0.5479581356 0.8273797631
-0.01063222252 -0.1893819571 0.7991055846 -0.3720125258 -0.5461690426 0.7431828976
-0.01556770504 -0.1852868944 0.7992942333 -0.4572153687 -0.5216995478 0.7198697925
-0.02646319941 -0.1861265153 0.7888510227 -0.6484972239 -0.4338864386 0.622544229
-0.0191447679 -0.1872724891 0.7947958112 -0.5166258812 -0.5017994642 0.684389472
0.0109563591 -0.1890198141 0.8030635715 0.0250049904 -0.5525289178 0.8267213702
0.01692008413 -0.1912828237 0.8008343577 0.1390329897 -0.546846211 0.8234126568
0.02907426655 -0.2014684081 0.7903878093 0.3315879107 -0.5312677026 0.7762183547
0.03028132208 -0.2059173137 0.7870796323 0.3343665898 -0.5360822082 0.7715126872
0.0195304472 -0.2093435377 0.7900707126 0.1694883108 -0.5655780435 0.8029939532
0.02390347049 -0.2056446671 0.7907437682 0.2419550568 -0.5570958257 0.7942043543
0.01790812425 -0.2018009573 0.7936312556 0.1509483159 -0.5514674187 0.8168706298
0.04301274568 -0.2035544813 0.7815282941 0.561455965 -0.4389546216 0.6931288838
0.0474010855 -0.2041383833 0.778508842 0.6152404547 -0.4224755466 0.6638230085
0.04432531819 -0.1929915398 0.7882463336 0.549297452 -0.4670405388 0.6882104278
0.05042789876 -0.1905688196 0.7848030925 0.6666784286 -0.4166496396 0.6153792739
0.05003131926 -0.1981718093 0.7785632014 0.6898982525 -0.3825290501 0.6143752933
0.04751325026 -0.1968300641 0.7834150791 0.6168480515 -0.4288909435 0.6570614576
0.04638954997 -0.2100697458 0.7789447904 0.5787103772 -0.4535765052 0.6698944569
0.07054131478 -0.1097733676 0.7046973109 -0.701500535 0.3662925661 -0.5908414125
0.06906831264 -0.121813409 0.715180397 -0.1905159205 0.2381064743 -0.6642577648
0.0711055994 -0.1190955192 0.7107725143 -0.4455376863 0.2861641347 -0.58270818
0.07945819199 -0.1049893722 0.7052130103 -0.8582724929 0.3512181044 -0.3705873787
0.07636620104 -0.1103198677 0.7051616311 -0.833062768 0.3588660359 -0.4168055356
0.07467701286 -0.1027048081 0.7221943736 -0.3586877882 0.2954739928 -0.4572567046
0.07450745255 -0.109371148 0.7118682861 -0.6355044246 0.3368595541 -0.4505452812
0.07085324824 -0.1145936698 0.7158516049 -0.3255541027 0.3570745885 -0.4926855266
0.06946822256 -0.1114680842 0.7257142663 0.02333440259 0.33259359 -0.515544951
0.07320356369 -0.1148708835 0.7073400021 -0.6897377968 0.3669675887 -0.4606760144
0.075886935 -0.1041075289 0.7157510519 -0.6032823324 0.3085002303 -0.4390785992
0.07914432883 -0.097727485 0.7150220871 -0.8013986349 0.2796215117 -0.4038410187
0.06464410573 -0.1189855263 0.7297478914 0.4208731949 0.3974283338 -0.5375263095
0.06814848632 -0.1173078269 0.7205702066 -0.0347667709 0.3837122619 -0.5072883368
0.02133472823 -0.1080339402 0.717397511 0.145963937 0.593385756 -0.7884494662
0.01849683747 -0.1121085063 0.7139925957 0.09934609383 0.6086964607 -0.7818271518
0.02616615593 -0.1112400964 0.7163330317 0.2313204557 0.5862925053 -0.7729528546
0.03354159743 -0.1132726297 0.7179763913 0.3448801935 0.5658835173 -0.7428148985
0.06296787411 -0.1019687504 0.7100640535 -0.5246258378 0.4378772974 -0.6445186138
0.05763480067 -0.1070700064 0.7085832357 -0.3565365672 0.4237291813 -0.7062789798
0.05009447783 -0.1052058712 0.7129240632 -0.1742239445 0.4871580601 -0.6910629869
0.05544895306 -0.1023229435 0.7128237486 -0.3293367028 0.4807840288 -0.6543459892
0.04584902152 -0.1134263575 0.709703207 -0.06213957071 0.4553447068 -0.7850750089
0.06141709909 -0.1103677228 0.7053251266 -0.4644389451 0.3817844093 -0.7391975522
0.0512105301 -0.1149065197 0.7068835497 -0.2103820443 0.4161653221 -0.7967517972
0.05870290101 -0.117899932 0.7024642229 -0.4210808277 0.3563595712 -0.8231009245
0.04310566932 -0.1091342717 0.7129763365 0.02723738737 0.4947091937 -0.7407656312
0.04185345769 -0.1088257059 0.7252098918 0.4747197032 0.5314278007 -0.7001866102
0.06551269442 -0.1149081811 0.703594923 -0.5799689889 0.3913915455 -0.7116903067
0.05548600852 -0.1113834828 0.7370685339 0.6866089702 0.3227672279 -0.6376962066
0.05130853504 -0.1091998816 0.7331796885 0.6019616723 0.410474211 -0.6761935949
0.05434636772 -0.1063831747 0.7394602299 0.6743394136 0.3200222254 -0.6495132446
0.04631319642 -0.1073663458 0.7296578884 0.5374865532 0.4728406668 -0.693570137
0.07242489606 -0.1042162627 0.705401957 -0.7156680822 0.3703909218 -0.5604540706
0.06890503317 -0.09800621867 0.7101274133 -0.6942847967 0.4456641674 -0.5639660954
0.07576089352 -0.0998846963 0.7074290514 -0.7901185155 0.3906157911 -0.4528101087
0.07295620441 -0.09191031009 0.7132363915 -0.734901309 0.4322027862 -0.5209265351
0.05210983008 -0.1820247173 0.7890567183 0.6617026925 -0.4313016832 0.6118872166
0.05355543643 -0.1767852604 0.7897340655 0.6869569421 -0.4125645459 0.5976108313
0.05548599362 -0.1824418455 0.7836164236 0.7341511846 -0.38322559 0.55771631
0.0591570735 -0.1824664026 0.7790508866 0.7807794809 -0.3454212248 0.5191789269
0.05384534597 -0.1915794909 0.7794831395 0.7315046787 -0.378338486 0.5658494234
0.04762056097 -0.1809758544 0.7931293249 0.5916788578 -0.4688950777 0.6511356831
0.02324718237 -0.1903003603 0.8002967834 0.2316446304 -0.5402449965 0.8073704839
0.02256817371 -0.195677802 0.7981274128 0.2135653943 -0.5644723773 0.7954548597
0.01549754292 -0.1018882394 0.7218111753 0.04247487336 0.5981532335 -0.7995278835
0.02028528787 -0.09782364964 0.7256997824 0.1079297587 0.595042944 -0.7923363447
0.04966334626 -0.1021810025 0.7359720469 0.5423961282 0.3951064944 -0.7325743437
0.0528443791 -0.1007879525 0.7404114008 0.5614077449 0.3416877687 -0.740600884
0.04940627143 -0.09573023766 0.7404895425 0.4740585983 0.3897127807 -0.784619987
0.05929629877 -0.09226775914 0.719145596 -0.4096147418 0.5192395449 -0.5917952657
0.05392386392 -0.09380061179 0.7207713723 -0.2506070733 0.5278597474 -0.6277791262
0.04407014325 -0.09630534798 0.7239649892 0.04303434864 0.5455494523 -0.692330718
0.06686903536 -0.09192050248 0.7156021595 -0.6455776095 0.4959794283 -0.5496305823
0.04434412345 -0.1851423681 0.7939353585 0.5332791209 -0.5029467344 0.6787781119
0.04220941663 -0.1817764342 0.7989142537 0.4746359587 -0.4975850582 0.7238243222
0.03812811524 -0.1884031296 0.7966605425 0.4416009188 -0.5211638212 0.7296821475
0.03990245238 -0.193098262 0.7916392088 0.4716252685 -0.5005645156 0.7243840694
0.04109792039 -0.1981864572 0.7861138582 0.5143595934 -0.4700178206 0.709364593
0.03418965638 -0.2007823139 0.7882626653 0.4108381867 -0.5093157887 0.7526201606
0.03387727961 -0.2116405219 0.7847588658 0.3820349872 -0.5292869806 0.7457611561
0.03367057443 -0.1861272454 0.8003931642 0.3758091927 -0.5306289196 0.7558373809
0.02554038726 -0.1850004792 0.8039434552 0.2576693296 -0.545042634 0.7962496281
0.02918679081 -0.1909022182 0.8002087474 0.3329685628 -0.5518351793 0.763281703
0.03346784413 -0.1926695406 0.7955086231 0.3787347674 -0.5218185186 0.7611439228
0.02734604664 -0.1974131763 0.7952604294 0.2999241054 -0.5464108586 0.7790347338
0.01631498151 -0.09210550785 0.7274828553 0.03320194036 0.5982044935 -0.7955051064
0.02608438395 -0.09371088445 0.7297726274 0.2131236345 0.5888243914 -0.7784529328
0.0339522697 -0.09515893459 0.7309610248 0.3244013488 0.5612172484 -0.7576819062
0.0381546244 -0.1012135074 0.7287422419 0.409887284 0.539008379 -0.7271558642
0.03179514036 -0.1001957431 0.7273393273 0.3026840687 0.5645819306 -0.7529255152
0.0296073705 -0.08648522943 0.7356415987 0.2583405375 0.5875474811 -0.765699923
0.0352278091 -0.08791100234 0.7368196249 0.2830970287 0.5649830103 -0.7747487426
0.04082136601 -0.08694972098 0.7332541943 0.1208206117 0.6006581187 -0.7068603635
0.04784273729 -0.08607338369 0.7303031683 -0.04565194994 0.6340544224 -0.6415724754
0.03019445948 -0.1039975435 0.7224222422 0.2778202593 0.568751514 -0.7711120248
0.02556669153 -0.1009630635 0.7237612605 0.2035092264 0.5882905126 -0.7824566364
0.03985653818 -0.1014772654 0.722900331 0.1845069677 0.5427178144 -0.7274236679
0.04969616979 -0.09779728204 0.7202273607 -0.1327180117 0.5213350654 -0.6662125587
0.06118448451 -0.09739581496 0.7141472697 -0.5024196506 0.4898728132 -0.5960890651
0.03593356535 -0.1067141369 0.7191506624 0.2533760071 0.5476225615 -0.7426710129
0.04491056874 -0.1019196808 0.7201499939 0.03375856206 0.5273045897 -0.6989036202
0.03970759735 -0.09171594679 0.7362291217 0.3036950529 0.5342975855 -0.7867820859
0.06018544734 -0.08768256009 0.7228243947 -0.3123475313 0.6889864802 -0.523840487
0.04368503019 -0.09125369042 0.7291817069 0.1093825549 0.6042209268 -0.6769275665
0.05028355122 -0.09034801275 0.7260951996 -0.06064620987 0.6388992071 -0.6148762703
0.04199180007 -0.09799416363 0.7329890132 0.4021472037 0.486295104 -0.7669306993
