# .PCD v0.7 - Point Cloud Data file format
VERSION 0.7
FIELDS x y z normal_x normal_y normal_z
SIZE 4 4 4 4 4 4
TYPE F F F F F F
COUNT 1 1 1 1 1 1
WIDTH 512
HEIGHT 1
VIEWPOINT 0 0 0 1 0 0 0
POINTS 512
DATA ascii
0.06542348117 -0.07975256443 0.6363825202 0.3766899705 -0.5964241028 0.707863152
0.06487242132 -0.07327647507 0.6393373609 0.42547521 -0.587366879 0.6855341792
0.07070550323 -0.07804749906 0.6387796402 0.4596852362 -0.5903555155 0.6631190181
-0.003669936908 -0.1711087376 0.6927874684 0.2811748385 -0.616296351 0.7294790149
0.001939722337 -0.1709566116 0.691021502 0.3627668619 -0.6066961288 0.7035924792
0.06717734784 -0.08633960783 0.6364199519 0.3911396861 -0.6155402064 0.6803734899
0.06031435356 -0.0821877867 0.6336624026 0.278809011 -0.5889124274 0.7528089881
0.05668811128 -0.08657717705 0.6307590604 0.2280564159 -0.5940119028 0.769043982
0.06176310405 -0.08895156533 0.6336388588 0.3049156666 -0.6121653914 0.7267265916
-0.03001302853 -0.03382467851 0.6524839401 0.2658084631 -0.6683083177 0.686966002
-0.06051654369 -0.0435432978 0.6700782776 0.6009045839 -0.5510287285 0.5788863301
-0.02332050353 -0.1293163598 0.7246233225 -0.09877055138 -0.5909076333 0.7993132472
-0.02190109342 -0.120063588 0.7300803661 -0.09731217474 -0.5707894564 0.81306988
0.05698565766 -0.09201776981 0.6313716173 0.2137499154 -0.5676096678 0.7795926929
-0.05366495252 -0.03938313574 0.664542079 0.5645132065 -0.5676742792 0.5987903476
-0.04955294356 -0.03583066911 0.6638742685 0.5227285624 -0.5900204778 0.6134821177
-0.02944127098 -0.1403339952 0.7156970501 -0.1927735955 -0.6047962308 0.766992867
-0.0348376371 -0.1387953609 0.7158075571 -0.2892092764 -0.5928099751 0.7504684925
-0.01680826582 -0.1481907964 0.7089930773 0.008251325227 -0.6123734117 0.7740757465
-0.06824854016 -0.06990464032 0.6555995941 0.6527879834 -0.5145295262 0.5559538007
-0.06814065576 -0.06491839886 0.6601113677 0.654176116 -0.5170789957 0.5519687533
-0.06513299793 -0.06059163064 0.6579656601 0.6432299614 -0.5217112899 0.5603675246
-0.02733393945 -0.171099171 0.6928743124 -0.09018546343 -0.577696979 0.8062540889
-0.03685941175 -0.1676563472 0.6928901672 -0.2565491796 -0.5013496876 0.8058117628
-0.07048124075 -0.1393671036 0.6821032166 -0.8065858483 -0.2883592546 0.5152941942
-0.07213238627 -0.1505639106 0.6775330901 -0.7823033929 -0.2921638787 0.5497704744
-0.07295908034 -0.1459011286 0.6751098037 -0.8074633479 -0.2930215597 0.5114712119
-0.07320231199 -0.1404325366 0.6755693555 -0.8189803362 -0.2892664671 0.4948760569
-0.07995970547 -0.1338732243 0.663788259 -0.8304733038 -0.2873582542 0.4771625996
-0.07756214589 -0.1383965164 0.6678078771 -0.8237839341 -0.2900883555 0.4868325293
-0.04015017673 -0.1569018364 0.6986458898 -0.3364285827 -0.4896469414 0.8005945086
-0.04379066452 -0.1521663964 0.6997329593 -0.4105488062 -0.4683997631 0.7741297483
-0.0356981419 -0.1659330279 0.699128449 -0.2437866181 -0.5336437225 0.8088179231
-0.04317219555 -0.1619493514 0.6972980499 -0.3285709918 -0.4738139808 0.8158370852
-0.04277579114 -0.1695797145 0.6941863894 -0.3015908301 -0.4767752588 0.8242711425
-0.04865648597 -0.1687761694 0.6923500896 -0.4306721687 -0.4383184612 0.7848667502
-0.03899035975 -0.1423929632 0.7117632031 -0.3498556614 -0.5857999921 0.7295363545
-0.02191215754 -0.1445224285 0.7137098908 -0.08174453676 -0.6137751341 0.7821637988
-0.02292088978 -0.1388766319 0.7175853848 -0.08280504495 -0.6152804494 0.7825544477
-0.01582276262 -0.143944189 0.715210855 0.01405858435 -0.6129571795 0.7892953157
-0.009204784408 -0.1445470452 0.7121652961 0.1152581051 -0.6157209873 0.7717455626
-0.007803278044 -0.1287985593 0.7272285223 0.1263160706 -0.5875126719 0.7976375222
-0.01398721803 -0.1645528823 0.6999658346 0.06862959266 -0.6088005304 0.7881970406
-0.005917596165 -0.1653896123 0.6973462105 0.227607578 -0.6134710312 0.7530194521
-0.008668571711 -0.1615797728 0.6998640895 0.1685110629 -0.612544775 0.7667673826
-0.0234265402 -0.1678772718 0.6987169981 -0.05568761006 -0.580022037 0.8004983664
-0.0122478446 -0.1686009318 0.6961398721 0.1349652112 -0.6175740361 0.7718142867
-0.03687799722 -0.1526182145 0.7033859491 -0.3140886128 -0.5320401192 0.7833687067
-0.04237405583 -0.148291558 0.70532763 -0.3632969856 -0.5236672163 0.7668267488
-0.0430024974 -0.1435877532 0.708480835 -0.3930199742 -0.5612533092 0.7267097235
-0.03302098438 -0.1497280598 0.7078393102 -0.2642316818 -0.5650970936 0.7772223353
-0.03276658058 -0.144503817 0.712315321 -0.2666034698 -0.5956196189 0.7540852427
-0.02663958073 -0.1474525928 0.7111505866 -0.1585642248 -0.6074936986 0.7721869349
0.02874558233 -0.07849398255 0.6434800625 -0.6898694634 -0.4527509809 0.5599852204
-0.04442298412 -0.1255666763 0.7203770876 -0.4264388382 -0.5326474905 0.7236502171
-0.04780484736 -0.1165516973 0.7255341411 -0.4346129596 -0.5031999946 0.7423808575
-0.04393872246 -0.1214031279 0.7254230976 -0.4104540348 -0.5192312002 0.7481597662
-0.04008359462 -0.1176301092 0.7293228507 -0.345010519 -0.5161793232 0.7806839347
-0.03903795034 -0.1232781261 0.7265282273 -0.341504842 -0.5331068635 0.7687471509
-0.03207019344 -0.1186361536 0.7307351232 -0.2369451374 -0.535792768 0.8052335382
0.04007395729 -0.07909204066 0.6350741982 -0.1678884327 -0.5222216845 0.6863840818
0.04535349831 -0.08230899274 0.632637918 -0.01600968838 -0.5531371236 0.7198899388
0.04924315959 -0.08636394143 0.6295992732 0.1015073285 -0.5810644627 0.7543705106
0.0522794351 -0.08191430569 0.6328485012 0.167834416 -0.5795859694 0.7370150685
0.02587949857 -0.08178261667 0.6373388171 -0.6262982488 -0.4884631038 0.6052260399
0.03487933055 -0.08386462927 0.630248785 -0.2459834814 -0.5226441622 0.7019569278
0.03068810701 -0.08023751527 0.6343321204 -0.4147971869 -0.488274008 0.666736722
0.02348955348 -0.08092243224 0.6316386461 -0.5301917195 -0.4725834727 0.6545211077
-0.05447939411 -0.08103194088 0.6270104051 0.5496819615 -0.5254065394 0.6489824653
-0.04056023806 -0.08966733515 0.6126700044 0.3653511703 -0.5918657184 0.7158469558
-0.04361093044 -0.08633876592 0.6159743071 0.417586863 -0.555328548 0.718001008
-0.06605323404 -0.08952753246 0.633326292 0.6162199974 -0.5132288933 0.5972139239
-0.06454209238 -0.0840722993 0.6370483041 0.6262452602 -0.5179519653 0.5825471282
0.02213104255 -0.04155658185 0.6609715819 -0.5494212508 -0.5039765835 0.6620004773
0.0154725844 -0.03890153021 0.6567754149 -0.4859967828 -0.5533047915 0.6742783189
-0.06193187833 -0.1421403885 0.6935747266 -0.6665594578 -0.3826378584 0.6379626989
-0.06725723296 -0.1388765424 0.6881707311 -0.7511689663 -0.3180362582 0.5743772388
-0.06497959048 -0.1440898925 0.6888646483 -0.7054057121 -0.3327865005 0.6232886314
-0.05135160685 -0.1369848549 0.7079009414 -0.5283716321 -0.5145053864 0.6721679568
-0.04757450148 -0.1401533186 0.7063103318 -0.4992814958 -0.5254215598 0.6868532896
-0.05238942802 -0.1406895816 0.7018786669 -0.5499976873 -0.4898636937 0.6669203639
-0.05751352385 -0.1380610913 0.7001950145 -0.6217467785 -0.4598852098 0.6326944232
-0.05576849356 -0.1431932598 0.6976585984 -0.5898535252 -0.4355660081 0.6736600399
-0.05215319246 -0.1473802328 0.6977479458 -0.5336313248 -0.4324840307 0.7221956253
-0.04805951938 -0.145411402 0.7025271058 -0.4676306248 -0.5119685531 0.7156109214
-0.0458143577 -0.1298059225 0.7160351276 -0.4600820541 -0.5391524434 0.7004896998
-0.04470763355 -0.1382118911 0.7119572163 -0.4338795543 -0.5614040494 0.7013038993
-0.04863530025 -0.1336791813 0.7127788067 -0.5011091232 -0.5329646468 0.6794167161
-0.002724759979 -0.1233932748 0.7279080153 0.1934131533 -0.565128684 0.7953317761
-0.009232733399 -0.1193606779 0.7317032218 0.09510470182 -0.5651888251 0.815340817
0.004396247678 -0.1266364306 0.7228935361 0.3093697727 -0.5616227388 0.7669315338
0.02792004682 -0.1028574929 0.6276789308 -0.4311523438 -0.4530051947 0.7768141031
-0.00275550643 -0.1558387429 0.7032488585 0.260535121 -0.5950140357 0.7578737736
-0.02704266645 -0.09376942366 0.6002821326 0.07390773296 -0.6382194757 0.7548698187
-0.03744451329 -0.09269294888 0.6069970727 0.2864182889 -0.5978887677 0.7354326844
-0.04581191391 -0.03569099307 0.6597632766 0.5101672411 -0.5874432325 0.6277204752
-0.02486135252 -0.06167274341 0.6281599998 0.1145770773 -0.6090456247 0.7820782065
-0.0190877337 -0.06429837644 0.6261540055 -0.001026100013 -0.6016320586 0.7953848243
-0.01512566116 -0.06841217726 0.6237148643 -0.07706108689 -0.5980539918 0.7966295481
-0.02043820731 -0.06962379068 0.6226463914 0.02548043616 -0.6035622358 0.7908281684
-0.06428150833 -0.05623832345 0.6633124948 0.645914197 -0.5231860876 0.5558986664
-0.06027498841 -0.05384387821 0.6603317857 0.6401191354 -0.526948154 0.5590247512
-0.05561615527 -0.05808981881 0.6483476758 0.6109368205 -0.5297381878 0.5876576304
-0.05803976581 -0.05631970987 0.6535704732 0.6207972169 -0.528996706 0.5779049397
-0.03129012138 -0.1535824537 0.7045618296 -0.2224229872 -0.5523123741 0.7985656857
-0.03136598691 -0.1591376215 0.7010858059 -0.2105822563 -0.5326017737 0.8183320761
-0.0261270497 -0.1601884663 0.701079905 -0.1237508059 -0.5742762089 0.8047367334
-0.02922086604 -0.166197136 0.6990850568 -0.1425577253 -0.5657001734 0.8091285229
-0.02272788063 -0.1513122767 0.7073221803 -0.06585174054 -0.6039917469 0.7900764942
-0.01654529013 -0.154071793 0.7069166899 0.01896017976 -0.5990413427 0.7983359694
-0.008052171208 -0.1570444256 0.7032902241 0.1703566909 -0.5993124843 0.7783008218
-0.01357149519 -0.1583635509 0.7029715776 0.07872464508 -0.5986363888 0.7901519537
-0.02406013571 -0.1562243253 0.7044724226 -0.1038745791 -0.574328661 0.8110078573
-0.004015706014 -0.147551477 0.7095558643 0.1967950612 -0.6152266264 0.7632409334
-0.0107299462 -0.1492596716 0.7107923031 0.1042708755 -0.6124792695 0.7816479802
-0.01097091567 -0.1537491679 0.7073988318 0.1072644517 -0.6071033478 0.7859882116
-0.03820312768 -0.06736451387 0.6276398301 0.3443219066 -0.5955109596 0.7231908441
-0.04376324639 -0.06639520079 0.6315264702 0.437970072 -0.5829898119 0.6832569838
0.01478725113 -0.05923709273 0.6419360042 -0.5036126375 -0.4914622605 0.710326314
0.01674522273 -0.06440087408 0.6404392123 -0.5389076471 -0.477514565 0.6921434999
0.005443640519 -0.05967884138 0.6357001662 -0.3661528826 -0.5560495257 0.7437599897
0.01093752868 -0.06184953079 0.638037324 -0.4488327801 -0.5179908872 0.7212901711
0.008684106171 -0.06449298561 0.6342816353 -0.4314551353 -0.5287251472 0.7269217968
0.02045563981 -0.04509390518 0.6570786238 -0.5380878448 -0.4842870533 0.6863569617
0.0271131061 -0.05026540905 0.6609283686 -0.5940213203 -0.4029744267 0.6931884289
0.03430297598 -0.05026481673 0.6684678793 -0.4782412052 -0.2530112565 0.8024858832
0.008316680789 -0.05563895404 0.6404720545 -0.3993846178 -0.5383346677 0.7376482487
0.01553771179 -0.04459230602 0.6525605321 -0.4949704707 -0.5133145452 0.7009800673
0.02069232427 -0.05151065066 0.6511153579 -0.5702491999 -0.4609244168 0.6791476011
0.01452400628 -0.04890681803 0.6492352486 -0.4894497693 -0.5119569302 0.7043391466
0.02316233143 -0.05115024 0.6564588547 -0.563247323 -0.4350981116 0.6954485774
-0.06363146752 -0.1196966171 0.7087751627 -0.6729582548 -0.4343369901 0.5980749726
-0.05388345569 -0.1181974038 0.7177935243 -0.5683577061 -0.4818625748 0.6625447869
-0.05909821764 -0.1179403886 0.7121732235 -0.6368043423 -0.4492855966 0.6213902831
-0.064881064 -0.06510902196 0.653595686 0.6429443359 -0.5217149854 0.5607412457
-0.0615920797 -0.06017861515 0.6536397338 0.6387879252 -0.5213944316 0.565757215
-0.06280146539 -0.06760250777 0.64864254 0.6359655857 -0.5251389742 0.565461576
-0.05070978403 -0.1621927917 0.6928812265 -0.4702122808 -0.4154349267 0.7760907412
-0.04634131864 -0.1572119892 0.6961919665 -0.406013906 -0.4486708939 0.7957529426
-0.05240856856 -0.153676182 0.6945105195 -0.5348190665 -0.4035436213 0.7408986092
-0.05031628534 -0.08385485411 0.6217103004 0.4900149107 -0.5342630744 0.6862036586
-0.05445957556 -0.07628533989 0.6314390302 0.5628982782 -0.5372489095 0.6272463202
-0.05906167999 -0.08017735928 0.6331291795 0.6004363298 -0.5224097371 0.6049898267
-0.05938475952 -0.07501609623 0.6383139491 0.615711391 -0.5217576623 0.5897154808
-0.05440776795 -0.07072149962 0.6365762353 0.5653182268 -0.5441831946 0.6189337969
-0.07074827701 -0.133141458 0.6890463829 -0.7924603224 -0.309332937 0.525413096
-0.06102273613 -0.1497374773 0.6890006065 -0.6566002965 -0.3460602462 0.66213727
-0.06876201928 -0.1470003128 0.6795179248 -0.7854112983 -0.2965441346 0.5395398736
-0.05762106925 -0.1474744529 0.6941635609 -0.6088975072 -0.3971569836 0.6844118834
-0.05511287972 -0.158875078 0.6893953681 -0.5558130145 -0.3835911453 0.7293792963
-0.01451710425 -0.1188937053 0.7320976853 0.01729466394 -0.5650954247 0.8185160756
-0.0188578777 -0.1255517602 0.7291174531 -0.03430432081 -0.5825374126 0.8082602024
-0.02550220303 -0.1254981756 0.7281908989 -0.1381773204 -0.5810485482 0.8019723296
-0.03576526418 -0.1340977699 0.7192570567 -0.2869367301 -0.5904832482 0.7522395849
-0.04046229273 -0.1346098781 0.7173703313 -0.3654019237 -0.5747288465 0.7313248515
-0.03551552072 -0.129171744 0.7236946225 -0.2733024061 -0.5656683445 0.7769584656
-0.009281960316 -0.141507104 0.7168608904 0.1176392734 -0.6081172228 0.7812301517
0.01744752936 -0.1654960066 0.6830680966 0.6325235963 -0.4995265007 0.5801382661
0.01110563427 -0.166627273 0.6857680678 0.5543815494 -0.5321834683 0.6322069168
0.02320020646 -0.1607093811 0.6804021001 0.6981294751 -0.4868263304 0.5247160196
0.02400870621 -0.1536489427 0.6837896705 0.7062715888 -0.4774194658 0.5222473741
0.02145072259 -0.1496000886 0.6901257038 0.6780544519 -0.4868324995 0.5494821668
0.01268142369 -0.1606179178 0.6879115105 0.5734838247 -0.5250769258 0.6241831779
0.05367441103 -0.09647987783 0.6323466301 0.1825256944 -0.5841693282 0.785702765
0.04870846868 -0.1001464427 0.6326924562 0.09616916627 -0.6392915845 0.7479603291
0.03405211866 -0.149426803 0.6707770228 0.750243485 -0.452636838 0.4702431858
0.03639717773 -0.1441784799 0.6689317226 0.7290555835 -0.4686806202 0.4939087629
0.03878690302 -0.1484934837 0.6639623046 0.8146496415 -0.4034978449 0.4004690945
-0.000913766562 -0.07287442684 0.6234371066 -0.297085017 -0.5649763942 0.7672472596
0.005599523429 -0.07317690551 0.6256812215 -0.387031436 -0.5424312949 0.7450346947
0.003192432225 -0.06821087748 0.6282216311 -0.3525898457 -0.5539034605 0.7537748814
-0.04578062519 -0.09138841182 0.6130321622 0.4378331304 -0.5432149768 0.712213099
-0.05019891262 -0.08898811787 0.6175097823 0.5026180744 -0.5175794363 0.6915534139
0.03044290841 -0.1085849851 0.6292337179 -0.3676230907 -0.4953107238 0.7839739323
-0.02128102444 -0.09354895353 0.5998446345 -0.02963329852 -0.6361907125 0.7646477818
-0.01138664596 -0.0935138464 0.6040367484 -0.2154031545 -0.5838116407 0.7628201842
-0.007400154136 -0.09107304364 0.6075047851 -0.2464687973 -0.5952609181 0.7571837306
-0.02987222746 -0.09204801917 0.6087171435 0.1772892624 -0.6245138645 0.7330065966
-0.02128401771 -0.09164472669 0.6071215868 0.02486254461 -0.6328344345 0.7535973787
-0.03534167632 -0.08946546912 0.6107353568 0.2717382312 -0.6240013838 0.7249990106
-0.04460918531 -0.0598792471 0.6382713318 0.4637579918 -0.570871532 0.6764517426
-0.04170660675 -0.054648377 0.6411300898 0.4187762141 -0.5762682557 0.7001783252
-0.03404763713 -0.03714356944 0.6508101225 0.3259650171 -0.6373608708 0.6965326071
-0.03628817201 -0.04197239503 0.6477012038 0.3377168775 -0.6214199066 0.7053840756
-0.03093597665 -0.04365721717 0.6432275176 0.2468666732 -0.6264725327 0.7380163074
-0.01609217376 -0.03625879437 0.6483725309 -0.005185118411 -0.6797184348 0.7318828106
-0.02438740991 -0.03524011001 0.6491676569 0.1567587107 -0.672416687 0.7216555476
-0.02098326385 -0.03936146945 0.6460211873 0.08228138089 -0.6575686336 0.743516326
-0.01559770107 -0.04113234207 0.6445581913 -0.03777053207 -0.6465382576 0.7600349784
-0.02496742643 -0.04218769073 0.6438810825 0.1523966342 -0.6374053955 0.7548758388
-0.04568312317 -0.0402655378 0.6553762555 0.5135124922 -0.5781212449 0.6335191727
-0.05112835765 -0.04310168326 0.6589096189 0.5495555401 -0.5698210597 0.6086053252
0.0282211788 -0.07203286886 0.647141695 -0.7156313658 -0.3852850795 0.5805040002
0.02721287869 -0.07337429374 0.6395869851 -0.5234568119 -0.4560953379 0.6463728547
0.03714603931 -0.07566978782 0.6376940608 -0.2545102835 -0.5012016296 0.6705364585
0.05319326743 -0.07724872231 0.6362863183 0.176926136 -0.5690562129 0.7133604884
0.04406656697 -0.07544977963 0.6377851963 -0.06974031031 -0.5283426642 0.6906070113
0.02313377894 -0.06824301183 0.6438904405 -0.63406533 -0.4240214229 0.6429802775
0.05691815913 -0.06515281647 0.6455779076 0.296434164 -0.5295115113 0.6542184353
0.05145717412 -0.06334779412 0.6475491524 0.188128978 -0.4673921168 0.6811831594
0.04298999533 -0.06439332664 0.646630764 -0.06614837795 -0.4598479271 0.6679954529
0.05358685181 -0.07095775753 0.6410866976 0.1891491115 -0.5491936207 0.6846420169
0.06093344092 -0.06790641695 0.6432849169 0.3937298954 -0.5636627674 0.6631928086
0.04130252823 -0.07062205672 0.6415424943 -0.148168847 -0.5044338703 0.6820901632
0.0494915545 -0.0736541748 0.6391049623 0.07423511147 -0.5448927879 0.7036315203
0.03676418215 -0.06825266033 0.6434168816 -0.2708212733 -0.4794058502 0.6652843356
0.05951832235 -0.07646949589 0.6368020773 0.3473361135 -0.5910379291 0.7236682773
0.04810549319 -0.068379879 0.643134892 0.04076245055 -0.5200386047 0.6663494706
0.02000273764 -0.06963936239 0.6392897367 -0.5928851366 -0.4524010122 0.6637318134
0.02243404277 -0.07524724305 0.6377574205 -0.6315618753 -0.4458901584 0.6335789561
0.01384231914 -0.06713854522 0.6356762052 -0.5174428821 -0.4958335757 0.6972977519
0.01755170152 -0.0738626346 0.6340097785 -0.5696065426 -0.4755399227 0.6678060293
0.01645234413 -0.05326876417 0.6470285058 -0.51583004 -0.483407408 0.706086278
0.02163949236 -0.0573810488 0.6487372518 -0.609226346 -0.4396307766 0.6599335074
0.02440593019 -0.06271045655 0.6485309601 -0.6497498155 -0.4070376158 0.6397094131
0.03248534724 -0.06393692642 0.6470885277 -0.346590519 -0.4184653461 0.6724233627
0.03906144202 -0.06036065891 0.6492047906 -0.1164279729 -0.4175445437 0.6932644844
0.03673451394 -0.06193572655 0.6690412164 -0.2039764374 -0.2666172683 0.899621129
0.0379078351 -0.0566627495 0.671202898 -0.2568683922 -0.1299437284 0.9378523231
0.03497132659 -0.08275315166 0.6496126056 -0.5662024021 -0.5963972807 0.5486934185
-0.05743953213 -0.1295610964 0.707443893 -0.6431646347 -0.4631166458 0.607801497
-0.05557119101 -0.1344739646 0.705180347 -0.6000548005 -0.4870731235 0.6337650418
-0.06166683137 -0.07280735672 0.6436439753 0.6282765865 -0.5208163261 0.5777959824
-0.05722130835 -0.06611734629 0.6436236501 0.6110462546 -0.5343105793 0.583820343
-0.06589218974 -0.07217993587 0.648516655 0.6398366094 -0.5181522369 0.567430377
-0.06851737946 -0.1282548904 0.6935670972 -0.7601473927 -0.3680058122 0.5333954692
-0.07102708519 -0.1211294681 0.6940214634 -0.7752410769 -0.3635266423 0.5146776438
-0.06775118411 -0.1210971847 0.7004595995 -0.7306857705 -0.3921857178 0.554952383
-0.07209911942 -0.132540673 0.6840161681 -0.8220095634 -0.2839309871 0.4932325184
-0.07202621549 -0.125991866 0.689142108 -0.8047110438 -0.3266393542 0.4946702719
-0.05994354188 -0.1554838568 0.6902868152 -0.6033964157 -0.3759402037 0.701985836
-0.05432792753 -0.1672116816 0.6897761226 -0.519595921 -0.4006110132 0.7514974475
-0.05917446688 -0.1627691537 0.6880964041 -0.5753180385 -0.3650534153 0.729885757
-0.06419759244 -0.1589300632 0.6849383712 -0.6483827829 -0.3382766843 0.6760143042
-0.06618355215 -0.1499410421 0.6868495345 -0.7023043633 -0.3233014345 0.6233509779
-0.06903391331 -0.1535820812 0.6824101806 -0.7383577824 -0.3077132702 0.5930025578
-0.06995667517 -0.1450127661 0.6850434542 -0.7723104954 -0.2972118258 0.5588487387
0.01166481432 -0.07215411961 0.6305160522 -0.4797977805 -0.5143092871 0.7083085775
-0.03796387091 -0.07954993099 0.6182209849 0.3251768053 -0.5805591345 0.7418714762
-0.04444740713 -0.0815525651 0.6198579073 0.416582197 -0.5592582226 0.7143005729
-0.03573283926 -0.0723394677 0.6228552461 0.2859159708 -0.597422421 0.7492029667
-0.03292408958 -0.07702402025 0.6176461577 0.2495800406 -0.5986001492 0.7604823112
-0.03076428361 -0.06860198081 0.6244938374 0.2183564454 -0.6032181978 0.7623966932
0.01848543435 -0.1372350901 0.7048071623 0.6017668843 -0.5303339958 0.5965199471
0.02094394341 -0.1397272199 0.6988479495 0.649716258 -0.5004405379 0.5696794987
0.02291073091 -0.1348421723 0.7013361454 0.6533901691 -0.4946004152 0.5728351474
-0.001360425144 -0.1346507668 0.7200391293 0.2482118309 -0.5950474739 0.7615475655
-0.007802895736 -0.1362046301 0.7190825343 0.1453683674 -0.6039159894 0.7693903446
-0.01354904473 -0.1351898909 0.7217260003 0.04678039625 -0.604357481 0.7935741544
-0.01540773921 -0.1394294053 0.7184745669 0.01830599457 -0.6103854775 0.7917208672
-0.005050090142 -0.1325565279 0.7238146067 0.1760083288 -0.5899515748 0.787522614
-0.002766428981 -0.1272235662 0.7237524986 0.2205825299 -0.5740007758 0.7733777761
-0.01357468497 -0.1239892393 0.7276224494 0.02289973758 -0.5852116346 0.8065869212
-0.020721782 -0.1336740553 0.7223989367 -0.05413656682 -0.6009188294 0.7943088412
-0.01693227887 -0.1303307414 0.7243202925 -0.01173253637 -0.5970586538 0.8000174165
0.03025336191 -0.1555841714 0.6718878746 0.7041326761 -0.4907037318 0.5132175684
0.01993784308 -0.1441328973 0.695674181 0.6529664993 -0.5016956329 0.5635589361
0.01552600972 -0.1538762301 0.6920211315 0.614751339 -0.513866365 0.597165525
0.0183432512 -0.1553249806 0.6866412163 0.6546176076 -0.4915338755 0.5733199716
0.001351839863 -0.1596824229 0.6998057365 0.3509012461 -0.5891651511 0.7265408635
0.01181335002 -0.1534323245 0.696778059 0.5385299921 -0.544105947 0.6403702497
0.01179407071 -0.157728374 0.6927924156 0.5450183153 -0.5349288583 0.6395765543
-0.01941949688 -0.1633662879 0.7006724477 -0.01515289675 -0.5945923328 0.7991187572
-0.03320480138 -0.1706426889 0.6976164579 -0.1849719733 -0.5494093895 0.8110494018
-0.02077576704 -0.1711600274 0.6936728954 0.002679921687 -0.6012690663 0.7951990962
-0.03610298783 -0.1602662355 0.6978859305 -0.2613906264 -0.5137547851 0.8115136027
0.03470658883 -0.08772665262 0.6458005905 -0.472181201 -0.6633780003 0.5715759993
0.0297087878 -0.08520528674 0.6404004097 -0.5692198277 -0.573607862 0.5815439224
0.04452150315 -0.1039973199 0.6339306235 0.03462013602 -0.7254620194 0.6774564981
0.03199141845 -0.1042847484 0.6339550614 -0.2877078652 -0.6142100692 0.7078465223
0.03373108804 -0.09889364243 0.6385296583 -0.3127328753 -0.6548553109 0.6693755388
-0.011318353 -0.08605927974 0.610461235 -0.1620381027 -0.631621182 0.7574375868
-0.02142520808 -0.08465142548 0.6084038019 0.01359888725 -0.6398145556 0.7627483606
-0.0209775921 -0.08844005316 0.6025410295 0.01338071283 -0.637054503 0.7689017057
-0.0002678996534 -0.09370881319 0.6079251766 -0.3715937436 -0.5177463889 0.7700122595
-0.01224161312 -0.07314258069 0.6207365394 -0.1337155998 -0.5945195556 0.7907307744
-0.008931670338 -0.07764645666 0.6179932952 -0.1862468272 -0.596527338 0.778036356
0.03139013052 -0.1365458071 0.6867651343 0.7293769121 -0.453900516 0.5117685199
0.0273752939 -0.1372584701 0.6923648715 0.6952133179 -0.4808601141 0.5327973962
0.02483639307 -0.1443798691 0.6887461543 0.7068200707 -0.4755849838 0.5230149031
0.004031747114 -0.1392627656 0.714245379 0.3538045585 -0.589224875 0.7243793011
-0.00199873629 -0.1400548518 0.7162455916 0.2369781584 -0.6112523079 0.7513824105
0.008374060504 -0.143290475 0.7075083852 0.4460376203 -0.5706368685 0.6820499897
0.01279866137 -0.1392076463 0.7077661753 0.5140544176 -0.5533049703 0.6450270414
0.002206075005 -0.1446663737 0.7102108002 0.3272538483 -0.5947639942 0.7295851707
-0.0009211321594 -0.1499125063 0.7061834335 0.2691716552 -0.5977499485 0.7487120628
0.008562681265 -0.1486923993 0.7020955682 0.4762079418 -0.5563782454 0.6679424047
0.01489987504 -0.1479910463 0.6972196698 0.6043335199 -0.5219587088 0.5911138058
0.004517654423 -0.1521074027 0.7027235031 0.41175282 -0.5623491406 0.7167432904
0.0135984784 -0.144735232 0.7027712464 0.557250917 -0.55040133 0.6187787652
-0.01604501158 -0.08760782331 0.6080578566 -0.06895168871 -0.6483127475 0.7578404546
-0.0270134788 -0.08912755549 0.6052661538 0.1262571514 -0.6312583685 0.7633464336
-0.02906347439 -0.08524198085 0.6099641919 0.1662592888 -0.6367863417 0.74843961
-0.01369641442 -0.04821101204 0.6384885907 -0.07250417769 -0.6227206588 0.7773941159
-0.001362238545 -0.05381210893 0.6375398636 -0.2691554129 -0.5828448534 0.7653513551
-0.004921012558 -0.0479539521 0.6400508881 -0.208734557 -0.6040384769 0.7664975524
-1.201250234e-05 -0.04920902848 0.6418805718 -0.2843832076 -0.5825530887 0.7599086761
-0.00880918093 -0.05138666555 0.6378053427 -0.1497677863 -0.6003813148 0.7773675919
-0.01606580056 -0.05365631729 0.6340293884 -0.03994893283 -0.6130267978 0.7886871099
-0.01279264968 -0.06246486306 0.6284777522 -0.09959324449 -0.5952347517 0.7938529849
-0.006206402089 -0.05612538382 0.6340503693 -0.2035051137 -0.5931482315 0.7764766216
-0.003848744789 -0.06016500667 0.6317284703 -0.2434241623 -0.5834596157 0.7744848132
-0.01125401352 -0.057655029 0.6316874027 -0.1275134236 -0.5975756645 0.7842770219
-0.006476021837 -0.06418887526 0.6278298497 -0.2020347863 -0.5824665427 0.7856250405
-0.01822826453 -0.04574437812 0.6407768726 0.009594368748 -0.6276715398 0.7726505995
-0.02061010711 -0.05079811811 0.6361077428 0.05287057906 -0.6228037477 0.7756555676
-0.01252978574 -0.0327167064 0.6513226628 -0.05801683292 -0.6855524182 0.7221060395
-0.007449341472 -0.03319482878 0.6520485878 -0.1380884647 -0.6798102856 0.7163347006
-0.009721606039 -0.03946298733 0.6466319561 -0.1267572492 -0.631393373 0.7624285221
-0.006398245227 -0.04308124632 0.6437752247 -0.1808076203 -0.6180087924 0.7648748755
0.005872045644 -0.03666833416 0.6529951692 -0.3588011861 -0.6149610281 0.7010039687
-0.001827736734 -0.03481335565 0.6523093581 -0.228751272 -0.6567519307 0.7124329805
-0.001061556861 -0.03951620683 0.6490579247 -0.2504225969 -0.6241054535 0.7341241241
0.003349736566 -0.0443681404 0.6469038129 -0.3263604939 -0.5852808356 0.7401916385
0.007449642755 -0.04160737991 0.6502417326 -0.3846485019 -0.5733494163 0.7226399779
-0.04842329398 -0.04458665103 0.6536329389 0.5304535031 -0.5726342797 0.6230458617
-0.05544217676 -0.04562523961 0.6611583829 0.5955989361 -0.5526812673 0.582588613
-0.05942771211 -0.04682403803 0.6653141379 0.6075838208 -0.545352757 0.5771369338
-0.05695234239 -0.0513288267 0.6562159657 0.6120769382 -0.5355622172 0.5816355944
-0.0430662483 -0.04601627216 0.6488662958 0.4712396562 -0.583350718 0.6605316401
-0.04051872715 -0.0401763469 0.6512795091 0.4199253917 -0.6069439054 0.6721360683
-0.03884665668 -0.04898156598 0.644346416 0.3915357888 -0.5907962918 0.7014992237
-0.04863135144 -0.04913220555 0.6497930288 0.5332888961 -0.5652473569 0.6266731024
-0.05026488379 -0.05473648757 0.6465812922 0.5500112772 -0.5487108231 0.6253924966
-0.05321787298 -0.05370308086 0.6512134075 0.5908885598 -0.5401873589 0.5963707566
-0.05235417932 -0.04878465086 0.6557636857 0.5771042705 -0.5492970943 0.5986455083
0.04025382176 -0.07588738203 0.6670392156 -0.5185261369 -0.3526866436 0.7731444836
0.04079363123 -0.08003228158 0.6616812348 -0.5185140967 -0.3743418455 0.7615664005
0.03694029525 -0.06812077016 0.6670398712 -0.3357133269 -0.298067987 0.8319634795
0.04200331867 -0.0540417321 0.6736418009 -0.06051066145 0.09058876336 0.9911371469
0.03126437217 -0.0575174503 0.6623725295 -0.4928549826 -0.3475908637 0.7442894578
0.03418405354 -0.06439635903 0.6634191871 -0.3240742087 -0.3074784875 0.8173866272
0.0300692562 -0.06174906716 0.6575165987 -0.5569364429 -0.347319752 0.6974665523
0.04234681651 -0.06505282223 0.6714636683 -0.04397589713 -0.2143669277 0.9680730104
0.03611461818 -0.07661002874 0.6562242508 -0.6909551024 -0.3313757181 0.6362068057
0.03255201504 -0.07709834725 0.6498095393 -0.7220151424 -0.3953629434 0.5562810302
0.03262511268 -0.0725447461 0.6523908973 -0.7272289991 -0.3434773684 0.5929894447
0.03636736423 -0.07191926241 0.6633484364 -0.6288717985 -0.3253879249 0.6976771355
0.03373230621 -0.0702053234 0.6585579515 -0.6657255888 -0.3357388675 0.6582878232
0.03024940565 -0.06659416854 0.6544867158 -0.6876312494 -0.351408422 0.6311733723
0.03907925263 -0.05044072866 0.6601058841 -0.1251118332 -0.3981678486 0.7497873306
0.0343035534 -0.05004512146 0.65712744 -0.1994913667 -0.4330862761 0.7354844809
0.02766971476 -0.04797302559 0.6561336517 -0.3798746467 -0.4749191403 0.6999699473
0.03430345282 -0.04793746397 0.6628523469 -0.359891057 -0.4157736301 0.7123162746
0.04381571338 -0.05266157538 0.6618697643 -0.05990317836 -0.3563451171 0.7799242735
0.02937784605 -0.04567843676 0.6646408439 -0.5709221363 -0.4375678599 0.6774017215
-0.05337055027 -0.1278784722 0.7130454183 -0.5589809418 -0.5027715564 0.6587321758
-0.05021991581 -0.1253696382 0.7163801789 -0.5203985572 -0.5141492486 0.6797690988
-0.04925066978 -0.1203456894 0.7213590145 -0.4806224704 -0.5135564804 0.7084558606
-0.06287328154 -0.1362759024 0.6957882643 -0.6932572126 -0.4078407884 0.5913634896
-0.05979590118 -0.1326586753 0.7023766637 -0.6601936221 -0.4494841993 0.5997241139
-0.07519754767 -0.1280918419 0.6799336076 -0.8373919725 -0.2775510848 0.470805496
-0.07413311303 -0.1348275989 0.6775683761 -0.828242898 -0.2846829891 0.4825230539
-0.07167830318 -0.09965270013 0.6388477087 0.4437932968 -0.4748139083 0.5899105668
-0.07258466631 -0.1036256105 0.6439312696 0.2548914254 -0.4460586905 0.573130548
-0.07643770427 -0.1196559966 0.6530004144 -0.3139870465 -0.3632894754 0.5219587088
-0.07633006573 -0.120140411 0.6663593054 -0.5522523522 -0.3227590024 0.5015048981
-0.07798160613 -0.1267238855 0.6660458446 -0.7176588178 -0.3005027473 0.4863241911
-0.07926541567 -0.1281208396 0.660874784 -0.6778199077 -0.3087678254 0.489495784
-0.07807375491 -0.1237319857 0.6578410864 -0.5108113885 -0.3333486915 0.5044715405
-0.0745215565 -0.1118697971 0.654522121 -0.1385683715 -0.3861424029 0.5381835699
-0.07554624975 -0.1137014478 0.648021102 -0.08231028914 -0.3975962698 0.5426985621
-0.07781159133 -0.1318677962 0.6702342629 -0.832103312 -0.2848680019 0.4758600295
-0.06995429844 -0.08687224239 0.6514043212 0.3932057023 -0.4727259576 0.5504466891
-0.07334002107 -0.0926425457 0.6609275341 0.1344792396 -0.4276192486 0.5289925933
-0.06664153934 -0.08249875158 0.6421579719 0.6147531271 -0.5123748779 0.5701875091
-0.07172635198 -0.08257651329 0.6559767723 0.4394897819 -0.4749075472 0.546409905
-0.07717902213 -0.1230748892 0.6730707884 -0.7522136569 -0.292257756 0.4811809957
-0.07248446345 -0.08828553557 0.6583578587 0.2718560398 -0.4492367506 0.5372638106
-0.07613667101 -0.115093343 0.6697895527 -0.5184493661 -0.3280188441 0.4938860536
-0.07060885429 -0.0765234977 0.6525999308 0.627918303 -0.5044198632 0.557569325
-0.07127734274 -0.09885378927 0.6556733847 0.05052770302 -0.4208108187 0.5325009823
-0.07416952401 -0.1059790701 0.6575109363 -0.07154722512 -0.3959550858 0.5337296724
-0.07560739666 -0.115892075 0.6633606553 -0.3998736739 -0.3458718359 0.5125979781
-0.0712788552 -0.08746166527 0.6446913481 0.5806788802 -0.4954642355 0.5786761045
-0.07283017784 -0.09399719536 0.6541244984 0.2495386302 -0.4448988438 0.548617065
-0.07276438177 -0.09881120175 0.6499034762 0.2353190631 -0.4427968264 0.5587777495
-0.07431965321 -0.09964124113 0.663654983 -0.06489499658 -0.3968759775 0.5186555386
-0.07552810013 -0.109307304 0.6675696373 -0.3482448161 -0.3536705077 0.5032250881
-0.07490166277 -0.1093426794 0.6617532969 -0.2293762714 -0.3718582392 0.5200308561
-0.06986799091 -0.09329200536 0.6357446909 0.614043951 -0.5033823252 0.5979237556
-0.06951744109 -0.09339502454 0.641202271 0.4703585505 -0.4842220843 0.5777992606
-0.069232665 -0.09385360777 0.6473513246 0.3038241565 -0.4616840184 0.5553525686
-0.07299686968 -0.1061945632 0.6502788663 0.06007816643 -0.4173093438 0.5527077913
-0.06879791617 -0.08769635856 0.6391800642 0.6303629875 -0.508728981 0.5858983994
-0.06909231097 -0.07957198471 0.6469070315 0.645596087 -0.510584414 0.567540288
-0.02309109643 -0.08156331629 0.6123833656 0.04407014325 -0.63653332 0.7637887001
-0.01919947937 -0.07785459608 0.6159739494 -0.02493879199 -0.6194442511 0.7784831524
-0.02403544076 -0.07375561446 0.6191346049 0.08376035094 -0.6071388125 0.7871648073
-0.01742852852 -0.07336767763 0.6199614406 -0.04656383395 -0.6066941619 0.7878008485
-0.02677364461 -0.07818818092 0.6154878736 0.1270466 -0.6030299067 0.7839925885
0.03009524196 -0.1476311088 0.674993217 0.7150258422 -0.4806427658 0.5076512694
0.02692900226 -0.1538426727 0.677533567 0.7073114514 -0.485704869 0.5135706663
0.02647911198 -0.1477274895 0.6820564866 0.7148814797 -0.4776467979 0.5105549097
0.02823815681 -0.1418370008 0.6852141619 0.725404501 -0.4649095237 0.5074415207
0.03440225124 -0.1390549093 0.6781623363 0.7205112576 -0.4721800983 0.5078456998
0.007060748059 -0.161149323 0.6916335225 0.4654169083 -0.5643565655 0.670106411
0.0008010641905 -0.1648493111 0.6945415139 0.3683559299 -0.5832750201 0.7170866132
0.005658750888 -0.1676111817 0.6891463995 0.4725870192 -0.55467242 0.676843822
0.006828608923 -0.1580866724 0.6961222887 0.4452801645 -0.5649962425 0.6933815479
0.03137414902 -0.09319104254 0.6373371482 -0.4434296787 -0.5701420307 0.6761295199
0.02627292089 -0.08650588989 0.6344850659 -0.5710053444 -0.5045490861 0.6431760788
0.02968753129 -0.09950876236 0.6322433949 -0.3967934549 -0.5040524602 0.7607170343
0.01124521345 -0.09612023085 0.613694191 -0.504488349 -0.4355026186 0.7393823266
0.006116471253 -0.09449075162 0.6111176014 -0.4358911514 -0.4768432379 0.760168314
0.03308069706 -0.1011422798 0.6263615489 -0.3258515 -0.4696442783 0.7892374396
0.03770955652 -0.09835549444 0.6271802187 -0.2137687504 -0.5004634261 0.8054946661
0.04307807609 -0.09732531756 0.6293619275 -0.06729700416 -0.5755676627 0.7967521548
0.03898977488 -0.1029175147 0.6303673983 -0.1472434551 -0.5925353169 0.7573080659
0.05049002916 -0.09171788394 0.6283506155 0.08484211564 -0.51125741 0.8500901461
0.0253606122 -0.09181878716 0.6304271817 -0.5688940883 -0.4502137899 0.6840690374
0.03691807389 -0.09092225879 0.62825495 -0.2464991659 -0.5046187043 0.7571223378
0.03127857298 -0.0898592025 0.6281933188 -0.3921732903 -0.4742975235 0.7131634951
0.04147233069 -0.0881941691 0.6280539632 -0.1018780544 -0.5376591086 0.7258289456
0.02643306367 -0.08594179899 0.6287831664 -0.480707705 -0.4660826027 0.6632730365
0.02317953855 -0.1017232239 0.6224620342 -0.5059012175 -0.4072807133 0.7550398111
0.02001456171 -0.1004445627 0.6186142564 -0.55363065 -0.3625713587 0.7494884133
0.002877122955 -0.07722388208 0.6213763356 -0.3649924099 -0.5442704558 0.754810214
0.01332893874 -0.1342051178 0.7119796872 0.5247043371 -0.5472195745 0.650411129
0.008701166138 -0.1395423561 0.711796701 0.4445499778 -0.5677375197 0.6895942688
0.005712261889 -0.1307553947 0.7187311649 0.3691068888 -0.5641893744 0.734139204
0.007730796002 -0.1347648501 0.7152758241 0.40812397 -0.5735215545 0.7055735588
0.01149637904 -0.1295348257 0.7171649337 0.4318820238 -0.5487366319 0.7106422782
-0.02804411761 -0.05073015764 0.6385393143 0.1948939562 -0.6086435914 0.7626934052
-0.02363188192 -0.04639787227 0.6405826807 0.1193399951 -0.6261646152 0.7671747804
-0.024970809 -0.05400042981 0.6345638633 0.133699581 -0.6079522371 0.7823218107
-0.02019071765 -0.05736749619 0.6320479512 0.04005641863 -0.6023396254 0.7910524011
0.04158589244 -0.1019391567 0.6406759024 -0.1131765023 -0.699731648 0.6626294255
0.04504910856 -0.09513814002 0.6448106766 -0.1288536191 -0.6525457501 0.6881123185
0.04093208537 -0.1068517491 0.6366597414 -0.04953918979 -0.7208518982 0.6606240869
0.03856033832 -0.09689158201 0.6468623281 -0.2832378745 -0.7039705515 0.6318707466
0.03596647456 -0.1106489152 0.6360403895 -0.1266263425 -0.7684687376 0.6194828153
0.03567799553 -0.1048848778 0.6537598968 -0.04876317084 -0.6242940426 0.5975157022
0.03880853951 -0.09927273542 0.6591739058 -0.119217135 -0.6092764139 0.609764576
0.03623244166 -0.09955427796 0.6515551209 -0.1623762995 -0.6419697404 0.6114277244
0.03557448462 -0.116136156 0.6616533995 0.2116303891 -0.5729010701 0.5671471953
0.03824238852 -0.09504576772 0.6543707848 -0.2287225723 -0.6365727782 0.6217433214
0.04028827697 -0.09334409237 0.659343183 -0.2289166898 -0.6175394058 0.6244247556
0.03680087999 -0.117755197 0.6665593386 0.27306059 -0.5491163135 0.5616084933
0.03542767838 -0.1354783624 0.6736562848 0.6408985853 -0.4984253049 0.5173935294
0.03852726519 -0.1056018323 0.6602277756 -0.007986396551 -0.6066019535 0.5969388485
0.04067358002 -0.08889947832 0.6564414501 -0.3346079588 -0.6404262781 0.6373364329
0.03510938957 -0.1174990386 0.6459269524 0.05959006771 -0.7042626143 0.5867652297
0.03592045605 -0.1304878145 0.6711884737 0.5303271413 -0.5181046128 0.5309266448
0.03706461936 -0.1104040071 0.6537080407 0.01203200594 -0.6513748169 0.5936502218
0.03628406674 -0.1072046608 0.6422597766 -0.1546708792 -0.7346612215 0.6131232977
0.03830074146 -0.1102012172 0.6645504236 0.1138103157 -0.5737938285 0.5822249651
0.03694350645 -0.1240265891 0.6714581847 0.420819819 -0.5187656283 0.5446560979
0.03560356423 -0.1220976934 0.6567335129 0.2443442941 -0.6250109673 0.5649571419
0.03524729982 -0.1257706136 0.6607225537 0.350441128 -0.5919294357 0.5517739654
0.03533842042 -0.1276956797 0.6657426953 0.4352322519 -0.5529920459 0.5414869785
0.03533888981 -0.1060513109 0.6483920217 -0.08737235516 -0.6679127812 0.6024287343
0.03534083068 -0.1008658186 0.6443049312 -0.211808309 -0.6948693991 0.6169313788
0.03517883271 -0.1117701158 0.6468765736 -0.01650118083 -0.6879271269 0.5948649049
0.03497447819 -0.1148089096 0.6415210962 -0.02897808887 -0.7361423373 0.5972147584
0.03519773111 -0.1169673726 0.6517679095 0.1169762984 -0.6543437243 0.5792165995
0.05192947388 -0.09989307076 0.6366468668 0.1443361044 -0.6260278225 0.7455452085
0.04649068043 -0.0889326781 0.6492654681 -0.195183903 -0.6389994025 0.6739048362
0.05641970783 -0.09476562589 0.6378777623 0.175424248 -0.6304828525 0.7137287259
0.0505136773 -0.09461413324 0.6419249773 0.01330904756 -0.6319993734 0.7113310695
0.06113308668 -0.0942177698 0.6346078515 0.2996816635 -0.6274327636 0.7164271474
0.03909330815 -0.08741275966 0.6515140533 -0.3901436031 -0.6605981588 0.6403700709
0.05298768729 -0.08899269253 0.6448894739 -0.01568694413 -0.6366567612 0.6763523221
0.06432329118 -0.08388590813 0.6410622597 0.331580162 -0.6054804325 0.6676540375
0.05545171723 -0.0831021145 0.6477318406 0.04302124679 -0.6175162196 0.65474087
0.05936226249 -0.08832640946 0.6410420537 0.1873392016 -0.6248288155 0.6805590987
0.05197874457 -0.08106020838 0.6521752477 -0.08479378372 -0.5711736679 0.6765673161
0.0462314114 -0.08259543777 0.6549864411 -0.2656277418 -0.5785959959 0.6807658672
0.06288521737 -0.07690384239 0.6474788785 0.2798631787 -0.5346472263 0.6772458553
0.06269983947 -0.06584575027 0.6499108672 0.5217862129 -0.4873078763 0.6947905421
0.06608915329 -0.07070334256 0.6463606954 0.5301125646 -0.5437538028 0.6481012106
0.05317692831 -0.0689407289 0.6617081165 0.253679812 -0.3396228254 0.8204604983
0.04966905341 -0.07346519828 0.660754323 0.01417544577 -0.3755962551 0.8024827242
0.05686096102 -0.07587130368 0.6518481374 0.1408762187 -0.4970198274 0.6998445988
0.05409426242 -0.07322666049 0.6568725705 0.1457462013 -0.4215887487 0.7598556876
0.0549031198 -0.06416998804 0.6634278297 0.4397373796 -0.2923157513 0.8455617428
0.05924130231 -0.06679127365 0.6568587422 0.4785867035 -0.386367023 0.7682982087
0.04565373436 -0.07471054047 0.6637772918 -0.04971456155 -0.4088869691 0.8247536421
0.04492696747 -0.07102954388 0.6693495512 0.05195248127 -0.383754164 0.9024235606
0.04887200892 -0.06615523994 0.6680865288 0.1872873902 -0.2823284566 0.9100769758
0.04476144165 -0.05796472356 0.6716297269 0.03658837453 -0.03219936416 0.963139534
0.02987096645 -0.05409500748 0.6545592546 -0.4355109334 -0.4199980795 0.6913870573
0.04283341765 -0.05484145507 0.6565520763 0.03351194039 -0.3708970547 0.7822086811
0.05249158666 -0.05757484585 0.6556578875 0.3147614598 -0.3488973379 0.8006743789
0.03360031918 -0.05755422637 0.6502834558 -0.2729748487 -0.4259584844 0.6838000417
0.02800809033 -0.05759892613 0.6494061351 -0.4270217121 -0.4324183166 0.6728274226
0.05792386085 -0.05877743661 0.6517744064 0.4590037763 -0.4010546505 0.7375591397
0.04412302747 -0.0577034317 0.6515516043 0.02708550543 -0.4143287838 0.7054398656
0.04895196855 -0.05554528534 0.6635724306 0.1875952184 -0.1822842062 0.8890108466
0.04008765891 -0.0516804941 0.6681510806 -0.2019073069 -0.1777659059 0.8458843231
0.05119327828 -0.06089971215 0.6664093733 0.3022779524 -0.147988081 0.9052480459
0.05726313591 -0.06071774662 0.6578693986 0.4723182321 -0.3063088953 0.8113124967
-0.06232961267 -0.1276744157 0.7034696937 -0.6825083494 -0.433486551 0.5882935524
-0.06551143527 -0.1271422505 0.6988378167 -0.721970737 -0.4034559727 0.5602664351
-0.05800825357 -0.1235462502 0.7119245529 -0.6176767349 -0.470797807 0.6280379295
-0.0602193661 -0.1240807399 0.7066918612 -0.657107532 -0.4429987967 0.6018888354
0.01581056602 -0.09658150375 0.6166881919 -0.5563711524 -0.4043551981 0.7254090309
0.02136008255 -0.08816655725 0.6277450919 -0.6413264871 -0.4218056202 0.6375845075
0.03082292713 -0.09641411901 0.622864902 -0.3342461884 -0.4430017173 0.7823485732
0.01874962822 -0.09284836799 0.621537745 -0.5932465792 -0.4156683087 0.6827166677
0.02380792983 -0.09556343406 0.6214995384 -0.4838011861 -0.4155510068 0.7357628942
-0.03769177198 -0.05717504397 0.6364981532 0.3460998237 -0.5912589431 0.7236690521
-0.03550698981 -0.05208781362 0.6390562654 0.3197526038 -0.597638607 0.7307427526
-0.03189957887 -0.05520697683 0.6341387033 0.2511938512 -0.6098388433 0.7500049472
-0.03449771926 -0.05970140919 0.6317634583 0.2969234288 -0.6011705399 0.7406244278
-0.002199596027 -0.08484171331 0.6139863133 -0.3132058382 -0.5650015473 0.7598677278
-0.001946040895 -0.07927066088 0.6184120178 -0.2991578579 -0.5640925169 0.7664938569
0.005074279848 -0.08255156875 0.6192657948 -0.4269351065 -0.511608839 0.7406573296
0.003353828564 -0.08804068714 0.6139307022 -0.4058305919 -0.5001800656 0.7643322349
0.01231135428 -0.0827447325 0.6234196424 -0.5092402101 -0.4893628359 0.7072294354
0.01690309681 -0.08279450983 0.627124548 -0.5683311224 -0.4689534903 0.6741408706
0.01389523782 -0.0782925263 0.6273483634 -0.5315746069 -0.4995252788 0.6827635169
