# .PCD v0.7 - Point Cloud Data file format
VERSION 0.7
FIELDS x y z normal_x normal_y normal_z
SIZE 4 4 4 4 4 4
TYPE F F F F F F
COUNT 1 1 1 1 1 1
WIDTH 512
HEIGHT 1
VIEWPOINT 0 0 0 1 0 0 0
POINTS 512
DATA ascii
-0.08793330938 -0.04290327802 0.5347555876 -0.001884588855 -0.7749606967 0.6257143617
-0.1152252778 -0.08740831912 0.4997810423 0.422016561 -0.6854137182 0.5915097594
-0.1014013141 -0.04112879932 0.5415920615 0.2694277763 -0.7520397305 0.5911123157
-0.02414747328 -0.09649142623 0.5163189769 -0.01626341045 -0.4653334618 0.7962725163
-0.02880642936 -0.1015811637 0.5170528889 0.09971316159 -0.4416733086 0.7401667833
-0.03152389452 -0.1072948426 0.5231186152 0.2329691499 -0.4842112958 0.7061186433
-0.03346773237 -0.1124485582 0.5208410621 0.41100353 -0.404791981 0.6173830628
-0.04043284059 -0.1183851436 0.5293256044 0.4740981758 -0.4969762862 0.6127917171
-0.04360690713 -0.1271636635 0.5251242518 0.7814655304 -0.3563759327 0.4588159621
-0.03705548868 -0.1179609522 0.5219509006 0.5561046004 -0.3784756362 0.5536350608
-0.1170512959 -0.1408619136 0.544303 -0.6419989467 -0.4514473677 0.6042406559
-0.1201123521 -0.13431862 0.5419049263 -0.7584692836 -0.3824596405 0.5115570426
-0.1271610707 -0.1246563718 0.5321287513 -0.8587675691 -0.3275005519 0.3892899454
-0.1264322847 -0.1320300698 0.5301687121 -0.805298686 -0.313130945 0.4931860864
-0.1208565235 -0.1280589551 0.5478348136 -0.7448263764 -0.4643485546 0.4504110217
-0.1198732853 -0.1234651357 0.556933403 -0.6616581082 -0.608923018 0.4241183698
-0.1154723987 -0.131437704 0.5507800579 -0.6466215849 -0.5197026134 0.5376070738
-0.1242872626 -0.1382000148 0.5333938599 -0.7722383738 -0.3224719465 0.5432155728
-0.1212793365 -0.1439857632 0.5374603271 -0.71431458 -0.3577785194 0.5894420147
-0.1253761053 -0.1423593462 0.5298640132 -0.7444314361 -0.3123014271 0.5869543552
-0.1209810078 -0.1487037688 0.5339084268 -0.6531391144 -0.3742592633 0.6491718292
-0.1118171439 -0.1519924998 0.5395202041 -0.4913277924 -0.5126700997 0.6909275651
-0.1164985076 -0.1523207128 0.5371049643 -0.5743837357 -0.4333050549 0.6795610785
-0.1124078482 -0.1448259801 0.543129921 -0.5854756832 -0.4587988555 0.6671323776
-0.0690689832 -0.1432889849 0.5457572937 0.4276877642 -0.5846553445 0.6842550039
-0.06672800332 -0.1470700651 0.5425655842 0.4686872363 -0.5587999821 0.6779603362
-0.107278049 -0.084362261 0.4919651747 0.3628333211 -0.7065401673 0.6069415808
-0.1028228998 -0.08469726145 0.4886500835 0.2756798863 -0.7345550656 0.6160342693
-0.06284309179 -0.1187909544 0.565908134 0.4533911645 -0.6900894046 0.5636289716
-0.1115406379 -0.07020327449 0.5122815371 0.3861503005 -0.7180934548 0.5766269565
-0.1192236468 -0.06969859451 0.5171200633 0.4601249695 -0.6861249208 0.5623289347
-0.1137029454 -0.08259695023 0.4984458685 0.4029384851 -0.6967430711 0.5924344063
-0.1191863269 -0.0770181641 0.5116810799 0.4577032924 -0.6754975319 0.5765158534
-0.1110739857 -0.08915416151 0.4958145618 0.3611094058 -0.7170621753 0.5930004716
-0.1148011684 -0.08148663491 0.5063758492 0.4195826352 -0.6929645538 0.581420362
-0.110110037 -0.0803655386 0.502590239 0.3891645372 -0.7037444711 0.5910443068
-0.1131887361 -0.0757715404 0.5098899603 0.4325023592 -0.6883699894 0.5793334842
-0.1078477725 -0.07440450788 0.5054553747 0.3945361376 -0.6979530454 0.5956647396
-0.1197289377 -0.1028320715 0.5063533783 -0.1822991669 -0.4777108431 0.4651338458
-0.1266257465 -0.1133661717 0.5214422941 -0.7275551558 -0.3099626601 0.360144347
-0.119955197 -0.0974175036 0.5070314407 -0.04079062492 -0.4963480234 0.4773554504
-0.117655836 -0.08603733778 0.5054603219 0.3730160892 -0.6520168781 0.5708035827
-0.1175784767 -0.09160639346 0.5036280751 0.2151536047 -0.5992271304 0.5394039154
-0.1204977036 -0.08310720325 0.51248312 0.3520957232 -0.6253122091 0.5539445281
-0.1253895462 -0.1060734317 0.516197741 -0.4923412204 -0.306266129 0.3623602092
-0.1245259792 -0.08959659189 0.5192558765 0.01526942383 -0.4836993217 0.4682788253
-0.1224605292 -0.09985308349 0.5117221475 -0.2040842324 -0.4238766432 0.4333652258
-0.1156185716 -0.09675892442 0.5030883551 0.05578909069 -0.6173850894 0.5365266204
-0.118839182 -0.08969058096 0.5101718307 0.1808210909 -0.6186272502 0.5424619317
-0.1216460615 -0.09411676228 0.5155153275 -0.02423694544 -0.5511488914 0.5030972958
-0.1226899922 -0.1011150181 0.5170830488 -0.2592604756 -0.4913910627 0.4659406543
-0.1099481583 -0.09321775287 0.4918701053 0.3098476231 -0.7187284827 0.5933303833
-0.1251892895 -0.1073124558 0.521664083 -0.5087761283 -0.4166948497 0.4213974774
-0.1203869432 -0.1066212654 0.5119822621 -0.3620691597 -0.4875774682 0.4597960413
-0.1216876209 -0.07749830186 0.516902566 0.4676251709 -0.6581997871 0.5727041364
-0.123203069 -0.1106906757 0.5171970129 -0.5524482727 -0.4224095643 0.4225645065
-0.1143768728 -0.09721817821 0.4978728294 0.1406518072 -0.6335201859 0.5544029474
-0.08727306128 -0.1114994362 0.5893254876 -0.05429887399 -0.7986172438 0.5986647606
-0.08878667653 -0.03857723624 0.5392875075 0.01950555295 -0.785620749 0.6111120582
-0.09871029854 -0.03318091854 0.5469500422 0.2331027091 -0.784288764 0.5712150335
-0.09323127568 -0.03514583781 0.5441868305 0.1035044268 -0.8013843894 0.585370481
-0.09487123042 -0.03826065734 0.5392279029 0.1297967285 -0.7717418671 0.6204701066
-0.0878707841 -0.03491191193 0.5444268584 0.002873569261 -0.8115406632 0.5782048106
-0.09112658352 -0.03080395237 0.550142169 0.08051349223 -0.8142114878 0.5481768847
-0.1043995395 -0.03489908576 0.5493879914 0.298671186 -0.7724070549 0.557985127
-0.08827992529 -0.04733526707 0.5297835469 0.01013237797 -0.7674285769 0.6340661645
-0.1033393592 -0.06452465057 0.5140544772 0.3277997673 -0.7268201709 0.5986163616
-0.09837178886 -0.06194345653 0.5146538019 0.2481850982 -0.7470141649 0.6097841859
-0.1082106754 -0.06608559191 0.5158922672 0.3989732563 -0.7021395564 0.5879953504
-0.06475809962 -0.06717468053 0.5132775903 -0.421199888 -0.7009128928 0.5755366683
-0.0599254705 -0.07398136705 0.5066584945 -0.4606003463 -0.6872358322 0.5610429645
-0.1185373217 -0.1288229376 0.5421919227 -0.743134439 -0.4363859594 0.4907936156
-0.1218912974 -0.126878798 0.5376992226 -0.8138640523 -0.3583405316 0.4371456504
-0.1189910248 -0.1402961612 0.5340681076 -0.6948900223 -0.3443871439 0.6278579235
-0.1133960858 -0.146491304 0.5367245674 -0.5787326097 -0.4307166934 0.6819070578
-0.01152286958 -0.07943304628 0.5179191828 -0.06816022098 -0.5350679755 0.8409124613
-0.01483905595 -0.08534452319 0.5170930624 -0.1030872837 -0.5166385174 0.8479986191
-0.01617537625 -0.07951500267 0.5159286857 -0.1049963981 -0.5043740869 0.8556275368
-0.05504604802 -0.0838765651 0.504183948 -0.4665715694 -0.6808388829 0.5631403327
-0.1238582134 -0.1217481568 0.5374682546 -0.8502784967 -0.3434232175 0.3937886953
-0.1276878715 -0.1187666208 0.5334851742 -0.8663374782 -0.3299001157 0.3498225212
-0.1243182644 -0.1108682677 0.5328059793 -0.6009421349 -0.3989503682 0.4218202531
-0.1243680865 -0.101774253 0.5267747045 -0.3275222182 -0.4606661201 0.4550672174
-0.1224045381 -0.09228669852 0.5277844071 -0.0195541624 -0.5745234489 0.5032182336
-0.09037691355 -0.1314831674 0.5620732903 -0.06613308191 -0.7532661557 0.6094340086
-0.08587552607 -0.129464075 0.5655292273 0.06635050476 -0.7781296372 0.612445116
-0.0940984413 -0.1241672188 0.5733997822 -0.147445336 -0.7919278741 0.5891411901
-0.05941046774 -0.1237384975 0.5546824336 0.5372635126 -0.6227727532 0.5661072135
-0.0579823032 -0.1191512868 0.5596087575 0.5107035041 -0.6619855762 0.5484926105
-0.06437463313 -0.1241790503 0.5607140064 0.4702477753 -0.6785078049 0.563460052
-0.1224139929 -0.1160983071 0.5516831279 -0.7472269535 -0.5392329693 0.377863735
-0.1211015433 -0.1220341921 0.5518516898 -0.760226965 -0.4961736798 0.3960280418
-0.1221776456 -0.1202773005 0.5453727245 -0.8090729713 -0.4295935929 0.3923987746
-0.1034362093 -0.1248525232 0.5697680116 -0.377415508 -0.7453759909 0.5461347699
-0.09711088985 -0.1295961291 0.565859139 -0.2245580256 -0.7652195692 0.5939080119
-0.1140956804 -0.1286594123 0.5560621619 -0.5957481861 -0.6012309194 0.5236298442
-0.1054996699 -0.1267296672 0.5646237135 -0.4341778159 -0.7114130855 0.5443274975
-0.08498624712 -0.1259879619 0.5704048276 0.08692827076 -0.7909715772 0.6051966548
-0.04537912831 -0.06536317617 0.5201117992 -0.3230707049 -0.6387558579 0.6508730054
-0.03008427098 -0.06669396907 0.5194983482 -0.1664922535 -0.5804806352 0.7564641237
-0.0583438836 -0.0669150278 0.5183269978 -0.4765728116 -0.686792016 0.5464990139
-0.03944041207 -0.06562780589 0.5200904012 -0.2603195906 -0.6162567139 0.6932708621
-0.05344110727 -0.06470410526 0.5203986764 -0.4059324563 -0.6694514155 0.5949803591
-0.0728097409 -0.04050662741 0.5413331985 -0.3138945401 -0.7409728765 0.5901586413
-0.1199702546 -0.1335667372 0.5354604125 -0.7514839768 -0.3376339376 0.5477468371
-0.127961576 -0.1265289485 0.5271974206 -0.8614971042 -0.2268832475 0.4082598686
-0.1279459298 -0.118914336 0.5272909403 -0.8846729994 -0.2993685901 0.3494130075
-0.1163558811 -0.1166552305 0.5683072209 -0.5578245521 -0.6892874241 0.4514264166
-0.0998274833 -0.1131742895 0.5861450434 -0.2445487827 -0.798430264 0.547440052
-0.03621873632 -0.03898187354 0.5579109788 -0.1112873554 -0.8251712918 0.3650056422
-0.04569490999 -0.0387600325 0.5584471226 -0.2878153622 -0.7341117859 0.3854970932
-0.05249086395 -0.03842122108 0.5564733744 -0.4030958414 -0.612550199 0.5936381817
-0.07865472883 -0.03687743843 0.5431578755 -0.1844891459 -0.7663232088 0.6060837507
-0.08169574291 -0.04135686532 0.5372393727 -0.1175691262 -0.7784975171 0.6077675819
-0.07193530351 -0.04548789933 0.538351059 -0.291695863 -0.7454940677 0.5867503285
-0.07636750489 -0.05121264979 0.532022655 -0.1897785515 -0.7520055771 0.6112164855
-0.08249241114 -0.03158568963 0.5493155718 -0.1021682397 -0.8263801336 0.5512889028
-0.04887550697 -0.1363428384 0.5297026038 0.6182199121 -0.5327091813 0.5774949193
-0.06003946438 -0.1465753466 0.5373316407 0.5594001412 -0.5389558673 0.6283593774
-0.06543086469 -0.1504904032 0.5382220745 0.4567102194 -0.5817856193 0.6594663858
-0.05036723241 -0.1287251413 0.5364876986 0.6505918503 -0.5186421871 0.5481216311
-0.01204918884 -0.0742751807 0.5231260061 0.132017076 -0.5638136268 0.7670930624
-0.02907346934 -0.05585805327 0.5303912759 0.219458282 -0.6008645892 0.6020607352
-0.02295027487 -0.05553336069 0.5311825871 0.3479044139 -0.5847266316 0.6059116721
-0.03937477618 -0.0582010597 0.5274196267 -0.01587768644 -0.6417608261 0.5994503498
-0.03433798999 -0.06381142139 0.5219994783 -0.1557454616 -0.603421092 0.716571331
-0.0494960621 -0.06024982408 0.5245611072 -0.2884114385 -0.6631174088 0.6207670569
-0.01857821643 -0.06025251374 0.5270321369 0.3360011578 -0.5916790962 0.6473872066
-0.03265120089 -0.05960182846 0.5265957117 0.08342833817 -0.6286966205 0.620174706
-0.02070949413 -0.064496696 0.5223637223 0.08616374433 -0.5671906471 0.7442058921
-0.02814471908 -0.06287776679 0.5234844685 0.01484891027 -0.5955848694 0.7001898289
-0.04456151277 -0.06124478579 0.5239015222 -0.2372096628 -0.64482373 0.6481320858
-0.01489868481 -0.06390786171 0.5234526992 0.2322318703 -0.5578483343 0.7355107069
-0.09777824581 -0.06489094347 0.5086966753 0.2263911068 -0.7562644482 0.6074997187
-0.08599539846 -0.06634311378 0.5056493282 -0.03394996375 -0.7689922452 0.6352227926
-0.08905289322 -0.06216352433 0.5118049383 0.0269008521 -0.7651551962 0.6261238456
-0.09163948148 -0.05234031752 0.5272060633 0.08913630247 -0.753513217 0.6279908419
-0.0988131687 -0.05301194638 0.5242423415 0.2363096029 -0.7463092804 0.6194298863
-0.1009432226 -0.05684034526 0.5196065903 0.2890848219 -0.7275807261 0.6203542948
-0.1046164781 -0.05656394362 0.5233191252 0.3369494677 -0.7180818915 0.6072248816
-0.1112036556 -0.05904228613 0.5253064632 0.4544176459 -0.6818813682 0.571990788
-0.1093982309 -0.06241736189 0.5209131837 0.421898216 -0.6932982206 0.5838747621
-0.06955230981 -0.06761170179 0.5094800591 -0.3781160712 -0.7060911655 0.5959569216
-0.04583815858 -0.1216746271 0.5189272761 0.5964937806 -0.3974454105 0.4713623822
-0.05201261863 -0.09627318382 0.498747766 -0.2748690546 -0.6350549459 0.6114950776
-0.04738294706 -0.1171511337 0.514876008 0.4328239262 -0.4423210025 0.4926297367
-0.05024133995 -0.1002252921 0.5027207136 -0.1238263622 -0.5934215784 0.596405983
-0.04435183853 -0.09685165435 0.5130180717 -0.2107275724 -0.6413400173 0.6634539366
-0.04898462817 -0.1110629216 0.5099987984 0.2202708423 -0.5007368922 0.5251088142
-0.04607826471 -0.1074462011 0.5137656927 0.123593919 -0.5376355052 0.5731886029
-0.04815536737 -0.1030856743 0.5086188316 -0.03500425816 -0.578518033 0.5895675421
-0.04775202647 -0.09279434383 0.5071553588 -0.3427867889 -0.6703264713 0.6530678272
-0.04639752954 -0.1074520648 0.5236454606 0.08351308107 -0.6135204434 0.6347097754
-0.04847069085 -0.1198276654 0.5315096378 0.4151831865 -0.5664037466 0.5880712867
-0.02039609291 -0.0925162062 0.5165633559 -0.1079288796 -0.4936901927 0.8442037106
-0.04558033124 -0.1205382645 0.5371782184 0.5357185006 -0.5296448469 0.5955052376
-0.04224493355 -0.1162398085 0.5349849463 0.4441502094 -0.5245297551 0.6308862567
-0.05124277994 -0.08655320108 0.5076143146 -0.423271209 -0.6798198223 0.5922938585
-0.04738579318 -0.08829944581 0.5133420825 -0.3666429222 -0.6693846583 0.6387993693
-0.04892269522 -0.08148630708 0.5158575773 -0.398524642 -0.6704107523 0.6231894493
-0.04851777852 -0.1148663089 0.534493506 0.3836749494 -0.5717893839 0.5835239291
-0.04541792348 -0.1005804837 0.5205740333 -0.06645047665 -0.6354867816 0.6492565274
-0.04811134934 -0.1056443527 0.5290856361 0.1612401158 -0.5996693969 0.6059507728
-0.04558465257 -0.09278851002 0.5172970891 -0.2284807265 -0.6548854113 0.6598171592
-0.04773503542 -0.1006248146 0.5259746313 0.03856494278 -0.6162260175 0.6176763773
-0.0523295626 -0.0997190401 0.5370828509 0.07209873199 -0.6580477953 0.5967344046
-0.04856753349 -0.08692856878 0.5226585865 -0.240376845 -0.6688516736 0.6279115081
-0.05557030812 -0.1126080975 0.5505171418 0.3741093278 -0.6487932801 0.568405807
-0.05036450177 -0.0963178277 0.5313168168 -0.03356201947 -0.6637828946 0.6104397774
-0.04694229364 -0.09530995041 0.5232175589 -0.09718777984 -0.650178194 0.6242582202
-0.04961434752 -0.107878603 0.5345620513 0.2234551013 -0.6164816618 0.5925673246
-0.04980833456 -0.1219770461 0.5404837728 0.5751096606 -0.5469673276 0.5623223186
-0.05541588366 -0.1185235083 0.552758038 0.5051380396 -0.6279770136 0.5590329766
-0.05256384984 -0.1176229492 0.5452501774 0.486020267 -0.5923171639 0.5642594099
-0.05046531931 -0.1161587983 0.5394457579 0.4505603313 -0.5711514354 0.5700632334
-0.05352273583 -0.1105753928 0.5445389152 0.3283764124 -0.628494978 0.5746403337
-0.05282119289 -0.1054550111 0.5405799747 0.2121921927 -0.6373265386 0.5844019055
-0.05039378628 -0.09105671942 0.5283281207 -0.1150484458 -0.6564846635 0.6125727296
-0.05620024353 -0.1259093285 0.5476347804 0.6067839265 -0.5521950126 0.5686279535
-0.08656229824 -0.07452367246 0.4967296422 -0.02893911116 -0.7037348747 0.7074120641
-0.09307177365 -0.07268226147 0.4984486699 0.1124450564 -0.7470490932 0.6492490768
-0.0866561532 -0.07117741555 0.5009841919 -0.03388653696 -0.7631065249 0.6381105781
-0.1050179601 -0.07027706504 0.5068589449 0.3576884866 -0.7215737104 0.5923485756
-0.09234398603 -0.06850852072 0.5047127008 0.1104023829 -0.7632381916 0.6269267201
-0.09886252135 -0.06988172978 0.5056227446 0.2271823734 -0.7534169555 0.612205565
-0.1065764204 -0.1418016106 0.5423967242 -0.4432718158 -0.5307514071 0.6736191511
-0.09985292703 -0.1441905797 0.546082437 -0.2903290093 -0.6402305961 0.6983098388
-0.1139538363 -0.1408005208 0.537496388 -0.6033005118 -0.4146876037 0.6510819793
-0.1084612831 -0.1464441121 0.5395385623 -0.4645330906 -0.5293498039 0.690331459
-0.1096429974 -0.1374515444 0.5446144342 -0.5489276648 -0.4993936121 0.6337450743
-0.1126144901 -0.1319148093 0.5463151932 -0.6248993874 -0.5130499601 0.5487946272
-0.07849692553 -0.1428598017 0.5482349992 0.2148092985 -0.6465710998 0.6995618343
-0.1212358475 -0.1178993434 0.5583245158 -0.6984422803 -0.6010614038 0.387580663
-0.09540640563 -0.1330875754 0.5618434548 -0.1924015731 -0.7524939179 0.6238785982
-0.1056437194 -0.1464336365 0.5461477637 -0.3887605965 -0.593315959 0.6984471679
-0.09622450918 -0.1431805193 0.5516386628 -0.1611465365 -0.6752120852 0.7168314457
-0.1036363021 -0.136919722 0.5539657474 -0.3792896271 -0.6302828193 0.6755177975
-0.1097522303 -0.135527283 0.5522493124 -0.5261231661 -0.5734766722 0.6146603823
-0.09357363731 -0.1485129446 0.5452442169 -0.1311728954 -0.6842675805 0.7087696195
-0.09090305865 -0.1528067738 0.5425704718 -0.06401561946 -0.6963594556 0.7081584334
-0.08819255233 -0.1468866318 0.548183918 -0.001287927967 -0.6923613548 0.7151207328
-0.1041452661 -0.1525018364 0.5407822132 -0.3617515266 -0.5969595909 0.706671536
-0.0972385928 -0.1517818123 0.5415388346 -0.2060780823 -0.6607204676 0.7066448331
-0.07524786144 -0.1217125803 0.5729791522 0.290841043 -0.7516682148 0.5917037129
-0.07023573667 -0.1197733283 0.5715543032 0.3213757277 -0.7405305505 0.5897916555
-0.08185634017 -0.1534818709 0.5420060158 0.1287275106 -0.6885125637 0.7043481469
-0.08190518618 -0.1490089148 0.5458084345 0.126559943 -0.6820635796 0.7137272358
-0.07373095304 -0.1472189128 0.5446445346 0.3042856157 -0.6286904812 0.7135172486
-0.07179185748 -0.1520918459 0.5404615998 0.3339169025 -0.6381703615 0.6916183233
-0.01638068072 -0.04185866937 0.5483569503 0.366874218 -0.7060028315 0.577832222
-0.008731750771 -0.04842642322 0.5395948887 0.5988830328 -0.5162799358 0.6121296287
-0.01281133015 -0.04951266572 0.5445301533 0.4857380688 -0.612272501 0.5526725054
-0.01716355979 -0.05306405202 0.5429838896 0.4340206087 -0.6642619371 0.5165167451
-0.01700098813 -0.05049464107 0.5493649244 0.3855879903 -0.6992813945 0.4837658703
-0.01212199591 -0.05321200565 0.5399519205 0.5143996477 -0.5949869752 0.5496756434
-0.04720151424 -0.05212724209 0.5405130982 -0.4213369489 -0.6023926139 0.5017513633
-0.0185070727 -0.05194679648 0.5367918015 0.4032218158 -0.5668685436 0.5954785347
-0.03087887354 -0.0526929684 0.5375193954 0.05014603212 -0.5784266591 0.553622961
-0.02803025208 -0.04899129644 0.5419828892 0.1185648814 -0.5956143737 0.5708889365
-0.01700218394 -0.04672932997 0.5434293151 0.4274667501 -0.5942909122 0.6116495132
-0.03671834245 -0.05201214552 0.5392180681 -0.120273605 -0.5896908045 0.5360997319
-0.02504622005 -0.05261772126 0.5368135571 0.2176115066 -0.5714226365 0.572758019
-0.02041777037 -0.04597879201 0.5528736115 0.2824930549 -0.7830825448 0.4645166099
-0.04225349799 -0.04966074973 0.5431372523 -0.2967518568 -0.623807013 0.5180841088
-0.0248189941 -0.04526895285 0.5468583107 0.1437607408 -0.6975662708 0.5580741167
-0.03261147067 -0.04758228734 0.5446626544 -0.04288198799 -0.648380518 0.5446838737
-0.02623099461 -0.0606790036 0.5406014919 0.1923798323 -0.6857749224 0.5894502401
-0.0147783896 -0.08096258342 0.5226649046 -0.02870939486 -0.5563619137 0.8054267764
-0.01940883882 -0.07394564152 0.5294834971 0.0335518755 -0.6061988473 0.728382647
-0.03263600916 -0.06476064771 0.5449864268 -0.03740810975 -0.7257549763 0.6025705934
-0.02016856894 -0.06153843179 0.5347223878 0.3016673028 -0.6380147934 0.618029654
-0.02318867669 -0.06634218991 0.535736084 0.1273485422 -0.6508196592 0.649210155
-0.01956570148 -0.06903788447 0.5314239264 0.1426630616 -0.6176949143 0.6852321625
-0.0147983497 -0.07030736655 0.5265834332 0.2150022686 -0.5788907409 0.712859869
-0.01932495832 -0.0793569386 0.527425766 -0.08864930272 -0.594198525 0.775650084
-0.02783525176 -0.06759271771 0.5395432711 -0.0001607885788 -0.6834158897 0.643879354
-0.02586947195 -0.07338199019 0.5356198549 -0.09098447114 -0.6563563347 0.7009836435
-0.0524523966 -0.06461302936 0.5342476368 -0.419822216 -0.7033516169 0.5527098179
-0.05265692621 -0.06833854318 0.5293024778 -0.4597623348 -0.6901429296 0.5434173346
-0.04239524156 -0.07383158803 0.5313204527 -0.2834949195 -0.7040340304 0.6269282103
-0.03734054416 -0.06901081651 0.5432926416 -0.1957780868 -0.734796524 0.6183705926
-0.04277663678 -0.06402610987 0.5517544746 -0.2116776407 -0.793014884 0.5579020381
-0.0466376096 -0.07750242949 0.5220595598 -0.354221046 -0.6815840006 0.6315400004
-0.03589504585 -0.07423299551 0.5328663588 -0.2216057926 -0.6843301654 0.6611469388
-0.02673038654 -0.07689532638 0.5306472778 -0.1505175233 -0.6377276778 0.7237548828
-0.02292319201 -0.08142175525 0.5225485563 -0.1473680288 -0.5876584053 0.7731978893
-0.0414901711 -0.08005677909 0.5185911059 -0.3224618137 -0.6459009647 0.6739601493
-0.04395152256 -0.0667899847 0.5455235839 -0.2447413951 -0.7711101174 0.5711501837
-0.03299785778 -0.0727911666 0.5369560719 -0.1815204322 -0.6900994182 0.6652943492
-0.04049766436 -0.07659321278 0.5262231231 -0.2858245969 -0.6745395064 0.6550353169
-0.03121784516 -0.07738471776 0.5279717445 -0.1991552413 -0.6444485188 0.7053833008
-0.04175905511 -0.07027129829 0.5390245318 -0.2496739328 -0.7344235778 0.6056156158
-0.03629773483 -0.07948995382 0.5216881633 -0.2661788762 -0.6381292343 0.6952141523
-0.04741207138 -0.07040499896 0.5352790356 -0.3281778991 -0.7339294553 0.5763911009
-0.04807700962 -0.07405674458 0.5275246501 -0.3606949449 -0.704247117 0.598494947
-0.04852867499 -0.06629703194 0.5409929752 -0.3453298807 -0.7496769428 0.5378551483
-0.05447029322 -0.04527968541 0.5592542291 -0.4533712566 -0.3740865886 0.7752756476
-0.05761551857 -0.03839929402 0.5560069084 -0.4827614129 -0.5417346954 0.6803491712
-0.07667772472 -0.03389009088 0.5505629182 -0.2233725637 -0.7734954953 0.5507096648
-0.06539382786 -0.03466341645 0.5534646511 -0.4578330815 -0.7079511881 0.5352524519
-0.06989869475 -0.03577712178 0.5483983159 -0.3700430095 -0.7551758885 0.5322515368
-0.07147438079 -0.03217312321 0.5520448685 -0.3160332143 -0.7808493972 0.5259706974
-0.0647342056 -0.04136135429 0.5497763753 -0.474316746 -0.6464437246 0.5734247565
-0.06872108579 -0.04109891877 0.5458347797 -0.3964352608 -0.6868106723 0.5865428448
-0.06747587025 -0.04488025606 0.5417826176 -0.3913931549 -0.7041974068 0.5804169774
-0.03942560032 -0.041758053 0.5626315475 -0.1089229733 -0.9454620481 0.07170464844
-0.04948126525 -0.04388181493 0.5613473058 -0.2450782657 -0.7509397864 0.4011293352
-0.08726809919 -0.05752689764 0.5203114748 0.02099081688 -0.7604923248 0.6213510633
-0.08268008381 -0.05529152974 0.5241682529 -0.0787467882 -0.7590522766 0.623842597
-0.08500864357 -0.06116517261 0.5161062479 -0.0252841562 -0.753498733 0.609613657
-0.080089055 -0.06260377914 0.5117874146 -0.175668627 -0.7571072578 0.6244904995
-0.07633113861 -0.05875045434 0.5164416432 -0.2337832153 -0.7643771768 0.6003779173
-0.06042569503 -0.07119435072 0.5151911974 -0.4579838216 -0.6856333017 0.563610673
-0.05542233959 -0.07144291699 0.5210316181 -0.5013673306 -0.6708986759 0.5448254943
-0.06534361094 -0.06488696486 0.5202429891 -0.3828965127 -0.7131307721 0.5776369572
-0.1043051705 -0.1306693256 0.5543007851 -0.4180544019 -0.6351187825 0.5879730582
-0.09853217751 -0.134753108 0.5546913743 -0.2707784474 -0.6634727716 0.6684183478
-0.1107874811 -0.1257679611 0.5518767238 -0.5648319721 -0.5923694968 0.4973923564
-0.10843499 -0.1300570965 0.5500775576 -0.509956181 -0.5768350363 0.5570914149
-0.116952531 -0.1234075874 0.5479938388 -0.7100583315 -0.528854847 0.434653908
-0.1044261381 -0.1289407909 0.5595181584 -0.4537664056 -0.664853096 0.5734689832
-0.113176778 -0.1244727969 0.5602287054 -0.5743556023 -0.6581811905 0.4793298244
-0.07285499573 -0.04690277949 0.5331983566 -0.2858512402 -0.7414690852 0.6018154621
-0.08263044804 -0.0450845696 0.5330273509 -0.1038255766 -0.7729382515 0.6208841801
-0.08134888113 -0.05623589456 0.5186899304 -0.1262563169 -0.7695905566 0.6188701987
-0.08084526658 -0.05046257749 0.5264931917 -0.130093962 -0.7618880272 0.6282379031
-0.1206729338 -0.110262081 0.5737985969 -0.5407985449 -0.7127406597 0.4436454475
-0.1111354381 -0.1063736677 0.5882606506 -0.3419531286 -0.790653944 0.5039093494
-0.1151258126 -0.1075544879 0.5835869312 -0.4183689654 -0.7626412511 0.4751282334
-0.07105528563 -0.1161289141 0.5763698816 0.253952235 -0.7507320642 0.5992336273
-0.07586140931 -0.1141782627 0.5814197659 0.1557378173 -0.766356647 0.6092343926
-0.07997977734 -0.1186269 0.5781698823 0.1734799147 -0.768786788 0.6117241979
-0.0801949501 -0.1125550494 0.5859053731 0.0674469173 -0.7806913257 0.616337955
-0.1217330247 -0.0461772047 0.5513156652 0.4547805488 -0.6812829971 0.5732043982
-0.1172165498 -0.04978040606 0.5436089039 0.4532493949 -0.6810615659 0.5749610662
-0.1163623706 -0.04421758279 0.5486730337 0.4270501733 -0.6980133057 0.574241817
-0.06346844137 -0.05069641024 0.5331986547 -0.4092989862 -0.7062524557 0.5750269294
-0.06069342047 -0.0550926663 0.5292586088 -0.4221397042 -0.6957891583 0.5780634284
-0.05699198693 -0.05376263335 0.5356985927 -0.5347561836 -0.6500778198 0.5248650908
-0.0565238893 -0.06388524175 0.5266774893 -0.4941608012 -0.6604537964 0.5644780397
-0.05321533233 -0.05870953575 0.5407155156 -0.4554757476 -0.7020778656 0.5168303251
-0.05173649639 -0.05526367575 0.5335527062 -0.4057931304 -0.6408580542 0.540854454
-0.03570625558 -0.0556329079 0.5312760472 0.04032847285 -0.6122953296 0.5848818421
-0.05380788818 -0.05783874542 0.5276516676 -0.3471308649 -0.6697343588 0.5776080489
-0.04418321326 -0.05700500309 0.5287777781 -0.1260801107 -0.6424501538 0.5869630575
-0.039359916 -0.05419430509 0.5349942446 -0.1214166954 -0.6057992578 0.552928865
-0.04563638195 -0.05399943516 0.5360044837 -0.2983215451 -0.6164996028 0.5348764062
-0.009239652194 -0.06364516914 0.5263881683 0.3073814213 -0.6346130371 0.6941993833
-0.008961992338 -0.05586302653 0.5324273109 0.5671163201 -0.5377840996 0.6134634614
-0.008502949029 -0.06910055876 0.5235649347 0.1380714476 -0.6166729927 0.7662855983
-0.01419833116 -0.06858494133 0.5193846226 0.01527768932 -0.5467604399 0.8293998241
-0.09236276895 -0.05859515443 0.5154949427 0.1033072993 -0.7672325969 0.6241400242
-0.1041650996 -0.06130268052 0.5188618898 0.3426739275 -0.7176597118 0.596329391
-0.09451480955 -0.05438890308 0.5206862092 0.152086705 -0.7634339929 0.6276168227
-0.07502900809 -0.07479709387 0.4998379052 -0.2261292189 -0.683563292 0.679048121
-0.08038437366 -0.07543901354 0.4974097013 -0.1307025105 -0.6861231923 0.6957480311
-0.06630128622 -0.07739969343 0.4993587732 -0.365760386 -0.6889501214 0.6192268133
-0.0645576492 -0.07222609967 0.5089632869 -0.4121721387 -0.6919348836 0.5888944864
-0.06124667078 -0.07983198762 0.5030890703 -0.4568471014 -0.6638057232 0.5828103423
-0.06926074624 -0.07436302304 0.502761066 -0.3328568041 -0.6821597219 0.6427625418
-0.1139918715 -0.0668848455 0.5181291103 0.4671153426 -0.6795710325 0.5656335354
-0.05380257964 -0.08132044971 0.5111577511 -0.4801033139 -0.6703749299 0.5644043684
-0.05438218266 -0.07682154328 0.5160186887 -0.4780391753 -0.6734107733 0.5628196001
-0.028674867 -0.07447753102 0.5148508549 -0.2123061121 -0.5396023989 0.7723788023
-0.04479844496 -0.07425390184 0.5140181184 -0.3955504 -0.6195966601 0.6229219437
-0.01901014149 -0.0741007477 0.5155792832 -0.09907546639 -0.4960771203 0.8582363129
-0.02089415863 -0.06961119175 0.5175087452 -0.09041338414 -0.5431391597 0.8097460866
-0.05077396333 -0.07387541234 0.5139807463 -0.4588441551 -0.6461433768 0.5747062564
-0.03277011961 -0.0709913522 0.5162985325 -0.2337866575 -0.5847299695 0.7174509764
-0.05080524087 -0.0688707307 0.5170341134 -0.4104829729 -0.6566132903 0.5923404098
-0.0387545228 -0.07018894702 0.5166028738 -0.2914570272 -0.6087865233 0.67628932
-0.05412515625 -0.07746855915 0.5057826042 -0.4495031536 -0.6540119052 0.5871419311
-0.04291842505 -0.07729549706 0.5091412663 -0.3512151241 -0.5940550566 0.6775681973
-0.04931321368 -0.07712734491 0.5082508922 -0.4162902236 -0.6280998588 0.620214045
-0.03739392385 -0.07693501562 0.5118548274 -0.3120308518 -0.5643255711 0.7162118554
-0.03407716006 -0.09180387855 0.5086028576 -0.2526389956 -0.5420783758 0.7887653112
-0.04166200384 -0.09144249558 0.5138503313 -0.2819063663 -0.6412631273 0.7074397206
-0.04004365206 -0.1044911221 0.5148801208 0.1053067222 -0.5034828186 0.6630393267
-0.04327692091 -0.10148862 0.5101598501 -0.0115229683 -0.5449863076 0.6535966396
-0.04079077765 -0.09427689016 0.5084931254 -0.2200417966 -0.5892760754 0.7350201011
-0.04542866349 -0.09815065563 0.50627321 -0.1312601268 -0.5833308697 0.6577493548
-0.0382703431 -0.1126920655 0.5195297599 0.3740237355 -0.4182141125 0.606143415
-0.03332871944 -0.09779675305 0.5149658322 -0.05846367404 -0.504785955 0.7658278346
-0.03319856152 -0.1056798548 0.5175830126 0.188591972 -0.4290034473 0.6925983429
-0.04634610936 -0.1261897683 0.5304428339 0.6735293865 -0.4625936747 0.5139526725
-0.04458368197 -0.1147728637 0.5216672421 0.3588884473 -0.4952068925 0.5513916016
-0.04637650773 -0.1160392687 0.5278598666 0.3342466056 -0.5715835094 0.5958945751
-0.04523728415 -0.1212683246 0.5255193114 0.5509114265 -0.459169209 0.5194574594
-0.03976277635 -0.09732325375 0.5166088343 -0.1373049021 -0.5965633988 0.7325389981
-0.04113354161 -0.1052820235 0.5241021514 0.1106848195 -0.5585417747 0.7015260458
-0.04048414901 -0.1108192727 0.5300518274 0.2920171916 -0.5334830284 0.6708456874
-0.02919602394 -0.1014368758 0.523579061 0.0972725302 -0.5077322721 0.762133956
-0.03400447592 -0.09958352149 0.5201768875 -0.003541694256 -0.5386070609 0.7617120147
-0.03697028384 -0.1067971811 0.5268772244 0.196794495 -0.5292150378 0.706504941
-0.03371278197 -0.09073780477 0.5147333145 -0.2077963501 -0.5729171634 0.7865579724
-0.02588975243 -0.08418881893 0.5184854269 -0.1768390983 -0.5777744055 0.7781131268
-0.04169463366 -0.08480265737 0.5162579417 -0.3025894761 -0.6244879365 0.7063527107
-0.03333223984 -0.08301686496 0.5180563331 -0.2433738559 -0.6063172221 0.7340361476
-0.04170081764 -0.0906938836 0.5033069849 -0.3006869853 -0.6005004048 0.7266428471
-0.02866562083 -0.08807840943 0.5103443265 -0.2039630264 -0.5096970797 0.8283872008
-0.02353075519 -0.08915786445 0.5133913159 -0.1731543392 -0.4852322936 0.8567674756
-0.02067990787 -0.08316283673 0.5138637424 -0.1388446242 -0.4926856458 0.8586155772
-0.04889023304 -0.08071298897 0.5026264787 -0.3700491786 -0.6383776069 0.6473754644
-0.03952074796 -0.0844104588 0.5053291321 -0.3012430966 -0.6093773246 0.7080885172
-0.02387434617 -0.07780141383 0.5126230121 -0.1655189991 -0.4937551916 0.8428190947
-0.03438150138 -0.08308466524 0.5076323748 -0.2564200461 -0.571539402 0.7536463737
-0.02850599587 -0.08081652969 0.5103045106 -0.2061620802 -0.5302030444 0.8029010296
-0.05729836226 -0.08606380224 0.4970341325 -0.4372401834 -0.6680852771 0.601913929
-0.0530436784 -0.09100110829 0.496802032 -0.4039630592 -0.6730293632 0.619328022
-0.05108964816 -0.1351888925 0.5365642905 0.6304665804 -0.5302395821 0.566827476
-0.05577925965 -0.1340961456 0.5415645838 0.6326829791 -0.5276764035 0.5667893887
-0.05332836509 -0.1278597564 0.5418365598 0.6348659396 -0.5292966366 0.5628051758
-0.06109572202 -0.1320383549 0.548617661 0.5666511059 -0.573856771 0.5844143033
-0.0992615968 -0.07594689727 0.4977228045 0.2567892969 -0.7212221622 0.629404068
-0.1027237028 -0.07967783511 0.493506968 0.3173556328 -0.7080426812 0.6242878437
-0.1026607901 -0.07273363322 0.5017428398 0.3504962325 -0.7186490297 0.5996835828
-0.1052645743 -0.07701841742 0.5002916455 0.365665704 -0.7072948217 0.6047094464
-0.1078651994 -0.08054082841 0.4966177046 0.380030334 -0.7002854347 0.6041536927
-0.08974277973 -0.07893526554 0.4930048585 0.01511830837 -0.6820726991 0.727419436
-0.06840191036 -0.08198336512 0.4963512421 -0.3086484671 -0.6645569801 0.658290565
-0.07403150946 -0.08006501943 0.4954611063 -0.2412944734 -0.6787760258 0.6616835594
-0.08456195146 -0.08133428544 0.4921262562 -0.07547964901 -0.6685836911 0.7221031189
-0.09497784823 -0.08307234198 0.4908274114 0.06987932324 -0.6940252781 0.704893589
-0.1038506106 -0.08961331844 0.4900940657 0.242732659 -0.7191656828 0.6329638958
-0.09596956521 -0.07811269909 0.4908141792 0.1446069479 -0.7210709453 0.675810039
-0.07366146147 -0.1360384524 0.5536529422 0.3285092711 -0.6622649431 0.6709474325
-0.06863252074 -0.1336890608 0.5516463518 0.4258440137 -0.6208567619 0.6414455771
-0.06361673027 -0.1279896796 0.555147171 0.5002967715 -0.6434593201 0.5776375532
-0.06870262325 -0.1382237673 0.5489299893 0.4478726685 -0.5939304233 0.6654906273
-0.08167137206 -0.1385857463 0.551322341 0.1559998542 -0.6430702209 0.6933767796
-0.09888178855 -0.1392813772 0.5492866635 -0.2795844078 -0.6271545887 0.6941962242
-0.08831103891 -0.1392675787 0.5489615202 -0.02450071834 -0.6160336733 0.6907052398
-0.07744332403 -0.1336909384 0.5582000017 0.2846927643 -0.701215148 0.647672236
-0.0937859267 -0.1372156143 0.5544221997 -0.1424809694 -0.6771387458 0.7052733898
-0.08302085102 -0.1361762583 0.5582743287 0.1239864007 -0.7371986508 0.6548169255
-0.08555938303 -0.1404898763 0.5545859337 0.06389908493 -0.713783145 0.6938688159
-0.09075280279 -0.1365456134 0.5586906672 -0.07141681761 -0.738853097 0.657820344
-0.09101701528 -0.1421854645 0.5527766943 -0.05025250092 -0.6902210712 0.7133212686
-0.03349055722 -0.05766967684 0.5570702553 0.09082975984 -0.844848156 0.4201154411
-0.02570169047 -0.05237745494 0.5565680861 0.2098868191 -0.8412272334 0.3884786665
-0.02318814769 -0.05292426795 0.551476717 0.2851630449 -0.7764849067 0.4389905632
-0.03955259547 -0.06085267663 0.5556917191 -0.06976371258 -0.8276785016 0.4905495942
-0.02385695092 -0.05697790533 0.5442537069 0.3211808503 -0.6920648813 0.5270469785
-0.03114576265 -0.05892074108 0.5515015125 0.1564332098 -0.7858200073 0.4717899263
-0.01947959699 -0.05708120763 0.5387682915 0.4065305591 -0.6456518173 0.5628153086
-0.01467969362 -0.05561623722 0.5341608524 0.5170074105 -0.5824660063 0.5988263488
-0.02734557353 -0.04663098976 0.5617828369 0.04591340944 -0.9589905143 0.2752073109
-0.02729559503 -0.04123971984 0.5607147813 0.008699198253 -0.9774162173 0.1602376103
-0.03208853677 -0.04308583587 0.563591361 -0.01760189049 -0.9861292839 0.001826960011
-0.06137389317 -0.05885124579 0.5242776275 -0.4019235373 -0.7022129893 0.5868533254
-0.06643667817 -0.05870843679 0.5224116445 -0.3684493899 -0.7208597064 0.5861335397
-0.06874776632 -0.06384531409 0.5149880052 -0.3582884371 -0.7226345539 0.5835578442
-0.07141170651 -0.0594974272 0.5184980035 -0.3042176068 -0.7416111827 0.5919151902
-0.06598383188 -0.05508010462 0.5268290639 -0.3703247607 -0.7209374905 0.5854241252
-0.05844791606 -0.04473889619 0.5533185601 -0.505975008 -0.5776512027 0.6197833419
-0.05582298711 -0.05458980426 0.5439920425 -0.4896968305 -0.6545625925 0.5665697455
-0.04701688141 -0.05661386251 0.559468329 -0.2805980146 -0.7225366831 0.5500898957
-0.05073637888 -0.0502310656 0.560182333 -0.4173589945 -0.4123108983 0.7726019621
-0.04744268581 -0.05940205604 0.5530511141 -0.3007349074 -0.7685343027 0.5366500616
-0.05044194311 -0.05496704578 0.5554490089 -0.4222127497 -0.6441037655 0.6299142838
-0.05108616501 -0.0580114685 0.5466210842 -0.4029338658 -0.7277474403 0.5169719458
-0.08999291062 -0.1161604971 0.5842074752 -0.08409456164 -0.7945997715 0.5947368145
-0.08659235388 -0.1173781604 0.5802599192 0.01764226332 -0.7773214579 0.6084100604
-0.09636381269 -0.1154149696 0.5821638703 -0.1946839243 -0.7825478911 0.5812680125
-0.102207996 -0.1154587343 0.5811828971 -0.2809547484 -0.7810330987 0.5550035834
-0.1071961448 -0.1162195727 0.5776494741 -0.4196369946 -0.745605588 0.5162580013
-0.1044315025 -0.1206725091 0.5748106241 -0.3786559701 -0.7610577941 0.5254881382
-0.1108358353 -0.04055555537 0.5471050739 0.3882544935 -0.7158501148 0.5798223019
-0.1122935116 -0.04622428864 0.5428310037 0.4095918834 -0.70554775 0.5752322078
-0.1227058023 -0.0552998744 0.5422575474 0.4996933937 -0.6620537639 0.5578084588
-0.1185360625 -0.06056911126 0.5314946175 0.5021827221 -0.6615134478 0.5561878681
-0.1206657961 -0.1136551574 0.5690325499 -0.5903058052 -0.6774454713 0.4305555224
-0.1200226918 -0.1177821159 0.5639133453 -0.6414014101 -0.6371912956 0.4168361127
-0.0992199257 -0.1092829779 0.5916029215 -0.2186195403 -0.8019959927 0.5529037714
-0.1073153913 -0.1049639955 0.5935429335 -0.2818048596 -0.8066539168 0.518728137
-0.1043215692 -0.1080993414 0.5868179798 -0.2918847799 -0.7862238288 0.5384555459
-0.09319468588 -0.1087089851 0.5894482732 -0.1460732818 -0.7954844236 0.5778467059
-0.1077599525 -0.1108081788 0.5820088387 -0.3363716006 -0.7758647203 0.5286991
-0.1149583906 -0.109484598 0.5763669014 -0.4675160646 -0.7316952348 0.4944445789
-0.09840466082 -0.1192993671 0.5763306022 -0.2495952398 -0.7640581131 0.5742204785
-0.09241832793 -0.1192710921 0.5784666538 -0.1052101031 -0.7752729058 0.5975872278
-0.1030903235 -0.1191909015 0.5688682199 -0.3740271628 -0.7237803936 0.5230258107
-0.1135281101 -0.1138121113 0.5741049647 -0.4904818833 -0.7264903784 0.4808732271
-0.09284352511 -0.1194624379 0.5723045468 -0.1261834651 -0.7454382181 0.562340498
-0.08571201563 -0.1223624274 0.5745268464 0.05544732139 -0.7901551127 0.5934830904
-0.1087371409 -0.1209880337 0.5694950819 -0.4621122181 -0.7299042344 0.4917290211
-0.09060517699 -0.1250875443 0.5678474903 -0.0524812825 -0.7664476037 0.579549253
-0.09684604406 -0.1225309819 0.5674604177 -0.214076668 -0.7458978295 0.5454111099
-0.1091806144 -0.1213423088 0.5623722672 -0.5381036401 -0.681289196 0.4938169122
-0.1152892709 -0.1203833371 0.5537894964 -0.6710722446 -0.5909178853 0.425288409
-0.07455403358 -0.06475317478 0.5108498931 -0.2590269744 -0.7394940257 0.6202738881
-0.07271645218 -0.07002533227 0.505037725 -0.2903409004 -0.7047064304 0.64335531
-0.04753131047 -0.08963166922 0.5010204315 -0.351513207 -0.6504899859 0.6677402258
-0.05369044095 -0.1421726048 0.5341922641 0.6044766903 -0.5386561155 0.5862297416
-0.05751265213 -0.1386849284 0.5375456214 0.5891378522 -0.5289310217 0.6066120863
-0.06081486493 -0.1364286542 0.5441086888 0.5921319723 -0.5309066772 0.6046398878
-0.06248659268 -0.1426149756 0.5421188474 0.5601146817 -0.5307611227 0.6347182393
-0.03572095931 -0.05524566025 0.5642200112 0.008905464783 -0.9483312368 0.2877725959
-0.03119264916 -0.05090390518 0.5648531914 0.06751542538 -0.9630463719 0.2303566635
-0.07626783848 -0.05506348982 0.5218187571 -0.2261315137 -0.7609856725 0.6042768955
-0.06681469828 -0.04697906971 0.5359079838 -0.3837010264 -0.7209596038 0.5762748122
-0.06826332211 -0.05083350837 0.5307053328 -0.3531163633 -0.7287814617 0.5840049386
-0.07639101148 -0.05442934856 0.5272323489 -0.2020566911 -0.7512037158 0.6141298413
-0.07149913162 -0.05726379156 0.5252389312 -0.293376267 -0.7398748398 0.595900476
-0.0574730821 -0.05073547363 0.5483025312 -0.4578885734 -0.6523596048 0.5989527702
-0.0613935329 -0.05197966471 0.5400518179 -0.4303680956 -0.6944958568 0.5725613832
-0.05839176103 -0.0441012159 0.5474265814 -0.540476203 -0.6248018742 0.5494474173
-0.0308865346 -0.04235718399 0.5488882661 -0.0141855767 -0.7406743169 0.5301985741
-0.04320153967 -0.0455054827 0.5460968018 -0.2953540981 -0.691742897 0.5053150058
-0.04932941496 -0.04711475223 0.5446871519 -0.4362213016 -0.6669738889 0.4928882122
-0.02300276607 -0.03935718164 0.5546400547 0.1547700316 -0.8674433231 0.4383103848
-0.04481301084 -0.04191403091 0.5534499288 -0.2867451012 -0.691187501 0.5393974185
-0.03090559505 -0.04076076299 0.5546679497 -0.02617878094 -0.8780996203 0.3772391379
-0.03828237578 -0.04260871187 0.551718235 -0.1811932027 -0.8133580685 0.4076176584
-0.04886429757 -0.04421604797 0.5494315028 -0.3893747032 -0.6914488077 0.4981568158
-0.06176077202 -0.04565510526 0.542361021 -0.5016129017 -0.6922777295 0.5108549595
-0.05647107959 -0.04933649674 0.5427856445 -0.6036697626 -0.6356694698 0.479598552
-0.1099476367 -0.04794889316 0.5386143923 0.3867464662 -0.7176654339 0.5769946575
-0.1130285487 -0.05300815031 0.5346906185 0.4473876357 -0.6899477243 0.5670472383
-0.1037433445 -0.05230835453 0.5302218795 0.3075687885 -0.7283095121 0.5923196673
-0.1099021658 -0.05389377475 0.5306296349 0.4198991954 -0.7026478648 0.5719444752
-0.1234270856 -0.08358186483 0.518678844 0.2292343974 -0.5639833808 0.5161672831
-0.1268131137 -0.09853343666 0.5215311646 -0.3275948465 -0.3521081209 0.3891485631
-0.1252788007 -0.1006740332 0.5321925879 -0.3818923831 -0.4477187395 0.4179350436
-0.1241222247 -0.09532112628 0.5327766538 -0.1923075169 -0.5329738855 0.4643238485
-0.1234801039 -0.1143273488 0.5429336429 -0.7485843301 -0.4454440176 0.3961809576
-0.1288548559 -0.1126554012 0.5283424854 -0.8305369616 -0.2121559829 0.2940266728
-0.1262147874 -0.08780245483 0.5240232944 -0.01749815419 -0.4842892885 0.4538930357
-0.1240516081 -0.08766708523 0.5295342207 0.03981436417 -0.5831407309 0.498460412
-0.1257682443 -0.1146436632 0.5371818542 -0.8144183755 -0.3398200274 0.3482994735
-0.1283044517 -0.1071131527 0.5272805691 -0.6501713991 -0.2711049318 0.328897506
-0.1235084161 -0.0822153613 0.5263984799 0.2273433805 -0.6269177198 0.5303455591
-0.1233090088 -0.1072997451 0.5395866036 -0.529753685 -0.4919310808 0.4289312363
-0.1232279316 -0.0779684186 0.5230088234 0.3727024198 -0.6506041884 0.5516049862
-0.1230845153 -0.05920517445 0.538348496 0.5250379443 -0.649889648 0.5494686365
-0.1214699522 -0.06563446671 0.5291140079 0.4953741133 -0.6654912233 0.5576534271
-0.123151876 -0.06274686009 0.5344690681 0.5118870139 -0.6568726897 0.5530310273
-0.1156974807 -0.0644678697 0.523848176 0.4774313867 -0.6742839813 0.5632686615
-0.1234278306 -0.07092071325 0.5242404342 0.4832520485 -0.6728056073 0.5598601699
-0.1137793213 -0.1181008816 0.5589305758 -0.616946876 -0.6363697648 0.4428260028
-0.1111784652 -0.1166491807 0.5663580298 -0.5259155631 -0.6991613507 0.4816633761
-0.118326053 -0.111663349 0.5629314184 -0.6380681992 -0.6315258145 0.430600822
-0.1215360686 -0.1114890948 0.5588639975 -0.6969410777 -0.6002836823 0.390988946
-0.04085482657 -0.05635180324 0.5636509657 -0.05299853161 -0.9496827126 0.2736805379
-0.03771912679 -0.04825913161 0.5641596913 -0.01650883444 -0.9942877293 0.06286365539
-0.04489136487 -0.05239564553 0.5633353591 -0.14200899 -0.8168680072 0.3809202015
-0.04577691481 -0.04656078294 0.5637252927 -0.1236781403 -0.8772805929 0.2475417107
-0.1016547978 -0.04389469326 0.5360364318 0.2585788369 -0.7450873852 0.6091165543
-0.106614165 -0.0486295335 0.5338423848 0.358276546 -0.7237977386 0.5868121386
-0.1067076772 -0.04270043224 0.5413991809 0.3527709246 -0.7367597222 0.5763643384
-0.09397800267 -0.0435215421 0.5369819403 0.1378619969 -0.7629759908 0.6188579202
-0.09438452125 -0.04859597236 0.5323324203 0.1296820194 -0.7504342794 0.6166501045
