# .PCD v0.7 - Point Cloud Data file format
VERSION 0.7
FIELDS x y z normal_x normal_y normal_z
SIZE 4 4 4 4 4 4
TYPE F F F F F F
COUNT 1 1 1 1 1 1
WIDTH 512
HEIGHT 1
VIEWPOINT 0 0 0 1 0 0 0
POINTS 512
DATA ascii
0.003132145386 -0.1001161337 0.5789152384 0.6749868393 -0.509454608 0.5332164168
-0.0001120336019 -0.09905743599 0.5847423673 0.6274751425 -0.5306555629 0.5694293976
-0.05412679911 -0.0827909261 0.6211349368 -0.1498478651 -0.6162798405 0.7696421742
-0.06483218819 -0.0917711705 0.6109898686 -0.3506070077 -0.6206392646 0.6985002756
-0.07197095454 -0.08499700576 0.6102905869 -0.4498105347 -0.5679930449 0.6706758738
-0.06256578863 -0.08122466505 0.6175795794 -0.2683667541 -0.6047073007 0.7374632955
-0.06661258638 -0.08714929223 0.6147723198 -0.3759150803 -0.6026288867 0.7035787106
-0.09333264828 -0.1263488531 0.5501739383 -0.7729912996 -0.3754605949 0.5104742646
-0.09004812688 -0.1288371682 0.5541628003 -0.746470511 -0.3893219829 0.5374172926
0.0326712653 -0.0584490411 0.5161286592 0.04343468323 -0.4113906324 0.8977507353
0.02893503755 -0.05048464611 0.5121135116 0.05120601133 -0.3979583383 0.9153757095
0.03388236836 -0.04622697458 0.515106082 0.2086381018 -0.564528048 0.7931161523
-0.06084142625 -0.08632656187 0.6157934666 -0.2599528134 -0.6231765747 0.7342204452
-0.05754565075 -0.09148038924 0.6142193675 -0.2242438644 -0.6371329427 0.7349379063
-0.1009675339 -0.1108444035 0.5461003184 -0.8085532188 -0.3816525936 0.4477362633
0.01458013803 -0.06682499498 0.512147069 -0.2474316061 -0.4420478344 0.823292017
0.008982373402 -0.06727331132 0.5103259087 -0.3660703003 -0.4868794978 0.7540071607
0.01534731127 -0.06018203869 0.5111925602 -0.1749435961 -0.3874396086 0.8802486658
0.02115747146 -0.06309790909 0.5131021142 -0.1047699302 -0.3770751357 0.9077267647
0.03446965665 -0.04044924676 0.517709434 0.208203882 -0.6829064488 0.6834738255
0.02372872829 -0.06351911277 0.5206767321 -0.09693938494 -0.4252568483 0.885112524
0.01560974121 -0.05846663937 0.5316069126 -0.2302725017 -0.5339690447 0.7852265239
0.01804119349 -0.06555536389 0.5241565108 -0.1643056273 -0.458535701 0.8559521437
0.02114917338 -0.0581587255 0.5269626379 -0.1568371952 -0.4886735678 0.8258904219
0.02829430625 -0.06212210655 0.5177053809 -0.04175281525 -0.3967158496 0.9102594256
0.01972264051 -0.06925167143 0.5199076533 -0.1243177727 -0.4156433344 0.8960354328
0.007975745946 -0.04356298223 0.5359550118 -0.5308812857 -0.5696457028 0.6008556485
0.01096461061 -0.04460272193 0.5407377481 -0.375856787 -0.6537780166 0.6497219801
0.03877793998 -0.04446388781 0.5205757022 0.3444772363 -0.6610772014 0.6516902447
0.03071598709 -0.04557111487 0.5272711515 0.1165078133 -0.6388525367 0.6772843003
0.02486413717 -0.04636863247 0.532135427 -0.04890698195 -0.6228268147 0.6957602501
0.01855160296 -0.04757489264 0.5371404886 -0.2306563109 -0.5995820761 0.7213959098
0.02127179317 -0.05032533035 0.5326951146 -0.1836480349 -0.5532843471 0.7642793059
0.03546943888 -0.05092087388 0.5191226006 0.193450138 -0.5485903025 0.7611840367
0.02844224311 -0.05525296926 0.5226023793 -0.03749646619 -0.4712379277 0.8390187621
0.0251779072 -0.05227713659 0.5277097225 -0.09701807797 -0.5212038159 0.7929133773
0.02704192698 -0.05730298907 0.5134274364 -0.01557524595 -0.3499237597 0.9358354211
0.009810974821 -0.0203136839 0.5545272827 -0.4104056358 -0.6074155569 0.6703041792
0.00450714957 -0.01749868877 0.5554711223 -0.5109919906 -0.5631967783 0.6456596255
-0.06629604846 -0.05345317349 0.4964161217 0.4089746177 -0.6102411151 0.6777520776
-0.07216683775 -0.05318342522 0.5005571842 0.4850116074 -0.5813238621 0.6524111629
-0.07504416257 -0.05874800682 0.4972996414 0.5107754469 -0.5648244619 0.6476751566
-0.06071932614 -0.04905896634 0.4985919595 0.3078793585 -0.6201491952 0.7098700404
-0.05850717798 -0.05298133567 0.4937976301 0.2651297152 -0.6209282279 0.7314084172
-0.08777645975 -0.02181678824 0.5463648438 0.57183671 -0.5644884706 0.5946888924
-0.08462954313 -0.01655565389 0.5471971631 0.5509800911 -0.5730302334 0.6062706709
-0.09206958115 -0.02373970672 0.550367713 0.5877506733 -0.5574474335 0.5861293674
-0.08567619324 -0.06282262504 0.5055434704 0.5813043714 -0.5397390723 0.608271718
-0.08231634647 -0.0550981015 0.5102555752 0.5961305499 -0.5452895164 0.5887290239
-0.08068868518 -0.05735497549 0.5054191947 0.5591112375 -0.5568246841 0.6134782434
-0.08024699986 -0.06237798557 0.4991832674 0.5529876947 -0.5634342432 0.6137592793
0.001815781929 -0.0139322402 0.5511100292 -0.5216136575 -0.6015163064 0.592087388
-0.007384271361 -0.01038754452 0.5461028814 -0.5462540984 -0.6250688434 0.5562567711
-0.00287247356 -0.01240249909 0.549233377 -0.5770660639 -0.5867657065 0.5678178668
0.002320873085 -0.02168344148 0.5482671261 -0.5622531176 -0.5486955047 0.6119168997
-0.0405655317 -0.08483201265 0.6205042005 -0.007272136398 -0.6187644601 0.7788045406
-0.04830153286 -0.0828461349 0.6203389168 -0.08939354122 -0.6175962687 0.7713271976
-0.04919634014 -0.09063787758 0.6171258092 -0.1111824363 -0.6356158853 0.7611213326
-0.05450360104 -0.0871539861 0.6175031066 -0.1674456447 -0.6301710606 0.7556471825
-0.04309746251 -0.09142901003 0.6180346012 -0.03724103048 -0.6346558928 0.7701099515
-0.03449632972 -0.1440418363 0.5687186718 0.1259486675 -0.6904318333 0.7117922306
-0.0419475846 -0.1436480284 0.5691817403 -0.003924750257 -0.6854990125 0.7226047516
-0.003174777841 -0.09927509725 0.5900664926 0.5896042585 -0.5492586493 0.590524137
0.005538380705 -0.04669495672 0.5279302597 -0.5627053976 -0.5412762761 0.607935071
0.02044440433 -0.02372265048 0.5487610102 -0.1481367648 -0.7771362662 0.5632690787
0.03491437435 -0.02601066232 0.5317764282 0.1085964516 -0.8492367864 0.5105468631
0.03656095639 -0.03675470129 0.5325965285 0.2197273374 -0.7673127651 0.5692820549
0.03456866741 -0.03051645868 0.5358089209 0.1308319122 -0.8282033205 0.5247047544
0.02902944386 -0.03893721476 0.5369317532 0.05766496062 -0.7424291372 0.5914648771
0.03017967753 -0.03517505899 0.5414350629 0.05936103314 -0.7991667986 0.54711169
0.01531822979 -0.04125068709 0.5457993746 -0.2848081589 -0.7036399841 0.6279361844
0.0371097289 -0.03991645202 0.5282608271 0.2772401869 -0.7301737666 0.5970829129
0.02927481942 -0.04213306308 0.5320123434 0.08832129091 -0.6945986152 0.6282771826
0.02443003654 -0.03929695114 0.5405186415 -0.06037142128 -0.735657692 0.5988811255
0.03251839057 -0.02800812945 0.5416311622 0.07149920613 -0.8644580245 0.497225374
0.02796780132 -0.02496229857 0.5427169204 0.01966290176 -0.8723708391 0.4865186512
-0.03315319493 -0.0862416774 0.6201660037 0.07716762275 -0.6229903102 0.7763297558
-0.0291970633 -0.0968978703 0.6124925613 0.1820243299 -0.6509424448 0.7331423759
-0.06895392388 -0.05911857635 0.4931548536 0.4427008927 -0.5969919562 0.6680840254
-0.07490095496 -0.05095383897 0.5062031746 0.5286896229 -0.5712895989 0.6232101321
-0.06970258802 -0.04735826701 0.5041723847 0.4504422545 -0.6035458446 0.6540959477
-0.06634331495 -0.0492741093 0.5002700686 0.4029246271 -0.6178959608 0.6725651026
-0.05929078534 -0.0066521056 0.5365208387 0.2718268931 -0.6992260218 0.6558020115
-0.06076094508 -0.002706861822 0.5410916805 0.2864041626 -0.7170831561 0.6301208138
0.005197990686 -0.03602414578 0.5394819975 -0.5756962299 -0.5499811769 0.5971329808
0.02878797986 -0.02458325401 0.537057817 -0.02024636604 -0.8105003834 0.5482391119
0.009064994752 -0.01848224178 0.539640069 -0.3434110284 -0.6852306724 0.5387075543
0.01425003354 -0.02208792791 0.5372266173 -0.2896992266 -0.6900837421 0.539963603
0.01836988889 -0.02317759767 0.5433521271 -0.2228456587 -0.7220421433 0.6127279997
0.0221833922 -0.022860853 0.5387789607 -0.1362907439 -0.762167573 0.5613659024
0.01100109704 -0.02171435952 0.5467323065 -0.3557763994 -0.667814672 0.6383048892
0.002907402581 -0.01762991399 0.5439317226 -0.4608183205 -0.6360735297 0.5784587264
0.01789905131 -0.1179844588 0.5395644903 0.883579433 -0.2013381571 0.3653170466
-0.04891433939 -0.142731443 0.5686826706 -0.113161765 -0.6767517924 0.7240928411
-0.03641045466 -0.09402180463 0.614315927 0.07323957235 -0.652582109 0.7518299818
-0.03724132106 -0.09032431245 0.6181876659 0.03133878112 -0.6357299685 0.7688516974
-0.09205984324 -0.08894126117 0.5835024118 -0.7559296489 -0.4497296214 0.4751521945
0.007887209766 -0.02946172096 0.5497576594 -0.4356913269 -0.5916008353 0.6762560606
0.004090478644 -0.02702080272 0.5457907915 -0.5864504576 -0.5314002037 0.5993507504
0.03928987309 -0.03948078677 0.5219222903 0.3295329809 -0.7031720877 0.6248569489
0.00622587651 -0.04733587429 0.5175275207 -0.4489644766 -0.5471634865 0.6439154744
0.02300772816 -0.0430724062 0.5177547932 -0.05794215947 -0.6331576705 0.6624372602
0.01661979407 -0.04827684909 0.5151541829 -0.2190485895 -0.4876740575 0.7605409622
0.02843616158 -0.04086273164 0.5184113383 0.07138642669 -0.6871210933 0.6440432072
0.02207405493 -0.04958109185 0.5114693046 -0.05913117528 -0.4325146377 0.8564095497
0.01029855385 -0.048949752 0.511020124 -0.2567782104 -0.4813139439 0.7600758672
0.003779964987 -0.04804002121 0.5118178725 -0.3773803711 -0.5077034235 0.7024431229
-0.001260470599 -0.04615825415 0.5146355629 -0.4941709042 -0.5267955661 0.648824513
0.02556901425 -0.03326713294 0.5490490198 -0.03245487064 -0.8346580863 0.528568387
0.02162477374 -0.03666572645 0.5470693111 -0.1430170685 -0.7763299346 0.5704829693
0.03074236214 -0.03029048257 0.5474364161 0.0513272658 -0.8663852215 0.4961780906
0.02703010291 -0.0270373933 0.5498018861 -0.03497593477 -0.8179602027 0.5310461521
0.01941604912 -0.02368981577 0.5552212 -0.2243132889 -0.6981377602 0.6117479801
0.01304581668 -0.02144806087 0.5603197813 -0.3869242668 -0.5943476558 0.6848913431
0.02188491635 -0.02898514085 0.5526972413 -0.1088033989 -0.8043242693 0.554821074
0.01455735136 -0.02735467814 0.5567296743 -0.3050112426 -0.6639384627 0.6606378555
-0.06055416539 -0.05632641166 0.4891049266 0.2868136764 -0.600350678 0.7452933788
-0.00851798337 -0.04440655932 0.5138528347 -0.553032279 -0.5580732226 0.6176476479
-0.05292479321 -0.05007618666 0.4945456982 0.1731651574 -0.636892736 0.7481514215
-0.04739769921 -0.05257161707 0.4908865988 0.07830254734 -0.638592124 0.7628653646
-0.05318066105 -0.05461087078 0.4894500375 0.1636726558 -0.6149218082 0.7689464092
-0.07372567058 -0.01172417495 0.5401408076 0.4861346185 -0.6199764609 0.6152626872
-0.06993181258 -0.006926392205 0.542729795 0.4205395579 -0.6503661275 0.6266173124
-0.07473293692 -0.007555521093 0.5456477404 0.4733372331 -0.6278911829 0.6172066927
-0.0793710649 -0.009946962819 0.5485080481 0.5060840845 -0.6007559299 0.6173277497
0.03504543379 -0.03286914155 0.5240485072 0.2094406933 -0.7630551457 0.6092122197
-0.01209199149 -0.03856558353 0.5163740516 -0.5042431355 -0.5815003514 0.6367602944
-0.01407290995 -0.04345129803 0.5099989176 -0.4982703924 -0.5863471627 0.6381391287
-0.01696482487 -0.03796667978 0.5130815506 -0.4425830245 -0.6088407636 0.6570068002
-0.09263715148 -0.06245398149 0.5164004564 0.6352526546 -0.518451035 0.5722199082
-0.08769500256 -0.06031633541 0.5118123889 0.6234813333 -0.526464045 0.577910006
-0.08563324809 -0.0539936386 0.5146018863 0.6219076514 -0.5298632383 0.5762414336
0.009776739404 -0.1228384972 0.5490259528 0.7433799505 -0.4516061246 0.4932389855
0.01520954259 -0.08907286823 0.5359113216 0.3075084984 -0.3738057911 0.6769792438
0.01740256511 -0.1047825292 0.5335877538 0.6712580323 -0.2291523069 0.4719018042
0.01593476906 -0.1001924276 0.5380891562 0.5797960162 -0.2945626378 0.5309867859
0.01389097236 -0.09672561288 0.5458114147 0.5274742842 -0.3701380193 0.5746681094
0.0153964879 -0.08359245211 0.5323218703 0.1635534018 -0.397626847 0.7494831681
0.01611323841 -0.07743018866 0.525944531 -0.007388770115 -0.4102355838 0.8315193057
0.01383161638 -0.1070369706 0.5512136221 0.7930855751 -0.3171364069 0.4385477602
0.01749394275 -0.1107115969 0.5361139774 0.8217366338 -0.1951637417 0.3937587738
0.01616091281 -0.09566742927 0.5347936749 0.4596506357 -0.3122219145 0.5909234285
0.01653973758 -0.09014127403 0.5302945375 0.3110838234 -0.3309155703 0.6642246842
0.01784909703 -0.1132431701 0.5426248908 0.9078317881 -0.1686014831 0.3478402197
-0.001150236349 -0.1246023998 0.5635622144 0.6913989186 -0.4804894328 0.5380641222
-0.09922021627 -0.1161631867 0.5463493466 -0.7969571948 -0.3879656792 0.4621942639
-0.09607717395 -0.1222206354 0.5477156639 -0.7867157459 -0.3782947958 0.4869728982
-0.09986443073 -0.1059167609 0.5546894073 -0.8221654892 -0.3696302176 0.4320190847
-0.079229258 -0.02380328625 0.5345321894 0.5685530901 -0.5588614941 0.6030464768
-0.07649968565 -0.01844622381 0.5374214649 0.5386150479 -0.5749705434 0.615601778
-0.08102336526 -0.01674506068 0.5430782437 0.5452517867 -0.5739833713 0.610311985
-0.08155212551 -0.02093306184 0.5387410522 0.5634977818 -0.565826118 0.6005477309
-0.09222137183 -0.09237422794 0.5785382986 -0.7607728839 -0.4465430677 0.4690100849
-0.09578055888 -0.09357094765 0.5711978674 -0.793194592 -0.4088326395 0.4497388303
-0.1002978683 -0.09743092954 0.5587399006 -0.8311644197 -0.3626556695 0.4213080704
-0.0992481187 -0.09122508019 0.5651023388 -0.8216461539 -0.3754405379 0.4287037551
0.009210926481 -0.0393435508 0.5433750153 -0.4210283756 -0.6187729836 0.6604002714
0.007749827579 -0.03471253067 0.5458254814 -0.4660187662 -0.6040136814 0.6429176331
0.01293670386 -0.0348595269 0.5503700376 -0.3154250383 -0.6789684892 0.6602647305
0.01951749995 -0.03371993825 0.5516166687 -0.146382764 -0.7781333923 0.587505579
-2.35715961e-05 -0.05795049667 0.5130231977 -0.5306173563 -0.5502563119 0.6440361142
0.001344980905 -0.05269701779 0.5182685852 -0.5486149788 -0.5543233752 0.6234742999
0.001139278989 -0.04739105329 0.5224713087 -0.5940549374 -0.5559749007 0.5773511529
0.005838936195 -0.061423406 0.5069359541 -0.3799789548 -0.4593076408 0.7541748285
-0.01345602889 -0.05552638322 0.4993147552 -0.4973345399 -0.5652656555 0.657401979
-0.01266666502 -0.06102856621 0.4962359965 -0.4862116277 -0.5486976504 0.6793087125
-0.01493821573 -0.04797525331 0.5048669577 -0.4755232334 -0.5908584595 0.6514217854
-0.01098636352 -0.04806453362 0.5108064413 -0.507322669 -0.5823944807 0.6307896376
-0.01981222071 -0.04390887171 0.5072510242 -0.4243583679 -0.6143519282 0.6620195508
-0.02216783352 -0.04726351798 0.5012745857 -0.3696453273 -0.6191592813 0.6877651215
0.0005271736882 -0.02432773635 0.5424550176 -0.6508387923 -0.5181358457 0.5526547432
-0.003945393022 -0.01870615222 0.5429736972 -0.5757225156 -0.5688571334 0.5866919756
-0.01142683066 -0.01229594462 0.5411103368 -0.4967664778 -0.6268854141 0.5989513993
-0.008157630451 -0.01797814108 0.5384938717 -0.5765362382 -0.5780443549 0.5774204135
-0.04553284869 -0.00963395182 0.5311137438 0.02858962491 -0.6977203488 0.7120858431
-0.04636912793 -0.002055638237 0.5389594436 0.03569228947 -0.7345765829 0.6728229523
-0.05492894351 -0.001741438173 0.5397158265 0.1973675936 -0.7464176416 0.633457005
-0.03642312065 -0.005722805858 0.5351581573 -0.1277377903 -0.7163663507 0.6840893626
-0.04390261322 -0.005677055568 0.5342403054 -0.02076983266 -0.7057719231 0.7066680193
-0.0390755944 -0.001599451178 0.5393565893 -0.08714538068 -0.7359577417 0.6668130159
-0.03238555416 -0.04086209461 0.5057497025 -0.2060490251 -0.6574731469 0.6899085641
-0.09109846503 -0.1004414782 0.5742400885 -0.768212676 -0.4319460988 0.4690384269
-0.08818234503 -0.105265744 0.5753136277 -0.7575334907 -0.4375938177 0.4814459085
0.01406701002 -0.1134402603 0.5492314696 0.8313151002 -0.302703768 0.4159264266
0.01035995223 -0.1124139503 0.5540041924 0.7589695454 -0.4350563884 0.48428756
0.0114811603 -0.1183281913 0.5458671451 0.7518287301 -0.445166409 0.4861907363
0.007104931399 -0.1272713989 0.5504933596 0.7321413159 -0.4666834176 0.4959980845
0.0009045755723 -0.1273062825 0.5574347377 0.7013377547 -0.4881108701 0.5181878805
0.002634608187 -0.1222504675 0.5590824485 0.7219784856 -0.4646067023 0.5114146471
-0.005766646005 -0.06328631192 0.4992053509 -0.5408306122 -0.5203962326 0.6607278585
-0.004142925143 -0.0618541874 0.5048127174 -0.5266407728 -0.5327418447 0.6620762944
0.003556731623 -0.06258138269 0.5149629116 -0.4708921015 -0.5633175969 0.6735324264
0.0002255843719 -0.06321452558 0.5089873672 -0.5186059475 -0.5407882929 0.6616957188
0.01249538641 -0.1094253138 0.5433911681 0.6412946582 -0.4528707862 0.5074542761
0.008995211683 -0.07575850934 0.5207220316 -0.2514843643 -0.5709646344 0.704672575
0.01139972266 -0.1020040959 0.5445094109 0.5120820403 -0.4672161639 0.5355619192
0.009929538704 -0.09144695848 0.5444310308 0.3098224998 -0.4908130467 0.5797406435
0.01035162993 -0.09969849139 0.5582091212 0.6195048094 -0.4461566806 0.5107444525
0.01097397879 -0.0971095562 0.539645493 0.3649564683 -0.4873817563 0.5681743026
0.01204520464 -0.1042779535 0.5383221507 0.4870797098 -0.4739897847 0.5416352749
0.009491080418 -0.08029720932 0.5233252645 -0.1361316741 -0.5559095144 0.6792230606
0.01076631993 -0.1004971936 0.5524895191 0.5715296865 -0.4553129375 0.5217884183
0.009472053498 -0.08444905281 0.534943521 0.07182908058 -0.5241502523 0.6330958605
0.01240392029 -0.09427996725 0.5509574413 0.4869161844 -0.4240145385 0.6034271121
0.01079498883 -0.08074875921 0.5299227238 -0.0212004818 -0.510789156 0.6948019266
0.01371306553 -0.08798611909 0.5420270562 0.3041687012 -0.4210876226 0.6887831092
0.009316951968 -0.07153948396 0.5157438517 -0.3538841605 -0.5640013814 0.7410385609
0.01338173635 -0.1011989266 0.5324804187 0.4516707361 -0.3907536268 0.5117176175
0.01164084952 -0.0866683349 0.5238128304 0.06836764514 -0.4514746964 0.6007733345
0.0112390928 -0.09273854643 0.5287165046 0.1786622405 -0.4973865151 0.6021671295
0.01617152058 -0.09562353045 0.529210031 0.4102123082 -0.3045551777 0.569822669
0.01489379723 -0.0746062547 0.5200725198 -0.1461874545 -0.4453985393 0.8277947903
0.008154605515 -0.06713785231 0.5186934471 -0.3709483743 -0.5895833373 0.7165238261
0.01026060246 -0.04926467314 0.5356626511 -0.3662302792 -0.644167304 0.6685935855
0.01047857292 -0.05632400513 0.5316656232 -0.354619652 -0.6332781315 0.6849262714
0.008099813014 -0.06217062101 0.5217599273 -0.3778527677 -0.5982473493 0.7047874331
0.006209204439 -0.05255775526 0.5230954885 -0.4141200185 -0.596876204 0.6864914894
0.009077728726 -0.05817702413 0.5268589854 -0.3702865839 -0.6156002879 0.6928222179
0.01403527334 -0.05315294489 0.5368677378 -0.2773826122 -0.589411974 0.7330365181
0.011899014 -0.06339523941 0.5265039802 -0.3023962379 -0.5737735629 0.7439687252
-0.04948879033 -0.04639916494 0.4967089295 0.1220470145 -0.6544948816 0.7416941524
-0.0460014604 -0.04183753952 0.5009669662 0.05811689794 -0.6820802093 0.7256473303
-0.05235243216 -0.04318394512 0.5005046129 0.1714176238 -0.6644554734 0.7221673727
-0.06035165116 -0.04023170099 0.5051016212 0.3034913838 -0.6499405503 0.6945956349
-0.06559765339 -0.009530108422 0.5368478298 0.3801664114 -0.6614002585 0.64277035
-0.06753213704 -0.01402924582 0.5339813828 0.4027135074 -0.6454812884 0.6455882788
-0.03281983361 -0.1070242897 0.6016914248 0.1526285708 -0.6845852137 0.7119825482
-0.02809106372 -0.09147106856 0.6134631038 0.1775028706 -0.6497981548 0.7326401472
-0.02275164798 -0.08964690566 0.6129823923 0.2410382628 -0.647094667 0.7186625004
-0.03562375158 -0.1151424646 0.594389081 0.11433018 -0.6830002069 0.7201054096
-0.09802950174 -0.1021613702 0.5610713363 -0.8212654591 -0.3765096962 0.4273893833
-0.09425859898 -0.09986634552 0.5675231814 -0.8082683682 -0.3927848339 0.4381994307
-0.08637281507 -0.1316167563 0.5577520132 -0.7057483196 -0.4139364958 0.569198072
-0.07997763157 -0.1377984732 0.5615707636 -0.5816469193 -0.5037059188 0.6201192737
-0.006387543399 -0.05724937841 0.5032669902 -0.5495398045 -0.5436838865 0.6340605021
-0.002959081205 -0.05323883891 0.5125053525 -0.5656607747 -0.5534062982 0.6109663844
-0.009721152484 -0.05327729881 0.5055683851 -0.5168805122 -0.5649709702 0.6422194242
0.02121170238 -0.05508602038 0.5117106438 -0.05955563113 -0.3816482127 0.9089202285
0.01363458484 -0.05426802859 0.5096341968 -0.2025322765 -0.443418771 0.8142678142
0.007741130423 -0.05704724789 0.5090750456 -0.2950902879 -0.4433783591 0.7936201096
0.002352828858 -0.05318566412 0.5074322224 -0.4026732743 -0.5182523131 0.6930525303
-0.005315394606 -0.05093253776 0.5077986717 -0.5139834285 -0.5485857129 0.635577023
-0.03521002457 -0.04349313304 0.499380827 -0.1570459008 -0.6670261621 0.7263139486
-0.04178422317 -0.04572957754 0.4967777729 -0.02397207916 -0.6599915624 0.7440045476
-0.02428745478 -0.01580068283 0.5296468735 -0.3213917017 -0.6614707708 0.6756352782
-0.0204630401 -0.0141188791 0.5332039595 -0.3811349571 -0.6520760655 0.6509650946
-0.08580347896 -0.04957931116 0.5188786983 0.6309638023 -0.5268033147 0.569445312
-0.08616971225 -0.04410660267 0.5238084197 0.6399943829 -0.5211725831 0.5645925999
-0.08932065964 -0.05461930111 0.5185380578 0.6426627636 -0.5163506866 0.5657923222
-0.09066642076 -0.04868353903 0.5255087018 0.6519967318 -0.511641264 0.5595145226
-0.0823764056 -0.04822844639 0.51502949 0.6187797785 -0.5329616666 0.5768495202
-0.07954657078 -0.05011389032 0.5096671581 0.5783392787 -0.5499740839 0.5995541215
-0.05088559911 -0.03621405736 0.5062532425 0.137672767 -0.6693298817 0.7246351838
-0.04732863978 -0.03130870312 0.5088866353 0.06234397739 -0.6818394065 0.7219020128
-0.04884709418 -0.1193669513 0.5925666094 -0.1089716479 -0.6812875867 0.7224087119
-0.04967870563 -0.1112510711 0.5984611511 -0.1113628522 -0.6897454262 0.7114099264
-0.05593184009 -0.1084290966 0.5992017388 -0.2210177332 -0.6801180243 0.6978732347
-0.04163992777 -0.1139214411 0.5964276791 0.008111965843 -0.6896901131 0.7202006578
-0.01736120135 -0.1367682964 0.5697784424 0.4086025059 -0.6146466732 0.6683145165
-0.02096095495 -0.142365858 0.5672461987 0.3429046869 -0.6492948532 0.6693245769
-0.01571591944 -0.1415846646 0.5656796694 0.4212301672 -0.6239443421 0.6507204175
-0.01016187109 -0.1403267831 0.5644858479 0.5075958967 -0.5910547972 0.6224509478
-0.003629206447 -0.1309626251 0.5635034442 0.6408398747 -0.5128715038 0.5644945502
-0.005960484967 -0.1374437064 0.5633535385 0.580806911 -0.552863121 0.5888819098
-0.001948447782 -0.1337703913 0.5583428741 0.6501691937 -0.5257468224 0.5463439226
-0.02700692415 -0.1091136336 0.5979706645 0.2410298437 -0.670955658 0.6985193491
-0.03210442886 -0.1111469418 0.5968614817 0.1699109972 -0.6827484369 0.7095271349
-0.03146596998 -0.1172676012 0.5900492668 0.195375219 -0.6733090878 0.7125712633
-0.03261157125 -0.1386395097 0.5724152327 0.1677331924 -0.667268157 0.721014142
0.0009816436796 -0.0367706567 0.5308718085 -0.6552917361 -0.512419939 0.5545656681
-0.05035253987 -0.01291620918 0.5270493627 0.09181551635 -0.6891727448 0.7165176868
-0.05695942044 -0.01176503114 0.5303789973 0.1978772581 -0.688944459 0.696544528
-0.05348451808 -0.01792803593 0.5243807435 0.1662708819 -0.6737062335 0.7167785168
-0.04756090418 -0.02092526294 0.5207972527 0.07470929623 -0.6882096529 0.7174890637
-0.08496973664 -0.03047541343 0.5340384245 0.6007569432 -0.5421550274 0.5874808431
-0.0886907205 -0.03236469999 0.5378047824 0.6125283837 -0.5352913737 0.5807867646
-0.09314512461 -0.03494916111 0.5420246124 0.6427029967 -0.5162920356 0.5654674172
-0.08877642453 -0.02784614637 0.5419815183 0.606274426 -0.5385988355 0.583886683
-0.08466692269 -0.02614815906 0.5375445485 0.5936508179 -0.5462108254 0.5909029245
-0.02438703738 -0.1046115234 0.6009702682 0.2888279855 -0.6590383649 0.6847393513
-0.0191577822 -0.1059938148 0.5977376103 0.3755372465 -0.6420667171 0.6629275084
-0.02368871868 -0.095314309 0.6105126739 0.2717381716 -0.6573601961 0.7027344704
-0.02131726965 -0.1006470993 0.6046770811 0.3332348466 -0.6496231556 0.6808823347
-0.02697127126 -0.09985396266 0.6064392328 0.2334362864 -0.6557297111 0.7042878866
-0.03275797516 -0.1012753099 0.6084140539 0.1600877643 -0.6685023308 0.7238875031
-0.05977072939 -0.09527965635 0.6108211279 -0.2741271257 -0.6390206814 0.7161045074
-0.01710279658 -0.09008710086 0.6099823713 0.3319529593 -0.632273376 0.6936861873
-0.01368611027 -0.09332095087 0.605332315 0.4192144871 -0.606970191 0.6683529019
-0.009974204935 -0.09769082814 0.5981026292 0.5106986761 -0.5877037644 0.6268404722
-0.007169053424 -0.1013469249 0.5934363604 0.5504251122 -0.571141243 0.6086460948
-0.01537780557 -0.09886145592 0.6018073559 0.4325604141 -0.6128907204 0.659314692
0.006472179201 -0.1102060825 0.5651744008 0.7464535236 -0.4463697672 0.4928378761
0.01048588194 -0.1042578146 0.5643911362 0.7683508396 -0.4255106151 0.478035748
0.009954598732 -0.1177560687 0.5530818701 0.7505059838 -0.440547049 0.4924365282
0.01036646962 -0.1092579514 0.5600820184 0.7620000839 -0.4308125675 0.4832201302
0.006367956288 -0.1224656627 0.554472208 0.7406071424 -0.4551362693 0.4941774309
-0.04028613493 -0.1193056703 0.5901810527 0.03687647358 -0.6748152971 0.7292458415
-0.07418442518 -0.1146794781 0.5832176208 -0.5046770573 -0.5881825089 0.6310401559
-0.09707983583 -0.1112959683 0.5526431203 -0.8075526357 -0.3714869618 0.457616955
-0.09661147743 -0.07132505625 0.5276271105 0.3426230848 -0.480550617 0.5379055738
-0.09942281246 -0.09765129536 0.5484705567 -0.6393322349 -0.3828648329 0.4488916099
-0.09928408265 -0.1043884605 0.5486408472 -0.7546987534 -0.3762851954 0.4459438026
-0.0983741805 -0.09854695946 0.5422944427 -0.491499871 -0.4041010141 0.4723063409
-0.09766297787 -0.08831450343 0.5364885926 -0.1702605337 -0.4338811934 0.4980879724
-0.09839785844 -0.08184368163 0.5399451256 -0.1547453851 -0.4272879958 0.4870162606
-0.09754966199 -0.07689819485 0.5341036916 0.08041472733 -0.4525083899 0.5111344457
-0.09728133678 -0.08361270279 0.5334908366 -0.01396463532 -0.4487422705 0.5112020373
-0.1004143208 -0.1042415276 0.5435237885 -0.6441606879 -0.3905152678 0.4609230757
-0.09605693072 -0.06459791958 0.5227447152 0.5806511641 -0.5037403107 0.5587319732
-0.1007959619 -0.09971274436 0.5536684394 -0.8176184297 -0.3613194227 0.4268881083
-0.09991887212 -0.09118226171 0.5501995087 -0.5790225863 -0.3823306262 0.4443385005
-0.09919615835 -0.08619734645 0.5450284481 -0.3610347211 -0.4051674008 0.4658643901
-0.09941513836 -0.09471461922 0.5386674404 -0.3537701368 -0.4171827137 0.483841002
-0.07128999382 -0.1360168904 0.5652744174 -0.4613133073 -0.5667362809 0.6770815253
-0.06801413745 -0.1413464248 0.565084815 -0.3724226952 -0.6051398516 0.6974030137
-0.09259483963 -0.1208336577 0.5541944504 -0.7801732421 -0.3761971295 0.4986369908
-0.08052122593 -0.127707243 0.5646522045 -0.62231493 -0.4862108529 0.6064528227
-0.09069155902 -0.1026493609 0.579747498 -0.7763869762 -0.4350999594 0.4557828009
-0.09645924717 -0.1085744351 0.5593030453 -0.8138825297 -0.3738540113 0.4437157214
-0.03784356266 -0.05231107399 0.4912570715 -0.09688977152 -0.6365414858 0.7600951791
-0.04288279265 -0.05507331714 0.4882989526 -0.001077461871 -0.6387749314 0.7652575374
-0.01337526552 -0.02173146792 0.5309497118 -0.4800760448 -0.6029323339 0.6341147423
-0.01867718995 -0.0195205044 0.529771328 -0.4024774432 -0.6287097931 0.6562495828
-0.08942457289 -0.04177128896 0.529594183 0.6427298784 -0.515612185 0.5665172935
-0.09251978993 -0.04128751531 0.5353024602 0.6658136845 -0.5024869442 0.5513337851
-0.08836504817 -0.03734464943 0.5336459875 0.6237164736 -0.5258702636 0.5777763128
-0.06175645068 -0.02946514823 0.5160675645 0.3204910457 -0.6466240883 0.6911908984
-0.05921699479 -0.0333615914 0.5121887922 0.2913327813 -0.6556774974 0.6924441457
-0.07301838696 -0.04536224157 0.5093874335 0.4867607355 -0.5963015556 0.6290109754
-0.06531844288 -0.04389576986 0.5043959022 0.3643067479 -0.6438660622 0.6724150181
-0.07756478339 -0.04482211173 0.5129711032 0.5577528477 -0.5644081235 0.6064735055
-0.025681803 -0.04072920233 0.5055660605 -0.3152000904 -0.6487182975 0.6918799281
-0.02635503188 -0.03422709554 0.511613965 -0.2897066176 -0.6579391956 0.6932757497
-0.02607404627 -0.02950266562 0.5155924559 -0.3001878858 -0.6467272043 0.7005360723
-0.03809271753 -0.1099431664 0.5996784568 0.06542186439 -0.6930524111 0.7124114037
-0.05222901329 -0.1051864773 0.6029000282 -0.153435424 -0.6837522984 0.7102946043
-0.03634865955 -0.1039255112 0.6051958203 0.1058633476 -0.6851986051 0.7193613648
-0.04530024901 -0.1092782244 0.6016637683 -0.05562880263 -0.6917634606 0.7173493505
-0.02698731981 -0.1357461214 0.5729544759 0.2542957366 -0.6454954743 0.7153589725
-0.02799642459 -0.1425160617 0.5688487887 0.2441576272 -0.6659545898 0.7013926506
-0.006666447036 -0.1279670298 0.5664382577 0.6238765717 -0.5148738623 0.5854054093
-0.02168339863 -0.1342266798 0.5717715621 0.3526618183 -0.6139480472 0.692951858
-0.02439440973 -0.1166414395 0.5885301232 0.3155674636 -0.6441355944 0.6823770404
-0.01782056503 -0.1126267686 0.5915090442 0.4271557629 -0.6204861999 0.6545723081
-0.02665157802 -0.1131227612 0.5933229923 0.263898015 -0.6607449651 0.6979483366
-0.05790954828 -0.1434652209 0.5685676336 -0.2134653032 -0.6533614397 0.7199402452
-0.0590133816 -0.1343259513 0.5733640194 -0.252620697 -0.6294023991 0.7312614322
-0.0623905696 -0.1371407211 0.5684742928 -0.3139396012 -0.6182515025 0.7169928551
-0.01775101013 -0.1294252723 0.5735653639 0.4385724366 -0.5888944268 0.6652088165
-0.02286111005 -0.1295279711 0.5770039558 0.3394899368 -0.6230689883 0.7022318244
-0.00360177923 -0.03791426122 0.5250665545 -0.5897612572 -0.5449047685 0.593377471
-0.00540272193 -0.04189743102 0.5186730027 -0.5505144 -0.556239903 0.6223016977
0.007948577404 -0.04214046523 0.5199674964 -0.3575830758 -0.5956041813 0.6259399056
0.002711067442 -0.03989781812 0.5215646625 -0.4355711937 -0.5809814334 0.6243017912
0.01779142767 -0.04038956389 0.5197598338 -0.1378236711 -0.644551754 0.6347667575
0.0262852218 -0.03624371067 0.5216374993 0.05335533246 -0.701798141 0.6303800941
0.02058636956 -0.0357642509 0.522449553 -0.05528033897 -0.6787813902 0.6268405318
0.007257467601 -0.03527186066 0.5237959623 -0.3074168563 -0.6209498048 0.6225215793
0.02664002031 -0.03110170364 0.5261331797 0.04409534857 -0.7361058593 0.5980440974
0.01261281781 -0.0355794318 0.5231585503 -0.2057722658 -0.6434881091 0.6249476671
-0.05320116132 -0.0237057507 0.5191039443 0.1651402116 -0.6733986735 0.7167165875
-0.04768009111 -0.02511780709 0.5165267587 0.06914607435 -0.6814407706 0.7258868814
-0.05215096846 -0.02950718813 0.5135512948 0.1654320061 -0.6741113663 0.7141917944
-0.04410159588 -0.02719867416 0.5124866366 0.002490645275 -0.6899297833 0.7230275273
-0.03873458877 -0.0263368804 0.5157588124 -0.09204418957 -0.6787785888 0.7219070792
-0.03688870743 -0.03025324829 0.5120065808 -0.1253398508 -0.6784908772 0.7165270448
-0.07901600003 -0.02835474908 0.5304648876 0.5551930666 -0.561740756 0.6115402579
-0.0735334456 -0.02036644332 0.5313871503 0.5082095861 -0.5968806744 0.6205005646
-0.0680859834 -0.09486420453 0.6067844033 -0.4076964855 -0.6051359177 0.6817952394
-0.07313957065 -0.09166495502 0.6067379117 -0.4666136205 -0.5853379965 0.660667479
-0.0769636333 -0.09214112908 0.6016839147 -0.5515962243 -0.5612769723 0.6160748601
-0.08586086333 -0.09534734488 0.5867038369 -0.6908259988 -0.4967496395 0.5194012523
-0.08120596409 -0.0955279842 0.5925082564 -0.6213471293 -0.5419654846 0.557246089
-0.0868974328 -0.09020757675 0.5909343958 -0.680141151 -0.5005673766 0.5317627788
-0.09084198624 -0.09495213628 0.5837916136 -0.7511430383 -0.4493106008 0.4803061783
-0.08293361217 -0.09114537388 0.5964350104 -0.6233839393 -0.5283815265 0.5732887983
-0.06483963877 -0.09972865134 0.6041678786 -0.3730026782 -0.6350067854 0.6758697629
-0.05793044344 -0.09989578277 0.6074192524 -0.2501132488 -0.6511433125 0.713662684
-0.06068127602 -0.10384354 0.6023740768 -0.3120843172 -0.6584535837 0.6804566383
9.699358634e-05 -0.1073730737 0.5771660209 0.6787490249 -0.5084358454 0.5298694968
0.007583405823 -0.1036868393 0.569273293 0.7324193716 -0.4598941803 0.4980547428
0.005686912686 -0.1009054407 0.5739686489 0.705511272 -0.4870639443 0.5117866993
-0.0005133027444 -0.1043256819 0.5813404322 0.6596985459 -0.512866199 0.5486345887
-0.01028808672 -0.1071008369 0.591078043 0.5338718295 -0.5873428583 0.6071677208
-0.05432008579 -0.1163538247 0.5933893919 -0.1781144142 -0.6795689464 0.7097069025
-0.06658999622 -0.1133952215 0.5908956528 -0.3944771886 -0.6388761997 0.657384932
-0.06914199889 -0.1182655841 0.5819984674 -0.4390863478 -0.6088413596 0.6514183283
-0.06491420418 -0.1234270483 0.5816351771 -0.3759749532 -0.6372159123 0.6716040969
-0.07012882084 -0.1238735467 0.5765487552 -0.4529705644 -0.5825362802 0.6672903895
-0.06559363753 -0.1182372496 0.5868908763 -0.3826463819 -0.6399266124 0.6646600366
-0.05991993099 -0.1180716157 0.5883527994 -0.2920640409 -0.6594771147 0.6907394528
-0.08950813115 -0.118068099 0.5616162419 -0.7598620653 -0.4136918187 0.4986998737
-0.09375786036 -0.11498487 0.5586031675 -0.7969211936 -0.3785337508 0.4705765843
-0.03343241662 -0.04955644906 0.4945028126 -0.1943137795 -0.6343935132 0.7437487245
-0.02853047661 -0.04728128761 0.4976458848 -0.2761471272 -0.6358808875 0.717066884
-0.03104315698 -0.05379559845 0.4911402464 -0.2278213799 -0.6195543408 0.7454282641
-0.02461626753 -0.05142785609 0.4953618348 -0.3574769497 -0.6118327975 0.704229176
-0.01853353716 -0.0550718084 0.4959599376 -0.4446047544 -0.5843732953 0.6768923402
0.001565079321 -0.0303892754 0.5399845243 -0.5731295347 -0.5544354916 0.5982080102
-0.004254366271 -0.02317374572 0.5380190015 -0.6128203869 -0.5466309786 0.5686489344
-0.002813307568 -0.02936960943 0.5331707597 -0.6432190537 -0.5287612081 0.5525658131
0.01976376027 -0.02452461049 0.5339636803 -0.1776464731 -0.7364659309 0.5317689776
0.00794164557 -0.02408439666 0.5357507467 -0.3977636397 -0.6376155019 0.5542231202
0.02572853863 -0.02536609955 0.5321480036 -0.04865317419 -0.7813943028 0.5297819376
0.01404478401 -0.02568377554 0.5326288939 -0.2439315617 -0.6856256723 0.5579650402
-0.05786386132 -0.02140945569 0.5226622224 0.249783501 -0.6631055474 0.7031567097
-0.06384733319 -0.022196237 0.5239211321 0.3511090279 -0.639374733 0.6838020682
-0.0609540008 -0.02531011589 0.5200356245 0.30293262 -0.6490041018 0.694462955
-0.06640698761 -0.01809783094 0.529586494 0.3912549019 -0.6328679323 0.6623263359
-0.07306880504 -0.02500669286 0.5278619528 0.5006186962 -0.5831801891 0.6362413764
-0.0317890197 -0.03396052122 0.5092278123 -0.2150988281 -0.6729762554 0.706033349
-0.02269626223 -0.03962080553 0.5102169514 -0.3949841857 -0.6300476193 0.6613573432
-0.03997188061 -0.04070484638 0.5035803914 -0.05913447589 -0.6772969961 0.7108038068
-0.04427029192 -0.03730031848 0.5048146248 0.0200658422 -0.6846370697 0.7278816104
-0.03701378778 -0.0343404673 0.5070410967 -0.1308905035 -0.6843247414 0.7141500115
-0.04797741771 -0.09652803093 0.6139819622 -0.106294401 -0.6502366662 0.7495869398
-0.03906388581 -0.09933741391 0.6107254624 0.08191112429 -0.6628705859 0.7416520715
-0.05298708007 -0.09744580835 0.6111462116 -0.1624985337 -0.6597746611 0.7312862873
-0.04682691023 -0.1011849716 0.6095367074 -0.07075537741 -0.6827741861 0.7260730267
-0.03868817165 -0.1368874311 0.5734501481 0.05796223506 -0.6741493344 0.7267509103
-0.0463911593 -0.1360247582 0.5735667944 -0.05996549502 -0.6634340882 0.7282868028
-0.05541126058 -0.1385287046 0.5693577528 -0.1954173148 -0.657066524 0.7222636938
-0.03093449958 -0.1332128197 0.5764452219 0.198349297 -0.6468834281 0.7322905064
-0.0286594443 -0.1258995533 0.5828781128 0.2258097827 -0.6551901102 0.7178789973
-0.03258638084 -0.1289599389 0.5805665851 0.1858284473 -0.6520633698 0.7283729911
-0.01339748036 -0.03090556525 0.5218913555 -0.4845558703 -0.5886476636 0.6467038989
-0.01964410767 -0.02715195157 0.5219330788 -0.393383652 -0.6193876863 0.6735172272
-0.008746830747 -0.03563051298 0.5215691328 -0.5271125436 -0.5696572065 0.6300269961
-0.007094660774 -0.02485540137 0.5331973433 -0.5737283826 -0.5624194741 0.5931467414
-0.01337005198 -0.02615601383 0.5263115168 -0.4804580212 -0.5878648758 0.6487446427
-0.003865792882 -0.03319992498 0.5281584263 -0.6039659381 -0.5415463448 0.5797565579
0.001495498 -0.03088151105 0.5265029669 -0.3910217881 -0.6108939648 0.6157824993
0.01450184733 -0.02990482002 0.5271152258 -0.1654861122 -0.681429565 0.6018904448
0.003533703741 -0.0257637091 0.5332443118 -0.4249531925 -0.6055696011 0.5778540373
0.02180625871 -0.02786872722 0.5286773443 -0.04087594897 -0.7213151455 0.5895065665
0.005655914079 -0.02795963176 0.5283193588 -0.3099749386 -0.6373968124 0.6073982716
-0.008294602856 -0.02824410237 0.5275464058 -0.5349934697 -0.5668490529 0.6258281469
0.03020039387 -0.0279803481 0.5285056233 0.1047171131 -0.766428411 0.5825024247
-0.03826740384 -0.01804094575 0.5236327648 -0.08409664035 -0.688175261 0.7170664668
-0.04430962354 -0.01561401971 0.5251528025 0.008426411077 -0.6953533888 0.7173233628
-0.03268586472 -0.02530063875 0.517971158 -0.1978957653 -0.669282794 0.7131592631
-0.02697844431 -0.02441709861 0.5208144784 -0.2843369246 -0.6502210498 0.7013888359
-0.04121275619 -0.02226884477 0.5194382668 -0.03802949563 -0.6876448393 0.7192935348
-0.03233246133 -0.02053171583 0.5227238536 -0.1775549352 -0.6728624105 0.7133073211
-0.02660852671 -0.02027580142 0.5247849822 -0.2823978662 -0.6566622853 0.6959386468
-0.07666411251 -0.03788406402 0.5183541775 0.5383685827 -0.572111845 0.6187101603
-0.07613164186 -0.08720877022 0.6074081659 -0.5095208287 -0.5633803606 0.6466207504
-0.08370763063 -0.0869859159 0.5997288823 -0.6133813858 -0.5141113997 0.597204864
-0.0634965077 -0.1068691388 0.5983970761 -0.355057776 -0.6548371315 0.6661471128
-0.06262731552 -0.1108459905 0.5936710238 -0.3371129632 -0.6545149684 0.6739201546
-0.07246585935 -0.09710698575 0.6023458838 -0.4834576845 -0.5957518816 0.6397207379
-0.008796961047 -0.1130879 0.5831252933 0.5761538744 -0.5656308532 0.5871628523
-0.005896421615 -0.1071449593 0.5850478411 0.5952516794 -0.5550661683 0.5783439279
0.002159495605 -0.1184968203 0.5633205771 0.7123913765 -0.4686844051 0.5207871199
0.005743884481 -0.1173840016 0.5575255752 0.7412611246 -0.4475461245 0.4994478226
-0.01097759139 -0.1355980039 0.5687760711 0.5145046115 -0.5787086487 0.6317743659
-0.06904243678 -0.1354965419 0.5703665614 -0.4017582834 -0.5927200913 0.6947440505
-0.07496631891 -0.1419684142 0.565131247 -0.4747669697 -0.5760439634 0.6646233201
-0.07553485036 -0.1295526326 0.5708627105 -0.5038007498 -0.5228322148 0.6869356632
-0.0701046735 -0.1289969236 0.5733168721 -0.4354230762 -0.5710590482 0.6947357655
-0.08443517983 -0.1088797674 0.5794560313 -0.6733594537 -0.4961795807 0.5401557088
-0.08497998863 -0.1100391373 0.5733319521 -0.6921694875 -0.470978111 0.5261604786
-0.09149482101 -0.1046889648 0.5691771507 -0.7894441485 -0.4068139195 0.4530800581
-0.08108043671 -0.1154209599 0.5732637048 -0.6282301545 -0.5100823045 0.5722232461
-0.08903960884 -0.1120860502 0.5664864779 -0.7581061125 -0.4283521473 0.4794524014
-0.01447594259 -0.1162223741 0.5856832862 0.4691246748 -0.6067754626 0.6415805221
-0.07038210332 -0.02770931087 0.5230548978 0.4564471543 -0.5980584025 0.6522393823
-0.07298961282 -0.03254831955 0.5201402307 0.50375247 -0.5880981088 0.631626308
-0.06853491813 -0.033278469 0.516536057 0.4328352213 -0.6146805286 0.6532260776
-0.06431160867 -0.03842662647 0.5086690187 0.3639909029 -0.6347661614 0.6783095002
-0.06919410825 -0.03868182003 0.5124065876 0.4368803203 -0.6125867367 0.6518394351
-0.08053893596 -0.03818075359 0.5225793719 0.5794914961 -0.5500125885 0.5978530049
-0.07936314493 -0.03248693794 0.526221633 0.568304956 -0.5541522503 0.6062657833
-0.08410631865 -0.03713367507 0.5269791484 0.6108538508 -0.5343349576 0.583742559
-0.08152180165 -0.04280160367 0.5185766816 0.6045216322 -0.5377842784 0.5861591101
-0.07929314673 -0.1084238216 0.5845320225 -0.6015385985 -0.5430346131 0.5845146179
-0.08815059066 -0.100600563 0.5842095017 -0.7294467688 -0.4680949748 0.4893811345
-0.07910533249 -0.09637245536 0.5979391336 -0.5655475855 -0.5671107173 0.5955321193
-0.07741136104 -0.1008060724 0.5926190615 -0.5684704185 -0.5688769221 0.5872279406
-0.08195049316 -0.1002169922 0.5872734189 -0.6366611123 -0.5253531337 0.5526827574
-0.07452714443 -0.1068570912 0.589738965 -0.529505074 -0.5800873041 0.6140249372
-0.06879199296 -0.1014863476 0.5992944241 -0.4376327693 -0.6240853667 0.6385340095
-0.06994280964 -0.1079765409 0.5931623578 -0.4521294534 -0.6203601956 0.6349796653
-0.01384941954 -0.1260340512 0.5752991438 0.5086495876 -0.5647582412 0.6494165659
-0.009875540622 -0.1282457113 0.5716529489 0.5412064195 -0.5563821197 0.62916857
-0.002634910401 -0.1208416224 0.5688165426 0.6553138494 -0.4996358156 0.5624376535
-0.04612990096 -0.1228427514 0.5884004831 -0.06100142375 -0.6755033731 0.7334124446
-0.03478402644 -0.1225847006 0.5864541531 0.1362814903 -0.6718352437 0.7247710824
-0.04177860543 -0.1247737706 0.585849762 0.01680140384 -0.6751524806 0.7329264283
-0.05427490175 -0.1206246018 0.5874641538 -0.1974740773 -0.6672145724 0.7113055587
-0.05791978911 -0.1255409867 0.5827918053 -0.2704476416 -0.6546627879 0.7022782564
-0.06406132132 -0.1294219941 0.5756578445 -0.3444549441 -0.6060042977 0.7135928273
-0.05143423006 -0.139320448 0.5738565922 -0.1324206442 -0.6721764207 0.7265976667
-0.07975345105 -0.1352763325 0.5665538907 -0.5497979522 -0.5068917871 0.6619955897
-0.08772718906 -0.1266500503 0.5620920062 -0.7200576663 -0.4134138823 0.5415461063
-0.08456251025 -0.1326806247 0.5629358888 -0.6434256434 -0.4579132497 0.5941035151
-0.08207795024 -0.122540161 0.5708509684 -0.6261561513 -0.4581504762 0.6304707527
-0.08627155423 -0.1161025912 0.5692293048 -0.6988961101 -0.4620117247 0.5380894542
-0.08008968085 -0.1133378819 0.5796102881 -0.6062482595 -0.5311469436 0.587531507
-0.07611110061 -0.1192387938 0.5789327621 -0.5378378034 -0.5537821651 0.627954185
-0.07668243349 -0.1240506992 0.5733950138 -0.5367336869 -0.506136477 0.671210289
-0.0853234455 -0.1208914444 0.5650268197 -0.7127767205 -0.4437290132 0.5375394225
-0.02011967078 -0.1178468093 0.5851664543 0.3810323477 -0.6232589483 0.6639007926
-0.01810352877 -0.1227887124 0.580427587 0.4062648118 -0.6104813218 0.6665439606
-0.02314511687 -0.1242250502 0.5827362537 0.3129065633 -0.6427922845 0.6955364347
-0.02781542018 -0.1205286607 0.5861136913 0.2488405704 -0.6571987867 0.7036707401
-0.01161310822 -0.1195710078 0.5793219805 0.5188112259 -0.5776798725 0.6259682178
-0.05314100906 -0.1338994354 0.5761745572 -0.1711048484 -0.6554588079 0.7333628535
-0.04899744317 -0.130578056 0.5809027553 -0.1173329353 -0.6637195945 0.7346618176
-0.05227038637 -0.1263873428 0.5851024985 -0.1662087739 -0.6668769121 0.725513339
-0.04216871038 -0.1341004223 0.5776847601 -0.000787354249 -0.6750311852 0.7343776226
-0.04108031467 -0.1300531626 0.5814422369 0.02134583332 -0.6665552258 0.7405551672
