# .PCD v0.7 - Point Cloud Data file format
VERSION 0.7
FIELDS x y z normal_x normal_y normal_z
SIZE 4 4 4 4 4 4
TYPE F F F F F F
COUNT 1 1 1 1 1 1
WIDTH 512
HEIGHT 1
VIEWPOINT 0 0 0 1 0 0 0
POINTS 512
DATA ascii
0.04310305789 -0.1052957997 0.6408765912 0.3174446225 -0.6330862641 0.6932759881
0.04537115246 -0.09600655735 0.6411583424 0.4152926207 -0.5643979311 0.7107272148
0.04070615768 -0.09973828495 0.6400436759 0.3121150434 -0.6151987314 0.7143637538
-0.0690125078 -0.1712752879 0.6951643825 -0.5291878581 -0.3798458278 0.7488726974
-0.01432316471 -0.1320979446 0.7379459739 0.1834045053 -0.5767784715 0.7918365598
-0.04158813506 -0.09257432073 0.6203873754 0.1659516394 -0.6457759738 0.738252461
-0.03679165617 -0.09506613761 0.6172026992 0.0823141858 -0.6471959352 0.7544816136
-0.08580812067 -0.09625503421 0.6520965695 0.7158854008 -0.4565735161 0.5160006285
0.03245596215 -0.1052026376 0.6519630551 -0.09532082081 -0.6670302749 0.6824170351
0.03602438048 -0.1090708077 0.6431702375 0.07030516863 -0.6983341575 0.6825992465
-0.04457866028 -0.08961743861 0.623372376 0.2159898579 -0.6400688887 0.7347640395
-0.002413071226 -0.110796161 0.6151819229 -0.4901385307 -0.4943903387 0.7119364142
0.002165942686 -0.1092552766 0.6214152575 -0.551408112 -0.4623650312 0.6882511377
0.02431955934 -0.1180235296 0.6630055308 -0.06626265496 -0.6421907544 0.6008623838
0.02282966673 -0.1301408112 0.6660573483 0.1829013228 -0.6106902957 0.5536373854
0.02479422465 -0.1131267473 0.6589223146 -0.2043773383 -0.6791339517 0.6144039035
0.02370211855 -0.1260813624 0.6733843684 0.2090687752 -0.5503051281 0.5856972933
0.02337749302 -0.1300278306 0.6779705882 0.3373904824 -0.5095252395 0.5773032904
0.0227304548 -0.1325178146 0.6709737778 0.2884778082 -0.5678263903 0.5527711511
0.02189270779 -0.1358751208 0.6817752123 0.480063349 -0.4797252119 0.5578910708
0.02126793005 -0.1365323514 0.6765941978 0.4205003977 -0.5252693295 0.5445248485
0.02379849553 -0.117155835 0.649156034 -0.2632723451 -0.7603674531 0.5777087212
0.02281266265 -0.124992013 0.6622051597 0.03843016922 -0.6489976645 0.568020165
0.02359918319 -0.1211444885 0.6715197563 0.09297789633 -0.5725049376 0.6028209925
0.02532090992 -0.1095006168 0.6654805541 -0.1832107753 -0.6265988946 0.6427301764
0.02309002168 -0.1221015975 0.6529079676 -0.1306611001 -0.7274891734 0.5630250573
0.02048512734 -0.1423776597 0.6838626862 0.6137695909 -0.4627637863 0.5325866342
0.02457503043 -0.1147518754 0.6697946191 -0.03814887255 -0.5889331698 0.6277709007
0.02565173805 -0.1066440418 0.6592401862 -0.3123175502 -0.6795749664 0.643427074
0.02129010111 -0.1424715817 0.6726199985 0.4555839896 -0.535959959 0.5319150686
0.02234213799 -0.1286643445 0.6533159614 -0.02700939588 -0.710952878 0.5481149554
0.02013115026 -0.1497822106 0.6739715934 0.5643329024 -0.5033134222 0.5287125111
0.0217762962 -0.1420489699 0.6787188649 0.5515162349 -0.4960550368 0.5283568501
0.02263444848 -0.1305034906 0.6601346135 0.1164813563 -0.6506896615 0.5371537209
0.02263081633 -0.1553279161 0.6740329862 0.8439800143 -0.288800925 0.3780778646
0.02269329317 -0.1481040418 0.6689805388 0.6236301661 -0.3935320079 0.4193709791
0.02236371674 -0.1374126375 0.6684296727 0.3569394648 -0.5525073409 0.514827013
0.02212662995 -0.1492767781 0.6789347529 0.7377675176 -0.3817680478 0.4579519331
0.02286362462 -0.1358332932 0.6593444347 0.2402943969 -0.5708278418 0.4842885733
0.02242482826 -0.1436161399 0.6645057797 0.4512267411 -0.4799793363 0.4551922083
-0.0152469743 -0.1364592761 0.7347051501 0.1935220808 -0.587511301 0.7832499146
-0.08266036212 -0.1658526808 0.6883993745 -0.7561311126 -0.2603458464 0.5933889747
-0.06087101996 -0.1734912694 0.7002117634 -0.4165787697 -0.442715764 0.7895202041
-0.05150835961 -0.1795119643 0.7058811188 -0.2888702452 -0.5242218971 0.7995714545
-0.05736267939 -0.1731903553 0.705209434 -0.3806703687 -0.4914937615 0.7796143293
-0.05285431072 -0.1673515588 0.705170393 -0.3318492174 -0.4942229092 0.7983058691
-0.05087874085 -0.1635886133 0.7094170451 -0.3252516389 -0.5052274466 0.7975338101
-0.05868901312 -0.167317152 0.7027692199 -0.4163183868 -0.4578088224 0.7837054729
-0.03894822299 -0.08725403249 0.6235833764 0.1177550033 -0.6308223009 0.763133049
-0.09179841727 -0.1391136646 0.6766393185 -0.9021223187 -0.1488850862 0.3914399743
-0.06534302235 -0.1330434084 0.7225723267 -0.5764746666 -0.4594581425 0.6738994718
-0.0676664263 -0.1273668706 0.7241994143 -0.6048275828 -0.433043927 0.6674743891
-0.07378887385 -0.134972468 0.712195456 -0.7129842043 -0.3860766292 0.5783107281
-0.07553888112 -0.1271213442 0.7150059342 -0.6946605444 -0.3924427032 0.6023352742
-0.07112602144 -0.1325057 0.717297256 -0.665427506 -0.415129602 0.6196324825
-0.07128700614 -0.127073735 0.7197986245 -0.658926487 -0.4032445848 0.6347329021
-0.02100838535 -0.1293606311 0.7394855618 0.09040631354 -0.5901644826 0.7995350361
-0.02645901963 -0.1306464225 0.7372393012 0.02122156881 -0.6032737494 0.7951447964
-0.08259163052 -0.1280130297 0.7040276527 -0.8271015286 -0.2882185578 0.4821565151
0.0524947457 -0.0900567919 0.6449607611 0.5243914127 -0.5423263311 0.6556643248
0.04749923199 -0.08800119162 0.643691659 0.4969984293 -0.5398518443 0.6767039299
0.03302907944 -0.09919358045 0.6595826745 -0.04390780255 -0.659011066 0.6718842983
0.04219727591 -0.1012818664 0.6497460604 0.189256385 -0.5751628876 0.6896445155
0.04705604538 -0.1013476402 0.645383954 0.3595688641 -0.5521757603 0.6960189939
0.03487337008 -0.1016156673 0.6553481221 -0.05535752699 -0.6119024754 0.6855178475
0.03509872407 -0.09144943208 0.6639367342 0.1809865236 -0.6869832873 0.6623674035
0.03837015107 -0.08176191896 0.6697868109 0.3608385026 -0.501719594 0.7196877003
0.03899962455 -0.08649111539 0.6641603708 0.3092874587 -0.5846761465 0.6853870749
0.04253643379 -0.08626280725 0.6599931121 0.3698513508 -0.568680048 0.6769201756
0.04743541777 -0.08614207804 0.6540206671 0.4511859417 -0.5500403047 0.6638479829
0.04364236817 -0.08161681145 0.6633748412 0.4485680759 -0.4813866019 0.7057240009
0.04265519604 -0.0751555115 0.6712201834 0.5169299841 -0.3684740365 0.7529482841
0.05005708337 -0.08031737059 0.6551547647 0.5472767949 -0.4747505784 0.6816062331
0.04542749003 -0.07558550686 0.6667586565 0.54817307 -0.3808439076 0.7367154956
0.04682986438 -0.09583771229 0.6490211487 0.4049168527 -0.5810157061 0.6763040423
0.03835990652 -0.09333558381 0.6588799357 0.2296008766 -0.6774542332 0.6574343443
0.04041532427 -0.09666328132 0.655182898 0.2686228752 -0.6513858438 0.6707648635
0.04903056845 -0.09034385532 0.6494059563 0.4584228396 -0.5619784594 0.6614428759
0.04321352392 -0.08985373378 0.6555877924 0.3364281356 -0.627007544 0.6524346471
0.05169304088 -0.09659970552 0.6429111362 0.4931312799 -0.5509678125 0.6726731062
-0.03806252033 -0.1005646661 0.6145135164 0.07650691271 -0.6388689876 0.7575004697
-0.04637273028 -0.09844791889 0.617851913 0.2153291553 -0.6305965185 0.7366067767
-0.02437837608 -0.09951514751 0.612357676 -0.161199525 -0.6233441234 0.76018852
-0.08821626753 -0.1222434416 0.6674783826 -0.2451749444 -0.2454882562 0.445530951
-0.08828050643 -0.1155627742 0.6626823545 0.08943415433 -0.2684590816 0.4444068074
-0.09027037024 -0.1286579669 0.6756826639 -0.6942073703 -0.2008519173 0.4184403419
-0.08831445128 -0.1088646576 0.6564763784 0.4622193575 -0.2799994648 0.4320583642
-0.006073967554 -0.1429732889 0.7248234749 0.3707874119 -0.5811166167 0.7225934267
-0.01095911767 -0.140184626 0.7293730974 0.2741895914 -0.5872502327 0.7584448457
-0.01017803419 -0.1345349103 0.7315519452 0.268574208 -0.5719120502 0.7666485906
-0.005698174704 -0.1378997266 0.7280056477 0.3578819335 -0.5611438155 0.7430515885
-0.03316911682 -0.1338434368 0.7385498881 -0.07287801802 -0.6000238657 0.7951064706
-0.0323725231 -0.1268489659 0.7392333746 -0.0724016279 -0.5866722465 0.804857254
-0.03917422146 -0.1329514086 0.7390267849 -0.1431278735 -0.5915878415 0.7923582792
-0.03617085889 -0.1357503831 0.7342103124 -0.1152166128 -0.5995329618 0.7901260257
-0.04269716144 -0.1400338113 0.7317379117 -0.2043292224 -0.597456634 0.7736965418
-0.03646264598 -0.1413917989 0.7316952944 -0.1120774969 -0.6140196919 0.7796447873
-0.03101413883 -0.1455932856 0.7288202643 -0.01109643839 -0.6167423725 0.7835181355
-0.01572506689 -0.1451679468 0.7276872993 0.2158957869 -0.6117231846 0.7604529858
-0.02138530277 -0.1430719346 0.7297977209 0.1358582377 -0.6123033762 0.77590698
-0.08402789384 -0.1460794806 0.6911732554 -0.8478769064 -0.2130517066 0.4849964678
-0.08392783999 -0.1546883583 0.6893599629 -0.8004999757 -0.243933171 0.5468526483
-0.08489711583 -0.1614239812 0.686395824 -0.8002968431 -0.2302666306 0.5533682108
-0.08805038035 -0.1547459513 0.6827549338 -0.8190083504 -0.2256198972 0.527203083
-0.08017596602 -0.1556593031 0.6931875348 -0.7674435973 -0.2738935649 0.5774936676
-0.08009251952 -0.1610355079 0.6921557188 -0.73756814 -0.3018526137 0.6031015515
-0.04878877476 -0.1728944033 0.7043578029 -0.2545537353 -0.5007496476 0.8202222586
-0.07100827992 -0.1610096842 0.6988738179 -0.6126252413 -0.3750820756 0.6915773153
-0.0648189038 -0.1684446484 0.7026127577 -0.4917443395 -0.4477511942 0.7413451076
-0.07595141977 -0.1703938395 0.6941862702 -0.6496956348 -0.3558384478 0.6560285091
-0.07139285654 -0.1667525619 0.6981000304 -0.5968316793 -0.3862885237 0.6908070445
-0.01901964843 -0.1024865583 0.610004425 -0.2475944459 -0.6001942754 0.7599213719
-0.01092546992 -0.1026587784 0.6155288815 -0.3975567818 -0.5473853946 0.7346810102
-0.01389064919 -0.106534712 0.6098322868 -0.3261200786 -0.5572655797 0.7571331263
-0.007284449413 -0.1101136953 0.6107430458 -0.4259524941 -0.529927671 0.7307373285
-0.07215623558 -0.05490704998 0.6750350595 0.651157856 -0.5392205715 0.5339758992
-0.06809417903 -0.04825631529 0.6757705808 0.6225985885 -0.5515996218 0.5545834303
-0.07584378868 -0.05339626223 0.681120038 0.6516506076 -0.5394943953 0.5330309868
-0.07177970558 -0.04609472305 0.6822104454 0.6162171364 -0.552385807 0.5612152219
-0.07994768023 -0.06403958052 0.6785502434 0.6860592961 -0.5121860504 0.5164732933
-0.06411208212 -0.1254713982 0.7301260829 -0.5252643824 -0.4383155107 0.7276214361
-0.0584932901 -0.1262198389 0.7338426709 -0.4504558742 -0.4633026421 0.7617684603
-0.05712190643 -0.1315350235 0.7304810882 -0.4510114789 -0.4969271123 0.735861659
-0.07837662101 -0.1312555075 0.7095822692 -0.7501831055 -0.3567057848 0.5553302169
-0.02058656886 -0.1376764178 0.7341598272 0.1329253167 -0.6005714536 0.7850369215
-0.02699124254 -0.1404326707 0.7323977947 0.04850691929 -0.6114020348 0.7868452668
-0.02713133208 -0.136337027 0.7357363701 0.03406497091 -0.6052579284 0.7925009727
-0.01128643937 -0.05708503351 0.6513174772 -0.3088288307 -0.575966835 0.7514579892
-0.08080863208 -0.06839708984 0.6746454239 0.7001391053 -0.5035541654 0.5061538219
0.01116737165 -0.1694401354 0.6872726083 0.6829148531 -0.4749554098 0.5547696352
0.01682717353 -0.165609777 0.6828724742 0.7082659602 -0.4559958279 0.53821069
0.02104134858 -0.1628718227 0.6775655746 0.71892941 -0.4525335431 0.527244091
-0.010163242 -0.1528560221 0.719070673 0.3470675647 -0.5978196263 0.7209747434
-0.007609531749 -0.1603688896 0.7118262649 0.4013825655 -0.5697687864 0.7168403864
0.02101042308 -0.1046537682 0.6472694874 -0.4090206325 -0.6335688233 0.6454686522
0.02146339789 -0.1138358191 0.6447773576 -0.34062621 -0.7026939988 0.6021796465
0.0186255835 -0.1084546149 0.6417916417 -0.4724090099 -0.5699537992 0.6672426462
0.0222996939 -0.1003559232 0.6513352394 -0.4144326448 -0.6386920214 0.6377758384
0.01709492877 -0.0985443145 0.6455693841 -0.6048627496 -0.4853676856 0.6189988256
0.02717851102 -0.1138857752 0.6390185952 -0.1534136087 -0.6950218081 0.6144978404
0.02039634623 -0.1134889424 0.6367192268 -0.3591049612 -0.5813712478 0.6573835015
0.02660908177 -0.1175562441 0.6429696679 -0.1606063247 -0.7735562921 0.5726476312
-0.02563757822 -0.1499490589 0.7242969871 0.07771482319 -0.6328275204 0.7696060538
-0.03090631217 -0.152634263 0.7221045494 -0.008611164987 -0.6409583092 0.7635036707
-0.07088270783 -0.101491183 0.6299078465 0.575945735 -0.4972178638 0.648717165
-0.04464939982 -0.1007884517 0.6099511385 0.1648881286 -0.6331875324 0.7534993291
-0.04262107611 -0.09688590467 0.6141498685 0.1499350518 -0.6466534138 0.746275723
-0.03738630563 -0.1012620553 0.6082059741 0.04471446201 -0.6277094483 0.7604536414
-0.02613812871 -0.1030552462 0.6079820991 -0.1360828131 -0.6156586409 0.7617695928
-0.03069917299 -0.09882503003 0.6126846671 -0.03735755011 -0.6328681707 0.7606669068
-0.05622210726 -0.1474473476 0.7197352052 -0.4210405052 -0.5365127325 0.7306041718
-0.05424411967 -0.1521682292 0.7168818116 -0.3724349141 -0.5426636338 0.7522368431
-0.06022201106 -0.1586765796 0.7095720172 -0.4361587465 -0.4977370203 0.7454584241
-0.05669400096 -0.1631962657 0.7093708515 -0.3883859813 -0.5013749599 0.7718568444
-0.05428792536 -0.1572977901 0.7128456831 -0.3656676114 -0.5190064311 0.7723085284
-0.09084044397 -0.149084866 0.6800845265 -0.8425831795 -0.21654962 0.4923882186
-0.0843917802 -0.09891172498 0.6475889087 0.6572805047 -0.496397078 0.5658575296
-0.0816963762 -0.1026121676 0.6432580352 0.6311808228 -0.4899735451 0.6008580923
-0.08649880439 -0.1043787077 0.6503080726 0.6976343989 -0.3499013186 0.4786794186
-0.08913195133 -0.1285795718 0.6691271663 -0.5848531723 -0.2017860413 0.4122945964
-0.08472049981 -0.1110250279 0.651904881 0.2740656734 -0.4117683172 0.5439586639
-0.08616333455 -0.1206074581 0.6613608003 -0.1807795763 -0.3221941888 0.4995039701
-0.08565350622 -0.1162720248 0.6570744514 0.02293379232 -0.359010905 0.5155563354
-0.09137533605 -0.1331745088 0.6735732555 -0.8254778385 -0.1185712293 0.3469086289
-0.08805609494 -0.1303143501 0.6874116063 -0.8563964367 -0.238099739 0.4577734172
-0.0862333104 -0.1297807544 0.6937635541 -0.8517103791 -0.2433383316 0.4636795521
-0.08904585987 -0.1313426346 0.681255877 -0.8632996082 -0.2237012535 0.4520854056
-0.09049945325 -0.142184183 0.6805617213 -0.8570645452 -0.2155766636 0.4676815867
-0.02039394341 -0.09958167374 0.6173751354 -0.206165731 -0.6052209139 0.7615816593
-0.01073081605 -0.09415395558 0.6236137748 -0.3772311211 -0.5701711178 0.7246614099
-0.01437046472 -0.09811922908 0.6177924275 -0.3273519278 -0.5859642029 0.7401354909
0.004792612977 -0.1066234037 0.6279394031 -0.5814872384 -0.456726253 0.6685191393
-0.07287068665 -0.08642236143 0.6453415751 0.6473404169 -0.5021563768 0.5733726025
-0.07772587985 -0.0871655643 0.6508509517 0.6687763929 -0.5022344589 0.5480529666
-0.07726675272 -0.0958577618 0.6434517503 0.6377892494 -0.4982454777 0.5870324969
-0.07546329498 -0.1006392092 0.6365953684 0.6085007787 -0.4907717407 0.6235057712
-0.0007899688208 -0.1397358924 0.7235139012 0.4337820411 -0.5582999587 0.7017307878
-0.04409688339 -0.128315255 0.7404296994 -0.2256376147 -0.5658916235 0.7897366285
-0.03908776119 -0.1265354455 0.7398551106 -0.1631927043 -0.5735482574 0.7987141013
-0.04899126291 -0.1292532235 0.7365048528 -0.3344802558 -0.5336502194 0.7752959728
-0.04503037781 -0.1340694726 0.7349145412 -0.241284743 -0.5691450238 0.7831065655
-0.03886830062 -0.1782556772 0.7056813836 -0.1124957725 -0.5373852253 0.8328409195
-0.04471293837 -0.1808174551 0.706512332 -0.1494920999 -0.5335078239 0.8324136734
-0.01082125213 -0.1783425659 0.7008580565 0.3592777848 -0.5702757239 0.7231885195
-0.01741186343 -0.1797798723 0.7025052309 0.2536084354 -0.5722998977 0.7670349479
0.00708010979 -0.1702109128 0.690202415 0.6553126574 -0.4896568358 0.5734120607
0.003065668046 -0.1697458327 0.6961023211 0.5930223465 -0.519226253 0.6149221063
-0.02135909535 -0.1756526083 0.7041323781 0.2191837728 -0.5674366355 0.7877758145
-0.03360086679 -0.1800731719 0.7052525282 -0.02457542531 -0.5471913815 0.8331791162
-0.02452018671 -0.1808453053 0.7041897178 0.1302000433 -0.5701738 0.8009918332
-0.02926593088 -0.1661019027 0.7104238868 0.04824723676 -0.5603277683 0.8211532235
-0.03189796582 -0.172710374 0.7064544559 0.03100550547 -0.5362026095 0.8387147784
-0.02343745157 -0.1708549857 0.7067582607 0.1550879627 -0.5660271049 0.8094936609
-0.03932689875 -0.1686753482 0.7078629732 -0.1023890525 -0.5219522715 0.8417057991
-0.04344833642 -0.166781351 0.7110744715 -0.1552247405 -0.5208388567 0.8383445144
-0.04184638336 -0.1745383292 0.7090142965 -0.1173157394 -0.5375519395 0.8331416845
-0.03410848603 -0.1693968326 0.7110630274 -0.03107471205 -0.5548056364 0.8302835822
-0.04497758672 -0.1521838605 0.7209695578 -0.227953136 -0.6134331822 0.7549698949
-0.05118399113 -0.1488988101 0.7212056518 -0.3494774997 -0.5762128234 0.737408638
-0.04166413099 -0.1475614458 0.7256579399 -0.1906883568 -0.6140603423 0.7606452703
-0.03510282561 -0.1495508254 0.7256380916 -0.0741539374 -0.6265566349 0.7755523324
-0.03661290556 -0.1529314816 0.7218636274 -0.09386466444 -0.6403769851 0.761027813
-0.0523286052 -0.143258512 0.7246215343 -0.3685522676 -0.5570549965 0.7396467328
-0.04665634409 -0.145165503 0.7258384228 -0.2791265249 -0.6012580991 0.7459672689
-0.06288027763 -0.1297446489 0.7268543839 -0.533801198 -0.467983067 0.6970291734
-0.05040546134 -0.1342889071 0.732670486 -0.33739838 -0.5423796773 0.763433814
-0.04922446981 -0.139551878 0.7292890549 -0.3166514337 -0.5704526305 0.7497268915
-0.07853733003 -0.07799726725 0.6615502238 0.6945286393 -0.500626862 0.5162113309
-0.08250953257 -0.08474148065 0.6608409882 0.7075058222 -0.4915498793 0.5076090693
-0.07608492672 -0.07982072979 0.6548511982 0.671942234 -0.5054575801 0.5407516956
-0.07823741436 -0.07434786856 0.6656447053 0.6984637976 -0.5011550784 0.5107648969
-0.08155851811 -0.07806711644 0.6673127413 0.7078792453 -0.4946713448 0.5041692853
-0.07900226116 -0.0844309777 0.6559883952 0.6889929771 -0.4937258363 0.5301322937
-0.08005281538 -0.0935574621 0.6484614015 0.664980948 -0.4986508787 0.5550734997
-0.08299091458 -0.09095078707 0.6552533507 0.7420210242 -0.4349990487 0.4976714253
-0.01779875718 -0.1733882874 0.7080753446 0.2211387306 -0.5927006602 0.7719768882
-0.009692691267 -0.04747852311 0.6579643488 -0.3072333038 -0.5994277 0.7371914387
0.03266068548 -0.1139449254 0.6410341859 0.007727709599 -0.7822298408 0.5880556107
0.03045163304 -0.1096061021 0.6485289931 -0.136376366 -0.7246435285 0.6573791504
0.02401813865 -0.1061312929 0.6528843641 -0.3367601335 -0.701421082 0.6219706535
0.02389850467 -0.09912541509 0.6589906216 -0.4571194351 -0.5905138254 0.6362870336
0.01959059015 -0.0944564864 0.6539626718 -0.6517944336 -0.4694501758 0.5741751194
0.01919789985 -0.08909863234 0.6572954059 -0.7046396732 -0.4059486091 0.5686795712
0.0191805847 -0.08405096084 0.6611685753 -0.7417994738 -0.3514593244 0.5685502291
-0.01620480604 -0.1531951129 0.7205335498 0.2232754827 -0.6231220961 0.7488337755
-0.02258570679 -0.1541987211 0.7200644016 0.1202183887 -0.6341655254 0.7599150538
-0.0208893735 -0.1624539644 0.7140412331 0.1534534991 -0.590051055 0.7884450555
-0.01574574225 -0.1602018327 0.7145565748 0.23508434 -0.6027801633 0.7606614828
-0.007979501039 -0.1475282162 0.7223398685 0.3638997972 -0.5929227471 0.7170704007
-0.005029262509 -0.1511170864 0.7169008255 0.3906491697 -0.6010994911 0.6939768195
0.0286224205 -0.09795732051 0.6641960144 -0.1908756793 -0.6837275028 0.6589816809
0.02177627012 -0.08060108125 0.6664082408 -0.6457879543 -0.3371520638 0.6606083512
0.02400251292 -0.07728414983 0.670389235 -0.5568750501 -0.3234034777 0.7508599162
0.02639923617 -0.08246842772 0.6704170108 -0.5358873606 -0.3115732074 0.7743504047
-0.02688810416 -0.03956833109 0.6599227786 0.001305216574 -0.6657130718 0.7410978675
-0.05149262026 -0.09583505988 0.6216802001 0.3313408196 -0.6201199293 0.7057551146
-0.05618459731 -0.08997618407 0.6277353764 0.3948740065 -0.583112061 0.7049807906
-0.05717254058 -0.09434721619 0.6249947548 0.421660006 -0.583920002 0.6902063489
-0.05382437259 -0.1005203575 0.6190207601 0.3481404781 -0.613730967 0.706793189
-0.02648617886 -0.09184920043 0.6199751496 -0.08784434944 -0.6359102726 0.7643613219
-0.03484116122 -0.08955126256 0.6213217378 0.04593621567 -0.6386193633 0.767745018
-0.02468758263 -0.09600284696 0.6167345643 -0.1591631174 -0.63195467 0.7578637004
-0.02055060118 -0.09370397031 0.6204239726 -0.192652598 -0.6181460023 0.7552517056
0.03351575509 -0.08867242932 0.6443309188 0.05270615593 -0.5133763552 0.66420573
0.04093225673 -0.08801050484 0.6440734863 0.2927110195 -0.5285505652 0.6700597405
0.0304590743 -0.09251563996 0.6430737972 -0.02503270842 -0.5318186283 0.6867112517
0.02759896778 -0.08767062426 0.6451204419 -0.1478413641 -0.4906884432 0.64885813
0.02194088697 -0.09041220695 0.6444628835 -0.3176755309 -0.494582355 0.6600015163
0.03768487275 -0.09424355626 0.6419169903 0.2228755951 -0.5630153418 0.7089749575
0.01902372018 -0.08604262769 0.6463319659 -0.4395408034 -0.4565887749 0.6253859997
-0.005068715662 -0.105520606 0.6167918444 -0.4635682106 -0.5167590976 0.7178019881
-5.47924792e-05 -0.09830453247 0.6266694665 -0.552638948 -0.4779485166 0.6798329353
-0.003005738137 -0.1017704532 0.6215161085 -0.5018258095 -0.5005421638 0.7013447285
-0.005076004192 -0.09637346864 0.6249859929 -0.4789245725 -0.517644763 0.7084738612
0.0144200325 -0.1126136705 0.6339284182 -0.5360654593 -0.4719497859 0.6981620789
0.01005257946 -0.1099733636 0.6281096339 -0.5538213253 -0.4250342846 0.6791682839
0.03576661274 -0.1001431048 0.6388344169 0.1969197243 -0.5807152987 0.7367481589
0.02585986257 -0.1103277504 0.633343637 -0.1436649412 -0.6235738397 0.6322259307
0.01914107613 -0.1101041436 0.630936265 -0.3121464252 -0.5347292423 0.6553826928
0.03092029132 -0.1049319431 0.6360814571 0.03473005816 -0.5967831016 0.6893401146
0.03646068648 -0.1074990556 0.6376706362 0.1516091824 -0.7101725936 0.6383185387
0.02123437636 -0.1016048864 0.6353476644 -0.2602689862 -0.4870941639 0.6814272404
0.0120348502 -0.0981522575 0.6367202997 -0.6117509007 -0.4205092192 0.6411678791
0.01351003349 -0.105906941 0.6355782151 -0.5624936223 -0.4735151529 0.6765471101
0.01536710095 -0.09191098809 0.6486462355 -0.6807405949 -0.4406058788 0.5831592083
0.01206116285 -0.0934812203 0.6425098181 -0.6448769569 -0.4417943954 0.6224009395
0.01588037238 -0.1027037725 0.6408714056 -0.5208535194 -0.5196195245 0.6735119224
0.01297888067 -0.08708377182 0.6458089948 -0.617891252 -0.443813026 0.6231946349
0.02596000955 -0.09778954834 0.6390126944 -0.1425783634 -0.5150744319 0.6946812868
0.01767188124 -0.09722381085 0.6382344365 -0.4240078032 -0.4598187208 0.6626676917
-0.02973362617 -0.08663482964 0.6240076423 -0.03587531298 -0.6256828308 0.7749179602
-0.01553951204 -0.08855611086 0.625013113 -0.2951190174 -0.5884076953 0.7517272234
-0.02222408913 -0.08823043853 0.6233228445 -0.1661808491 -0.5984936357 0.7784307003
-0.02251571417 -0.08206046373 0.6266525984 -0.1631942987 -0.5922951698 0.7869045734
-0.07359242439 -0.09109514952 0.6421968341 0.6340491176 -0.499701649 0.5894696116
-0.06691306084 -0.09312280267 0.6330789328 0.5542355776 -0.5197449327 0.6496667266
-0.0733544305 -0.09553310275 0.6379396319 0.6137423515 -0.4976992905 0.6120213866
-0.06375711411 -0.08683437854 0.6356649995 0.5075682998 -0.5441664457 0.6679055691
-0.06205355749 -0.08937716484 0.6314938664 0.4960859716 -0.54859519 0.6723256707
-0.0470568724 -0.07278064638 0.6377109289 0.2650486231 -0.6141052842 0.7429577112
0.006911765318 -0.1405000389 0.7174358964 0.5495345592 -0.5212891102 0.6505368948
0.004276096355 -0.1384935677 0.7214518785 0.4603613019 -0.5655552149 0.6816164851
-6.306247815e-05 -0.1499154121 0.7148702741 0.4724989831 -0.5807331204 0.6593381763
0.001682621078 -0.1450548917 0.7186153531 0.4616167843 -0.5703288317 0.6775640249
0.004349686671 -0.1469884813 0.7135031223 0.5573400855 -0.5528275967 0.6190283298
0.02248462662 -0.1576978564 0.678753376 0.72757864 -0.4435669482 0.5231961608
0.02113966271 -0.1508716196 0.6845116019 0.7335875034 -0.4343393445 0.5225291848
-0.004743503407 -0.175432831 0.6986640096 0.4691110253 -0.557567358 0.6827080846
0.00263050315 -0.1638419926 0.7001489997 0.588829875 -0.5100420713 0.6232920289
-0.006324584596 -0.1671683043 0.7054419518 0.433578372 -0.565207243 0.7012586594
-0.04629163444 -0.1577244848 0.7160971761 -0.2425335944 -0.5748577714 0.7803857923
-0.0500674732 -0.1712498218 0.7092009783 -0.2877208591 -0.5321142077 0.7947007418
-0.05702319741 -0.1394637823 0.7246263623 -0.4469337761 -0.5276116729 0.719550252
-0.06368514895 -0.1381374896 0.721336484 -0.5555533171 -0.4792357981 0.677231133
-0.06127718464 -0.1353826523 0.7269113064 -0.4876593649 -0.4812085032 0.7272705436
-0.01007982716 -0.06427499652 0.6466439962 -0.3414596021 -0.5600931048 0.7501413822
-0.01567210816 -0.05891564116 0.6474483609 -0.2582612038 -0.5876340866 0.7659170032
-0.00498489663 -0.0620749183 0.6506659985 -0.3999537528 -0.5388109684 0.7370156646
-0.0189609006 -0.0541652292 0.6503065825 -0.1779332608 -0.6002334356 0.7733640075
-0.02858529612 -0.05293253064 0.6513457298 0.004597675055 -0.619987905 0.7628747821
-0.02721131966 -0.03576615825 0.6638593078 0.02120991424 -0.6878659129 0.7225658894
-0.03295955807 -0.03946828097 0.6622135639 0.09818398952 -0.6697833538 0.7338655591
-0.02097496577 -0.03877611831 0.6626705527 -0.09123004228 -0.6631905437 0.7349014878
-0.03263567761 -0.04362418503 0.6585251093 0.08174820244 -0.6522627473 0.7518792152
-0.06461184472 -0.0713050887 0.6492335796 0.5445853472 -0.5578764677 0.6223469377
-0.07058361918 -0.07678130269 0.6503184438 0.6394647956 -0.5227190256 0.5622037649
-0.07339765131 -0.07142923027 0.6604065895 0.6762326956 -0.5158629417 0.5256617069
-0.07328087837 -0.07427123189 0.6556749344 0.6620363593 -0.5165754557 0.5428718328
-0.007712334394 -0.04380113631 0.6630417109 -0.3318457901 -0.6190000176 0.7051205635
0.002041626023 -0.046044413 0.6658303738 -0.4789062142 -0.6055271029 0.6335348487
-0.003221502295 -0.04635098204 0.6624307632 -0.405169189 -0.6042699218 0.680482924
-0.004214104265 -0.0509423241 0.6584422588 -0.3953893483 -0.5715197325 0.7140265703
-0.006847938523 -0.05448461697 0.6540184617 -0.3759906292 -0.5615200996 0.7364959717
-0.002016389044 -0.0582940653 0.6538667083 -0.4515936673 -0.5357084274 0.7098898888
0.004404265899 -0.1526901871 0.7085189819 0.5717095733 -0.5479406714 0.6086983681
0.010636569 -0.142937392 0.7109048963 0.6270828247 -0.5190592408 0.5803374052
0.02026312426 -0.147010535 0.6888815761 0.7404814959 -0.4245462716 0.5209181309
0.01758259535 -0.1466890275 0.6939947009 0.7490583062 -0.4157939553 0.5156980157
0.01737766154 -0.1548499316 0.6860169172 0.7267464995 -0.4446093142 0.5234876871
0.03822724894 -0.06400098652 0.6697075963 0.3295298517 -0.3148908317 0.844199121
0.03442215919 -0.0626622811 0.6749581099 0.06988807023 -0.3510500193 0.8234049082
0.05006133765 -0.08005155623 0.6484393477 0.5372870564 -0.5202243328 0.6633999348
0.02073579095 -0.07390431315 0.6669660807 -0.586894691 -0.3548891544 0.7048125267
0.02758784406 -0.07624232769 0.6777229309 -0.4107783139 -0.3461951911 0.8395546675
0.01685442775 -0.0716348961 0.6633038521 -0.6786347032 -0.3757149577 0.6285914183
0.01400473993 -0.06714987755 0.6631625891 -0.6434326768 -0.41012007 0.6424135566
0.03125348687 -0.06000610813 0.670360744 0.04095607996 -0.3873704076 0.7788174748
0.01986137219 -0.05546618998 0.6718444228 -0.4146412611 -0.4517345726 0.6981263757
0.02650732733 -0.0572789982 0.6743786335 -0.2387959063 -0.4967789948 0.7063750625
0.0184530206 -0.0661155507 0.6685300469 -0.6082412004 -0.3958762586 0.6824621558
0.02629605681 -0.0876865983 0.6666200757 -0.5803833008 -0.3776201904 0.705906868
0.0283579696 -0.081689246 0.6760081053 -0.4456121027 -0.3947342932 0.7867711782
0.03241005167 -0.08900167793 0.6682443619 0.02610564418 -0.5870406628 0.7514895797
0.03311111778 -0.08224963397 0.672549963 -0.07285784185 -0.3990031481 0.8720048666
0.03518053517 -0.07678706199 0.6766042113 0.03712588176 -0.3585168123 0.8685184717
0.001851153094 -0.05375925824 0.6615125537 -0.4887056649 -0.5378875732 0.6817370653
0.006783511955 -0.05707391351 0.6611588001 -0.5311283469 -0.5046102405 0.6797683835
0.007718384732 -0.04921588302 0.6680160761 -0.5258470178 -0.5578526855 0.6381140351
0.01398703642 -0.05351433903 0.6708084345 -0.5621666908 -0.4890728593 0.665868938
0.01104909368 -0.06020288169 0.6644269228 -0.5839460492 -0.4578824639 0.6681999564
0.02213440463 -0.07253877074 0.655362308 -0.3459560573 -0.4435437918 0.6400091648
0.03012789227 -0.07330454141 0.6543998718 -0.0838804841 -0.465288341 0.6496778727
0.03785735369 -0.07339774817 0.653707087 0.1767528206 -0.4888829887 0.6597976685
0.03561796993 -0.06893876195 0.6572445631 0.08766570687 -0.5007585287 0.6613519788
0.0435391292 -0.0718299374 0.6548597217 0.3474751115 -0.5134186745 0.6686943173
0.04231186211 -0.06818386167 0.6588280797 0.3309231102 -0.4827830493 0.7031833529
0.03288811445 -0.06592834741 0.6626505852 0.1232122704 -0.3713057041 0.7634222507
0.03852522373 -0.06509228796 0.6644425392 0.340621084 -0.3436156213 0.8091385365
0.02893182449 -0.0676516369 0.6592718363 -0.07782232016 -0.4398213625 0.6888206005
0.01062387601 -0.06397885829 0.6596186161 -0.6048551202 -0.45462659 0.6501967311
0.0174575951 -0.06134671345 0.6639236212 -0.4029400647 -0.4292860925 0.698717773
0.02099023759 -0.06544186175 0.661770165 -0.2834934592 -0.3870858848 0.7126917243
0.02543735132 -0.06065961719 0.6661744714 -0.09475146234 -0.3846343458 0.7638177872
0.02190394141 -0.08992259204 0.6621229649 -0.6088781357 -0.4540695548 0.6047860384
0.02409138158 -0.0945982784 0.6627009511 -0.5120212436 -0.5337780118 0.6303517818
-0.0624739863 -0.09889152646 0.6256092191 0.4913726747 -0.554412663 0.6682505012
-0.08503887802 -0.1360426396 0.6914906502 -0.8463153243 -0.256569922 0.464900285
-0.08635146916 -0.1363452673 0.6817881465 -0.8574920297 -0.2218605727 0.4606790841
-0.08279287815 -0.1405062675 0.6895652413 -0.8196262121 -0.2564858198 0.5048295259
-0.08042660356 -0.1427471638 0.6966927648 -0.7952461243 -0.2857893407 0.5307340026
-0.08324518055 -0.1358696073 0.6975670457 -0.8327152133 -0.2791966498 0.4768366516
-0.07984390855 -0.1380818635 0.7010850906 -0.7974569798 -0.3043965101 0.5178973675
-0.08528127521 -0.142164886 0.6832997799 -0.8430489898 -0.223184973 0.4841728508
-0.08033435792 -0.1489227265 0.6960334182 -0.7852693796 -0.2751840949 0.5456740856
-0.07732052356 -0.145083189 0.7018384337 -0.742198348 -0.3338730931 0.5701974034
-0.08405657113 -0.1483880281 0.6862984896 -0.8226214647 -0.2340762913 0.510007441
-0.059037406 -0.1519197077 0.7144776583 -0.4417330921 -0.5150268674 0.7318606377
-0.06017065793 -0.1422501653 0.7201817036 -0.4998418987 -0.5018086433 0.6932939887
-0.06225237623 -0.1464942247 0.7167583108 -0.5090146065 -0.5031523705 0.6959052086
-0.06575461477 -0.1501053125 0.7123631239 -0.5582040548 -0.4679020047 0.6780777574
-0.0296130199 -0.1569996625 0.7181720734 0.008799123578 -0.6189209819 0.7811445594
-0.03203365207 -0.1614918709 0.714446485 -0.01328295935 -0.5839511156 0.8068721294
-0.03682566434 -0.1637972444 0.7124608755 -0.0776816234 -0.554741919 0.8251754642
-0.0365794301 -0.1575444639 0.7176081538 -0.10444282 -0.6071990132 0.7854185104
-0.04251916707 -0.1609094292 0.7145178914 -0.1656533778 -0.5574580431 0.8077594638
-0.02660922334 -0.1614893526 0.7151158452 0.06199283525 -0.5973694921 0.7974100113
-0.02026392333 -0.0737157464 0.6340882778 -0.2030401826 -0.5913984179 0.7794476748
-0.02397678047 -0.07771354914 0.6299231052 -0.122609809 -0.6036307812 0.78692168
0.01663209498 -0.1600120813 0.6810387969 0.7128641009 -0.4561560452 0.5320159197
0.01425121259 -0.1562304646 0.6918823719 0.7254861593 -0.4384882152 0.530413568
0.01469855476 -0.1627904624 0.6867813468 0.7196834683 -0.4435379207 0.5341196656
-0.01012587734 -0.1730036139 0.7025042176 0.3852540255 -0.5727778077 0.7204326391
-0.01314548869 -0.1689939052 0.7056314945 0.3096310496 -0.5776865482 0.7527091503
-0.002574855462 -0.1672935486 0.6993448138 0.5073184371 -0.5201770067 0.6550837159
-0.017785253 -0.1664366275 0.7093219161 0.2203851342 -0.5802493691 0.7820292115
-0.01943113096 -0.06167589501 0.6446079016 -0.1914634705 -0.5974616408 0.7740648985
-0.02233239077 -0.05739106983 0.6471338868 -0.11128667 -0.6118456125 0.7779973745
-0.02301460691 -0.06871981919 0.6383622885 -0.1353453547 -0.6063187718 0.7805523872
-0.01449487265 -0.06905523688 0.6413138509 -0.2579152584 -0.5793940425 0.771695137
-0.02762769163 -0.05678666756 0.647300899 -0.005555215757 -0.6227050424 0.7791994214
-0.02722817473 -0.06195768714 0.6431071162 -0.04046386853 -0.6156846285 0.782916069
-0.03337277845 -0.05652520806 0.6478571296 0.09062498808 -0.6247653961 0.7743635774
-0.04176222906 -0.0578134954 0.6487269402 0.2223323137 -0.624591589 0.7463415265
-0.04394343868 -0.05450187996 0.6524339318 0.2623052299 -0.6296913028 0.7286064029
-0.03792057559 -0.05383236334 0.6506516337 0.1695865691 -0.6287864447 0.7566689253
-0.04087080061 -0.07353305072 0.634960115 0.1675408483 -0.619999826 0.7630993724
-0.03550942987 -0.06610481441 0.6402357817 0.07449471205 -0.6214074492 0.7791583538
-0.04116529599 -0.06920625269 0.6392419934 0.1644518524 -0.6223900318 0.7579008341
-0.04235827923 -0.06498919427 0.6427562833 0.198792845 -0.6146059036 0.758287549
-0.04659122229 -0.06787253171 0.641557157 0.2607241273 -0.6146209836 0.7440343499
-0.0280628074 -0.07075017691 0.6359639764 -0.06344288588 -0.6146227717 0.7816311121
-0.03340845555 -0.07200638205 0.6352469921 0.03926711529 -0.6237761378 0.7768061757
-0.03794224933 -0.04154128209 0.6613180637 0.1780416071 -0.6512507796 0.7345616817
-0.03923744336 -0.04656691849 0.6570059061 0.198040992 -0.6372883916 0.739657402
-0.02353906445 -0.05075798556 0.6514362693 -0.07457065582 -0.6096972227 0.7867259979
-0.01865382306 -0.04883440211 0.6543312073 -0.160248816 -0.6105830073 0.7711242437
-0.03173281625 -0.04725866392 0.6547269225 0.06389564276 -0.6288695335 0.7704848051
-0.02570001781 -0.04450655729 0.6569139957 -0.04044009745 -0.639038384 0.7667631507
-0.01504722238 -0.04195062816 0.6614447236 -0.1976084411 -0.6321401 0.746991396
-0.02073854953 -0.04343869537 0.6595057249 -0.11600402 -0.6395443678 0.7501224875
-0.07364689559 -0.06558278948 0.6664558053 0.685849607 -0.5112056136 0.5178847313
-0.07653982937 -0.064840734 0.6715447307 0.6926968098 -0.5038650632 0.515987277
-0.0550497435 -0.05416445807 0.6576969624 0.4459138811 -0.6004706621 0.6617182493
-0.05033877119 -0.05506528541 0.6543436646 0.3708831668 -0.6107544303 0.6946741343
-0.04864355177 -0.0591212213 0.6502380967 0.3251750469 -0.6130523086 0.7138012648
-0.05497951061 -0.05806801096 0.6537272334 0.4293398261 -0.598123312 0.6759025455
-0.06459560245 -0.04871862754 0.67092067 0.6099671721 -0.5654643178 0.5543931127
-0.06044463441 -0.04359919578 0.6722483635 0.537358284 -0.6039596796 0.5844428539
-0.06134472042 -0.06633313745 0.650965035 0.505228579 -0.5734862685 0.6402766705
-0.05599372089 -0.06656944752 0.6468743086 0.4221961796 -0.5939411521 0.6828855872
0.007750541437 -0.1617038995 0.697440505 0.6768604517 -0.4649947584 0.5664964914
0.0116688339 -0.1617551893 0.6934913993 0.7063441873 -0.4517638087 0.5441361666
0.01132086106 -0.1497875303 0.7039297819 0.6915437579 -0.4679500163 0.5476284027
0.01474189665 -0.1464411169 0.7000294328 0.718749702 -0.4488711953 0.5282658935
0.01257167477 -0.1527996808 0.6976538301 0.7277422547 -0.4327112436 0.5312408805
0.02431743592 -0.0711530149 0.6737834811 -0.4282306135 -0.3657334745 0.8202472329
0.02143453807 -0.06612071395 0.6734123826 -0.5125468969 -0.3954218626 0.7543124557
0.02297892235 -0.0583650209 0.6793569922 -0.4748749137 -0.4174456298 0.7653228641
0.03369075805 -0.06652700901 0.6786971688 0.03157212213 -0.3404732943 0.8092730045
0.03850609809 -0.06963400543 0.6762393713 0.314073354 -0.3320761025 0.7842227817
0.02986503765 -0.06068879366 0.6794310212 -0.1892418712 -0.3521391153 0.8135092854
0.04177102074 -0.068905361 0.6716794372 0.4811632931 -0.3501116037 0.8020467758
0.0492432788 -0.07390931994 0.6600495577 0.5704330206 -0.4391836524 0.6856536269
0.05195991322 -0.07530141622 0.6539868712 0.5769625902 -0.4876074493 0.6519503593
0.04800821096 -0.06800800562 0.6608017683 0.5238411427 -0.4566424787 0.7181584239
0.04427519813 -0.06619589031 0.6658625007 0.4848933816 -0.435595572 0.7544963956
0.05097255111 -0.06977478415 0.6559322476 0.5528031588 -0.4562596977 0.696854949
0.002382392064 -0.0631076321 0.6547231674 -0.502481699 -0.5015839338 0.6990406513
-0.06326796114 -0.1618103683 0.7030648589 -0.5001546144 -0.4301007092 0.7393444777
-0.0712626949 -0.1535458118 0.7028149962 -0.6150360107 -0.3719491065 0.6925485134
-0.06699451804 -0.1532506049 0.7071440816 -0.5511371493 -0.4379412234 0.705362618
-0.06853903085 -0.1583862752 0.7031480074 -0.5716798306 -0.4211901426 0.7014106512
-0.07498243451 -0.1512830704 0.6993516684 -0.6956845522 -0.3263833225 0.6331264377
-0.07310073823 -0.1492616683 0.7059110403 -0.6738142967 -0.390832603 0.6239612103
-0.07553259283 -0.1568344682 0.6972942948 -0.6937236786 -0.3245241046 0.6397864819
-0.07560020685 -0.1638524681 0.696046412 -0.6637223959 -0.3475189805 0.6586462259
-0.07680731267 -0.1391225159 0.7060347199 -0.7407447696 -0.3642447293 0.5596991777
-0.07294968516 -0.1430838555 0.7083053589 -0.6723666787 -0.4038560092 0.6099493504
-0.06825795025 -0.1383630037 0.7173376083 -0.6390490532 -0.4360994697 0.6323168874
-0.06669280678 -0.1438224018 0.7147206664 -0.5798377991 -0.4673075676 0.6630575657
-0.07006783783 -0.147354871 0.7111249566 -0.6315443516 -0.4328721464 0.6416962147
0.008808108047 -0.1013194695 0.6336459517 -0.6508215666 -0.4120775461 0.6374980807
0.004561941605 -0.09960950166 0.6298714876 -0.6091593504 -0.4429521859 0.6563941836
0.001088867895 -0.09469097853 0.63120538 -0.5615478754 -0.464427352 0.6814205647
-0.008794252761 -0.08931171149 0.628633678 -0.4119485617 -0.5466682911 0.7278571129
-0.01362538803 -0.08300427347 0.6304941177 -0.3269641399 -0.5650465488 0.7554450631
-0.04845653474 -0.08656731248 0.6269448996 0.2711956799 -0.6168177724 0.7355176806
-0.03712939098 -0.08270382881 0.6275116205 0.08764152974 -0.6285722852 0.7715466619
-0.04270375893 -0.08440731466 0.6272629499 0.1796368062 -0.632896781 0.7508756518
-0.05028018355 -0.08049789816 0.6325109601 0.2952348888 -0.6057727933 0.7344384789
-0.05500884727 -0.08457319438 0.6315076947 0.3780121207 -0.5871414542 0.7155573368
-0.04226245731 -0.07807695121 0.6321057677 0.1780412346 -0.6184822321 0.7627296448
-0.05765075609 -0.07341344655 0.6421590447 0.4237717986 -0.5843328238 0.6891470551
-0.06379710138 -0.07769431174 0.6432206035 0.5220543146 -0.5544990301 0.6444042921
-0.06901407987 -0.08661185205 0.6406761408 0.5859368443 -0.5202168822 0.6196048856
-0.06494918466 -0.08310652524 0.6398859024 0.5315355659 -0.5434835553 0.646881938
-0.05932153016 -0.08248221874 0.6363912821 0.4465397298 -0.5683121085 0.6846248507
-0.05488091707 -0.07842227817 0.636099577 0.3749623299 -0.5922094584 0.7117450833
-0.03066955321 -0.08096210659 0.6291213632 -0.0426765345 -0.6177597642 0.780228138
-0.03620100394 -0.07779022306 0.6314182281 0.08345533162 -0.6283345222 0.7733373046
-0.02907726169 -0.07616151869 0.6322603822 -0.05394909903 -0.6093761921 0.7855725884
-0.002873805584 -0.07229416072 0.6437119246 -0.4466845989 -0.5290005803 0.7205187082
-0.008621177636 -0.06925152242 0.6431836486 -0.3557431102 -0.5511558056 0.7508733273
-0.003341344185 -0.06743870676 0.6470351219 -0.4406891167 -0.5274609327 0.7235392332
-0.003458406078 -0.07756747305 0.6400290728 -0.4496736228 -0.5267167687 0.7200838923
-0.009932502173 -0.07354694605 0.6394612789 -0.3358232379 -0.5559425354 0.755595088
-0.01444993261 -0.07498375326 0.6361415386 -0.2721621096 -0.5673109889 0.7765074968
-0.04723863676 -0.04799105227 0.6591092944 0.3345558047 -0.6329929233 0.6923211813
-0.05452830717 -0.04958406091 0.6611591578 0.432074815 -0.6205682158 0.6514484882
-0.05941002816 -0.04872673005 0.6656537056 0.5412961841 -0.6002335548 0.584359467
-0.04765174538 -0.0429835543 0.6629782319 0.343941927 -0.6426547766 0.6809210777
-0.05221093446 -0.04231208935 0.6660633683 0.4157363176 -0.6476271152 0.6372392178
-0.06363375485 -0.05245443061 0.6671589017 0.5735980868 -0.5722391605 0.5790583491
-0.06364833564 -0.05625487491 0.6621913314 0.5827293396 -0.5736720562 0.5732958913
-0.06522595137 -0.06459682435 0.6557831168 0.5773621798 -0.5565857887 0.5955666304
-0.06868755817 -0.06922306865 0.6544449329 0.6303483844 -0.5320138335 0.5644388199
-0.06835582852 -0.06212564185 0.6615279317 0.6582952738 -0.5387347937 0.5255498886
0.02908652462 -0.07194854319 0.6812004447 -0.3432871401 -0.3555897474 0.8622523546
0.02730979957 -0.06682943553 0.681763351 -0.4050258398 -0.3620826006 0.83729285
0.007356068119 -0.09550261497 0.6350863576 -0.5991254449 -0.4365117848 0.6694930792
0.003470058553 -0.07859461755 0.6431123614 -0.5384370089 -0.4837032557 0.6899036169
0.005751341581 -0.08415466547 0.6416222453 -0.5983724594 -0.4478386045 0.6638306379
0.01257440634 -0.07138959318 0.6565490961 -0.6546782851 -0.4188310504 0.6290382743
0.008486446925 -0.07165487111 0.6527894735 -0.6206753254 -0.4368195534 0.650352478
0.007324468344 -0.0671222955 0.6557084918 -0.5618491173 -0.4698317349 0.675075531
0.01648086682 -0.07796717435 0.6600785851 -0.705273807 -0.3680934906 0.602309227
0.015631143 -0.08337900043 0.6548666358 -0.7029126883 -0.3882578611 0.5919197798
0.01018252131 -0.07683058083 0.6503463387 -0.6445575356 -0.4293828905 0.6321938038
0.02422710136 -0.08276150376 0.6469731331 -0.2430364937 -0.4680338502 0.6361806393
0.03255824 -0.0775719732 0.6502466798 0.02393266186 -0.4809677601 0.6506476402
0.01629931293 -0.07900001854 0.6491009593 -0.4819878638 -0.4440065622 0.6295999885
0.03255018964 -0.08264123648 0.6465979218 0.0281899143 -0.4896730781 0.6477944851
0.03951726109 -0.08193392307 0.6471574903 0.2448957264 -0.5053470135 0.6568670869
0.04373277724 -0.07639954239 0.6511715651 0.3714751303 -0.5060420632 0.6652205586
0.02281455509 -0.07777772844 0.6500815749 -0.2813904285 -0.4572847784 0.6383509636
0.001270274515 -0.08530285954 0.6370167732 -0.5179041624 -0.4973418117 0.6952508092
-0.002395529533 -0.08942215145 0.6317931414 -0.5059583187 -0.4970744252 0.7034876347
0.00721401535 -0.09020351619 0.6401791573 -0.6034602523 -0.4510534704 0.6532813907
-0.005714488681 -0.0836147368 0.6337414384 -0.4262274504 -0.5302314162 0.7321578264
-0.0113497898 -0.07900155336 0.6337539554 -0.3427531421 -0.5543529391 0.753213048
-0.07278233767 -0.05949685723 0.6702218652 0.6654111147 -0.5272572637 0.5281895399
-0.07814954966 -0.05812349916 0.6778054237 0.670338273 -0.5228904486 0.526342392
