# .PCD v0.7 - Point Cloud Data file format
VERSION 0.7
FIELDS x y z normal_x normal_y normal_z
SIZE 4 4 4 4 4 4
TYPE F F F F F F
COUNT 1 1 1 1 1 1
WIDTH 512
HEIGHT 1
VIEWPOINT 0 0 0 1 0 0 0
POINTS 512
DATA ascii
0.03124689311 -0.1961866915 0.730432272 -0.3988266587 -0.4283374548 0.8086733818
0.01808199845 -0.1975207776 0.7270368338 -0.549623847 -0.3899680376 0.7357801199
0.02597712912 -0.1836216152 0.7352213264 -0.5037706494 -0.444671154 0.7381526828
0.0297416281 -0.1809398681 0.7392398119 -0.4530466795 -0.4915026426 0.7388131022
0.06315200776 -0.210680604 0.7297282815 0.1200142875 -0.5537301302 0.8209478259
0.001600380638 -0.09677349031 0.7143450379 -0.7995583415 0.4232864678 -0.4246571362
0.004105322994 -0.09063881636 0.7154887319 -0.7784852982 0.4458771646 -0.4398831427
0.008211284876 -0.08512502909 0.7152959704 -0.7551357746 0.4649543464 -0.4616134465
0.07859957218 -0.158276394 0.7583155632 0.3006884754 -0.5794792771 0.7565087676
0.009674340487 -0.1742125303 0.7261971235 -0.7601169348 -0.3328295052 0.5578044653
0.03251902014 -0.2087270021 0.7280015349 -0.3192709386 -0.4506308436 0.8245738745
0.03113092296 -0.201613754 0.7278029323 -0.3813401461 -0.4400905073 0.8114565611
0.0311939884 -0.1860913485 0.7363988161 -0.4238582253 -0.4757013619 0.7669690847
0.02135107107 -0.1848094016 0.7309522033 -0.5847198963 -0.4012976289 0.6960804462
0.01879560202 -0.1785607636 0.7326825261 -0.6144875884 -0.3967895508 0.6765832305
0.01408419386 -0.1799036115 0.7278549671 -0.7066915035 -0.3551540673 0.6092686653
0.01408745721 -0.1972206682 0.7207272053 -0.642481029 -0.3806381226 0.6539242864
0.03026894294 -0.131514892 0.6457152963 -0.457439661 0.5569902062 -0.6891642809
0.01985952444 -0.1351119727 0.6462605 -0.5585110784 0.5151064396 -0.6434490085
0.04423473403 -0.1304391772 0.6406304836 -0.2587221265 0.6171964407 -0.7362704873
0.03647711873 -0.1304627955 0.6432110071 -0.3760198653 0.5910723209 -0.7093549371
-0.01019825321 -0.170268178 0.6877945065 -0.8977223039 0.2514869571 0.3572557569
0.007372707129 -0.1668459624 0.7254564166 -0.7712190151 -0.3123525977 0.5515970588
0.01471431926 -0.1730568856 0.7319748998 -0.6717221737 -0.3760925829 0.635543704
0.01856799237 -0.166137144 0.7404728532 -0.5965024233 -0.4390472472 0.6709471941
0.01496737171 -0.1672362238 0.7356578112 -0.6711876988 -0.3915902376 0.6287120581
0.01887283847 -0.1721595079 0.7370624542 -0.6008623838 -0.4291833639 0.6718022227
0.03582027555 -0.1920939833 0.7350652218 -0.340750128 -0.4688513875 0.8130928278
0.02339883707 -0.1661110073 0.7447237372 -0.5284852982 -0.4836778939 0.6909541488
0.02967852168 -0.1689820439 0.7477809787 -0.4311668277 -0.5427851081 0.7180880904
0.02370177209 -0.1738696694 0.7405799627 -0.5415411592 -0.4756028354 0.6929147243
0.0170910731 -0.1895494461 0.7276831865 -0.623108685 -0.3739384115 0.6814042926
0.02508774213 -0.1907945722 0.7300786972 -0.5052227974 -0.4105934799 0.7554268241
-0.007949141786 -0.1600129306 0.6855273247 -0.9155585766 0.2123442888 0.09408444911
-0.002011197153 -0.1380146742 0.6864953637 -0.8276810646 0.3704072535 -0.3264685273
-0.006368091796 -0.1542240828 0.6857213974 -0.8927369118 0.2532482743 -0.01768618822
0.005574114155 -0.1316592842 0.6749990582 -0.7840967178 0.4297683537 -0.4477116466
0.003031203756 -0.1274031401 0.6835435033 -0.8041414022 0.4095260501 -0.4307253063
-0.001466839458 -0.1268930286 0.6973542571 -0.8239483237 0.3899672329 -0.4108035862
0.1289169788 -0.09475426376 0.6556988955 -0.8223470449 0.3731339574 -0.4233454764
0.07266572863 -0.1309583485 0.6349633932 0.2491337806 0.6336984634 -0.7281895876
0.0534571819 -0.2064914554 0.7321639657 -0.01771892793 -0.5140461326 0.8565384746
0.08548400551 -0.2049755752 0.7216032743 0.489554882 -0.4966852367 0.7132225037
0.07953767478 -0.2050496936 0.7251908779 0.4122316539 -0.5340416431 0.7352108955
0.07481337339 -0.2081175745 0.7263994813 0.3527152538 -0.5696844459 0.7420706153
0.04885418713 -0.1950311661 0.7389118075 -0.1365153641 -0.5188439488 0.8406075239
0.05995386839 -0.205458492 0.7306311131 0.09489802271 -0.5405882597 0.8321834207
0.0740095377 -0.1611122787 0.7613423467 0.2130473554 -0.5760907531 0.7882099748
0.006485334132 -0.1716480404 0.7212447524 -0.7902435064 -0.3153277934 0.5230743289
0.003297576681 -0.1444613189 0.6681415439 -0.8267431855 0.3288579583 -0.377268225
-0.003539468627 -0.1541496813 0.6783906221 -0.8855754137 0.2485847473 -0.09497638792
0.002984889084 -0.1406615525 0.6725898385 -0.8498170376 0.2956088781 -0.4326499104
-0.002747316146 -0.1586966813 0.6822872758 -0.9107843041 0.2123571336 0.0517986007
0.0004551213642 -0.1518822014 0.6741266251 -0.8629004955 0.2789201438 -0.1635947526
-0.005363845732 -0.1663057059 0.6858683228 -0.9336771965 0.1812210083 0.251170963
-0.001012134133 -0.1488577276 0.6797008514 -0.8893754482 0.2435039282 -0.2020118535
0.001971554244 -0.1346847713 0.6808201075 -0.8179275393 0.3768337667 -0.4296441972
0.002455560258 -0.1706030071 0.7164516449 -0.8162368536 -0.3062171936 0.4854440391
0.01679722592 -0.1925751567 0.7217462659 -0.6631832719 -0.3732196987 0.6364480853
0.02436772734 -0.1959251463 0.7269306183 -0.5267065763 -0.3905720711 0.7546370029
0.0244622454 -0.2032345235 0.7264240384 -0.4823482633 -0.4228376448 0.7668357491
0.01740884967 -0.2023636997 0.7241120338 -0.550637126 -0.395121038 0.7300634384
0.01345110871 -0.1858673394 0.7236410379 -0.714568913 -0.3469063044 0.6060326099
0.01048798114 -0.1859558076 0.7176927924 -0.7661414146 -0.3308052421 0.5489518046
0.008957942016 -0.1789470762 0.7227492929 -0.7738147974 -0.317578733 0.5473799109
0.07802352309 -0.1286887527 0.6399070024 0.3052579761 0.6073184013 -0.7248914838
0.1223382428 -0.09492859244 0.6543477178 -0.7055787444 0.4191265106 -0.5546799898
0.1093473434 -0.09724229574 0.6566722989 -0.3937317431 0.4666990936 -0.6706114411
0.1103327498 -0.1044470072 0.6525674462 -0.4857600331 0.4584394395 -0.7236461639
0.114671953 -0.09885977209 0.6535053253 -0.5624792576 0.446408093 -0.6717841625
0.1045186371 -0.1023726091 0.6561825871 -0.2987855673 0.4807968736 -0.7200081348
0.09645494819 -0.09994330257 0.6609684229 -0.04340948164 0.5115126967 -0.7183867693
0.1072640568 -0.1151869819 0.6776646972 0.715095222 0.4141572118 -0.5571552515
0.1181651503 -0.1143507957 0.6623960137 -0.2766285539 0.3800275028 -0.4847337306
0.113699533 -0.115240328 0.6719449162 0.2700532079 0.38530159 -0.5512498021
0.1208259538 -0.1045817882 0.6709681749 -0.07767030597 0.3233508766 -0.5099313259
0.1143480539 -0.1124294698 0.6804958582 0.4414682686 0.3150123954 -0.5780358315
0.1183381826 -0.1100374907 0.6709268093 -0.01580506749 0.3336544931 -0.5191612244
0.1229316965 -0.1091712117 0.6570506692 -0.6485072374 0.3655546904 -0.4383020997
0.1235766932 -0.1041107401 0.662586391 -0.4592394531 0.3427176476 -0.4611795545
0.1269987971 -0.09860088676 0.659620285 -0.6566725373 0.3395777643 -0.4346565008
0.1208484396 -0.1089371145 0.6642938852 -0.3262576163 0.3476195037 -0.4793190956
0.1256197244 -0.1043749526 0.6537944674 -0.8210507035 0.3816350698 -0.4204757512
0.1166283041 -0.09799191356 0.7082250118 0.4299248755 -0.05005096272 -0.4845543802
0.1113193631 -0.08327135444 0.7041851282 -0.3774424493 -0.5757085681 -0.5367298722
0.04467099532 -0.2046004534 0.7337190509 -0.1601594537 -0.4942111373 0.8528804183
0.04276823997 -0.1987468302 0.7365250587 -0.2046815455 -0.4985400438 0.8411499262
0.04941606522 -0.1994922161 0.7344240546 -0.09434483945 -0.5149291754 0.8446520567
0.05133038759 -0.1657160521 0.7601209879 -0.09698142111 -0.5547127724 0.8232573867
0.04185334966 -0.1886691302 0.7397087216 -0.2552513182 -0.5263531804 0.8094710112
0.0356612429 -0.1850158572 0.7402788401 -0.3569154143 -0.5205847025 0.774173677
0.05439740792 -0.192285955 0.7407720685 -0.02418194711 -0.5465320349 0.8364772797
0.0483276993 -0.2072036415 0.7289063931 -0.08888532966 -0.5007756948 0.8553003073
0.03809562325 -0.2025484294 0.7294268608 -0.2676018775 -0.4676665962 0.8341960907
0.03945534304 -0.2089530379 0.7279590368 -0.2107574344 -0.4653999209 0.8564970493
0.05209847912 -0.2112699896 0.7283414006 -0.03791567683 -0.5089273453 0.8554564118
-0.0002409113658 -0.1315566003 0.6870556474 -0.8053779006 0.4112533331 -0.4268276989
0.001139347209 -0.1257250309 0.6912321448 -0.8181096911 0.39370507 -0.4188627601
0.006826738361 -0.1252710372 0.6777501702 -0.7850633264 0.4234619439 -0.4518327415
0.0584064424 -0.1647026241 0.7611762285 0.01038133167 -0.5579580665 0.8255586028
0.05881521478 -0.1593420357 0.7629736662 0.02977549285 -0.5424624681 0.8346364498
0.0684024021 -0.1625330448 0.7585926056 0.1775568575 -0.5744331479 0.7949626446
0.06314013153 -0.168533057 0.7583007812 0.08188994229 -0.5911229849 0.7990961671
0.009219119325 -0.1322854459 0.668577373 -0.7474217415 0.4535178244 -0.4828727245
0.01271531358 -0.1278705597 0.6660791636 -0.7101604939 0.4814580381 -0.5120521188
-0.000792099745 -0.1421458125 0.6793429255 -0.8792013526 0.2604582012 -0.3736228645
-0.002210483421 -0.1559426039 0.6898705959 -0.8837427497 0.0693731159 0.02674172074
-0.002833455103 -0.1650433093 0.6985195279 -0.8790507317 -0.09495857358 0.3016450703
-0.001466260757 -0.1337585598 0.7032321692 -0.8313400745 0.2575177848 -0.2416858226
0.0004283705202 -0.156529218 0.7104839683 -0.8402422071 -0.09871112555 0.2282337397
-0.0008847402059 -0.1337858737 0.6975523829 -0.8209500313 0.3102889657 -0.3004263341
0.001894886256 -0.1639853865 0.7141261697 -0.8417810798 -0.2086396664 0.386882484
6.324613059e-05 -0.1452642381 0.7065169215 -0.8331235051 0.09123024344 -0.01281613857
0.0002429867163 -0.1429624408 0.6956351995 -0.8161759973 0.2095395625 -0.1603906006
-0.0007699128473 -0.1495025307 0.6908940077 -0.8534599543 0.08258418739 -0.09522610903
-0.0004602604022 -0.1442871988 0.686190784 -0.8545880318 0.18840532 -0.2429244965
-0.0009407844045 -0.1543706506 0.6968423724 -0.8446309566 -0.02021060325 0.06723861396
-0.007098297589 -0.1526613683 0.6932375431 -0.8943040371 0.2275594771 0.04007269815
-0.003380425274 -0.1611246765 0.703309536 -0.8602965474 -0.1042725891 0.2717448771
-0.008245936595 -0.1674136072 0.6928943396 -0.9134545922 0.05341090634 0.3129054308
-0.002582359593 -0.1679725349 0.7062728405 -0.8555036783 -0.2556370795 0.4212437272
-0.003392268205 -0.1548430622 0.702281177 -0.8572881222 -0.003593778238 0.1469760686
-0.003424451919 -0.1477254331 0.7010720372 -0.8540722132 0.1114789918 0.00527933985
-0.008436930366 -0.1585951895 0.6910415888 -0.9110239744 0.2039894611 0.1347547024
-0.006320200395 -0.160480544 0.6963087916 -0.8902004957 0.06178248674 0.208490029
-0.002421951154 -0.1406359076 0.7022951841 -0.8402323127 0.1712702364 -0.1180925444
-0.004145822488 -0.1384993792 0.6948302984 -0.8546782136 0.3318184912 -0.2202279866
-0.006025289185 -0.1466781944 0.6929705143 -0.8789740205 0.2869076729 -0.07809306681
0.004680249374 -0.176373437 0.7133693099 -0.8277087212 -0.3037062585 0.4700340927
0.01135807205 -0.1924286038 0.7176203728 -0.7241651416 -0.3666036129 0.5831648707
0.007718897425 -0.1910956353 0.7133658528 -0.7715021372 -0.354059577 0.5277171731
0.006440092344 -0.1819697767 0.7164071798 -0.7936713696 -0.3174629807 0.5172103643
0.004515799228 -0.186907962 0.7097619772 -0.8100043535 -0.3241017163 0.4842832983
0.01428586617 -0.1009068936 0.6883810163 -0.7339104414 0.4644821286 -0.4924354553
0.01305662096 -0.1228474826 0.6707928777 -0.7288851142 0.4580520391 -0.5045336485
0.017128231 -0.1227687746 0.6654140353 -0.6738880277 0.5027242899 -0.5360738635
0.02195368148 -0.1270422488 0.6531338692 -0.5519990921 0.5405945182 -0.6310993433
0.02019297704 -0.1244524717 0.6602448225 -0.6251353025 0.5289441347 -0.5710722208
0.1008782163 -0.1974788606 0.7115053535 0.7241587639 -0.3781927526 0.558956027
0.11400491 -0.1919847578 0.6986404061 0.8389737606 -0.341784209 0.4161498547
0.105741553 -0.1994713992 0.7163746953 0.725289464 -0.3938981295 0.5532337427
0.1087801158 -0.1962514967 0.7090576291 0.7740013599 -0.3684010506 0.4982023239
0.08673083782 -0.1825116277 0.7364666462 0.5174297094 -0.5509293675 0.6541067958
0.08298256993 -0.1311484426 0.6442883611 0.3812459111 0.5688884854 -0.7276319265
0.1107969657 -0.1883785874 0.702275157 0.8622424603 -0.315631032 0.3952874541
0.114966087 -0.1866703629 0.6954500079 0.8687437177 -0.3017912209 0.3921154141
0.09158588201 -0.09762946516 0.6643159986 0.1155644208 0.5335347652 -0.7093522549
0.1136681437 -0.09230474383 0.6576373577 -0.5115630627 0.4933998287 -0.6026604772
0.1076147109 -0.1689218581 0.7233341932 0.7656853199 -0.437851429 0.4673594236
0.1108804867 -0.1690129042 0.7181252837 0.8429724574 -0.3403298855 0.4158800542
0.1177091449 -0.1065958887 0.6508402824 -0.66496557 0.4629883766 -0.575132668
0.08712133765 -0.1775626242 0.7401682138 0.5162972808 -0.5575746894 0.6473792791
0.07440627366 -0.1868178248 0.7415696979 0.3206685185 -0.5766651034 0.7483801246
0.06888988614 -0.1799385101 0.7475955486 0.1872794479 -0.5915733576 0.7799344063
0.07513338327 -0.1789886802 0.7463889718 0.294515878 -0.5913234949 0.7505904436
0.008625788614 -0.1001997441 0.6954348683 -0.7799746394 0.4327233136 -0.4519538283
0.00827622693 -0.1058434322 0.6910048723 -0.790223062 0.4241320491 -0.4420017302
0.1140746027 -0.08662413806 0.6880717874 -0.766063869 -0.2769402862 -0.5168195963
0.1128759012 -0.08429782838 0.6956704259 -0.6546776295 -0.426820308 -0.526247561
0.1072410494 -0.08281253278 0.6999897361 -0.375151068 -0.5623344183 -0.4815382063
0.1070306301 -0.08821600676 0.6959499717 0.1592968255 -0.187800765 -0.5587884784
0.1130531877 -0.09772602469 0.7016175389 0.6381294727 0.1138774157 -0.5486547351
0.1255419403 -0.08373690397 0.6619411707 -0.7773622274 0.4247305393 -0.4531143308
0.1302537173 -0.08950268477 0.6576775312 -0.8387704492 0.3376695514 -0.4239030182
0.1022777185 -0.07806409895 0.6968996525 0.3304840326 0.4781295657 -0.6957052946
0.09012882411 -0.1063364446 0.6671493649 0.4550890923 0.6119254231 -0.6407803297
0.09623286128 -0.1002495289 0.6769923568 0.5438648462 0.449641794 -0.6987882257
0.09652311355 -0.1080497727 0.6712648273 0.5419188142 0.5970586538 -0.5846781135
0.1027908325 -0.114668116 0.6736370921 0.6823703051 0.4963858128 -0.5143176913
0.09841395915 -0.1144093573 0.6686250567 0.5201643109 0.5886375308 -0.5892778039
0.05328954011 -0.1858312637 0.7441289425 -0.04944531247 -0.5864440799 0.8045198321
0.04586153105 -0.1859472394 0.7430559397 -0.1932050437 -0.5655486584 0.7975874543
0.003030418186 -0.1140438393 0.7006231546 -0.8218221664 0.3916105032 -0.4137684405
0.001042091288 -0.1205508858 0.6946079135 -0.8213862777 0.3900776207 -0.4159101248
0.002658479614 -0.1146814004 0.694879055 -0.8147581816 0.3969295323 -0.422580421
0.001224448904 -0.1084692925 0.7026683092 -0.8133557439 0.4029673636 -0.4195146263
0.003123353701 -0.1002984717 0.706043601 -0.7992191315 0.418738842 -0.4301899374
0.07464320213 -0.1682824641 0.7550970912 0.2536589801 -0.5885494351 0.7666727304
0.06790547818 -0.1734282374 0.7527071238 0.1792349219 -0.5804710984 0.7917662859
0.001402575173 -0.1712777764 0.7111299634 -0.846360445 -0.2854102552 0.4492400885
-0.007979096845 -0.1735509932 0.6960383058 -0.8917158842 0.06353259832 0.3957001865
0.001756579848 -0.1799626648 0.7068983912 -0.8535476923 -0.2851630747 0.4354274869
-0.001725093927 -0.179237619 0.7010880709 -0.8657782078 -0.1730499715 0.432987541
-0.0004114596522 -0.1735659391 0.7020594478 -0.8719655275 -0.1771181375 0.4008252621
-0.002319439547 -0.1714549065 0.6963415146 -0.8980965614 -0.0446777977 0.3596980572
0.006229043007 -0.1080471873 0.698725462 -0.8051476479 0.4026932716 -0.4346770942
0.009904953651 -0.1195173413 0.6780376434 -0.7434741855 0.4491427541 -0.4868327379
0.0152375726 -0.1331004798 0.6582478881 -0.6597275138 0.4892896414 -0.5634325147
0.01334036328 -0.1373270303 0.6517732739 -0.6523344517 0.4616358578 -0.5876801014
0.007873731665 -0.1396535933 0.6620462537 -0.7634419799 0.3844663799 -0.5040733218
0.08394754678 -0.1600376815 0.7579840422 0.354486078 -0.5717060566 0.7368289232
0.08651349694 -0.1636109352 0.7530690432 0.4236943722 -0.5567623973 0.7137567401
0.09651149809 -0.193109408 0.7181375623 0.6741167903 -0.4148086011 0.6072948575
0.09590008855 -0.200224191 0.715326786 0.647678256 -0.4247413576 0.6245244145
0.09251328558 -0.203884542 0.7203048468 0.5738582611 -0.4623566568 0.6694080234
0.1013564169 -0.2022774816 0.7216043472 0.669164598 -0.4197206497 0.6099532843
0.08146815747 -0.1839010119 0.7399702668 0.4393220246 -0.5665476918 0.6964074969
0.08045282215 -0.1894855201 0.7351952791 0.4302401543 -0.5465888977 0.7136679292
0.09012571722 -0.1983090192 0.726675272 0.5531240702 -0.4792611897 0.6703252196
0.07803950459 -0.1943791658 0.7330628633 0.409044832 -0.5312182903 0.7384623289
0.08039778471 -0.1987377256 0.7274064422 0.4589833021 -0.5163242221 0.7219654918
0.09685928375 -0.1877364814 0.7214967608 0.6849472523 -0.4088005424 0.5985895395
0.09180434048 -0.1931200624 0.7232086658 0.5772781372 -0.4603469074 0.6738010645
0.08669068664 -0.193621248 0.726968348 0.5182478428 -0.4801863432 0.7071421146
0.09350371361 -0.1868797988 0.7261248827 0.6235377192 -0.4413223863 0.6404499412
0.09226170927 -0.1904747039 0.7303857207 0.574019134 -0.5010133386 0.637919426
0.08800003678 -0.187678054 0.7332770824 0.5265561342 -0.529155314 0.6601184011
0.09596550465 -0.1953858286 0.7272336483 0.6118386984 -0.4660143852 0.6278330088
0.1044407934 -0.1952441782 0.7202974558 0.7274550796 -0.3923694491 0.5528324842
0.1072624996 -0.1840018183 0.7134109139 0.8257662058 -0.3337519467 0.442237407
0.1056721061 -0.1889434755 0.7179527879 0.7699790001 -0.3700808883 0.5047085881
0.1083645895 -0.1836293191 0.7075149417 0.8679730296 -0.2963955104 0.3972180784
0.1038879827 -0.1900700778 0.7115585208 0.7922461033 -0.3322278857 0.5061761141
0.05361102521 -0.1284804642 0.6367275715 -0.1024686396 0.6786651015 -0.7259243131
0.1127761975 -0.1467140466 0.6787551045 0.8889083862 0.07515454292 -0.2326171398
0.1145485938 -0.163185358 0.6912190914 0.9325454235 -0.0164740067 0.1260517091
0.1121612564 -0.151584059 0.6852687001 0.8558532596 -0.009116019122 -0.09361085296
0.1118330732 -0.1571826935 0.6903112531 0.824663341 -0.01831318438 0.0141754467
0.1132979915 -0.1661859155 0.6983001232 0.8820892572 -0.1533598453 0.2615586817
0.1120449156 -0.121508345 0.6809439659 0.777451396 0.2563523948 -0.5607761741
0.1120028868 -0.11617551 0.6843963861 0.743884027 0.2900806367 -0.5958368182
0.1113137081 -0.1365196705 0.6711391807 0.8210402131 0.2402774841 -0.5008693933
0.1115306243 -0.1269776821 0.6775293946 0.7762752771 0.2759810984 -0.5530405641
0.1066089496 -0.1260809302 0.672049284 0.7375980616 0.4246727526 -0.5207399726
0.1087005734 -0.1212298274 0.6759768128 0.7172980309 0.4028158486 -0.5653559566
0.10965655 -0.1764122397 0.7067702413 0.8656074405 -0.3108195364 0.3924463689
0.107016243 -0.135303542 0.6662602425 0.6607393026 0.2605444193 -0.669060111
0.1005424038 -0.1230963692 0.664819181 0.5059574246 0.5202890038 -0.6335626841
0.1031914577 -0.1293519735 0.6658114195 0.5304819942 0.4699702859 -0.6503727436
0.09794130921 -0.1205135435 0.6493161321 0.04502781853 0.3546649814 -0.8691953421
0.09046778083 -0.1233662739 0.6480650902 0.227686137 0.4558410645 -0.7968268394
0.114393577 -0.1140317246 0.6507458091 -0.3316061199 0.1330131888 -0.9063614011
0.120393075 -0.08833871037 0.6578236818 -0.6893599033 0.4955074787 -0.5211061835
0.1203806028 -0.0841345787 0.6740758419 -0.8610140085 0.1297973394 -0.4817148745
0.1231282353 -0.09074155241 0.6728499532 -0.8819797635 0.1838886142 -0.4090002477
0.120303154 -0.08985117823 0.6784589291 -0.8920578957 0.1282682568 -0.4135449827
0.1236438155 -0.08602936566 0.6682351828 -0.8540158272 0.1940429211 -0.4661595523
0.08081030101 -0.1644709408 0.7524649501 0.3657805324 -0.5730960965 0.7288500071
0.08078844845 -0.1717976928 0.7500224113 0.3598707318 -0.5752285719 0.7329332232
0.07510855049 -0.1745161712 0.7495064735 0.2858687043 -0.5871139765 0.7560008764
0.08151745051 -0.1772929728 0.7453064919 0.4054278433 -0.5740555525 0.7097430229
0.07297607511 -0.1969523877 0.7341113687 0.3279802799 -0.553791523 0.7646675706
0.06643071026 -0.1969533563 0.7358881235 0.1979566664 -0.54173702 0.8136089444
0.05837589502 -0.196985051 0.736304462 0.04833939672 -0.5239900947 0.8409894705
0.06746128947 -0.2026423961 0.7316814065 0.2226767838 -0.5547356606 0.797549963
0.07369360328 -0.2027826607 0.7302589417 0.3417391777 -0.5572232008 0.7564703822
0.06894653291 -0.2068223804 0.7284784317 0.2487185895 -0.5765028 0.7756478786
0.06493014842 -0.1869299859 0.7435986996 0.136639744 -0.5891786814 0.7960250378
0.07367041707 -0.1923830509 0.7375676632 0.326076746 -0.5544736981 0.7643055916
0.06768832356 -0.1915143579 0.7405191064 0.2068262696 -0.5653746128 0.7952424884
0.05027699843 -0.06940930337 0.6868886352 -0.1777668744 0.6771311164 -0.7111133933
0.007604406215 -0.1120111346 0.6923378706 -0.7943252325 0.4115994871 -0.4447549284
0.01017232798 -0.1109338701 0.6865345836 -0.777228415 0.4235025942 -0.4647827744
0.00345723494 -0.1215516403 0.6866889 -0.8109318018 0.3998748958 -0.4270927012
0.006538361777 -0.115860939 0.6873941422 -0.7981681824 0.4059524834 -0.444834888
0.1026042104 -0.08503026515 0.6938992143 0.1754325479 0.1135233343 -0.6504918933
0.1060059816 -0.09272436053 0.6918005943 0.6670423746 0.2248872221 -0.6491956115
0.1086786836 -0.1074202508 0.6863612533 0.7050691247 0.2810733318 -0.6466206908
0.1170085371 -0.09335374087 0.6856469512 -0.7503219247 0.09665299952 -0.4142094851
0.1242624372 -0.09838461131 0.6678485274 -0.3820843101 0.3062366843 -0.4690491855
0.1265454888 -0.0935125351 0.6652909517 -0.7456015348 0.2760866284 -0.4203599989
0.119220376 -0.1029797345 0.6764039397 -0.0370888114 0.2810376585 -0.5135990381
0.1173117161 -0.09966522455 0.6820259094 -0.281825155 0.1962515861 -0.4788316488
0.1141362488 -0.1035654694 0.6869395971 0.01018124726 0.1953631938 -0.5171688795
0.1214584932 -0.09595964849 0.6749548912 -0.5600942373 0.218072325 -0.4429444075
0.1158483997 -0.1070774421 0.6816424131 0.2697280347 0.27944085 -0.5538602471
0.1125372574 -0.079432033 0.6852152348 -0.3140175045 -0.4247303307 -0.296543628
0.1154107526 -0.083023265 0.6802651882 -0.7500920892 -0.08118405938 -0.5475415587
0.02882460319 -0.1746506393 0.7438672781 -0.4840621054 -0.5115650892 0.7048658729
0.03569450229 -0.1791870445 0.7446290255 -0.3665339053 -0.5419011712 0.7481036782
0.06059857085 -0.1723320484 0.7545289993 0.06443880498 -0.5840965509 0.8051519394
0.05480107293 -0.1702984273 0.7574862838 -0.05759157613 -0.5914527178 0.8035034537
0.05479599535 -0.1743112206 0.7538056374 -0.03303638846 -0.5920844078 0.8044380546
0.04721790925 -0.1696032882 0.7565996647 -0.1674360186 -0.5779098272 0.7964386344
0.02894056961 -0.1606310159 0.7535052896 -0.4151900709 -0.5383511782 0.7321282625
0.04124337435 -0.1598525345 0.7590247393 -0.2198589742 -0.5566001534 0.7903138399
0.05295833573 -0.159647584 0.7631233335 -0.06019129232 -0.5270262957 0.8454222679
0.04700600728 -0.1582589149 0.763867557 -0.1277569979 -0.5582972765 0.815915823
0.007269305643 -0.09395157546 0.7122799158 -0.7804666758 0.4370739162 -0.4434229732
-2.343111555e-05 -0.1149322018 0.7062132359 -0.8208937645 0.3967693448 -0.4104640186
-7.032581925e-05 -0.1083233282 0.7089864612 -0.8178223372 0.4012832046 -0.4122676253
-0.001715208404 -0.1226972863 0.7024480104 -0.8261910677 0.3882004023 -0.4081905186
0.02211881801 -0.08740504086 0.6898505688 -0.6328734159 0.5217386484 -0.5700371265
0.01946090721 -0.09445025027 0.6864665151 -0.667820096 0.5029832125 -0.5468632579
0.02280860581 -0.08003896475 0.6956689954 -0.6274652481 0.5337239504 -0.5667480826
0.01733286306 -0.07819045335 0.704942286 -0.6999070644 0.5007128119 -0.5089869499
0.01362778433 -0.0825066641 0.7070740461 -0.7268771529 0.48421821 -0.4847508371
0.01370792557 -0.08887892962 0.6998093128 -0.7360499501 0.4733523428 -0.4822908938
0.04328715429 -0.07933745533 0.6816676259 -0.2911575735 0.6315303445 -0.7183325887
0.04973509908 -0.07532646507 0.6834504008 -0.1923676878 0.6535445452 -0.7263178825
0.05393643677 -0.07862948626 0.6789432168 -0.1017942131 0.6406701207 -0.7589150667
0.1026246101 -0.1721685678 0.7276931405 0.7179628015 -0.4824305773 0.5002239943
0.10064888 -0.1916789114 0.7267302275 0.6628295183 -0.4548152387 0.5903974771
0.09913551062 -0.1851340979 0.7296614051 0.6483401656 -0.4820346236 0.5843325257
0.0927785933 -0.1821948588 0.7320204973 0.5944567919 -0.5322147608 0.6025267839
0.1023400798 -0.1826371104 0.7187346816 0.7707388401 -0.3575363457 0.5232511759
0.1062159836 -0.1783397049 0.7142938972 0.818888545 -0.3412295282 0.452686131
0.09955070168 -0.1795932204 0.7253445387 0.7185412645 -0.4470909834 0.5284066796
0.1026539579 -0.1850433946 0.7255091071 0.7103993893 -0.4492581785 0.5370202065
0.1072748974 -0.1828079671 0.72104913 0.77410537 -0.3856518865 0.4890689552
0.1061829776 -0.1761898398 0.7224853635 0.7767553926 -0.4179737568 0.4646962583
0.0911218226 -0.1133561358 0.6627340913 0.3585674763 0.6327915192 -0.6847610474
0.0663439557 -0.1305097938 0.6324288249 0.1678911895 0.6525995135 -0.7348592877
0.05864704028 -0.1304114163 0.6339692473 0.01746626943 0.6601177454 -0.7357162833
0.05162912607 -0.1205949709 0.6444022655 -0.130090192 0.6498430967 -0.7457616925
0.02466701902 -0.1312585622 0.6494202614 -0.5243653655 0.5269795656 -0.6668590903
0.02526409738 -0.1235589609 0.6563939452 -0.5390523076 0.5493882895 -0.6269829869
0.02713815682 -0.1262174696 0.6504641771 -0.4790737927 0.5560255647 -0.677020669
0.1150703132 -0.1085681543 0.6932119131 0.7239972353 0.2222457677 -0.5490900874
0.1159450412 -0.09893163294 0.6907604933 -0.1581986248 0.126422599 -0.460552901
0.1129232869 -0.1027469933 0.6975779533 0.8084205985 0.2196396291 -0.543631196
0.1179093644 -0.1045393348 0.7060928941 0.836004734 0.2137972564 -0.5031712651
0.1098075956 -0.09776381403 0.6950215101 0.7676991224 0.2181861103 -0.5980308652
0.1180813238 -0.1003529504 0.6988927126 0.249235481 0.1341884136 -0.4556438327
0.1162659526 -0.09146422148 0.6918100715 -0.7060729265 -0.001487322734 -0.4166609943
0.114921093 -0.08988210559 0.701002419 -0.2935648859 -0.2328335494 -0.4926589727
0.1122274026 -0.1709772795 0.7039349675 0.877265811 -0.2788125277 0.3805383146
0.1135247797 -0.1802568734 0.6965330839 0.8776301146 -0.2781596482 0.3901984096
0.113102451 -0.1769204289 0.7011910677 0.8706384897 -0.2960485518 0.385900259
0.1150459424 -0.172855705 0.6956977844 0.9366677999 -0.09023565799 0.2787204385
0.1118546352 -0.1703438014 0.7104709148 0.863678813 -0.310164392 0.397303611
0.1044277921 -0.1203405038 0.6507489085 0.02616224624 0.2018741816 -0.9045210481
0.09201290458 -0.1332048923 0.6480727792 0.4706738293 0.4296245575 -0.7511672974
0.09733396769 -0.1266193092 0.649246037 0.2191001028 0.3660742939 -0.8294127584
0.1218796447 -0.08044865727 0.6651536822 -0.695545733 0.5213705897 -0.4932941198
0.09301736206 -0.1027744636 0.6718424559 0.5478080511 0.522193253 -0.6520296335
0.09339933097 -0.09313775599 0.6682556272 0.1283389181 0.5400087833 -0.6875118017
0.101540938 -0.09160017222 0.6648671031 -0.1264248043 0.5337067246 -0.6394200325
0.07470237464 -0.09672609717 0.6658865809 0.2427314967 0.5840088129 -0.7738016844
0.0832638368 -0.09422497451 0.671690166 0.3708042204 0.5532268882 -0.7437199354
0.08324334025 -0.1057752445 0.6609385014 0.3184340596 0.5669993162 -0.7351596355
0.09005238116 -0.1053333357 0.6593590975 0.1123687625 0.5378913879 -0.7405380011
0.09707045555 -0.1049898043 0.6576262712 -0.1005103365 0.508009851 -0.7460096478
0.07727874815 -0.1022973433 0.6629797816 0.295534879 0.5858209133 -0.75309062
0.08383341134 -0.101611957 0.6663921475 0.3927786648 0.5637839437 -0.7259760499
0.1010814682 -0.108666718 0.6533868909 -0.2263075858 0.4940060973 -0.7470001578
0.09154962003 -0.1096954122 0.6556791067 0.075910151 0.5338839293 -0.7396342158
0.08496275544 -0.1117214262 0.6568315625 0.3057596684 0.5605973005 -0.7344335318
0.07935686409 -0.1108260751 0.6579344869 0.28373909 0.6104599833 -0.7380135655
0.06657974422 -0.1031916589 0.6596342325 0.1117857099 0.6164386868 -0.7772501707
0.07033472508 -0.09951155633 0.6634648442 0.1783831716 0.6026165485 -0.7742375135
0.08391723037 -0.118467994 0.6536258459 0.3758460879 0.5697265267 -0.7303891778
0.08819383383 -0.1158612221 0.651417017 0.1393262744 0.5566237569 -0.7196685076
0.08381243795 -0.12374755 0.647826314 0.3439961374 0.5606309772 -0.7211430669
0.09443353862 -0.1137622818 0.6507983208 -0.06320621818 0.529669106 -0.7269510627
0.1074434966 -0.1119290143 0.6513704658 -0.3184176087 0.3513631821 -0.8516164422
0.1006601751 -0.1137880981 0.6500319242 -0.1893030256 0.488733381 -0.7467277646
0.100886099 -0.1652769446 0.7389494777 0.6316256523 -0.504031837 0.5862510204
0.09645777941 -0.174760133 0.734673202 0.6192488074 -0.5275297165 0.5797412992
0.1014384702 -0.1691887081 0.7333624959 0.6789010763 -0.5029023886 0.5335407853
0.09541203827 -0.165829137 0.7437589765 0.5704110265 -0.5247980952 0.6316114068
0.09277873486 -0.172756806 0.7408618927 0.5625365376 -0.5270215273 0.6364315152
0.01440977585 -0.105530709 0.6832761168 -0.7242847681 0.4682814479 -0.503611505
0.01670788974 -0.1127786487 0.674176991 -0.6701817513 0.4969439209 -0.5507845283
0.01296423562 -0.1130055413 0.6802207828 -0.7436495423 0.4475390017 -0.4919019341
0.02277055569 -0.107157439 0.6726410389 -0.6043631434 0.5288519859 -0.5943610668
0.1063627899 -0.09923365712 0.6889105439 0.6945737004 0.2598803639 -0.6535310149
0.1015081182 -0.1056570485 0.6787466407 0.6051650047 0.3802813292 -0.6965735555
0.10402935 -0.1034171656 0.6835547686 0.6255536079 0.306679368 -0.7127609253
0.09768561274 -0.07980265468 0.6930918097 0.3388817012 0.5872480869 -0.7311037183
0.09330379218 -0.07453807443 0.6936369538 0.3323496878 0.6381141543 -0.6604521275
0.1041875258 -0.07763525099 0.6889730692 0.2661935687 -0.09514182806 -0.3507256508
0.09972887486 -0.09455165267 0.6846596599 0.5213733315 0.3423482478 -0.7785964608
0.09831483662 -0.08938838542 0.6872162819 0.4980993271 0.3954072595 -0.7474428415
0.03701034561 -0.1744819134 0.7483015656 -0.3411197066 -0.5700244308 0.7427393794
0.04322010279 -0.177611351 0.7488211393 -0.252266109 -0.5854508281 0.7694475055
0.0348175317 -0.1625611931 0.7548941374 -0.3192208707 -0.5675156116 0.755297482
0.03586449102 -0.1682650149 0.7534611821 -0.3496246338 -0.5633801818 0.7478035688
0.04151879624 -0.1721718609 0.7527160048 -0.2719362676 -0.568410933 0.7739651203
0.04093075916 -0.1661927849 0.7588005066 -0.2369441241 -0.5743549466 0.7829335332
0.06246552989 -0.1769472659 0.750797987 0.08585336804 -0.5886637568 0.8002462387
0.005242346786 -0.1055107191 0.7059757113 -0.8059948683 0.4109677672 -0.4258347452
0.007879641838 -0.09656170756 0.7066073418 -0.7836591601 0.435079217 -0.4418799281
0.01062662993 -0.08769242465 0.709382534 -0.7544235587 0.4603773952 -0.4671607316
0.01007311232 -0.0950678885 0.6985294819 -0.7650460005 0.4474238455 -0.4620509744
0.008402883075 -0.1017292738 0.7019636035 -0.7882958055 0.4250805974 -0.4434746504
0.01349086687 -0.09674979001 0.6938330531 -0.7643851042 0.447544843 -0.4638266861
0.03772601858 -0.07168351859 0.6902425289 -0.3855516016 0.6365345716 -0.6585549712
0.02209645882 -0.07573356479 0.7011990547 -0.6424856782 0.5349197388 -0.5451529622
0.01724452153 -0.08354634047 0.70058918 -0.6983231306 0.5009883046 -0.5057041645
0.02786274813 -0.07846167684 0.6921285987 -0.5460597277 0.5710679293 -0.6050694585
0.03142393753 -0.07409379631 0.6927401423 -0.4978803694 0.6021918654 -0.6203394532
0.03410058469 -0.07775641233 0.6873871088 -0.4454756379 0.6102159023 -0.6515017748
0.04706453159 -0.08364610374 0.6770958304 -0.2362825125 0.6167908311 -0.7459321022
0.04560188949 -0.08938711882 0.6723726392 -0.2663378716 0.609660089 -0.7444709539
0.05144421756 -0.09072370082 0.6706051826 -0.1378765702 0.6280817389 -0.7612663507
0.09391830862 -0.1203561723 0.6597514153 0.2950471342 0.5669382215 -0.7678353786
0.07067830861 -0.1183607131 0.6490212083 0.2204789519 0.6471672654 -0.7162542343
0.05916275457 -0.1211593896 0.646525681 0.0003222313535 0.65804708 -0.7352154255
0.04382276163 -0.1153102145 0.6513382792 -0.2490816861 0.6151402593 -0.7462587953
0.04045736045 -0.1249714941 0.6433683038 -0.3107023537 0.6063884497 -0.7269585133
0.04160888493 -0.1199048907 0.6477757096 -0.3020049632 0.6072761416 -0.7321614623
0.03693423048 -0.1158392802 0.6529314518 -0.3713698685 0.5906834602 -0.7161122561
0.09789770842 -0.1288802475 0.6594141126 0.45060426 0.4087806344 -0.7467397451
0.08838612586 -0.1294249594 0.6509082913 0.3969992995 0.5408302546 -0.7404452562
0.0913721472 -0.1243951395 0.6554838419 0.3342663944 0.5580144525 -0.756941855
0.09433652461 -0.1336109936 0.6546587348 0.4962849915 0.4394934475 -0.7225371003
0.1030053943 -0.1365475357 0.6613698602 0.6109777689 0.3093062043 -0.7009996176
0.0999417305 -0.1388452649 0.6535487771 0.4588525891 0.06648244709 -0.836042881
0.1101648808 -0.1282141507 0.6535125971 0.3822430074 -0.2495953888 -0.8816184998
0.1006941125 -0.1313498467 0.6522147059 0.4803287387 -0.008789412677 -0.8529891372
0.1124332771 -0.1428124905 0.6719534397 0.8619289994 0.1436615586 -0.4190366864
0.1154183745 -0.1703327 0.6903386116 0.9772875905 0.01949250698 0.1658118963
0.1128211841 -0.1558483541 0.6808480024 0.8687317371 0.179510802 -0.170261994
0.1124119237 -0.1516046673 0.6736671329 0.8543818593 0.08307605237 -0.3444948494
0.1112461612 -0.1604956239 0.6760679483 0.8001121879 -0.04569359124 -0.2450102717
0.1085965931 -0.1534205079 0.668590188 0.661585927 -0.07780014724 -0.488499403
0.1135911644 -0.1681759804 0.6836047173 0.9229704142 -0.005229351576 -0.002804570366
0.1069109812 -0.14844428 0.6635240912 0.5733751655 -0.1023903638 -0.652359724
0.1145890579 -0.1206423715 0.6680633426 0.2452188581 0.3334984779 -0.5058911443
0.1160323322 -0.1262192577 0.6637323499 0.1806774735 0.2699556947 -0.452747941
0.1173037738 -0.120244734 0.6620329618 -0.0899309516 0.3307646215 -0.4641914964
0.1133162975 -0.1280483752 0.6694874763 0.5440903306 0.2573379278 -0.4868089557
0.1197476909 -0.1163931713 0.6522257328 -0.4852141738 0.1916175187 -0.5468177795
0.1139565781 -0.1226833239 0.653460741 0.2835305929 -0.2182611823 -0.8202909231
0.1139904484 -0.1325372458 0.6647813916 0.5237625241 0.2530076206 -0.5270107985
0.1113876402 -0.139200598 0.6652548313 0.7413625717 0.08579142392 -0.6131439805
0.1122153029 -0.130889833 0.6587342024 0.5407922864 -0.1169532612 -0.7514073849
0.109542802 -0.1368680745 0.6600961089 0.5765247345 -0.05806799978 -0.7482206225
0.1060688496 -0.1381368339 0.6557269692 0.4322084785 -0.1672590673 -0.8822676539
0.08987462521 -0.09524033964 0.6750165224 0.4628902674 0.4938811064 -0.7311293483
0.09402637184 -0.09460582584 0.679199934 0.4810522497 0.4201040864 -0.7641931176
0.09448778629 -0.09000971913 0.683347702 0.4361907542 0.4294638336 -0.7858135104
0.09449895471 -0.08815402538 0.6709088683 0.06004497409 0.548132062 -0.6785353422
0.1069701388 -0.08872744441 0.6638818979 -0.3062191904 0.532433331 -0.6067659855
0.1143464521 -0.08694087714 0.6628792882 -0.5376249552 0.5180191994 -0.566537261
0.1134005189 -0.08407349885 0.6677603126 -0.554641664 0.5053442717 -0.5574502945
0.1153356582 -0.08026652038 0.6725516915 -0.6740841866 0.484290719 -0.5257076025
0.0892508924 -0.08704968542 0.6748118401 0.2066945583 0.5543177128 -0.7086076736
0.1078927144 -0.08476922661 0.6693431139 -0.3807262182 0.516595006 -0.5920180082
0.1058148965 -0.08229456842 0.6740487218 -0.3599382639 0.5077007413 -0.5900017023
0.08529111743 -0.08500602096 0.6798171997 0.3450173438 0.5657336116 -0.7481275201
0.09430855513 -0.08387453854 0.6769862175 0.0183421988 0.5380914211 -0.6708869338
0.1074662656 -0.0794249028 0.6808431149 -0.3047122061 -0.6835401654 -0.3438843489
0.08084949106 -0.07613095641 0.6843736172 0.2698835135 0.6055823565 -0.7480939031
0.09070941806 -0.08240438998 0.6858794689 0.3570516109 0.5244158506 -0.7693366408
0.0893118158 -0.07764016837 0.6885828972 0.3580681384 0.5664430261 -0.7380025387
0.09491492808 -0.0745319128 0.6850225329 -0.01037879288 -0.1356749684 -0.5017212033
0.09738080204 -0.0794763118 0.6824972034 -0.01824581809 -0.2153693289 -0.506046176
0.08591265231 -0.07968139648 0.683509469 0.2856661081 0.5378247499 -0.7347044945
0.06397384405 -0.09213560075 0.6670793295 0.05953710526 0.6102699041 -0.7845230699
0.0549765043 -0.09506975114 0.6655189395 -0.07534188777 0.6225468516 -0.7789095044
0.0284796413 -0.1047294959 0.6707456708 -0.5242453814 0.5611118674 -0.6355044842
0.02283586562 -0.1122246012 0.6684294343 -0.6011604071 0.5335339308 -0.5918822289
0.05732797459 -0.09966313094 0.6621034741 -0.0294392854 0.6245690584 -0.778157711
0.06062565744 -0.1058175117 0.6570193172 0.01751574501 0.624268651 -0.7773191929
0.06418558955 -0.09926970303 0.6630586386 0.0757682249 0.6200947165 -0.7799865603
0.02758630179 -0.1095169857 0.6667966843 -0.5180419087 0.5700447559 -0.6364603639
0.08647356182 -0.172724694 0.7452214956 0.4732455611 -0.5613305569 0.6777970195
0.09167977422 -0.1615035087 0.7503271103 0.4548610747 -0.5536113381 0.6961648464
0.08686526865 -0.1682437807 0.7492964268 0.4276821613 -0.5762250423 0.6954499483
0.08034005016 -0.06972684711 0.6876719594 0.2648473084 0.6480060816 -0.7139036059
0.08511567116 -0.07128351182 0.6902621388 0.3244637251 0.6276142001 -0.7063564062
0.07704701275 -0.0862852186 0.6746515632 0.2482342273 0.5859317183 -0.7669704556
0.07745468616 -0.09238027781 0.6711799502 0.2804270089 0.5775080919 -0.7645224333
0.08235507458 -0.08869545907 0.6755905747 0.3493166268 0.565517664 -0.7454657555
0.04731060565 -0.09699003398 0.6654757261 -0.2185173184 0.6118761897 -0.755582273
0.02870916203 -0.08323337883 0.6876507998 -0.5290495753 0.5578808784 -0.6295415163
0.03389174491 -0.08336094022 0.6829862595 -0.4448283613 0.5827144384 -0.6788130999
0.06187487394 -0.07506161928 0.6816785932 0.003295524744 0.6473789215 -0.7584483624
0.05639802665 -0.07386190444 0.6832907796 -0.08385406435 0.6632987857 -0.7415112853
0.06902156025 -0.07519997656 0.6827557683 0.1169742569 0.6395537853 -0.753425777
0.07528024912 -0.07526994497 0.6829335093 0.2314762771 0.6181024313 -0.7509880662
0.06793623418 -0.06806505471 0.6874091625 0.1133002564 0.6671881676 -0.7338171005
0.07384648919 -0.06980723888 0.6868047118 0.1980463713 0.6565423608 -0.7266039252
0.05810540169 -0.06771988422 0.6875534654 -0.04753647 0.6811462641 -0.7253658772
0.02243937179 -0.09922597557 0.6790294647 -0.611218214 0.5214714408 -0.591347158
0.01805786975 -0.09936811775 0.6841122508 -0.6821453571 0.4931072593 -0.5350083113
0.01964512281 -0.1046920866 0.6784133315 -0.6471475363 0.5077695847 -0.5585121512
0.03048411198 -0.09193682671 0.6785883904 -0.5075782537 0.5630506277 -0.6520376205
0.03175617382 -0.09710237384 0.672640264 -0.4556470811 0.5763674378 -0.6749133468
0.02635425143 -0.09992612153 0.674505949 -0.5512871146 0.5490151644 -0.6276500821
0.02504802682 -0.09027082473 0.6843719482 -0.5970424414 0.528472662 -0.6027210355
0.01738358475 -0.09177670628 0.6924763322 -0.7163779736 0.478992641 -0.5022366643
0.06120536104 -0.1117944717 0.6518260241 0.04079997167 0.6407350898 -0.7608832717
0.0625641644 -0.116600275 0.6483417749 0.06273792684 0.6698387265 -0.7355092764
0.0558938235 -0.1153669059 0.6486415863 -0.05972189456 0.6561813354 -0.7504788637
0.07398188114 -0.11396873 0.6530047655 0.2665510476 0.6074584723 -0.745908916
0.0683490485 -0.1119565815 0.6528952718 0.1655128002 0.6257416606 -0.7572584748
0.0705140233 -0.1075595468 0.6568313837 0.1798276603 0.6109467745 -0.7663399577
0.05793949962 -0.123177655 0.6413850784 -0.01675827429 0.6746883988 -0.7310185432
0.06477255374 -0.1219810694 0.6440729499 0.09819951653 0.6768953204 -0.7292396426
0.06550958008 -0.1288254112 0.6421002746 0.1073468998 0.6178881526 -0.7357463241
0.05020054057 -0.1300823987 0.641818881 -0.1598067135 0.6145626307 -0.7501260042
0.05725925043 -0.1302256584 0.6420279741 -0.03725977615 0.6064132452 -0.7445337176
0.07792846113 -0.1284091026 0.6463660598 0.2764823735 0.5961056352 -0.7338299751
0.07825472951 -0.1202768311 0.649840951 0.375592798 0.6067482829 -0.698889792
0.07002817094 -0.1240910515 0.6434565187 0.2030559182 0.6486255527 -0.7240745425
0.0444656685 -0.1083140448 0.6565807462 -0.2414725423 0.6227989197 -0.7418439984
0.03880520537 -0.1088383868 0.6579490304 -0.3629139066 0.6066657901 -0.7061356902
0.05327359587 -0.1040152684 0.6590973735 -0.083986938 0.6281813979 -0.7703922391
0.05462330952 -0.1089356616 0.6541576982 -0.07570883632 0.6341480017 -0.7692728043
0.05022755265 -0.1127260849 0.6519359946 -0.1455946565 0.6318073273 -0.757661283
0.03159059957 -0.1099889204 0.6621468067 -0.4613429606 0.5834257007 -0.6675119996
0.02645529807 -0.1144725084 0.6618486643 -0.5204687715 0.5675910711 -0.6372435093
0.03337745368 -0.1144042313 0.6571426392 -0.4234856367 0.5845715404 -0.6907072663
0.02196556702 -0.1184760928 0.6626881957 -0.5927388072 0.5400748849 -0.5909135342
0.02955599874 -0.1194256917 0.6565476656 -0.464607209 0.5722030401 -0.6695739031
0.03274554014 -0.124593325 0.6481083035 -0.4185803533 0.5831272602 -0.6934944987
0.06449222565 -0.08633044362 0.6721096039 0.05455221236 0.6105693579 -0.7877843976
0.07149399072 -0.08473670483 0.6744737029 0.1566388011 0.6008916497 -0.78069067
0.07730554044 -0.08103298396 0.6789420843 0.2435631007 0.6018092632 -0.7597049475
0.07018726319 -0.0795891732 0.6783322692 0.1252572834 0.6151650548 -0.7754437327
0.0550679788 -0.08527498692 0.6739122272 -0.1024760082 0.6160665154 -0.7807551026
0.05721078441 -0.08878011256 0.6701359749 -0.05088964105 0.6213957071 -0.7802125216
0.06845286489 -0.09057403356 0.6704315543 0.1012718901 0.6055070162 -0.7892878056
0.06009203941 -0.08162394911 0.6764624119 -0.02871803008 0.6221889853 -0.778945446
0.03785723075 -0.09424027801 0.6713605523 -0.3681393564 0.5963455439 -0.7108459473
0.04469580203 -0.1035248339 0.6609404087 -0.2394585013 0.6267613173 -0.7404081821
0.04209246486 -0.09960976243 0.6647700667 -0.2959656417 0.6138962507 -0.7294319868
0.03433544934 -0.1020906866 0.6687669754 -0.4262099564 0.58932513 -0.6784095168
0.03685873374 -0.1049707308 0.6631566882 -0.3664444983 0.5988320708 -0.7089514732
