# .PCD v0.7 - Point Cloud Data file format
VERSION 0.7
FIELDS x y z normal_x normal_y normal_z
SIZE 4 4 4 4 4 4
TYPE F F F F F F
COUNT 1 1 1 1 1 1
WIDTH 512
HEIGHT 1
VIEWPOINT 0 0 0 1 0 0 0
POINTS 512
DATA ascii
-0.0003801856074 -0.05370626226 0.631064713 -0.2350649983 -0.7309831381 0.6361342669
-0.01488281414 -0.1460557878 0.7055162191 -0.03516258299 -0.66621387 0.7449010611
-0.02468506806 -0.1995234787 0.655431211 -0.2221421599 -0.6499464512 0.7225559354
-0.01129214 -0.1087156162 0.5686770678 0.01320612431 -0.7355286479 0.6764745712
-0.01843653619 -0.1384937763 0.7103593349 -0.06370242685 -0.6469528079 0.7564555407
0.05783118308 -0.08052651584 0.6370462179 0.3536805212 -0.6592559814 0.6575552821
0.05416690186 -0.08070253581 0.643217206 0.1884049177 -0.6040276289 0.6754487157
0.06588479131 -0.0796161145 0.620736897 0.3987166286 -0.703164041 0.5865309238
0.06410990655 -0.0995427072 0.6061865687 0.3944866657 -0.7078755498 0.5838927031
0.0684877038 -0.09536603093 0.6094018221 0.45313555 -0.7098496556 0.5351314545
-0.05623139814 -0.1399742812 0.6841291189 -0.5921312571 -0.5622697473 0.5726816654
-0.05297629908 -0.1391989738 0.691404283 -0.5461422205 -0.5664500594 0.6156855226
-0.006018130574 -0.14229846 0.7064357996 0.09420877695 -0.6367795467 0.7644224167
0.06309124827 -0.09084454924 0.6097210646 0.4202391207 -0.6814614534 0.5943112373
0.06513585895 -0.08308809251 0.6275536418 0.464645803 -0.6282247901 0.6207172871
0.06808718294 -0.08764529228 0.619530201 0.475052923 -0.6602666378 0.5771247745
0.06583141536 -0.09010709822 0.6250314116 0.4764668643 -0.648150444 0.5879594684
0.06254723668 -0.08585476875 0.6338889003 0.4669510722 -0.6135231853 0.6334363222
0.07071365416 -0.08982211351 0.611894846 0.4732348323 -0.679748714 0.5596961379
0.06824667007 -0.09481590986 0.6181259155 0.4822072685 -0.6771083474 0.5503664017
-0.05318640545 -0.1852202415 0.6481919885 -0.6436448693 -0.4811239839 0.5934792161
-0.02475538664 -0.1943913996 0.6584699154 -0.232405901 -0.6250981688 0.7446377277
-0.0304281991 -0.1944760233 0.6558017135 -0.309093833 -0.6078327894 0.7278953791
-0.05768078938 -0.1739027351 0.6484821439 -0.7497279644 -0.4183724523 0.5103494525
-0.0527433604 -0.1787776649 0.6515831947 -0.6480254531 -0.4722807705 0.5960012078
-0.04825144634 -0.1783693135 0.6561939716 -0.5864636302 -0.5012585521 0.63513273
-0.0464184247 -0.1829444021 0.6532918215 -0.562795043 -0.5053944588 0.6416503787
-0.05683755502 -0.1646741182 0.6579694748 -0.7062494159 -0.4877687693 0.5045545697
-0.01028428227 -0.1489205956 0.702280879 0.0449045822 -0.6659373045 0.7400187254
-0.03178503364 -0.1385245323 0.7060887218 -0.2907882333 -0.6028752327 0.7393844128
0.03953989968 -0.1088941246 0.6208590269 -0.4283326268 -0.6853420138 0.5512994528
0.0583100915 -0.08987000585 0.6360801458 0.3292397261 -0.625431478 0.6476512551
0.06720047444 -0.1013365462 0.6138212085 0.389870137 -0.7028900981 0.5316838026
0.05535656214 -0.09536189586 0.6322278976 0.1662858725 -0.6432082653 0.6432976127
0.05552008376 -0.09966828674 0.6268662214 0.1045189649 -0.6637909412 0.6222839952
0.06182302907 -0.100613907 0.619772017 0.257802546 -0.6851018667 0.5731852651
0.06279408932 -0.09560938179 0.6249066591 0.3604943752 -0.6642933488 0.5893639326
0.04752601311 -0.1009202898 0.6328997016 -0.1275292933 -0.6482290626 0.6732553244
0.06288646907 -0.09164311737 0.6296154261 0.4238516092 -0.6459873319 0.6069931388
-0.02132698148 -0.1464695781 0.7047831416 -0.1307050437 -0.6579471231 0.740558207
-0.02436837554 -0.1368916631 0.7076929212 -0.198820889 -0.6273220778 0.7445685863
-0.02645535581 -0.1448735595 0.7010681629 -0.235029608 -0.6356545091 0.7307213545
0.004727695603 -0.05687033758 0.6294210553 -0.3172170222 -0.7010076046 0.6377420425
0.008614094928 -0.05463134125 0.6342353225 -0.3533697128 -0.7059497833 0.6107962132
0.01939211041 -0.06757526845 0.6286901236 -0.5337887406 -0.6037507057 0.5905146599
0.01876631752 -0.05887529254 0.6362729073 -0.4977304637 -0.6391630769 0.5836417675
0.01249343343 -0.06475969404 0.626110673 -0.4309594035 -0.6468576789 0.6261357665
-0.04925919324 -0.1898255944 0.6499672532 -0.5740239024 -0.5163396001 0.6339429617
-0.04433747008 -0.1934067309 0.652361393 -0.4801820517 -0.5814527273 0.6560404897
-0.0611294955 -0.1688281149 0.6456270218 -0.7916452885 -0.4015555978 0.4586929679
-0.05741603673 -0.1536068469 0.6705685258 -0.6884655952 -0.5330118537 0.4895173609
-0.06940808147 -0.1480604708 0.6516218185 -0.8233669996 -0.4102998376 0.3881402314
-0.07282686979 -0.1464539468 0.6361849308 -0.8721015453 -0.21819368 0.3031609952
-0.07011633366 -0.1234713048 0.6343820095 -0.007355687674 -0.4081123471 0.4084215462
-0.07030638307 -0.11741063 0.6302484274 0.1890405267 -0.3833405077 0.4060208499
-0.01237312984 -0.1097854674 0.5747131705 0.02638256922 -0.7121995687 0.67765522
0.01017256919 -0.1072519049 0.5839773417 -0.4020148814 -0.636156559 0.6540251374
0.01533314865 -0.1110933796 0.5839921236 -0.4744974673 -0.5972428322 0.6460418105
0.03640060127 -0.1070844829 0.6112920046 -0.4539403915 -0.7268803716 0.4997358918
0.03879487887 -0.1126517579 0.6146084666 -0.4051439464 -0.7327700257 0.5043858886
0.05099085718 -0.09207899868 0.638894856 0.05531054363 -0.5871788859 0.7076787949
0.05796873569 -0.08532046527 0.6404178739 0.3762742579 -0.5909893513 0.6873666048
0.0487938188 -0.07883159816 0.6455386281 0.01510140114 -0.5624543428 0.75108248
0.0415356271 -0.07256779075 0.6514205933 -0.3615933657 -0.5689588785 0.7270421386
0.04647715017 -0.0867196545 0.6436217427 -0.09356936067 -0.5078468323 0.8008003235
0.04580352455 -0.07238369435 0.639529705 -0.07340041548 -0.6299152374 0.7065879107
0.05276512727 -0.07530405372 0.637054503 0.1494074166 -0.670819521 0.6844585538
0.04530520737 -0.07251819223 0.6451079845 -0.1744707078 -0.6135471463 0.6980754137
0.04037385061 -0.1720459461 0.633777082 0.8418158293 -0.3581791222 0.4036817551
-0.05277089402 -0.1727392673 0.6556966305 -0.6552714109 -0.4814949632 0.580524683
-0.05727392063 -0.1682327539 0.6522529125 -0.7377983928 -0.4433572888 0.4998340011
-0.03742438555 -0.1399566084 0.7008625865 -0.3816815317 -0.5904920697 0.7064936757
-0.03265645355 -0.1876399666 0.6586160064 -0.3409129977 -0.6093735099 0.7134847641
-0.03874757886 -0.1904212683 0.6561733484 -0.4245772064 -0.5891233683 0.6855588555
-0.04104986787 -0.1799169928 0.6603646278 -0.4851414263 -0.5556188822 0.6672738194
-0.05173662305 -0.1675384939 0.6629593372 -0.6336190104 -0.5382912755 0.5553072095
-0.04920988157 -0.1653732359 0.6678761244 -0.5953786373 -0.5690787435 0.5663478971
-0.003021148499 -0.169916153 0.6788178682 0.1697765738 -0.678401351 0.7147195935
-0.005974635947 -0.1746311337 0.6761791706 0.153345719 -0.6716993451 0.7220764756
-0.01878397912 -0.1971129477 0.6578537822 -0.1204797551 -0.6499163508 0.7462875843
0.03311087564 -0.1498355269 0.668063581 0.720223546 -0.4805183113 0.4995669425
-0.04575460777 -0.1415019035 0.6939669847 -0.5054140687 -0.5722771287 0.6455693245
-0.04495398328 -0.1473181844 0.6900297403 -0.5035588145 -0.5872994065 0.633166194
-0.0409581475 -0.1451212019 0.6946420074 -0.4515068531 -0.5870804787 0.6682013869
-0.05282919481 -0.1460110098 0.6837720275 -0.5649159551 -0.5769748092 0.5896300673
-0.04794232175 -0.1545488983 0.6806291938 -0.550679028 -0.5893365741 0.5906251073
0.01026965585 -0.1625280082 0.6804819703 0.4244185686 -0.6186513901 0.6472160816
0.002959802514 -0.1655154675 0.6820678115 0.2943877876 -0.662175715 0.6856025457
-0.01511122938 -0.1536070555 0.698071301 -0.0001369303354 -0.6823045611 0.7303217649
-0.06008274481 -0.1816495806 0.6410867572 -0.7532221079 -0.4291149676 0.4832291007
-0.07007100433 -0.1718512028 0.6318173409 -0.8388285041 -0.3854453564 0.3842842579
-0.06463573873 -0.1796985716 0.6367249489 -0.820725441 -0.4028334618 0.4050106108
-0.07038769871 -0.1669670939 0.6373212934 -0.843991816 -0.3771688044 0.3811393678
-0.05660168082 -0.18090491 0.6462284327 -0.714662075 -0.4394060373 0.5383361578
-0.06466720998 -0.1727429777 0.6411821246 -0.8167027235 -0.3864054382 0.4263110757
-0.01268211007 -0.1994585693 0.6562086344 -0.009289164096 -0.6525443792 0.752117753
-0.007193001453 -0.2006030977 0.6566887498 0.1002620459 -0.6661801338 0.7332779169
-0.07494674623 -0.1556808203 0.6252022386 -0.9528841972 -0.1838888675 0.2328541279
-0.07344947755 -0.1521413773 0.6328388453 -0.9135509133 -0.250641644 0.3019002378
-0.07568199933 -0.1604795307 0.6185668707 -0.964022398 -0.1701634377 0.1880860925
-0.07194233686 -0.1619969308 0.6238670349 -0.9295557141 -0.2098830193 0.231223166
-0.06917656958 -0.1640327275 0.6311733127 -0.8721378446 -0.326307416 0.3302948773
-0.07124903798 -0.1608549953 0.6381537318 -0.8507634401 -0.3693683743 0.3736093938
-0.07315088809 -0.1578517109 0.6302245855 -0.8840236068 -0.3201957643 0.3221156299
-0.07243870199 -0.1675785929 0.6266094446 -0.8823913336 -0.3223020434 0.3215655386
-0.06476293504 -0.1658626646 0.640314877 -0.8230263591 -0.3893862367 0.4089556038
-0.06689525396 -0.163015306 0.6463136673 -0.8250491619 -0.3906293511 0.4058659673
-0.06055695936 -0.1422267109 0.677462697 -0.6677069664 -0.5316161513 0.5154038668
-0.07259928435 -0.1374019682 0.6359338164 -0.5421730876 -0.2868137658 0.3436480761
-0.07167147845 -0.1088573635 0.6211032867 0.6730296016 -0.4557316601 0.4655114412
-0.07259536535 -0.1265467703 0.6298980117 -0.1057263762 -0.3250583708 0.3784459233
-0.07206804305 -0.1205512732 0.6244001389 0.2110351771 -0.3777827322 0.4149617255
-0.07291761041 -0.1319999397 0.6330491304 -0.3550261855 -0.2833011746 0.3503815234
-0.07195574045 -0.1144173443 0.6237955689 0.4297683537 -0.4149008095 0.4383461475
-0.06938062608 -0.1069068313 0.6278920174 0.5754452348 -0.4425280094 0.4433936179
0.000267412659 -0.1099806502 0.5745101571 -0.2131892741 -0.7108784318 0.6501737237
-0.005267187487 -0.1106197014 0.570730269 -0.09099109471 -0.7412884831 0.6485347748
0.005092581734 -0.1093066633 0.5801166296 -0.3235512078 -0.6687390208 0.6549805403
-0.006619646214 -0.1052972898 0.5743026733 -0.0867901817 -0.7311550975 0.6698820591
-0.025534302 -0.1083313674 0.5756160021 0.2237760872 -0.6600177884 0.7007463574
-0.01819408126 -0.1101811528 0.5733833909 0.1353972703 -0.7139692903 0.6820351481
-0.03203377873 -0.1113436222 0.5775461197 0.336700201 -0.591211319 0.7180022001
-0.003189064562 -0.1029188558 0.5809209943 -0.2052078098 -0.7186377645 0.6622915268
0.004521240015 -0.1041968092 0.5827982426 -0.3221139312 -0.677977562 0.6602253318
0.003992978483 -0.09944511205 0.5868745446 -0.3220331669 -0.6801496744 0.65847224
0.007933946326 -0.09725863487 0.5917375684 -0.3576996624 -0.6527173519 0.6627765298
0.01499677822 -0.1012066528 0.5919342041 -0.4688076973 -0.6097550988 0.6387367845
0.03149880841 -0.1006826907 0.6100422144 -0.5579352379 -0.6436943412 0.5153157115
0.02227486111 -0.1100027263 0.5906704068 -0.5086554885 -0.5777404904 0.6370872259
0.028633615 -0.1169210523 0.591499269 -0.4626518488 -0.5657362342 0.6761896014
0.03007457592 -0.1096343622 0.6004807949 -0.4859603047 -0.6061863303 0.6034072042
0.03274061531 -0.1159683093 0.5965933204 -0.3673554063 -0.5904400349 0.7124922872
0.03606623411 -0.1206365973 0.5992596745 -0.3191376328 -0.6927200556 0.6143458486
0.0352021493 -0.06588248909 0.6468687654 -0.4958411753 -0.5663594007 0.6560020447
0.01447414979 -0.06135275215 0.6322696209 -0.4319036603 -0.653203547 0.6133720875
0.005142915063 -0.06159772351 0.625031352 -0.3279636204 -0.6860584617 0.648481667
-0.01291272417 -0.07546001673 0.6066356897 -0.03381031379 -0.7017272711 0.7086488008
-0.005321925506 -0.07329633832 0.6103879213 -0.1511693895 -0.6949158907 0.700774312
0.009144805372 -0.1888530701 0.6566812396 0.3897448778 -0.5987008214 0.6970530152
0.01135006826 -0.1934547871 0.6532580256 0.4315729439 -0.5791394711 0.6849418283
0.01438752934 -0.1856995225 0.658052206 0.485449791 -0.5547960401 0.6749596596
0.01837352477 -0.1808718443 0.6578248143 0.5659805536 -0.5222507119 0.6377412081
0.02782704867 -0.1664325446 0.659353435 0.7010495067 -0.4807414711 0.5232712626
0.0321653001 -0.1064338908 0.6050021052 -0.4520100355 -0.6965041757 0.5462489128
0.03731585667 -0.1152953133 0.6061545014 -0.344589442 -0.7973470092 0.4767462015
0.02715833113 -0.104052633 0.6022606492 -0.5900290012 -0.5834177732 0.5564013124
0.02810574695 -0.1115400642 0.5949419141 -0.4958458841 -0.5845385194 0.6379875541
0.04311997816 -0.1198986247 0.60192132 -0.1057372168 -0.7808614373 0.5523725152
0.05055654421 -0.1040790379 0.6261535287 -0.08945024014 -0.6712882519 0.6381378174
0.06124547124 -0.1068366244 0.6113488078 0.2770048082 -0.716268301 0.5696900487
0.05579428002 -0.1044889241 0.620351553 0.07625318319 -0.6881409883 0.6043467522
0.06574956328 -0.1062905267 0.6077460647 0.4062635005 -0.7258082032 0.5403928757
0.04623609409 -0.1114748642 0.6180450916 -0.1294161379 -0.738735199 0.5985714793
0.05016442016 -0.1153358221 0.6077669859 0.0392649658 -0.7888345718 0.5420933962
0.04432941228 -0.1080414653 0.6257164478 -0.2293091863 -0.694680512 0.6455684304
0.05624731258 -0.1115765795 0.6086035371 0.1879317164 -0.7431570292 0.5769342184
0.05385765433 -0.1099437699 0.6136243939 0.09359318763 -0.7217417955 0.6023002267
0.04456228018 -0.1158662215 0.6120399833 -0.1315316111 -0.7937940359 0.5468253493
0.0573136881 -0.1175621673 0.6054199934 0.3431009054 -0.6743203402 0.5235836506
0.04685454071 -0.13044177 0.6080886722 0.2594355047 -0.5631111264 0.4279522598
0.04512102529 -0.1359256357 0.6097300053 0.3292310536 -0.4625325799 0.3906546235
0.05079247802 -0.1226076558 0.606015265 0.2163746804 -0.6781926155 0.4830725491
0.05048682913 -0.1442402154 0.6135553718 0.7769321799 -0.1463024467 0.3394622505
0.0533025004 -0.1291177124 0.6084861159 0.5468742847 -0.4533410966 0.4341906607
0.05356100202 -0.1343951672 0.6106186509 0.6464693546 -0.3284504116 0.4069148898
0.0574404262 -0.1244530976 0.6078799367 0.5267776847 -0.501316309 0.4786428809
-0.02213072032 -0.1551130414 0.6954625249 -0.1399064511 -0.6737040281 0.7191306353
-0.02715288103 -0.1511755288 0.6978472471 -0.2354037911 -0.6464546323 0.722361505
0.01419333369 -0.1683667302 0.671238482 0.4913520813 -0.5974463224 0.6201990843
0.009286896326 -0.1714270413 0.6737676263 0.3944092989 -0.6317450404 0.6640044451
-0.03860950097 -0.1762864143 0.6661890745 -0.4476861656 -0.6052841544 0.6558216214
-0.04470589757 -0.172707662 0.6651967764 -0.5145756602 -0.5867560506 0.6230602264
-0.03120739572 -0.1834453195 0.6640901566 -0.3378673792 -0.6121888161 0.7093360424
-0.004049992189 -0.1846805513 0.6659362912 0.1964354962 -0.6497849226 0.7314258218
0.005819122307 -0.1776103228 0.6691288948 0.3629498482 -0.6237196326 0.689543128
-0.0008602924645 -0.1798290014 0.6712378263 0.2459055334 -0.6552911401 0.7116914392
0.001964238938 -0.175208509 0.6735824347 0.290612936 -0.6442560554 0.7044305801
0.005464314949 -0.159007743 0.6868758798 0.3250982463 -0.6559345722 0.6807954311
0.0116941873 -0.1505841613 0.6910342574 0.4178127348 -0.613818109 0.665428102
0.01595750079 -0.1464193165 0.6921035647 0.4792637527 -0.5908789635 0.6480531693
0.005211671349 -0.1549273878 0.6922333837 0.3301165402 -0.651221931 0.6823937297
0.01516887173 -0.1583586782 0.6807522774 0.5070487261 -0.5863190293 0.6194632053
-0.003895071335 -0.1630459279 0.6853637695 0.1858782917 -0.6857718229 0.6986602545
-0.009731646627 -0.1677915007 0.6821126938 0.0709637627 -0.6878731251 0.7172502279
-0.01688232832 -0.1670856923 0.6830528975 -0.0542868115 -0.6895128489 0.7097420096
-0.01900620759 -0.1717087626 0.6780806184 -0.1228813604 -0.679518342 0.7013550401
-0.01267601643 -0.1732635796 0.6778052449 0.004160292447 -0.6838519573 0.7206522822
0.006915048696 -0.1496096402 0.6964071393 0.3402801156 -0.6157009006 0.7083103061
0.0004767251667 -0.1588193923 0.6900136471 0.2514925301 -0.6718283892 0.690636754
0.03572327271 -0.1727121621 0.6417064071 0.8037155867 -0.3841696978 0.4513276219
0.000282307039 -0.1973333508 0.656383276 0.2358307689 -0.6500752568 0.7173596025
-0.06680181623 -0.1542366147 0.6536490321 -0.8130928874 -0.4197401404 0.4019626975
-0.06945879012 -0.1572771072 0.6483469009 -0.8326066136 -0.3926149309 0.3882232904
-0.06217009947 -0.1554521918 0.6598249674 -0.7712438703 -0.4608650506 0.4350194931
-0.06195477396 -0.15992181 0.6554667354 -0.7742359042 -0.4455228448 0.4437209368
-0.05742711201 -0.1582755297 0.664370954 -0.7196376324 -0.5063752532 0.4718522429
-0.02171072364 -0.06814773381 0.6150554419 0.1095345169 -0.6955831647 0.7055827379
-0.01593395509 -0.06940176338 0.6131078601 0.03543594107 -0.7019836903 0.7100978494
-0.06758398563 -0.1037241742 0.6217158437 0.7464041114 -0.474242121 0.4667337239
-0.06861462444 -0.1187848374 0.6150765419 0.4549330473 -0.4166649282 0.4558846951
-0.07056834549 -0.1318649203 0.624635458 -0.1928527206 -0.3081969321 0.376799345
-0.07205142081 -0.1304768473 0.6178714037 0.1459898055 -0.3706383407 0.4273279607
-0.07171510905 -0.1241770387 0.6150112748 0.408547461 -0.4143460989 0.4555529058
-0.0727269575 -0.1386732906 0.6296669245 -0.4989961386 -0.2584072649 0.3382450342
-0.02170571685 -0.1021864265 0.582062304 0.1602865458 -0.6865181923 0.7038036585
-0.01734618098 -0.1063541323 0.5781585574 0.09729254246 -0.7066576481 0.6977969408
-0.01498692203 -0.1013482958 0.5819659233 0.04063310102 -0.723223865 0.6887001395
-0.01414682437 -0.09639129043 0.5861160159 0.006333473139 -0.7296979427 0.6821559072
-0.01371073537 -0.09208168089 0.5904883742 -0.01600639708 -0.6953774095 0.7151957154
-0.01018363517 -0.102166459 0.5774137974 -0.03527837992 -0.7347933054 0.6743021011
0.03609265015 -0.1008733884 0.6003651023 -0.229531765 -0.6066405177 0.6262959242
0.04002666473 -0.09786106646 0.6034798026 -0.1289851069 -0.6285176873 0.6214695573
0.02399407141 -0.1055451185 0.5954726338 -0.5407595634 -0.5603047609 0.6193112135
0.04636890441 -0.1038117856 0.6020845175 0.03716781735 -0.7295689583 0.6131455898
0.03032767028 -0.1043255702 0.5970821977 -0.3773392439 -0.5864457488 0.6254227757
0.05309440568 -0.09703883529 0.6048979759 0.1882120371 -0.6534579396 0.6415708065
0.02824547328 -0.09352225065 0.611133039 -0.5926979184 -0.5799164772 0.5157843232
0.03382302821 -0.09655869752 0.6049663424 -0.3005566597 -0.6187123656 0.5965656042
0.02480905131 -0.09685355425 0.6059067249 -0.5796555877 -0.5929509401 0.556835711
0.01607860625 -0.1056067124 0.5878443122 -0.4882273972 -0.5892732739 0.6431056261
0.04830481857 -0.1130220294 0.6005445719 0.08799208701 -0.7308929563 0.5989223123
0.03924791887 -0.1126024053 0.5971265435 -0.1813907176 -0.6248259544 0.6965885758
0.04565921053 -0.1078632846 0.5973673463 0.003528174711 -0.6739681363 0.6441268325
0.05530831963 -0.1039624512 0.6017264724 0.2513239384 -0.7182297707 0.6455884576
0.0387586467 -0.1070786268 0.59510988 -0.1299804896 -0.6487848163 0.6423129439
0.05726752803 -0.110421069 0.60275352 0.2958125472 -0.7612518072 0.5722677112
0.04188209027 -0.09765902162 0.6371255517 -0.3516331017 -0.5542342067 0.7362166047
0.02735196613 -0.07268892974 0.6329269409 -0.59335953 -0.5471455455 0.5892348886
0.02608874068 -0.06705885381 0.6363829374 -0.5559983253 -0.5869894028 0.5865504146
0.03810258582 -0.07391061634 0.6347849369 -0.2517897189 -0.5970808864 0.6784970164
0.03240862489 -0.06589972973 0.6408106089 -0.383494854 -0.6224018335 0.6349844933
0.04026379436 -0.06977404654 0.6411868334 -0.2339261174 -0.6120600104 0.6946662664
0.03252326325 -0.07282473147 0.6386515498 -0.5094041824 -0.550647676 0.6545935869
0.03978780657 -0.07769881934 0.6463680267 -0.365364641 -0.5087325573 0.7778146267
0.04111232981 -0.08396467566 0.6455390453 -0.3322704732 -0.4890109897 0.8041344881
0.03762437031 -0.08150087297 0.6393224597 -0.4135256112 -0.4918676913 0.7596670985
-0.01086158771 -0.0561267063 0.6257970333 -0.07143525779 -0.7299268246 0.6752638221
-0.01419562008 -0.0512955375 0.6305188537 -0.02891370654 -0.7539142966 0.6557502747
-0.00690068258 -0.05174808204 0.6311371326 -0.1371996403 -0.7497617602 0.6444578171
-0.02412931994 -0.0526323542 0.6304376125 0.1343263239 -0.7312757373 0.6663900614
-0.02180720307 -0.1482031345 0.6985857487 -0.1561152786 -0.6444837451 0.7290036082
0.00368475751 -0.1450586766 0.7002574801 0.2752764523 -0.6177718639 0.7304367423
0.01225908101 -0.1434694976 0.6973180175 0.4143365622 -0.5860797167 0.6939769387
-0.01264503691 -0.1393368095 0.7066110373 0.01322815008 -0.6485812664 0.7591465116
0.0001447875111 -0.1421969682 0.7041953206 0.2072786987 -0.6203059554 0.7486832738
-0.002726397244 -0.1548009366 0.6950060725 0.2133851051 -0.6706745625 0.7081215978
-0.003430821234 -0.1477473974 0.7024589181 0.1500829756 -0.6464290023 0.7468100786
0.03413346037 -0.0753800422 0.6263423562 -0.3746089935 -0.5934510827 0.5770041943
0.04343396425 -0.07478377968 0.6326419711 -0.126414746 -0.6229922771 0.6645588279
0.04757525027 -0.07519432157 0.6281797886 -0.05311815441 -0.6500687599 0.6020473838
0.03949243948 -0.08192196488 0.6210595965 -0.3192600906 -0.5751875639 0.5506267548
0.02882190235 -0.07658999413 0.6238513589 -0.4786487222 -0.5728874803 0.5740528703
0.02717659436 -0.08218402416 0.6223143935 -0.6446196437 -0.5097616315 0.5425261259
0.04963011295 -0.07684415579 0.6231203675 0.01738617569 -0.6696923375 0.5749691129
0.05866390839 -0.07684449852 0.6229670048 0.2320475131 -0.7122337222 0.5752417445
0.04301676527 -0.07746145874 0.6224164963 -0.1383851916 -0.6352125406 0.5748887658
0.02182708681 -0.09173472971 0.6076236367 -0.5417940021 -0.5990342498 0.5876110196
0.02034831978 -0.08555825055 0.6125946641 -0.5566883683 -0.577254653 0.5907741189
0.04644620046 -0.0817508474 0.6198801398 -0.1190835014 -0.6200769544 0.5584581494
0.03300827742 -0.08416588604 0.6181737185 -0.440122515 -0.5669900775 0.5538235307
0.02459961735 -0.08573058993 0.6169727445 -0.6382880807 -0.53513515 0.5513955355
0.06316484511 -0.08345458657 0.6158412695 0.3861923218 -0.689119339 0.5709089041
0.03819039091 -0.08561544865 0.6151630282 -0.2495084703 -0.6006053686 0.5624551773
0.05617168546 -0.08216829598 0.617308259 0.1853207052 -0.6803414226 0.5709833503
0.03462091833 -0.09194728732 0.6109110117 -0.3596375287 -0.591301322 0.5677322745
0.04911903664 -0.0873278901 0.6131578088 0.05120208859 -0.6296022534 0.5755247474
0.0569062084 -0.09310108423 0.6078386903 0.2849214971 -0.659023881 0.6264096498
0.04149238765 -0.09150894731 0.6099439263 -0.1285741031 -0.6102616787 0.6060119867
0.05579369888 -0.08777663112 0.6124523282 0.2290562838 -0.6504859328 0.5823917985
0.04762459919 -0.09404757619 0.6074746847 0.04544653744 -0.631496489 0.629686594
0.0331316255 -0.07911080122 0.6336721182 -0.5768069029 -0.4779424369 0.6569644213
-0.001512328628 -0.05930133536 0.6247240901 -0.2168643177 -0.7069259286 0.6688715219
-0.01384226792 -0.06101353094 0.6216546297 -0.01759487204 -0.7210026383 0.691783011
-0.007600753102 -0.06092814729 0.6221749783 -0.1129246801 -0.7154308558 0.6861317754
0.009634227492 -0.1841343641 0.6615522504 0.4113658965 -0.5781969428 0.698646009
0.003694829531 -0.190176487 0.6601960063 0.2994506657 -0.6182513833 0.7253358364
0.04370363802 -0.1526743919 0.6244180202 0.7274836302 -0.2802118659 0.3294703364
0.04169955477 -0.1418244988 0.617929697 0.3571850657 -0.5180379748 0.3823008835
0.03970722109 -0.1263388693 0.6052683592 -0.1473989487 -0.7878564 0.4272107482
0.0423454456 -0.1560979187 0.6342642307 0.7894524932 -0.3648264706 0.382727772
0.04097932577 -0.1321322024 0.6079413295 0.0558921434 -0.6446650028 0.3919048905
0.04169589654 -0.1509076059 0.6299491525 0.6208336949 -0.4538000822 0.3971401751
0.04382356629 -0.142774269 0.6125515699 0.4440522492 -0.3458492458 0.3325975835
0.04544367641 -0.1498068571 0.6158832312 0.6930887103 -0.1670610309 0.2923936248
0.04492476583 -0.1620681882 0.627620995 0.8568471074 -0.3373183608 0.3843330443
0.04127883166 -0.1446779221 0.6257809401 0.4417444766 -0.5302157998 0.4162280262
0.04181912541 -0.1329826862 0.628513217 0.2281274498 -0.5591554642 0.4996205568
0.04062662274 -0.1352410913 0.6186003089 0.1647151411 -0.6481149793 0.4402052164
0.04270836338 -0.1105845943 0.6324909925 -0.1949757487 -0.6272218227 0.6535380483
0.04080679268 -0.1204657778 0.617718935 -0.1534838676 -0.7283296585 0.5255627036
0.03989190608 -0.1216759682 0.6100276113 -0.2139979601 -0.7999693155 0.4827438891
0.04190933704 -0.1256772876 0.628087163 0.07090778649 -0.5987183452 0.5418689251
0.04168043658 -0.1187498719 0.6249710917 -0.1084211618 -0.6635552049 0.5694158673
0.04224092886 -0.1465339214 0.6343848109 0.5764285326 -0.4345794916 0.4447004795
0.040905267 -0.1292525381 0.6200165153 0.05552347004 -0.6627610922 0.4829853475
0.04803983122 -0.1547490358 0.617002964 0.9121109247 0.05674875528 0.273489207
0.04283021018 -0.1253998727 0.6337193847 0.139715746 -0.5224491954 0.5681451559
0.04346733913 -0.1187119856 0.6312618852 0.008391200565 -0.5163632035 0.5930616856
0.0437999852 -0.1406391412 0.6314411759 0.5008407235 -0.3505961597 0.4572956264
0.04255206883 -0.1351871341 0.6351873279 0.3486195803 -0.4811780155 0.5170720816
0.04693464935 -0.1442886442 0.6198186278 0.6520826221 -0.1010084823 0.3593935966
0.04440736026 -0.1242561415 0.6220784783 0.1176665276 -0.4646646678 0.5138220787
0.04477840289 -0.1322130263 0.6150993109 0.2668869197 -0.4393127561 0.4340246618
0.04620973393 -0.1379371732 0.6212692261 0.4902520776 -0.2019332945 0.410584569
0.04380501434 -0.1263727248 0.6134844422 0.0875107944 -0.5898575783 0.4721459746
0.04538403079 -0.1301713884 0.6236255169 0.2984270453 -0.3139209151 0.4749429524
0.04728509486 -0.1596782655 0.6220569611 0.9442255497 -0.0352569893 0.2884556353
0.03141207248 -0.1598572433 0.6604092121 0.7348949909 -0.4684041739 0.4893666208
0.0358023718 -0.1506566554 0.660829246 0.7601790428 -0.4483019114 0.4686634839
0.02037954144 -0.1661553979 0.6684266925 0.6018808484 -0.5555073023 0.5717415214
0.02644462511 -0.1616058797 0.6672962904 0.6736035347 -0.5107322335 0.5326932669
0.01801399328 -0.1625129879 0.6751698256 0.5527380109 -0.5740196705 0.6006608009
0.01183339581 -0.1787476391 0.6638188958 0.466853708 -0.5744555593 0.6644272208
-0.03233179823 -0.1738842577 0.6723167896 -0.3591428101 -0.6564813852 0.6610016823
-0.02736352012 -0.1792604625 0.6701302528 -0.2880042791 -0.6542209983 0.69433707
-0.02546123974 -0.1741666645 0.6757841706 -0.2268778831 -0.6771804094 0.6982419491
-0.01615537517 -0.1787455231 0.6731531024 -0.07878215611 -0.6742463112 0.7323459983
-0.04723704606 -0.1503264606 0.6848976612 -0.5245018005 -0.5933721066 0.6091500521
-0.05489053577 -0.1488598436 0.6769677401 -0.6180260181 -0.5628018379 0.5464303493
-0.05251919851 -0.1546353102 0.6753211021 -0.6173683405 -0.5695227981 0.5406430364
-0.03539386019 -0.1482001245 0.6958811879 -0.3761392534 -0.6123966575 0.6948537827
-0.03353716806 -0.1445461661 0.701341629 -0.3416682482 -0.5929918885 0.7281634808
0.01493938453 -0.1548510045 0.6859212518 0.4805421233 -0.6146323085 0.6254327893
0.01913175918 -0.150727272 0.6853407025 0.533410728 -0.5841946602 0.6094180942
-0.02739495784 -0.1569395959 0.6918466687 -0.2661570311 -0.662006557 0.6977958083
-0.0322012715 -0.1589746624 0.6875433326 -0.3595835865 -0.6498360038 0.6684909463
-0.03161497787 -0.1528098434 0.6929513216 -0.3262144029 -0.637321651 0.6940833926
-0.002145312959 -0.1925710142 0.6607452035 0.2136182934 -0.6380901337 0.737380147
-0.009142639115 -0.1939280033 0.6598818898 0.08289937675 -0.6452206373 0.7509479523
0.001506469911 -0.1862481385 0.6651700139 0.2778027952 -0.6348560452 0.7203544974
-0.01316371746 -0.08105764538 0.6009777188 -0.03734954447 -0.7051166892 0.7051845193
-0.006456991658 -0.07803945243 0.6052130461 -0.1242581084 -0.698384285 0.7034092546
-0.02639369108 -0.07423067093 0.6097878218 0.1946790963 -0.6903884411 0.6956959367
-0.02678808384 -0.07887027413 0.6054032445 0.1946388334 -0.6936641335 0.6894056201
-0.07204015553 -0.1369647682 0.6110679507 0.01082646381 -0.3049983084 0.3462873697
-0.07289972901 -0.1484391987 0.6180460453 -0.620506525 -0.1781544089 0.2360563427
-0.07288823277 -0.1468548179 0.6288757324 -0.7690333128 -0.1964815557 0.2838961184
-0.06894666702 -0.128464222 0.6065773368 0.3928514421 -0.3971185088 0.4396969974
-0.07409647852 -0.1551918089 0.6164977551 -0.8572866321 -0.1036895066 0.1525705159
-0.0720898509 -0.1299806237 0.6119107604 0.3087854981 -0.3829604387 0.4253503978
-0.07267138362 -0.1376269311 0.6182959676 -0.1468049288 -0.2985486388 0.3567222953
-0.07314289361 -0.1433728039 0.6216289401 -0.4584788382 -0.235052526 0.3009068966
-0.07008447498 -0.1123475879 0.6352924705 0.3847014904 -0.4649947882 0.4511608481
-0.06938777119 -0.1175226569 0.6380708814 0.2143011689 -0.4622108638 0.4439022541
-0.06980844587 -0.1291854531 0.6463585496 -0.1912727505 -0.454348892 0.4310463071
-0.06895589083 -0.1400944442 0.6524852514 -0.5574040413 -0.4462529123 0.4156876504
-0.07077649981 -0.1239074767 0.641259551 -0.02210964635 -0.4446978271 0.4308249056
-0.07228338718 -0.1022090167 0.630512476 0.7093728781 -0.4688823223 0.466255933
-0.06983941793 -0.137882933 0.6412578821 -0.4995322824 -0.3937461972 0.3835246563
-0.06970562786 -0.1314064115 0.6386830211 -0.2738051713 -0.4077205062 0.3974867463
-0.07111430913 -0.1486068517 0.6435242295 -0.8595801592 -0.3622971475 0.3603211939
-0.05577227473 -0.1093553081 0.5945134759 0.6303184628 -0.4814376533 0.6057719588
-0.04381639138 -0.0924461782 0.6000037193 0.4767669141 -0.6216059923 0.6214419007
-0.03746396676 -0.08949982375 0.598341167 0.3625354171 -0.658048749 0.6534209251
-0.02980560437 -0.08260731399 0.6023380756 0.2462363541 -0.6848090887 0.6832489371
-0.03786591068 -0.1093854234 0.5807445049 0.4042263627 -0.5550862551 0.7255478501
-0.02741148882 -0.1039837822 0.581392169 0.2613898516 -0.6576865911 0.7046837807
0.01779407635 -0.09304505587 0.6022952199 -0.5015349388 -0.6081134677 0.6145864725
0.02052077278 -0.09839524329 0.5996472239 -0.5258542299 -0.5885455012 0.6125747561
0.01526180748 -0.0964391157 0.5970818996 -0.4622893333 -0.6195812225 0.6331669092
0.03229297698 -0.09483777732 0.6222019792 -0.5973184109 -0.5646611452 0.5671535134
0.0283488594 -0.09196997434 0.6174730659 -0.614628613 -0.5663647652 0.5472637415
0.0340115726 -0.0979096815 0.6172817945 -0.641582489 -0.5840287209 0.4928445518
0.0372111015 -0.1013600603 0.622231245 -0.562505126 -0.6165128946 0.544978857
-0.01755050197 -0.05680429563 0.625171423 0.04385408014 -0.7286928296 0.6785672903
-0.02062766999 -0.0628022179 0.6204010844 0.1041129827 -0.7072210312 0.6924523115
-0.02663151175 -0.05734906718 0.6266314983 0.1986976415 -0.7187033296 0.6638296247
-0.03147352859 -0.05423648655 0.6312007904 0.2560833097 -0.7305136323 0.6273859143
-0.04160660505 -0.05753667653 0.6336252689 0.421030879 -0.6753615141 0.6009224057
-0.04326041788 -0.06409569085 0.6270428896 0.4754421413 -0.640014112 0.6016676426
-0.04655046761 -0.06210829318 0.6326230764 0.5180982947 -0.6261045933 0.581441164
-0.03773940727 -0.06010905653 0.6284683347 0.3662780225 -0.6871688366 0.6156448126
-0.01006286871 -0.07025334239 0.6126825809 -0.05969533324 -0.70176965 0.7024324536
-0.004750579596 -0.0664338991 0.616944015 -0.1528520286 -0.7068826556 0.6901804805
7.584313425e-05 -0.06418200582 0.6209613681 -0.2362853885 -0.6971808672 0.6704973578
0.02166561969 -0.07467671484 0.6241132021 -0.5741814971 -0.5679368377 0.5857924819
0.007074211258 -0.06846290827 0.6191958785 -0.3424303532 -0.6636206508 0.6590263247
0.01426483598 -0.07134292275 0.6205181479 -0.4457592666 -0.6273304224 0.6330841184
0.0346673131 -0.08428832144 0.6310501099 -0.5870418549 -0.4121753871 0.6912834048
0.05771303549 -0.07634440809 0.6298906803 0.2569238245 -0.6998668313 0.6515445113
0.03063043766 -0.08259475976 0.6270119548 -0.6632288098 -0.4614696801 0.5878903866
0.01757466234 -0.191653654 0.6510282755 0.5345792174 -0.5383573174 0.6459148526
0.0201602634 -0.1846361607 0.6524779797 0.587597549 -0.5122352242 0.6207815409
0.03779784217 -0.1537353396 0.6531074047 0.805968821 -0.3977450728 0.4329732358
0.03972144425 -0.1557421535 0.6470666528 0.8413446546 -0.3587234616 0.3989601433
0.04046730697 -0.1658624709 0.6383292079 0.8465612531 -0.3558389843 0.3951665461
0.0386672914 -0.1623094529 0.6436161399 0.8433223963 -0.3616304398 0.3964929283
0.04136421531 -0.1583029479 0.640083015 0.8561885357 -0.3447823524 0.3846707344
0.04255890846 -0.1621828824 0.6335855126 0.8538582325 -0.3477838635 0.3872599304
0.02576123737 -0.1494623423 0.6779994965 0.6330294013 -0.5219029188 0.5711770058
0.02026599459 -0.1558070183 0.6787629128 0.5872116089 -0.5518994331 0.5913760662
0.03182879835 -0.1550276428 0.6648898125 0.7217406631 -0.4899986088 0.4875379801
0.02760623954 -0.1550579667 0.6722320318 0.6741771102 -0.5116526484 0.5310041308
-0.02267304994 -0.1893336922 0.6609629989 -0.1756152362 -0.6352252364 0.7424535751
-0.01641838066 -0.185593918 0.6663235426 -0.09667367488 -0.6456811428 0.7519388795
-0.01575288922 -0.1915398091 0.6619306207 -0.05147986859 -0.629784286 0.773809731
-0.009875892662 -0.1828431338 0.6692290902 0.04418081418 -0.6611646414 0.7406313419
-0.009633276612 -0.1883380562 0.664529562 0.06620275229 -0.647115767 0.7505816817
-0.02427487262 -0.18406789 0.6676731706 -0.2145623267 -0.6520702243 0.7268392444
0.01822459698 -0.1755481809 0.6623555422 0.561358273 -0.5357888937 0.6295070648
0.02016998455 -0.1703101546 0.6641061306 0.5980963111 -0.5427523255 0.5851092339
0.02345483936 -0.174655363 0.6572886705 0.6413181424 -0.4887240827 0.5861369967
-0.03658251092 -0.1678743809 0.6762675643 -0.4167398214 -0.6444325447 0.6405686736
-0.04269616678 -0.1671145558 0.6725432277 -0.5002437234 -0.6102949381 0.6121237278
-0.009779886343 -0.1616366357 0.6897612214 0.0646437481 -0.6989418268 0.706858933
-0.02111738175 -0.1615059972 0.6884424686 -0.1539049149 -0.682349503 0.6971917152
-0.01471207384 -0.1641536802 0.68802315 -0.03116034903 -0.7009999156 0.7118477821
-0.01600358821 -0.1588501036 0.6926056743 -0.03628341481 -0.6934441328 0.7119870782
-0.009472766891 -0.1566184461 0.6943647265 0.1000610292 -0.6863996983 0.7145981193
-0.05259546638 -0.09321670234 0.6100595593 0.6105496883 -0.5719134212 0.5327504873
-0.04807704687 -0.09171516448 0.6056843996 0.5319772959 -0.6058933735 0.5823644996
-0.06655228138 -0.08355801553 0.6372694373 0.7087315321 -0.4892860651 0.5081220269
-0.06703994423 -0.07918890566 0.641697228 0.6977840066 -0.4994267523 0.5130730271
-0.03246834502 -0.06389687955 0.6215953231 0.2981525958 -0.6822495461 0.6634813547
-0.02730911411 -0.06558556855 0.6182993054 0.197038576 -0.6894652843 0.6919236183
-0.04361849651 -0.06984355301 0.6223244667 0.4762400985 -0.6215298176 0.6168025136
-0.03865989298 -0.06526470184 0.6230483651 0.3993706107 -0.6556798816 0.6358720064
-0.04446310923 -0.08673195541 0.6072244048 0.4881548882 -0.621946156 0.609208107
-0.0713256672 -0.1437539756 0.6112632751 -0.3266105056 -0.226824373 0.2805249989
-0.06710498035 -0.1344923824 0.6046227813 0.06647817045 -0.3180067539 0.405063659
-0.06249731034 -0.1320053935 0.6000409722 0.1504360586 -0.3348203003 0.4607368708
-0.07174539566 -0.1506778747 0.6126382351 -0.6603677869 -0.1474108845 0.2141754478
-0.06735341251 -0.1224085018 0.6039272547 0.6701538563 -0.4622018039 0.5084824562
-0.06187388673 -0.1239968166 0.5981827378 0.5330328345 -0.4257809818 0.5394097567
-0.06749372929 -0.1427541375 0.6070873141 -0.3173705637 -0.2264355123 0.3205088973
-0.06134068221 -0.1513591111 0.6646137834 -0.7470395565 -0.4870103598 0.4499823153
-0.06460072845 -0.1460546553 0.6642871499 -0.7642855048 -0.4702508748 0.4379693568
-0.06020377949 -0.1461435109 0.6718040705 -0.6892334819 -0.5203529596 0.4958566725
-0.06683774292 -0.1466983259 0.6572943926 -0.8021180034 -0.4339010119 0.4059785604
-0.0005245562643 -0.08866234869 0.5964173675 -0.2319823951 -0.6737413406 0.697165966
0.004456619732 -0.09243472666 0.5944900513 -0.2977467775 -0.6645768881 0.6838881373
-0.005184468813 -0.09142205864 0.5921561122 -0.1551277041 -0.6972420216 0.6988983154
-0.006839348935 -0.0958596319 0.5867122412 -0.1190753952 -0.7287640572 0.6727001667
-0.05523252487 -0.1187558472 0.5912007093 0.6273208857 -0.464199841 0.6232070923
-0.04910998419 -0.1167196929 0.5860105157 0.5409136415 -0.4984933436 0.6654211283
-0.02582398616 -0.09689304978 0.5872821212 0.1817624718 -0.6579059958 0.7290757895
-0.03136819601 -0.09418403357 0.5914209485 0.2644508481 -0.6559314728 0.7025187612
-0.03385302052 -0.1034295857 0.5833969712 0.324878037 -0.6214676499 0.7115661502
-0.03220628947 -0.09817326814 0.5872095227 0.3022592664 -0.634001255 0.7110993266
-0.03766194358 -0.1004594639 0.5880800486 0.3804301322 -0.6049164534 0.6923037171
-0.04693680629 -0.1055284515 0.5901169181 0.521012485 -0.5438287258 0.6566746235
-0.05029742792 -0.1101506129 0.5884871483 0.5737395287 -0.494061619 0.6530563235
-0.04386439174 -0.111474745 0.5832793117 0.4812941253 -0.5402132869 0.6889843345
-0.04112357646 -0.1058227494 0.5854253173 0.4426520765 -0.5672190189 0.6901278496
0.002407867229 -0.08305893838 0.6024657488 -0.2696097493 -0.6725065708 0.6868360043
0.03755315393 -0.09262574464 0.6309649348 -0.5479156375 -0.4901375771 0.6639204025
0.03793757036 -0.08828771114 0.6349744201 -0.4903222322 -0.4406079352 0.7372406721
0.03876550496 -0.1001085117 0.6286748052 -0.5558929443 -0.5742622018 0.5936356783
0.04098562896 -0.08984714001 0.6413923502 -0.3558000922 -0.4561873376 0.8063413501
0.03427402303 -0.08985827863 0.6265372634 -0.6449542046 -0.4592270255 0.6048710346
0.029455835 -0.1734404415 0.6521378756 0.7407245636 -0.4253534675 0.516233325
0.02794329077 -0.1842005551 0.646686852 0.6859216094 -0.4732478261 0.5491841435
0.03345574439 -0.1813086569 0.6423040032 0.7735424042 -0.3979142606 0.4932505786
0.03208430856 -0.1764831543 0.6469246149 0.7693493366 -0.4035952091 0.4951336384
0.0255968105 -0.178891167 0.6509055495 0.6871757507 -0.4516277015 0.559068799
-0.06622219086 -0.09499047697 0.6256401539 0.7238574624 -0.4940730631 0.4814971089
-0.07025776803 -0.09464630485 0.6336931586 0.7226567864 -0.4869840443 0.4904597998
-0.06995877624 -0.08836910874 0.6383038759 0.7170886397 -0.487814635 0.4976872206
-0.06594643742 -0.08936534822 0.6322650313 0.7127688527 -0.4870504141 0.5046461821
-0.06234879792 -0.09585629404 0.6191231012 0.7101207972 -0.5128478408 0.4815530777
-0.06858472526 -0.1060314402 0.6154814363 0.7363839149 -0.4816832244 0.4742462635
-0.06484996527 -0.1002325192 0.6160047054 0.7201875448 -0.5075784922 0.4720441401
-0.06257288903 -0.08316732943 0.6320137978 0.7047522664 -0.4878180027 0.5150946379
-0.05904444307 -0.08410837501 0.6258095503 0.6946238279 -0.4922891259 0.5243545175
-0.05944060907 -0.08776074648 0.6217396259 0.6937332749 -0.5029149652 0.5139291883
-0.05616899207 -0.08985392004 0.6159058809 0.6696145535 -0.5361511111 0.5123079419
-0.05485164747 -0.07892011851 0.6245021224 0.651545465 -0.5220732093 0.5490882397
-0.05388416722 -0.08260326833 0.6196624041 0.6404380798 -0.5397056341 0.5458779335
-0.03818708658 -0.07018849254 0.6186224222 0.379029423 -0.6523028016 0.6482061148
-0.04479877278 -0.07462367415 0.6186876297 0.4885982871 -0.6149893403 0.6171091795
-0.0364777483 -0.08343648165 0.6043657064 0.3346645236 -0.66545856 0.6654630303
-0.04465576261 -0.08130344748 0.6125585437 0.4802725613 -0.6171352863 0.6206576824
-0.04881139845 -0.07907709479 0.6179654002 0.5574067831 -0.5839740634 0.5861904621
-0.0496711731 -0.08436088264 0.6138741374 0.5679979324 -0.5775406957 0.580770731
-0.06261414289 -0.1163041443 0.5976877809 0.6707552671 -0.4588789642 0.581972599
-0.06611903757 -0.1156073511 0.6055486202 0.713876307 -0.4752875268 0.5138284564
-0.06124909967 -0.1097985804 0.6022547483 0.6919214725 -0.4756909013 0.5420200229
-0.07123915106 -0.120690763 0.6086161137 0.7257288098 -0.4703828692 0.5019136667
-0.07007528841 -0.1147210374 0.6108022928 0.7308242917 -0.4705482125 0.493791908
-0.06710643321 -0.1093175784 0.6100566387 0.7240038514 -0.4728192091 0.5009568334
-0.0154436687 -0.0854716897 0.5965743661 -0.001449493109 -0.7029916048 0.710691154
-0.02023328282 -0.08223994821 0.6004624367 0.09246753156 -0.701622963 0.6990180612
-0.008655409329 -0.0859823674 0.5966714025 -0.1013569459 -0.6937286854 0.7101453543
-0.0052545527 -0.08284796029 0.6003376842 -0.1662522405 -0.6897751689 0.7036796808
-0.02498530038 -0.09172121435 0.5919495225 0.1745056212 -0.6752839088 0.7163726091
-0.01930112205 -0.08945984393 0.5931326747 0.0723438412 -0.6947461963 0.7119175196
-0.05287714675 -0.09601402283 0.6046217084 0.6135858893 -0.5677860975 0.5482346416
-0.05662435666 -0.1056205183 0.5997878909 0.6525296569 -0.5039747953 0.5631586313
-0.05310130864 -0.1004995033 0.5995386243 0.6176943183 -0.5350345373 0.5749256611
-0.05698245019 -0.09964186698 0.6084212065 0.6674606204 -0.5408060551 0.5084557533
-0.06239032 -0.1051249877 0.6077319384 0.7088993192 -0.4867305458 0.5091379285
-0.05887563899 -0.09595540911 0.6129360795 0.6904633641 -0.5334605575 0.4875876009
0.008727463894 -0.07454698533 0.6133566499 -0.364428699 -0.6576681733 0.6557164788
0.008401185274 -0.0825528875 0.6060690284 -0.3624388278 -0.6481345296 0.6649912596
0.01357633807 -0.08494028449 0.6068773866 -0.4453588128 -0.6179279089 0.647313118
0.01331081893 -0.07813978195 0.6125707626 -0.4344449043 -0.6314728856 0.6411113739
-0.02614657953 -0.1641099602 0.6859099865 -0.2234055549 -0.6858711243 0.6901515722
-0.03131397814 -0.1656847149 0.6812582016 -0.3418001533 -0.6635924578 0.6634355783
-0.0224261526 -0.1689520031 0.6826789975 -0.149751097 -0.6943997741 0.7026259899
-0.04105229676 -0.1632445902 0.678136766 -0.4817587137 -0.6202818155 0.6172459126
-0.04042961076 -0.1527825743 0.6891328096 -0.4628434777 -0.611199379 0.6410310864
-0.04263484851 -0.1574914753 0.6825118065 -0.4930492043 -0.6128787398 0.6168636084
-0.03716373444 -0.1602759957 0.6838077903 -0.4250555933 -0.6355916262 0.6424756646
-0.06079190969 -0.06605024636 0.6448375583 0.633757472 -0.5306433439 0.5621013045
-0.0546894148 -0.06874062866 0.6345160604 0.5977381468 -0.5764448643 0.5550945997
-0.05635765195 -0.06494693458 0.641048193 0.5957662463 -0.5714167953 0.5636410117
-0.06338435411 -0.0724773556 0.6425947547 0.6695150137 -0.5144777298 0.5351533294
-0.06073690206 -0.07525778562 0.636406064 0.6728049517 -0.5144290924 0.5306496024
-0.05683977529 -0.07521025091 0.6307186484 0.6483240128 -0.5292491913 0.546302557
-0.04022726044 -0.07591999322 0.6142789125 0.4134859443 -0.6415215731 0.6430085301
-0.036743965 -0.07926744968 0.6104357243 0.3505586088 -0.658875227 0.6625909805
-0.03307465836 -0.0737471208 0.611903429 0.289906472 -0.6736786962 0.6792567372
