# .PCD v0.7 - Point Cloud Data file format
VERSION 0.7
FIELDS x y z normal_x normal_y normal_z
SIZE 4 4 4 4 4 4
TYPE F F F F F F
COUNT 1 1 1 1 1 1
WIDTH 512
HEIGHT 1
VIEWPOINT 0 0 0 1 0 0 0
POINTS 512
DATA ascii
-0.04281335697 -0.1662317365 0.688801229 -0.7821403742 -0.2747863531 0.5586022735
-0.04149385169 -0.173976779 0.6912556887 -0.7693349719 -0.2664848268 0.5804588795
0.09135730565 -0.07789515704 0.6676722765 0.4236723185 -0.7207280397 0.5466424823
-0.02882976644 -0.06905413419 0.69107306 0.6341769099 -0.5278788209 0.5648488402
-0.03349623457 -0.07331969589 0.6942939758 0.654966414 -0.5139636993 0.553847611
-0.03295535222 -0.06708969176 0.6976029277 0.6411409378 -0.5160481334 0.5679188371
0.01217612159 -0.11237818 0.6260709763 0.02806852758 -0.5892810225 0.7996966839
0.01098711044 -0.107013464 0.6299930811 0.07451679558 -0.6211079955 0.772172749
0.01762655377 -0.1038880274 0.6312388182 -0.05771624669 -0.6371987462 0.7652695775
0.02561900392 -0.1491080821 0.7471078634 0.1520341635 -0.5846749544 0.7955569625
-0.02350240387 -0.1553875953 0.7250291109 -0.6295559406 -0.5047946572 0.5898469687
-0.02607659437 -0.1493801028 0.7269531488 -0.624864161 -0.5110159516 0.5895388126
-0.03067741729 -0.07505436987 0.6884226799 0.6534929872 -0.5110172033 0.5581807494
-0.02870954387 -0.07729896903 0.6831883192 0.6605824232 -0.5078657269 0.5521101356
-0.03294410557 -0.0817515254 0.6848745346 0.6789754033 -0.4971323311 0.5397780538
0.09273289889 -0.09379518777 0.6531720757 0.5832232237 -0.4879004657 0.6413347125
0.09253235906 -0.08791277558 0.6564575434 0.6224589944 -0.4975838065 0.5925404429
0.07342448086 -0.1663491279 0.6750787497 0.9285651445 -0.2108693719 0.2808804214
0.07175014913 -0.1717189103 0.6799954772 0.8267830014 -0.3733846843 0.4187051952
0.0776534155 -0.1347844452 0.6659454703 0.4247305989 -0.3418405354 0.4551008642
0.07708714902 -0.1447953284 0.6671259999 0.6346409321 -0.2066248059 0.3564728796
0.07682003081 -0.1133112758 0.6672616005 -0.1344968081 -0.6519671679 0.6320083737
0.08165235817 -0.1325326115 0.6584050655 0.5835187435 -0.3342748582 0.5427844524
0.07615165412 -0.121466592 0.6686124206 0.02548725158 -0.5438457727 0.5481583476
0.0798382163 -0.1416644454 0.6619201899 0.7059520483 -0.2236620784 0.4308644235
0.07888049632 -0.1190804318 0.663457036 0.1134727001 -0.5506289601 0.6155495048
0.07574533671 -0.1305443645 0.6694815159 0.2215340436 -0.4201820791 0.4605363309
0.0817585811 -0.1199296713 0.6580588222 0.2869774699 -0.5104526281 0.6566861868
0.08229654282 -0.1267008036 0.6571267843 0.4779606462 -0.4099608362 0.6055572629
0.07786045223 -0.1531967819 0.6657706499 0.8772383928 -0.08089897782 0.2948233783
0.07887420803 -0.1267229319 0.6635577679 0.296389997 -0.4432234466 0.5474621058
0.07506676763 -0.1476578563 0.6611649394 0.572660923 -0.3054167032 0.3905041218
0.0762193203 -0.1297730803 0.6528213024 0.1910533458 -0.6182971597 0.6262069941
0.07345400006 -0.1411657929 0.6571882963 0.3148151934 -0.4969353676 0.4872860909
0.08149112016 -0.1225656942 0.6517025828 0.3196880221 -0.5599037409 0.6946296096
0.07607859373 -0.1350981146 0.6554000378 0.3165660799 -0.5173713565 0.5549099445
0.08165597171 -0.113928102 0.6598493457 0.1176735982 -0.5986130238 0.6744951606
0.08835376799 -0.1116198748 0.6553977728 0.3656351864 -0.5531153083 0.6354760528
0.09242055565 -0.1034896374 0.6585385203 0.4830377996 -0.51471138 0.5190255046
0.08647952974 -0.1081206277 0.6609507799 0.2389980108 -0.5768004656 0.5795203447
0.08352027088 -0.1054668799 0.6669445634 0.06778880954 -0.6118253469 0.5346089005
0.09577722847 -0.1042653918 0.6531671286 0.6600543261 -0.4735229313 0.5519375801
0.0962966159 -0.08778811991 0.662139833 0.6788116097 -0.4909907281 0.5201799273
0.09343866259 -0.0845361203 0.6680330634 0.6237308979 -0.4926549792 0.5917541385
0.09986440092 -0.09331609309 0.6576355696 0.7767052054 -0.4478114545 0.4288103878
0.09105540067 -0.08124274015 0.6736632586 0.5314005613 -0.5657720566 0.5971767902
0.02880831435 -0.1103814542 0.6302449703 -0.2276212424 -0.5898479819 0.769937098
0.09056145698 -0.0827280283 0.6602430344 0.4893016219 -0.6448497772 0.5792443156
0.01134211943 -0.06986755133 0.6620104313 0.1233998537 -0.6505802274 0.7407477498
0.006859981455 -0.06704837084 0.66385746 0.1966231167 -0.6573547125 0.7240902185
-0.002276667627 -0.1068541706 0.6331176758 0.296918422 -0.5843095779 0.7530883551
-0.01342284773 -0.1118575037 0.6354777217 0.5062878132 -0.510956645 0.6927154064
-0.007938781753 -0.1121044829 0.6317169666 0.3938508034 -0.5252321362 0.7519888878
-0.00115338841 -0.192128107 0.7122719288 -0.2363861501 -0.6003859043 0.7576037049
0.004391662776 -0.1919559091 0.7132712007 -0.135953784 -0.6372567415 0.7558652759
-0.01452437229 -0.1905852109 0.7078920603 -0.4787078202 -0.4484855533 0.7492707968
-0.007411373779 -0.1904789209 0.7111368775 -0.3522707224 -0.5366355777 0.7596698403
-0.02197854593 -0.1897840202 0.7051225305 -0.5627812743 -0.37637344 0.7332164049
0.01280781906 -0.1440482587 0.7523156404 -0.07426325232 -0.5878449678 0.8020405769
0.01668943092 -0.1389143914 0.7522004843 0.0301464349 -0.5423430204 0.8306483626
0.007552748546 -0.1391744465 0.7524498105 -0.1374090016 -0.5536466837 0.8148382306
-0.02426538058 -0.07434987277 0.6799259782 0.6317064762 -0.526021421 0.5689764619
-0.02175100707 -0.06574842334 0.6846312284 0.5914343596 -0.5641623139 0.5759542584
-0.03903542459 -0.09446371347 0.6843277216 0.7436493635 -0.4499630034 0.4926258922
-0.03575308248 -0.08262761682 0.6909738183 0.6868208647 -0.4930061698 0.5334948301
-0.03558096662 -0.0883539021 0.6836312413 0.7070602775 -0.4815089107 0.5173075795
-0.04122940451 -0.1314299852 0.6830160618 0.07017212361 -0.3609024286 0.4880377948
-0.04148933664 -0.1426028311 0.6908566356 -0.4209134579 -0.2884010375 0.4716325402
-0.04273984209 -0.11982584 0.6742592454 0.6134088635 -0.403208822 0.4720540345
-0.03907699138 -0.1287312061 0.6950550079 -0.168586269 -0.3902438283 0.4882430136
-0.03862417489 -0.1388846785 0.6999474764 -0.4701095819 -0.3841264248 0.4867697954
-0.03907466307 -0.1226580888 0.6947154403 0.01484049577 -0.4185487032 0.4787220061
-0.03900427744 -0.1471565217 0.7028812766 -0.7217404246 -0.364790082 0.4847802818
-0.04037896171 -0.1442081928 0.6971648932 -0.6451525688 -0.320279181 0.4962696433
-0.0394804962 -0.1169437841 0.6914615035 0.1832123399 -0.4165569246 0.480791539
-0.03972697631 -0.1363974214 0.6915614009 -0.3376367688 -0.338301301 0.5055599213
-0.04024203867 -0.1205865815 0.6862422824 0.1738262177 -0.3824462295 0.493224889
-0.04188918322 -0.1137013733 0.6766120791 0.6534157991 -0.4168235064 0.4782231152
-0.04110659286 -0.1257419288 0.6826693416 0.1934485435 -0.3790482283 0.4902587235
-0.04005151242 -0.1308304071 0.6889525652 -0.131702438 -0.3553696573 0.5002476573
-0.04077142477 -0.1145679057 0.6850552559 0.3354177177 -0.3941468596 0.4857268929
-0.04117073119 -0.1090581566 0.6804241538 0.6135774851 -0.4174604416 0.4802935421
-0.04023005441 -0.1024727151 0.684076488 0.6206327677 -0.4237827659 0.4829896092
-0.04069846496 -0.1462655216 0.6853324771 -0.4352076948 -0.3258086741 0.5196914077
-0.04352931306 -0.1567251533 0.6872110963 -0.7402732372 -0.2905119359 0.5340236425
-0.04252728075 -0.1442613304 0.6745859981 -0.1263681352 -0.3467182517 0.5237081647
-0.04264148697 -0.137876302 0.6717303395 0.1751929373 -0.3301443458 0.4801677763
-0.04149237275 -0.1294507682 0.6617754102 0.5837914944 -0.3922461569 0.4938005209
-0.04188199714 -0.1343546659 0.6659305096 0.3521274626 -0.3765324354 0.5030876398
-0.04338898137 -0.1500975937 0.6807733774 -0.3972252309 -0.3073393703 0.5170994401
-0.04302469641 -0.1233682185 0.6684538722 0.8267218471 -0.2642370164 0.3579524457
-0.04372283444 -0.1382133365 0.678889215 0.1122756302 -0.2516578138 0.4160819948
-0.04374087229 -0.150450632 0.6897733808 -0.6253118515 -0.2696721852 0.491135478
-0.04356940091 -0.1309489161 0.6768253446 0.401111722 -0.2398682386 0.3736459613
0.02354975231 -0.07388311625 0.657684505 -0.09801076353 -0.6344481707 0.7648336887
0.01658490673 -0.06437019259 0.6642888784 0.01544619631 -0.6682559252 0.7415480018
0.02267558128 -0.06514602154 0.6643439531 -0.08132521808 -0.6590585113 0.7448501587
-0.01160292234 -0.06164749712 0.6794596314 0.4936659038 -0.6165478826 0.6019456387
-0.005310411565 -0.05898457766 0.6770051122 0.3946445584 -0.6669330597 0.6264697313
-0.007446686272 -0.0565475598 0.6812307239 0.4195825458 -0.6742640734 0.6001841426
0.09196263552 -0.1106356308 0.6500275135 0.5332618356 -0.5038268566 0.6762344837
0.07558409125 -0.1483270228 0.6715115309 0.6599254608 -0.1961989999 0.321736604
0.07334908098 -0.123799257 0.6780635118 -0.01142008603 -0.6055235267 0.5404607058
0.07265073061 -0.156179741 0.6891046166 0.8544408083 -0.3077185452 0.3766228259
0.07597994804 -0.1571119577 0.6713484526 0.898111701 -0.07649389654 0.257250011
0.0737811625 -0.1392852515 0.6792099476 0.4069658518 -0.4121720791 0.4358803332
0.07532593608 -0.1381421238 0.6706171632 0.3849051595 -0.3216336966 0.3896268308
0.07438398898 -0.147131741 0.6777191758 0.6211030483 -0.2886842489 0.3697495461
0.01999011822 -0.08270786703 0.6497653127 -0.05062205717 -0.6414256096 0.7587795854
0.07965129614 -0.07663080841 0.6906234026 -0.04759401456 -0.5944449306 0.626146853
0.0845766291 -0.08062709868 0.6850858331 0.2471733838 -0.5857790709 0.5677493811
0.02158132941 -0.1872780174 0.71737957 0.1206279173 -0.6201574802 0.7726002932
0.02550770715 -0.1942802221 0.7125509977 0.1830648482 -0.6121353507 0.767780602
0.01992404833 -0.1919353306 0.7127215862 0.1127830669 -0.6212416291 0.7648687363
0.0317568779 -0.1174830571 0.6267277002 -0.267262429 -0.563411057 0.7765991688
0.02334131673 -0.1153553501 0.6193698645 -0.1535232067 -0.5831510425 0.7952244282
0.02083977684 -0.1123788208 0.6259673834 -0.1158909798 -0.5935795903 0.7940543294
0.02688944526 -0.1121867672 0.6237701178 -0.1938223243 -0.5896798372 0.7824980617
0.08213564008 -0.08805498481 0.6564530134 0.3395653069 -0.5407310724 0.6396826506
0.06785106659 -0.09022430331 0.655611515 -0.08978959173 -0.4984611869 0.6815719604
0.0873939991 -0.09133759141 0.6534767747 0.4593348801 -0.4900822639 0.7036990523
-0.02970290929 -0.121575661 0.6458702683 0.6850354671 -0.4559320807 0.567040205
-0.02781379223 -0.1126478016 0.6482509375 0.6855202913 -0.468532443 0.5559928417
-0.03071678989 -0.1869894862 0.700974822 -0.6300147176 -0.3105883598 0.7034389377
-0.0373092033 -0.1832368076 0.6959619522 -0.7127221823 -0.2571532428 0.6507128477
0.0686660707 -0.1513084769 0.6843374968 0.6386068463 -0.4328709543 0.4365335405
0.07217158377 -0.1502681226 0.6671041846 0.5926917791 -0.3105314076 0.3706696332
0.06961848587 -0.1483739763 0.6740302444 0.5188266635 -0.4368450046 0.435400337
0.06833659858 -0.1439813673 0.6702074409 0.3424785137 -0.5485602617 0.4896539152
0.06955221295 -0.1426049918 0.6620770693 0.2854599655 -0.5203882456 0.473233521
0.07142369449 -0.1544425637 0.6791649461 0.7624227405 -0.281168133 0.3597392142
0.07340662926 -0.1603568792 0.678129077 0.9284418225 -0.1650885493 0.2839885056
0.07345615327 -0.1583568901 0.6837331653 0.8951056004 -0.2394880652 0.3318044543
0.07169444859 -0.143586874 0.6873596907 0.5125405788 -0.4503357708 0.4541769922
0.07268834114 -0.134020552 0.6829456091 0.2598454952 -0.5276201963 0.4970440567
0.07056001574 -0.149571389 0.6903946996 0.6687968373 -0.4025462568 0.4276697636
0.07063852996 -0.1292050779 0.6735542417 0.04152932018 -0.6264611483 0.5422644019
0.06731253117 -0.1364642829 0.6600391269 0.04874339327 -0.692818284 0.5585397482
0.068762362 -0.1353483796 0.6682839394 0.1151015535 -0.6369143128 0.5381944776
0.07083319873 -0.1211012602 0.665522933 -0.2194358557 -0.7237098217 0.5909842849
0.06744922698 -0.1317640841 0.6555373073 -0.1009055376 -0.7480638623 0.5863448381
0.06851322949 -0.1316135228 0.6623558998 -0.02952887677 -0.6982344389 0.5670903325
0.06948445737 -0.1431507021 0.6819929481 0.4317380488 -0.4989939928 0.473995775
0.07255808264 -0.1173661202 0.6725658774 -0.2221751809 -0.6889076233 0.5823527575
0.06899878383 -0.125373587 0.658377409 -0.2063436806 -0.7567709088 0.598223269
0.06982589513 -0.128919214 0.6678860188 -0.02658499964 -0.6697974205 0.5595629215
0.0169625245 -0.181242004 0.7179455161 0.05345154554 -0.5969147682 0.7713443637
0.02317320928 -0.1803237796 0.7179902792 0.1639589369 -0.5886704922 0.7732368708
0.01503325813 -0.1874482781 0.7171491981 0.02677596547 -0.633007884 0.7729848623
0.01276804041 -0.1926271468 0.7134141326 -4.819196329e-05 -0.6412088871 0.7642487884
-0.001173606492 -0.07025176287 0.6647160053 0.327371031 -0.6363710165 0.6958221793
-0.006113900337 -0.07004320621 0.6685652137 0.4108910859 -0.6137341857 0.6708701253
0.004264839925 -0.1114779413 0.6278100014 0.2072464973 -0.5891682506 0.7784217596
0.01654530689 -0.1146471202 0.6211638451 -0.04659160599 -0.5846269727 0.8040174246
0.009525263682 -0.1789342612 0.7197980285 -0.08838228881 -0.5892965198 0.7718807459
0.01915195212 -0.1792746782 0.7229662538 0.09149620682 -0.6343601942 0.7655996084
-0.02886535972 -0.1429593712 0.7298210263 -0.6202309132 -0.5004895926 0.6036180258
-0.02966177464 -0.1100530997 0.6525585055 0.7154797316 -0.4558156729 0.5288994312
-0.04066735506 -0.1211363375 0.6598810554 0.7557022572 -0.4268640578 0.4961385131
-0.03758482262 -0.1151789352 0.6590103507 0.7477253079 -0.4335698783 0.5016356707
-0.0378915295 -0.12357492 0.654176712 0.736328423 -0.4335904121 0.5192790627
0.007427049335 -0.1466896832 0.7497467995 -0.1559255719 -0.5753726959 0.7990858555
-0.04019926861 -0.1080451384 0.6686094403 0.7748651505 -0.4264420569 0.4665400386
-0.04030703381 -0.1039476842 0.6747308373 0.7681545615 -0.4307940602 0.4734942019
-0.01785548031 -0.07430458069 0.6733517051 0.5704858899 -0.5568796396 0.6018182635
-0.01219856739 -0.07238231599 0.6709983349 0.5007683635 -0.5851447582 0.6361013055
-0.01651908644 -0.06577078998 0.6795358658 0.5701357722 -0.5743991137 0.5862196088
-0.01974479482 -0.07026078552 0.6786428094 0.6007715464 -0.5524172187 0.5762757659
-0.02163205296 -0.08065706491 0.6710858345 0.6052735448 -0.5405327678 0.5807279348
-0.0193578694 -0.08386701345 0.6651588082 0.5776852965 -0.562431097 0.5883486271
-0.01644932851 -0.07797758281 0.6680192947 0.5428444147 -0.5721945763 0.6111907959
0.0225220602 -0.07836340368 0.6535125971 -0.08877278864 -0.6342627406 0.7640252709
0.01544720307 -0.07216944546 0.6575984955 0.02171193436 -0.647035718 0.7592647672
0.09264887869 -0.1001172066 0.6504713893 0.5617416501 -0.4527963698 0.6755901575
0.07586084306 -0.08169088513 0.6893569231 -0.09786002338 -0.5420895815 0.7833858728
0.07506959885 -0.07542417943 0.6945467591 -0.2683729827 -0.5980775356 0.7024105191
0.08202411234 -0.08372405916 0.6895722151 0.2280209959 -0.5396949649 0.6737642288
0.01566669531 -0.1642496139 0.7367444634 0.04892558604 -0.6440947652 0.7612264752
0.01977991126 -0.1459428221 0.7475175858 0.09144866467 -0.5689059496 0.8156847358
0.02039201558 -0.1513436735 0.7441737056 0.1018763557 -0.5950217843 0.7953363061
0.01351171453 -0.1506759971 0.7473375797 -0.03831387311 -0.5946803689 0.8018626571
0.01103868987 -0.1558320224 0.7440190911 -0.08833473176 -0.6127583385 0.783757031
0.06868798286 -0.1192837059 0.6599667072 -0.3019631505 -0.7180129886 0.6127593517
0.08887511492 -0.1054905728 0.6483312845 0.417894721 -0.462180078 0.7770374417
0.07176317275 -0.08684460074 0.6845177412 -0.4281197786 -0.4403670728 0.7872831821
0.06894984096 -0.08072252572 0.6864801645 -0.4625148773 -0.4692902565 0.7506453991
0.06695961207 -0.09005379677 0.6752784252 -0.5636339784 -0.4158757031 0.7091243267
0.02070667595 -0.05546730384 0.6726191044 -0.02729436755 -0.6969487667 0.7126302123
0.02758705057 -0.06135301292 0.6701418161 -0.1709491014 -0.6544630527 0.7345713973
0.03458767012 -0.06176043302 0.6709756255 -0.2770312428 -0.6400859952 0.7144341469
0.02635959908 -0.05566556752 0.6733227968 -0.1200879738 -0.6915114522 0.7088902593
0.03343429044 -0.05729239061 0.6740252972 -0.2542014718 -0.6843277216 0.679199338
0.03203899041 -0.1906953305 0.711104691 0.3011705279 -0.5659123659 0.7574008107
0.03579255939 -0.1086254865 0.6320027709 -0.3252128065 -0.5729073882 0.7515603304
0.03745831177 -0.1141277999 0.6291327477 -0.3727422655 -0.5537217855 0.7434737086
0.04334100336 -0.1169549227 0.6295647025 -0.4520627558 -0.5119355917 0.7301606536
0.03853688389 -0.1208179742 0.6276914477 -0.3710092902 -0.5276343226 0.7605012655
0.06108405069 -0.1235969514 0.6433990598 -0.4920035899 -0.4722371697 0.7124394178
0.06461221725 -0.1286756396 0.6476718187 -0.2716201246 -0.665828824 0.6414206028
0.03358180448 -0.06638324261 0.6659555435 -0.254982233 -0.6274851561 0.7344467044
0.02856874466 -0.06800983846 0.6644340754 -0.1821968108 -0.6376930475 0.7449541688
0.06912149489 -0.1753611714 0.6840918064 0.8222293258 -0.3799933195 0.4236879051
0.06273023039 -0.1796247065 0.6944797635 0.7713122964 -0.3938391805 0.4988228977
0.06583303958 -0.1789053977 0.6892675757 0.8115137815 -0.3859301209 0.4370377362
0.07219198346 -0.1643279642 0.6870495081 0.8377389908 -0.3608332872 0.4057249427
0.02672251686 -0.09845628589 0.6372643113 -0.1745399237 -0.6208021641 0.7621004581
0.03046656214 -0.1034541279 0.6349398494 -0.2562890351 -0.5964751244 0.7534040809
0.03631334752 -0.1023339108 0.637149334 -0.3375759721 -0.5774473548 0.741615355
-0.03668962792 -0.1704730392 0.6911057234 -0.7553192973 -0.2799350917 0.590733707
-0.03085052222 -0.1748049557 0.6969059706 -0.7297384143 -0.2887274623 0.6191343069
-0.03396770358 -0.1691780835 0.6967428327 -0.7544646859 -0.2714803517 0.5967049003
-0.02513965406 -0.1784325242 0.7016220689 -0.6583168507 -0.3433098197 0.6550856829
-0.02359076776 -0.1845863163 0.7019627094 -0.6173894405 -0.3529354036 0.6908971071
0.03470346704 -0.1787080765 0.7157248855 0.3495590091 -0.5426135659 0.7484494448
0.04415525496 -0.1803036332 0.7098007798 0.5068541765 -0.4900219738 0.695941031
0.04243970662 -0.1821697801 0.7158268094 0.4452506006 -0.548386097 0.7054281831
0.04257871956 -0.1761960834 0.7189073563 0.4467314482 -0.5718070269 0.6865153909
0.0242486503 -0.1754467487 0.7253612876 0.1865100414 -0.6317867041 0.7518889308
0.02050735988 -0.0611669533 0.6701331735 -0.05009494722 -0.660387218 0.7308298945
0.012088052 -0.06143217161 0.670009315 0.09900990129 -0.6623386741 0.7202123404
0.005073633511 -0.05577002838 0.6752075553 0.2490492165 -0.7086793184 0.6598236561
0.01476817206 -0.05581294 0.672314167 0.06811024994 -0.7019835711 0.7088016868
-0.005959445611 -0.0740743652 0.6636214852 0.3972682655 -0.6238433719 0.6726245284
-0.01009599864 -0.06584528834 0.6738687754 0.483271122 -0.6029327512 0.6310372949
0.0014596642 -0.06254717708 0.670453608 0.2864567637 -0.6529225111 0.6970529556
-0.004609211814 -0.06410254538 0.6717767715 0.3933126032 -0.629750967 0.6671387553
0.01911660656 -0.09941322356 0.6355984807 -0.05335417762 -0.6322121024 0.7677800059
0.02412121743 -0.1044740081 0.6321597099 -0.1596845835 -0.6196733713 0.7666005492
0.003638657043 -0.1047782153 0.6318788528 0.2187164128 -0.6191190481 0.7535266876
-0.006065205205 -0.1038320139 0.6364127994 0.3795002103 -0.5746858716 0.7186121941
-0.007722403388 -0.1771229357 0.7200033665 -0.3747776151 -0.5456921458 0.7468913198
-0.01125212293 -0.1862426847 0.713589251 -0.4249026477 -0.517254293 0.7414768338
-0.01683748141 -0.1803789139 0.7150015831 -0.4956818223 -0.467330575 0.725199163
-0.01762445085 -0.1859772205 0.7097340822 -0.5189940929 -0.4362613261 0.731379807
-0.01732145622 -0.1789231598 0.7092786431 -0.5179696679 -0.4252450764 0.7217757702
-0.007649878971 -0.1821001917 0.7146353722 -0.3844330609 -0.5163605213 0.7545779347
-0.0225703828 -0.1840589941 0.707682848 -0.5947074294 -0.3817217052 0.7045199871
-0.0229919944 -0.1765810698 0.709061265 -0.639377892 -0.3871926367 0.661871016
-0.02388537116 -0.1396431029 0.7358729243 -0.573364377 -0.500262022 0.6468370557
-0.03146198764 -0.08531796932 0.6789790392 0.6783546209 -0.5066815019 0.5317423344
-0.02630689181 -0.08041646332 0.676531136 0.6555867195 -0.5181844831 0.5490871668
-0.01322875638 -0.08630358428 0.6574084163 0.5074588656 -0.5861499906 0.6315019727
-0.01377468742 -0.08102451265 0.6625745296 0.5097604394 -0.5872159004 0.6287338734
-0.002385267289 -0.07793251425 0.657920599 0.3459742665 -0.6302831769 0.6938247085
-0.007543608546 -0.07992371917 0.6601743102 0.4394170344 -0.6087893844 0.65766114
-0.04164708033 -0.1254965365 0.6736627221 0.5337295532 -0.3477979302 0.4451857805
-0.04006600007 -0.1380470693 0.6844340563 -0.164236933 -0.3490633965 0.5054244399
-0.03474852443 -0.1192858815 0.6559643745 0.7329347134 -0.4379741848 0.5184090137
-0.03862225264 -0.116769053 0.6649370193 0.7628118396 -0.4253051877 0.4864506721
-0.0001006136081 -0.1435731947 0.7487614751 -0.270486176 -0.5545281172 0.7834604979
-0.001469091745 -0.1484050006 0.7450864315 -0.3084211051 -0.558417201 0.765643537
-0.03714518622 -0.1488778591 0.7076625228 -0.7777504325 -0.3900901973 0.4898705184
-0.01282693725 -0.1731345356 0.7173958421 -0.4875352383 -0.5126913786 0.6889281869
-0.01828381605 -0.1699733883 0.7180587053 -0.5581900477 -0.497217834 0.6491500139
-0.01958419569 -0.1727920175 0.7132570148 -0.6263116598 -0.4293084741 0.6485326886
-0.04119836912 -0.1506171972 0.6971698403 -0.811223805 -0.2974831164 0.5017442703
-0.03990421072 -0.1600310802 0.6931132674 -0.7913012505 -0.2752575576 0.5449220538
-0.02515094168 -0.1716451645 0.7075087428 -0.6894928813 -0.3517511785 0.6277322173
-0.02750863694 -0.1660204083 0.7080295682 -0.7230250239 -0.3414011002 0.5850353837
-0.02203884721 -0.167667672 0.7134743333 -0.654112339 -0.4354318678 0.6064305305
-0.03052489273 -0.1793584675 0.7014374137 -0.6886717677 -0.2985318303 0.6590110064
0.004258906469 -0.08484061062 0.6493522525 0.2251452208 -0.6403747797 0.732635498
0.001032137661 -0.08945361525 0.6466334462 0.2724576294 -0.635802567 0.7196723223
0.04177434742 -0.1107642055 0.6343975663 -0.4161928296 -0.5329826474 0.7351606488
0.0808590427 -0.09264626354 0.6854741573 0.20959647 -0.523698926 0.7065089345
0.09514329582 -0.09710016847 0.6615834832 0.5737232566 -0.4773406684 0.4603926539
0.08179559559 -0.09803184122 0.6794736385 0.1741520613 -0.5834210515 0.6353985667
0.08566182107 -0.09940987825 0.6713410616 0.2259379178 -0.5562855601 0.5666483641
0.08903032541 -0.09455896169 0.6750907898 0.5059060454 -0.5194556117 0.5730662346
0.09536824375 -0.0911667496 0.6691054106 0.7169440985 -0.4251970351 0.5239369273
0.08789278567 -0.08941194415 0.6830331683 0.5758676529 -0.4773772359 0.646998167
0.07376536727 -0.1019521654 0.6773623824 -0.3909329474 -0.5822499394 0.6990054846
0.07075753063 -0.09568670392 0.6775321364 -0.4746839702 -0.4911670089 0.7147738338
0.08797562867 -0.1014458984 0.6652482748 0.2471160144 -0.5508134961 0.5113627911
0.07700256258 -0.1056849062 0.6730497479 -0.2432608306 -0.6396665573 0.6178047657
0.02323005535 -0.1406216323 0.7506994009 0.1373667568 -0.5456663966 0.8222579956
0.03070637211 -0.1436457187 0.7478122115 0.2420576811 -0.5571430922 0.7882122993
0.0361680463 -0.1470991969 0.7447516918 0.3155559599 -0.5699056983 0.7577565908
0.04117979482 -0.1477999687 0.7422941923 0.3708489537 -0.5687124133 0.7332829237
-0.01153463032 -0.1405257583 0.7456694841 -0.4208168685 -0.5100357533 0.7462258339
-0.01819703542 -0.1399558932 0.7422714829 -0.4843657017 -0.5069827437 0.7104945183
0.073396869 -0.1247241497 0.6493994594 -0.01382322982 -0.626642406 0.7107118964
0.07054077089 -0.1298523396 0.6504589915 -0.1039035544 -0.7265165448 0.6495910287
0.0618012473 -0.1061249077 0.6562629938 -0.6191810966 -0.5404771566 0.568664968
0.05840074271 -0.09562963992 0.6612746716 -0.6420095563 -0.4764283001 0.5981335044
0.06106254831 -0.1015763357 0.659707725 -0.6228939891 -0.5232332349 0.5761435032
0.06840652227 -0.1075247526 0.66585958 -0.5398023725 -0.6019151807 0.5636438727
0.07291578501 -0.1101734713 0.6720325947 -0.3906085491 -0.6948193312 0.5922903419
0.07045796514 -0.1030197889 0.6718164682 -0.5135252476 -0.5584187508 0.6226226687
0.06719199568 -0.1014102697 0.667607367 -0.6379304528 -0.4928196669 0.5765015483
0.08455212414 -0.08041661233 0.6631696224 0.302182436 -0.6939083934 0.5487802625
0.06824243814 -0.07840119302 0.6652694941 -0.1584790051 -0.6263648272 0.5928345323
0.05192687735 -0.0755263716 0.6702749133 -0.5206050277 -0.5373727679 0.6556873322
0.06327688694 -0.09018557519 0.6707151532 -0.6308866739 -0.4128146172 0.6543867588
0.05601720139 -0.1029207036 0.652235806 -0.5436224937 -0.5568134189 0.6268027425
0.05352177471 -0.09734309465 0.6538869739 -0.5718672276 -0.5212492347 0.6308887005
0.03408931941 -0.07595682889 0.6582531333 -0.2754964232 -0.609135747 0.7436268926
0.06179484725 -0.08166457713 0.662461102 -0.2670419812 -0.5300943255 0.6446276307
0.07613848895 -0.08639555424 0.658071816 0.164199695 -0.5408751965 0.6368894577
0.05523172021 -0.08262928575 0.6621567607 -0.4528439939 -0.5250265002 0.6460224986
0.06571408361 -0.08570040762 0.6592345834 -0.139113456 -0.5329218507 0.6406323314
0.05642075464 -0.08777362108 0.6646068692 -0.625179112 -0.4791437387 0.6152230501
0.05849893764 -0.08482921124 0.6691551805 -0.6302883029 -0.4615679681 0.6238930821
0.0719923377 -0.08207125962 0.661629796 0.02359114401 -0.5517221689 0.6319285631
0.07800542563 -0.08207128942 0.6615338326 0.1835177541 -0.5933141112 0.6053832769
0.04550054669 -0.06548146158 0.6724296212 -0.4441855848 -0.6004427075 0.6646760702
0.04184084758 -0.06762295216 0.6687965393 -0.3845408559 -0.6047411561 0.6952189803
0.03801064193 -0.07120349258 0.6641005278 -0.3304473162 -0.6054611802 0.722104311
0.04104524106 -0.07565737516 0.6615493298 -0.3941481709 -0.5837552547 0.7088804245
0.04620800167 -0.07285067439 0.6664689779 -0.4580750167 -0.5684978962 0.6780174971
0.05521415919 -0.1712283492 0.7085701227 0.6745362282 -0.4479617774 0.5813440084
0.03777612373 -0.1869311482 0.7149651051 0.3723648787 -0.5566563606 0.7394880056
0.02886159159 -0.1820206046 0.7194039822 0.2363127321 -0.6051512957 0.7540404797
0.02928548679 -0.1874534339 0.7157695293 0.2477137446 -0.5907828212 0.7612119913
0.02985817939 -0.1770103127 0.7224708796 0.2480687499 -0.6147329211 0.7433604598
0.05218314379 -0.1762714088 0.7088709474 0.6264115572 -0.4626712799 0.6256329417
0.04947264865 -0.1811414659 0.7061739564 0.5988649726 -0.4509163499 0.6570414305
-0.0173721239 -0.1078420058 0.6415351033 0.5296083093 -0.5217767358 0.6678230762
-0.01940202154 -0.116798237 0.6378108859 0.5788286924 -0.4828969836 0.652795434
-0.0254745055 -0.1175756156 0.6424004436 0.6399549842 -0.4752303958 0.602652967
-0.0117967315 -0.1050545126 0.6393435597 0.4854952693 -0.54925102 0.6788499355
-0.003658560337 -0.09805586934 0.6398938298 0.3435457945 -0.6069257855 0.713763535
-0.009269209579 -0.09983405471 0.6430076361 0.4412227869 -0.5860605836 0.6780665517
0.01445804909 -0.09160527587 0.6422612667 0.04007731378 -0.6370605826 0.7686556578
0.01375818718 -0.08666358143 0.6460987926 0.04892100766 -0.6476016641 0.7575175166
0.00756965531 -0.08865087479 0.6454849839 0.1615559012 -0.6415526271 0.7462792397
0.02260797285 -0.09096038342 0.6436241865 -0.108588174 -0.6360509396 0.759364903
0.009559191763 -0.0960861668 0.6386419535 0.117887415 -0.6380137205 0.7553304434
0.004096433986 -0.09503510594 0.6405228972 0.2140530199 -0.6339195371 0.7409102321
0.01120252255 -0.1017932594 0.6333273649 0.0636158064 -0.6387678385 0.7600989342
0.005288640503 -0.1000933871 0.6356346607 0.1869202256 -0.6274535656 0.7556793094
0.008939216845 -0.18761307 0.7168304324 -0.0662336722 -0.6354894638 0.7659878135
0.001553291688 -0.1822097749 0.7177054882 -0.2178121805 -0.5903742313 0.7738184929
-0.002690352965 -0.1868142933 0.7156965733 -0.2691102922 -0.5823880434 0.7621715665
0.008054289967 -0.1627531499 0.7380048037 -0.1361737996 -0.6316784024 0.7625750303
-0.0316523537 -0.1444673836 0.7245677114 -0.7185395956 -0.4521157742 0.5262294412
-0.02893680148 -0.1502813399 0.7223046422 -0.7062211037 -0.4644727409 0.5307975411
-0.03420820087 -0.1476165801 0.7157152295 -0.7523289919 -0.4341545403 0.4953208566
-0.03032719344 -0.1525761336 0.7161803842 -0.7376542687 -0.4508461654 0.5002919436
-0.04216456786 -0.1149416044 0.669755578 0.8073633313 -0.3793489933 0.4353685677
-0.03403946757 -0.1059824079 0.663795352 0.759128809 -0.439196825 0.4802407026
-0.03579325974 -0.111569263 0.6632671952 0.7601926923 -0.4314650297 0.4853675067
-0.03241959214 -0.1083934158 0.6589210629 0.74429214 -0.4425111711 0.4998164773
-0.01052290108 -0.09068012238 0.6511512399 0.4616470635 -0.5974274278 0.6547943354
-0.006307569332 -0.08552752435 0.6536219716 0.3867831528 -0.6239625216 0.6776910424
-0.004625790752 -0.09061545134 0.6486167908 0.3582949042 -0.622133553 0.6926028728
-0.008440847509 -0.09430687875 0.6468557119 0.41774562 -0.6052016616 0.6746159196
-0.01483133063 -0.09867158532 0.6474837065 0.5068805218 -0.573033452 0.6436382532
-0.003563046921 -0.139022857 0.7513577938 -0.3075669706 -0.5368596315 0.7841903567
-0.004204595461 -0.1722254306 0.7253844738 -0.3371781707 -0.5745661855 0.7443595529
-0.003599600168 -0.1656107008 0.7304509878 -0.3308403492 -0.6075355411 0.7162107825
-0.001389480545 -0.1772883385 0.7208247781 -0.28861323 -0.5757860541 0.7631920576
0.006359793246 -0.1715483069 0.7294972539 -0.1472227722 -0.6473639011 0.7462527752
0.002082080115 -0.1750833243 0.7253111601 -0.2137199789 -0.6106247306 0.7570286393
-0.0208531227 -0.1604324132 0.7229034901 -0.6221759319 -0.5055516362 0.5963000059
-0.03375357762 -0.1611231565 0.7023184896 -0.7887749672 -0.2703586221 0.5510706902
-0.03718227893 -0.1540729851 0.6988297701 -0.7978492379 -0.2863569856 0.529755652
-0.03713868186 -0.1667970121 0.7009729743 -0.7598047256 -0.3038159609 0.5650959611
-0.03951903433 -0.1718171239 0.6965124607 -0.7562069297 -0.285551101 0.5818237662
-0.04116471112 -0.1793358028 0.693253994 -0.7390742898 -0.2466860414 0.6248949766
-0.0400374867 -0.1661029905 0.6942317486 -0.7786929607 -0.2832542956 0.5570838451
-0.03533802927 -0.1557682157 0.7052325606 -0.7846588492 -0.3691954613 0.497590661
-0.02507811598 -0.1616182029 0.7177802324 -0.6696580052 -0.4740018845 0.5706481338
-0.0288746208 -0.1578925252 0.7139397264 -0.7501431108 -0.4303066134 0.4996557236
-0.03640378639 -0.1758209169 0.6999983788 -0.7292522788 -0.2738697827 0.6218790412
-0.03308557346 -0.1721396744 0.7031411529 -0.7317436934 -0.2917777002 0.6125889421
-0.03179522976 -0.1596555412 0.7088790536 -0.7771514058 -0.3815342188 0.5003777146
-0.03354636952 -0.1531767547 0.7105608582 -0.7752976418 -0.407461673 0.4824612439
0.005080594216 -0.07203382999 0.6606836915 0.2241488248 -0.6489858627 0.7244349718
0.005701211747 -0.07735002041 0.6547793746 0.2054056674 -0.6383095384 0.7410477996
0.01450686902 -0.08092167974 0.650288105 0.05696227401 -0.64530164 0.7610831857
0.01141224429 -0.07677949965 0.6544499993 0.1053391397 -0.640373826 0.7566418648
0.008407700807 -0.08145484328 0.650924325 0.1592668891 -0.6438570023 0.7429659367
0.07798933238 -0.1076767072 0.647244513 0.1845464259 -0.4099888802 0.8811402321
0.07450076938 -0.1022459641 0.6477835774 0.07254442573 -0.4445565939 0.7987504601
0.06771758944 -0.1015132144 0.6478374004 -0.1075322554 -0.4695437849 0.7550609708
0.06527000666 -0.1077305824 0.6604986787 -0.5607959032 -0.5788677335 0.5773604512
0.08412270248 -0.1025662422 0.6477526426 0.3193633556 -0.4162577987 0.845458746
0.06437786669 -0.116682224 0.6542806625 -0.4078455865 -0.6341687441 0.6268827915
0.06433334947 -0.1237924471 0.6508155465 -0.3087656796 -0.6863241792 0.6157577634
0.06766954064 -0.113191776 0.6609737873 -0.3988188505 -0.6621702909 0.628492415
0.06111186743 -0.1156667545 0.6485019326 -0.5303219557 -0.5135164857 0.6681489348
0.05981209874 -0.1094763875 0.6512274742 -0.573025167 -0.526529789 0.6270295382
0.002186778933 -0.1593411267 0.7379752398 -0.2498869747 -0.6094119549 0.7515257597
0.003551535541 -0.1647328734 0.7340438366 -0.2070524842 -0.6298317313 0.7455613017
-0.004011329263 -0.1607684642 0.7348288894 -0.3533274233 -0.5982335806 0.7185809016
0.0001410484692 -0.1546924263 0.7412876487 -0.2778429985 -0.5815862417 0.7594729662
-0.0176663138 -0.1440680772 0.7378793359 -0.5039323568 -0.5198236704 0.6886765361
-0.02047414705 -0.152006492 0.7307673693 -0.5672426224 -0.5231205225 0.6349337697
-0.02281172201 -0.1460555196 0.732845664 -0.5746828914 -0.5149921179 0.6352317929
0.06668066978 -0.09562382847 0.6705284119 -0.6462048888 -0.4037248492 0.6411955953
0.06160502136 -0.09412750602 0.665800333 -0.6631945968 -0.428655535 0.6109310389
0.06997985393 -0.07019969076 0.6799110174 -0.2419315875 -0.7054428458 0.538197279
0.07708346099 -0.07372763753 0.6769517064 -0.05638055131 -0.8076913357 0.4729447663
0.06368248165 -0.0691664964 0.677736342 -0.322319299 -0.6708090305 0.5654125214
0.05647087097 -0.06904209405 0.679069221 -0.5541682839 -0.5314828157 0.6391253471
0.09038586915 -0.08346311003 0.6797788739 0.5926579833 -0.4576155245 0.6353192329
0.06145647168 -0.08170915395 0.6744017601 -0.5701354146 -0.4735496044 0.6688420177
0.06851244718 -0.07020907104 0.6922129989 -0.4500284493 -0.5577936172 0.6919178367
0.06601896137 -0.0837071687 0.6784472466 -0.5141301155 -0.4717410207 0.7159878016
0.07983493805 -0.07463414967 0.6847856045 -0.1134384274 -0.7699731588 0.5337449908
0.06389036775 -0.06770285964 0.6880553365 -0.5047746897 -0.5266446471 0.6787075996
0.08310519904 -0.07608484477 0.6769220829 0.05624963343 -0.8609290123 0.4411164522
0.0718133375 -0.07115089893 0.6854828 -0.2985339463 -0.6529650688 0.5983871222
0.06713677943 -0.07548424602 0.6870806217 -0.4707082808 -0.497287333 0.727717936
0.06487128884 -0.07785802335 0.6809806228 -0.5171114802 -0.4898325503 0.7010115981
0.06157000363 -0.07136567682 0.6836531758 -0.5393648744 -0.5039428473 0.6704345942
0.05729988217 -0.07665251195 0.6739125848 -0.5946112275 -0.4907108843 0.6361290216
0.06531258672 -0.07582807541 0.6708807349 -0.3155729175 -0.5957889557 0.597890079
0.08394733071 -0.07706903666 0.6706774235 0.149802506 -0.824087739 0.4742380679
0.07464719564 -0.0739916414 0.6713165045 -0.0346101895 -0.7350693941 0.5342678428
0.0503886342 -0.1017107368 0.6478693485 -0.5043318272 -0.5528429151 0.6607218981
0.03079811484 -0.09600710124 0.6412770152 -0.2487423867 -0.607945323 0.7461766601
0.03687601164 -0.0980784148 0.6409755349 -0.3356636167 -0.587089777 0.7344717979
0.05029198155 -0.07949430496 0.66575104 -0.5145821571 -0.5338751078 0.6642879248
0.04590786994 -0.08015674353 0.6611769795 -0.46244362 -0.5590805411 0.6861142516
0.04663099349 -0.08619560301 0.6565440297 -0.4713818133 -0.5523741841 0.683637917
0.03936462849 -0.08389653265 0.6543447971 -0.3546234071 -0.5935777426 0.7190853357
0.07080318779 -0.1561357081 0.69532305 0.831140399 -0.3657762706 0.4149018824
0.06877496839 -0.1611724794 0.6909799576 0.8395295739 -0.3589834273 0.4072296619
0.06571143866 -0.1637126058 0.6975309253 0.8155103326 -0.3751652241 0.437423259
0.06436522305 -0.1612130702 0.7040574551 0.7745481133 -0.4127719402 0.4787962139
0.0675925687 -0.1690598428 0.6875211596 0.8184877634 -0.3782385886 0.4317313433
0.06486623734 -0.1724160165 0.6915439963 0.8034614325 -0.3820238113 0.4556228817
0.06753396243 -0.1672878861 0.6930903196 0.818370223 -0.3730759919 0.4353410602
0.05611228943 -0.1819427013 0.699450314 0.7172875404 -0.4091474116 0.5604310036
0.05368198454 -0.1875943244 0.6979284286 0.684484303 -0.4343927503 0.581324935
0.05865595862 -0.1844866574 0.6939159632 0.7395305037 -0.41402632 0.5181321502
0.05776632205 -0.1732273698 0.7030009031 0.7306098342 -0.4161042571 0.5388383269
0.06202849373 -0.1739497632 0.6966776252 0.782902956 -0.3867252767 0.4869987071
0.03648194671 -0.193704918 0.7097169757 0.3672764897 -0.5494222641 0.7451812029
0.04425213113 -0.1928709447 0.7045483589 0.5089087486 -0.498678416 0.6821074486
0.04892124608 -0.1920863241 0.7005581856 0.6013984084 -0.4692241549 0.6347225904
0.03845689446 -0.1880962551 0.7093699574 0.4161120653 -0.5205339193 0.7423623204
0.04391203076 -0.1868454814 0.7071641684 0.5105720162 -0.4821054637 0.7063734531
-0.02239576168 -0.1067929491 0.6473014355 0.6093316674 -0.5145157576 0.6012167335
-0.03523090854 -0.1019561738 0.6694694757 0.766746819 -0.4417055845 0.4649385512
-0.02108802274 -0.09710568935 0.6547809839 0.5888134837 -0.548879683 0.589268446
-0.02353636362 -0.08889985085 0.6645521522 0.6311357617 -0.5403704643 0.5557703376
-0.01749851741 -0.09150015563 0.6567816734 0.5485159159 -0.5683998466 0.6081454754
-0.02364529856 -0.09391026944 0.6607214808 0.626535058 -0.535279572 0.5601966977
-0.02395652048 -0.1037153378 0.6515583992 0.6317462325 -0.514760375 0.5781873465
-0.01278874744 -0.1477698386 0.7411515713 -0.4616107941 -0.5266311169 0.7134265304
-0.007328703068 -0.1463858187 0.7446074486 -0.3944060504 -0.5387830734 0.7425231934
-0.01531529892 -0.1524503976 0.7346970439 -0.5081275702 -0.5306912065 0.6756759286
-0.00599731598 -0.1533691287 0.7397169471 -0.3886270821 -0.5596060753 0.7310085297
-0.0114720799 -0.1596598178 0.7320392132 -0.4581330717 -0.560890615 0.6892806888
0.01961603761 -0.1703790724 0.7305157185 0.1224659532 -0.6505353451 0.7455499172
0.00969822146 -0.1673781723 0.7340784669 -0.07564418018 -0.6483128071 0.7538016438
-0.01541832555 -0.1624952853 0.726349473 -0.514922142 -0.5484988689 0.6565927863
-0.01360845286 -0.1690554023 0.7235292792 -0.469012171 -0.5481011271 0.6915001273
-0.009633733891 -0.1665547192 0.7265826464 -0.4220729172 -0.5820656419 0.6932657957
0.08325385302 -0.1100252792 0.6477407217 0.292932868 -0.3939844072 0.8693027496
0.08254729956 -0.1168054789 0.6492945552 0.3035943806 -0.499065727 0.8001413941
0.07280753553 -0.1177709848 0.6467716694 -0.01797778346 -0.418130219 0.833386302
0.07787118107 -0.113749817 0.648254931 0.1536135674 -0.3403939903 0.9183488488
0.06978332996 -0.1127796918 0.6433349848 -0.06584367901 -0.4016997218 0.8345694542
0.06411273032 -0.1141921952 0.6410816312 -0.2291741818 -0.4106478393 0.7918620706
0.04885097966 -0.1203868315 0.6330710053 -0.5365555286 -0.4336220026 0.7226675153
0.05718209222 -0.1189312413 0.640809536 -0.5603654385 -0.4248330295 0.7102158666
0.05217375979 -0.1176909432 0.6369435191 -0.5378159881 -0.4397151172 0.7161592245
0.04762970656 -0.1127500758 0.6363086104 -0.4856111705 -0.5023124814 0.7134510875
0.05138893425 -0.09196709841 0.6558164358 -0.5568117499 -0.5208950639 0.6448233724
0.07335073501 -0.09207108617 0.6529672146 0.09808904678 -0.4930267632 0.7096605897
0.05578368902 -0.08893611282 0.6573920846 -0.421969682 -0.5139558911 0.6560051441
0.08745099604 -0.09592723101 0.6497445107 0.4183335006 -0.4396131933 0.782638371
0.07899472117 -0.0944628045 0.6506505013 0.2383881509 -0.4703956544 0.7505711913
0.05871332809 -0.09475417435 0.6501446366 -0.2491886467 -0.5151335597 0.7157068253
0.06531845033 -0.09596820176 0.6494729519 -0.1131253913 -0.4929394126 0.7341201901
0.0724619031 -0.09624248743 0.6492468119 0.05867867544 -0.4704198837 0.762611568
0.04856516048 -0.09519281238 0.649800539 -0.4974785447 -0.5466881394 0.6719943285
0.02744879015 -0.08721494675 0.6474726796 -0.1832388341 -0.6352299452 0.7477875948
0.034207616 -0.08543905616 0.6504613161 -0.2770598829 -0.6186814904 0.7344586849
0.0277026277 -0.08292848617 0.6512730122 -0.1884144694 -0.6301922798 0.750754416
0.04896244407 -0.1449025124 0.7405887842 0.4662351012 -0.5579046011 0.6859048009
0.0501611419 -0.1501392275 0.7338033319 0.5140343308 -0.562563777 0.645883441
0.04544843733 -0.1532887369 0.7350358367 0.465731293 -0.5817878842 0.6666275263
0.04700312391 -0.1030712873 0.6431282759 -0.4929917455 -0.5343455076 0.685826242
0.05649022013 -0.112480551 0.6440631747 -0.5592799783 -0.4786573052 0.6758764386
0.05508893356 -0.1066470891 0.6474826336 -0.5516321063 -0.527100265 0.6461539865
0.06654502451 -0.1083419472 0.6454743743 -0.1500988603 -0.4512188137 0.7861987352
0.05151833221 -0.1091239527 0.6417364478 -0.5376062989 -0.4993061721 0.676489532
0.04484365508 -0.1068066433 0.638508141 -0.4573565125 -0.5310322046 0.7119215131
0.06007423252 -0.1624105275 0.7105528712 0.7232021689 -0.4644115567 0.5095774531
0.06641213596 -0.1528546959 0.7076030374 0.7636812329 -0.434325099 0.4694012105
0.06772090495 -0.1544957459 0.6999565959 0.8141629696 -0.3833840787 0.4247908294
0.05419232324 -0.1538458169 0.7253578901 0.5979177356 -0.544690311 0.5873870254
0.06107290462 -0.1499280185 0.7193892002 0.6848527789 -0.5021042824 0.5245337486
0.05811763927 -0.1482983232 0.7251330018 0.609747529 -0.5411973 0.575992763
0.02499506809 -0.1547368914 0.7423234582 0.169808507 -0.6186639667 0.7663517594
0.01726001687 -0.158992514 0.7413217425 0.06576691568 -0.6354307532 0.765839994
0.02239206992 -0.1603247523 0.7372509241 0.1472066194 -0.6309623718 0.7594532967
0.05396516249 -0.1669486016 0.7138673067 0.6304218173 -0.5057818294 0.5872981548
0.04748727009 -0.1747251302 0.7133575678 0.5535274744 -0.5033298731 0.6613237262
0.04785111919 -0.1687450409 0.7177166939 0.5415603518 -0.5555499196 0.6300206184
0.04354978353 -0.1670477241 0.7239087224 0.4547471404 -0.5983399749 0.6588563919
0.062816903 -0.1535374224 0.713129282 0.7198917866 -0.4760046601 0.5049628019
0.05692415312 -0.155237481 0.7202601433 0.6498069763 -0.5215970874 0.5506358743
0.05609760433 -0.1603424251 0.7164355516 0.6510490775 -0.5167719126 0.5530884862
0.05098176003 -0.1620698124 0.720808804 0.591421783 -0.5452543497 0.5930963755
0.03862244636 -0.1700011492 0.7211754322 0.4094437063 -0.5862603784 0.6808333397
0.02660741098 -0.1702730209 0.7290211916 0.2295632213 -0.6390437484 0.7301331758
0.0338948667 -0.1731203198 0.7243232727 0.3118184209 -0.6136491299 0.7242666483
0.01550988853 -0.1738745719 0.7276284099 0.0410435386 -0.6542341113 0.7541845441
0.03722145036 -0.1553521305 0.737888217 0.3482004404 -0.6023164392 0.7176226377
0.04567218944 -0.1580976993 0.7293922305 0.5080445409 -0.5778437257 0.6327975988
0.03139555454 -0.1540534496 0.7402119637 0.268669337 -0.6063805819 0.7452504635
0.02784631215 -0.1579764485 0.7380325794 0.2262429744 -0.6284499168 0.742167592
0.04116933793 -0.1615349203 0.7301695943 0.4344326258 -0.6044285893 0.66669631
0.03382133693 -0.1637665778 0.7315570116 0.3272387087 -0.6253960133 0.7081660032
0.03241155669 -0.1679534018 0.7272232175 0.3193310499 -0.6232546568 0.7074545026
0.02694328502 -0.1649947017 0.7325268984 0.2317078114 -0.6348214746 0.7348850369
