# .PCD v0.7 - Point Cloud Data file format
VERSION 0.7
FIELDS x y z normal_x normal_y normal_z
SIZE 4 4 4 4 4 4
TYPE F F F F F F
COUNT 1 1 1 1 1 1
WIDTH 512
HEIGHT 1
VIEWPOINT 0 0 0 1 0 0 0
POINTS 512
DATA ascii
0.005804448389 -0.1259632707 0.571837604 0.7117963433 -0.4661083221 0.524975121
0.009723579511 -0.1143361181 0.5632823706 0.6289641857 -0.4613003433 0.5556873679
0.009298425168 -0.10519021 0.5564137697 0.4652313888 -0.4710389376 0.6214129925
0.00760644814 -0.08995439857 0.545784533 0.1978127509 -0.4845719635 0.7304433584
0.01040849835 -0.09768470377 0.551630795 0.3361936212 -0.4785936177 0.67329669
0.01015826967 -0.08543841541 0.5429933071 0.120519951 -0.4907363653 0.7603585124
0.009321688674 -0.0743394196 0.5349968076 -0.07596302032 -0.5015190244 0.8398718834
0.007694224827 -0.0784695968 0.5372669101 -0.007169698365 -0.4971657097 0.8124424815
-0.08503289521 -0.01236548368 0.5705171824 0.5395124555 -0.5993372202 0.5913045406
-0.08823165298 -0.01659820415 0.5712928176 0.556665957 -0.5847235918 0.589347899
0.03336272389 -0.03091364726 0.5476548076 0.4252822995 -0.7227934599 0.5194731355
0.0312078055 -0.03023655713 0.5531482697 0.342343241 -0.7678736448 0.5118942857
-0.08779218048 -0.06513802707 0.52442801 0.5612179041 -0.5486941338 0.6192049384
-0.08233118057 -0.06319446117 0.519395411 0.5424777865 -0.5610404611 0.6248561144
0.03229025751 -0.04250572622 0.533778429 0.3939262033 -0.5747621655 0.7108989954
-0.01686724089 -0.136146307 0.5897104144 0.4480294585 -0.573656559 0.6849631071
-0.02545542829 -0.13807109 0.5905665755 0.2843491733 -0.6151950359 0.7326860428
-0.01870748401 -0.1404625326 0.5861573219 0.4076360464 -0.5962736607 0.6825769544
-0.03732468933 -0.1448987871 0.5896602869 0.09302216768 -0.65347296 0.7461357713
-0.04276142269 -0.1453225762 0.5884081721 -0.004794755485 -0.648691833 0.7530813217
-0.03020026535 -0.1426402777 0.5896900892 0.1907757074 -0.6334999204 0.7490059733
-0.01265173219 -0.1389195621 0.5843092799 0.5025465488 -0.5655382276 0.6495149732
-0.01973053068 -0.1250868738 0.5993013382 0.3855340779 -0.6083731651 0.690297544
-0.01687246002 -0.1280895621 0.5957818031 0.4484778941 -0.585888207 0.6744652987
-0.01381993573 -0.1230382919 0.5971803069 0.5122237802 -0.5660966039 0.6394341588
-0.01224911585 -0.1185108796 0.6001009941 0.5313102007 -0.5811857581 0.6107691526
-0.09202359617 -0.05025594682 0.545475781 0.6595947146 -0.5076842308 0.5541817546
-0.04975399002 -0.005387967452 0.5549664497 0.08773998916 -0.7097334266 0.6900964379
-0.05129187554 -0.001114240149 0.5600481033 0.1333584338 -0.7488514185 0.6412460804
-0.02984669246 -0.0894882828 0.6347841024 0.1674116403 -0.6344949603 0.7520503402
-0.0342829749 -0.08728089184 0.6381964684 0.08368603885 -0.6246201992 0.7744556665
-0.03071835078 -0.1040018126 0.6234115362 0.2190609574 -0.6451047063 0.7296261191
-0.02880909853 -0.09912493825 0.6270984411 0.2209338397 -0.6403721571 0.7319406867
-0.05817535147 -0.05390650034 0.5119107962 0.2083844692 -0.617401123 0.754935503
-0.06274758279 -0.04977949336 0.5165830255 0.2989221513 -0.6279246807 0.7180223465
-0.03493670002 -0.05475597829 0.5102677345 -0.1547582746 -0.6246606708 0.7644689083
-0.03090051189 -0.05810330063 0.5087174177 -0.2235088348 -0.6118938923 0.7538347244
-0.08544110507 -0.05449297652 0.53101331 0.5938708186 -0.5414544344 0.5949922204
-0.06225848198 -0.05659272894 0.5103057623 0.2767754197 -0.6046105623 0.7453458309
-0.0666064173 -0.05548137054 0.5140061378 0.3525741994 -0.6005856395 0.7145235538
-0.07542489469 -0.06115639955 0.5146425366 0.4712504745 -0.5558072329 0.6815704107
0.01118331961 -0.03707708046 0.5676856637 -0.3364241123 -0.646927774 0.6499233842
0.0132010458 -0.04180427268 0.5651450157 -0.1857785881 -0.7610660791 0.6086478829
0.02078868635 -0.03772120178 0.562929213 0.02189348266 -0.7877933383 0.5730499625
0.02704091743 -0.0441153869 0.5476290584 0.1543336213 -0.6024339795 0.7165948749
0.02772124484 -0.04013843089 0.552015245 0.1781999618 -0.6660360694 0.6575267315
0.0283175949 -0.05125349388 0.5369520187 0.1695755422 -0.4600214958 0.8391305208
0.01951334439 -0.04207796976 0.5587192774 -0.0165768452 -0.7241128087 0.6342545152
0.02715885639 -0.04797773808 0.5424950123 0.1492606401 -0.5318562984 0.7791097164
0.02260186523 -0.04404040426 0.5527102351 0.05126731843 -0.6539930701 0.6860439777
0.03052886575 -0.04323907942 0.5416150689 0.2768802643 -0.589672029 0.7181373239
0.03113610297 -0.05230952427 0.5319640636 0.2385697365 -0.4107549191 0.8735871315
0.005846236367 -0.04322661459 0.5550834537 -0.5235758424 -0.5648307204 0.631469667
0.007251525298 -0.03840651363 0.5638684034 -0.4872629046 -0.5497623086 0.6782469153
0.03048020974 -0.03589273617 0.5497858524 0.3071617186 -0.7114458084 0.5922875404
0.02918856591 -0.03105033003 0.5593822598 0.2637201548 -0.8016322255 0.5091539025
0.03068631515 -0.03904253244 0.5450816751 0.3108076155 -0.6640006304 0.6462761164
0.03384453058 -0.03807595 0.5370163321 0.4509213865 -0.6169186831 0.6311233044
0.02926205099 -0.04669905826 0.5305000544 0.337469399 -0.4802252948 0.8046730161
0.0208506193 -0.05004898086 0.5474157333 0.01692888141 -0.5732820034 0.7605611682
0.01726149395 -0.05029793829 0.5515312552 -0.0524851419 -0.6150671244 0.7330077887
0.02156835422 -0.0535880886 0.5425314903 0.04444365203 -0.5086990595 0.8122292161
0.0272710491 -0.05660104379 0.5321353674 0.1676828265 -0.3889063299 0.8998465538
0.03060187027 -0.03192464635 0.5378589034 0.4462518096 -0.6960772872 0.5564959645
0.03345857188 -0.02866593376 0.5414046049 0.4424380064 -0.7190783024 0.5335504413
0.02488480881 -0.02612783015 0.5597679019 0.07699812204 -0.8952168226 0.3835321367
0.02627660148 -0.02245863527 0.567661345 -0.01551174838 -0.8940773606 0.4100175202
0.02947575971 -0.02415508963 0.5576745868 0.1664220244 -0.8280948997 0.4572067261
0.03086362407 -0.02550937422 0.549902916 0.2978050113 -0.7853663564 0.4845363796
0.01460289489 -0.03300290927 0.5693840981 -0.3601473868 -0.6021814942 0.6556585431
0.02156879194 -0.03324284032 0.5662429333 -0.01132918894 -0.7762923241 0.5551425815
-0.05056934804 -0.1451378167 0.5880886912 -0.110308677 -0.6535049677 0.7466852069
-0.06684628874 -0.1425791979 0.5885207057 -0.3548824787 -0.6187556386 0.6844390035
-0.05852904543 -0.1432759315 0.5874649286 -0.2362365872 -0.6512752175 0.71573174
-0.09345734119 -0.1261721253 0.5719044805 -0.7895091176 -0.404815346 0.4595540166
-0.007859849371 -0.1377090961 0.5816196203 0.5818997622 -0.5445183516 0.6002657413
-0.002935350174 -0.1347063482 0.5787194967 0.6354387403 -0.5125886798 0.5696315169
-0.03797136247 -0.1350540221 0.5971818566 0.1109704673 -0.6514633894 0.7504122853
-0.04214797169 -0.1383941174 0.5946874022 0.007417172659 -0.6650454402 0.7427351475
-0.03265084326 -0.1372312009 0.5933879018 0.1617608368 -0.6371203661 0.7525182962
-0.03724494204 -0.1392661333 0.5923599601 0.09009593725 -0.6443156004 0.752551496
-0.007269429043 -0.05984093249 0.5231851339 -0.4257394969 -0.5441024899 0.7181317806
-0.003448309377 -0.1093562841 0.5965481997 0.6322124004 -0.5530912876 0.5406389236
-0.006234684493 -0.1141723618 0.5975962877 0.6171414852 -0.5578354001 0.553527832
-0.09262517095 -0.03506058455 0.5590918064 0.6549264193 -0.5197168589 0.5484126806
-0.09272036701 -0.0393823348 0.5551541448 0.6585339904 -0.5167632103 0.5468712449
-0.08913543075 -0.03157930076 0.5561796427 0.6517326236 -0.5204181671 0.5508983135
-0.08010195941 -0.1178830042 0.5951603055 -0.5859398842 -0.537840426 0.602983892
-0.07640673965 -0.1178348809 0.5997297764 -0.531707406 -0.5821124315 0.6134400368
-0.06702715904 -0.1190730631 0.6046748161 -0.4025913477 -0.6255289316 0.6659458876
-0.08125602454 -0.08642564714 0.6246503592 -0.5480222702 -0.5370620489 0.6406892538
-0.07567653805 -0.08232097328 0.6321963072 -0.4582615793 -0.5633110404 0.6799981594
-0.07025185227 -0.08146794885 0.6354598999 -0.3874337971 -0.589466691 0.7039980292
-0.07194919884 -0.08676470071 0.6324613094 -0.4289738536 -0.5824688673 0.6884819865
-0.04655729234 -0.008953612298 0.5513719916 0.02650327981 -0.698020041 0.7109828591
-0.05239493027 -0.01012604684 0.5507382751 0.1356931776 -0.695915699 0.6979783773
-0.07918073982 -0.01057833061 0.5659527779 0.5134397745 -0.6247032881 0.5879389644
-0.0644248426 -0.07992852479 0.6390102506 -0.2973111868 -0.6137682199 0.7301878929
-0.05037720874 -0.08526647836 0.6419515014 -0.1105794013 -0.6279931664 0.7671152949
-0.05914815143 -0.07963873446 0.6434475183 -0.254026711 -0.6214460731 0.7406234145
-0.03823105246 -0.0954278633 0.632501483 0.09426487982 -0.6547724605 0.7482056022
-0.03936277702 -0.09057048708 0.6379813552 0.04196213558 -0.6341123581 0.7684495449
-0.04422968253 -0.08601049334 0.6418942809 -0.02821221016 -0.6260631084 0.7787123322
-0.0444749929 -0.09490093589 0.6341053247 -0.001847462263 -0.6497806311 0.7597798109
0.004686818924 -0.03807301819 0.5587722063 -0.5270756483 -0.5479450822 0.6460168362
-0.0631261915 -0.09183986485 0.632597208 -0.3242501318 -0.6114733815 0.7200914025
-0.06424446404 -0.08724341542 0.6346520185 -0.3246015012 -0.610290885 0.7214589119
-0.06649804115 -0.09618110955 0.6273877621 -0.3814007044 -0.6182156801 0.685775876
-0.03383803368 -0.09867474437 0.6292305589 0.1485559642 -0.6562097073 0.7392216921
-0.03176788986 -0.0940657407 0.6321488023 0.1633377522 -0.6472184658 0.7435532808
0.02652517706 -0.02946702763 0.566244781 0.1327476501 -0.8449838758 0.493072629
0.0190673396 -0.0286069084 0.5702287555 -0.2527020872 -0.6988688707 0.5719002485
-0.09189763665 -0.05553343892 0.5406194925 0.6406338811 -0.5163763762 0.5674411654
-0.09267171472 -0.06352734566 0.5346519947 0.6173675656 -0.5256149173 0.5840290189
-0.08970547467 -0.06214502081 0.5289988518 0.5850512385 -0.5373882651 0.6067918539
-0.09026707709 -0.057640668 0.5330269337 0.6041271687 -0.528878212 0.5948852897
-0.02826672792 -0.04287144169 0.522931993 -0.2872427702 -0.6451300979 0.7048569918
-0.03445681185 -0.03944831342 0.5238253474 -0.1824558079 -0.6664981842 0.721853435
-0.02976131439 -0.03726677969 0.5273585916 -0.2605924904 -0.6516832113 0.7069467306
-0.06053838506 -0.04342620447 0.5223119855 0.2707539201 -0.6487401128 0.7075469494
-0.06788533181 -0.04864634573 0.5208115578 0.3748726249 -0.617618382 0.6906331182
-0.02457188256 -0.05315990746 0.5145789385 -0.3608869016 -0.6175974607 0.6977376938
-0.01890419051 -0.05549676716 0.5163918734 -0.4331721663 -0.5831395984 0.6845862269
-0.03018216789 -0.05201711506 0.5137377977 -0.2473388314 -0.6260839105 0.7325533032
-0.03188830614 -0.04760601744 0.5174021721 -0.2212615758 -0.6356076002 0.7342307568
-0.02116300911 -0.06016789004 0.5115557909 -0.4152722061 -0.5825200081 0.6978657842
-0.04818042368 -0.05613712594 0.5073575377 0.06846565753 -0.5980470181 0.7964302897
-0.000266861025 -0.117684938 0.5877683163 0.7039891481 -0.4705823064 0.5315505266
-0.002291180426 -0.1157575324 0.592043817 0.6738272309 -0.5081672072 0.5347478986
0.007563132793 -0.05602557585 0.5434008837 -0.16439192 -0.6522142291 0.728741169
0.01040601358 -0.05447131768 0.5489819646 -0.1505942345 -0.6683630943 0.7098128796
0.01162980031 -0.05145762116 0.5535467863 -0.1488066763 -0.6976140141 0.6817023754
0.01092630997 -0.06838559359 0.5369086266 -0.1229252219 -0.536277771 0.8272376657
0.01559821609 -0.06523306668 0.5362638235 -0.04055148363 -0.4770298302 0.859675765
0.01302254573 -0.06270472705 0.5421975255 -0.1031513959 -0.564770937 0.794587791
0.0140278386 -0.04876284301 0.5571071506 -0.1254162788 -0.7030138969 0.6699987054
0.0170314908 -0.05749783292 0.5435106158 -0.03431396931 -0.5338348746 0.8040409088
0.02059475891 -0.06305963546 0.5329201818 0.0587451905 -0.388602972 0.9148235321
0.0187896993 -0.06062953547 0.5378380418 0.01281554811 -0.4576979876 0.8625959158
0.01103000063 -0.04400932416 0.5598986149 -0.2207895666 -0.7336862683 0.6198201776
0.006943355314 -0.04900937155 0.5492373109 -0.222162053 -0.6926239729 0.670496583
0.003808156354 -0.05043823272 0.543441236 -0.2982535362 -0.6754817367 0.6496513486
0.02830383182 -0.03746679798 0.5333666801 0.3863813579 -0.5927618146 0.6905694604
0.007741805632 -0.06348372996 0.5373221636 -0.1477441341 -0.5823634267 0.7903026938
-0.09747143835 -0.1039228812 0.5794335008 -0.8397324681 -0.3717805445 0.3953803778
-0.0951256752 -0.1081106961 0.5830702186 -0.8192383647 -0.3816176653 0.4267457128
-0.07353824377 -0.1234157383 0.5963928103 -0.491443485 -0.5867798328 0.6401391625
-0.08425418288 -0.1198567003 0.5899317861 -0.6530725956 -0.5039108992 0.5639369488
-0.1020697281 -0.09597101063 0.5759373903 -0.8510114551 -0.3574010432 0.384647429
-0.09621208161 -0.1229999736 0.5679907203 -0.8106999993 -0.3806634843 0.4443604946
-0.1031037495 -0.1098824888 0.557744503 -0.8397269845 -0.3749589622 0.3922565579
-0.1002092957 -0.1170469373 0.5631084442 -0.8217728734 -0.381316334 0.4225206375
0.02337053604 -0.04856973886 0.5272828937 0.2337974906 -0.3728499115 0.8880138397
-0.02495314926 -0.1228797883 0.6039552689 0.2972944379 -0.6546180844 0.6944624782
-0.01612704247 -0.1166320518 0.6048544645 0.4575977921 -0.6147810817 0.6387204528
-0.09076165408 -0.1234280095 0.5801198483 -0.753489852 -0.4382107556 0.4886746705
-0.08977924287 -0.1304448992 0.5753981471 -0.7474122047 -0.4607723951 0.4773442745
0.001470926683 -0.1085103825 0.5945941806 0.6714892387 -0.5217576623 0.523761034
-0.0004783814948 -0.1053448841 0.6008630991 0.6258137226 -0.5545036197 0.5470499396
-0.005164325703 -0.1022806913 0.6104729176 0.5727815628 -0.5789991617 0.5801516771
-0.007191821467 -0.1085743457 0.6048771143 0.5797580481 -0.5820150375 0.5700649619
-0.01098316163 -0.1071062163 0.6091559529 0.4969730675 -0.6081451774 0.6138546467
-0.05168988928 -0.1393356323 0.5915986896 -0.142388165 -0.6508467793 0.7385251522
-0.03382385895 -0.1306534261 0.5986106396 0.1726374775 -0.6432480216 0.745226264
-0.04315878078 -0.1339596361 0.5980119109 0.004829832353 -0.6632332802 0.7452435493
-0.05958605558 -0.1314988136 0.5971346498 -0.2791830003 -0.6275422573 0.7245564461
-0.06367580593 -0.1268675625 0.599483788 -0.3552537262 -0.6320336461 0.6878042817
-0.06374678016 -0.1380470544 0.5882830024 -0.3551121652 -0.6311260462 0.6851003766
-0.06047427282 -0.1355235428 0.5922871232 -0.2933551073 -0.6322908401 0.7138887048
0.01531173382 -0.05465421453 0.5265087485 -0.01284352411 -0.2767750621 0.9433369637
-0.015529342 -0.06111032143 0.5148265958 -0.4708201289 -0.5498731732 0.6893039346
-0.01380367018 -0.0539316982 0.5218758583 -0.4896022081 -0.5711658597 0.6586778164
-0.01032370515 -0.05841410905 0.518079102 -0.4780305624 -0.5376076102 0.6941310167
-0.0008672574186 -0.05566360429 0.5217617154 -0.340251714 -0.4798647463 0.7490357161
0.01050806697 -0.05254823342 0.5237309337 -0.08472443372 -0.377656281 0.8594087958
0.006110345013 -0.05056390166 0.5261607766 -0.1755610108 -0.4342545271 0.7997783422
-0.00221945974 -0.05176174641 0.5258030295 -0.3599744439 -0.5149034262 0.7131929398
-0.09040652961 -0.02876296453 0.5605280995 0.6272583604 -0.5355741382 0.5640506148
-0.08844497055 -0.1059421748 0.5972182155 -0.7338624001 -0.4654254019 0.4931777716
-0.09529257566 -0.1030021012 0.5845490694 -0.82766819 -0.3806741536 0.411059469
-0.06853117049 -0.1101671234 0.6121044159 -0.4221124351 -0.6181278825 0.6570078135
-0.07261900604 -0.1194615737 0.602404654 -0.4699766934 -0.6040464044 0.6434900761
-0.07528500259 -0.1134358719 0.6043319106 -0.516802609 -0.590844214 0.6192464232
-0.0757791847 -0.1093761101 0.6073151231 -0.5225272775 -0.5793489218 0.6226773262
-0.06623127311 -0.1157369837 0.6086288691 -0.3914311528 -0.6266188622 0.672104001
-0.01303080097 -0.03940133378 0.5365522504 -0.495526433 -0.5969032049 0.6279380322
0.002871247707 -0.04370235652 0.5501627326 -0.5441991687 -0.5913046598 0.5910275578
-0.001568346634 -0.03930249438 0.5480828881 -0.5800185204 -0.5585174561 0.5907003284
-0.08229310811 -0.02943553403 0.5504353046 0.5837700963 -0.5531486273 0.5930335522
-0.08799138665 -0.05116957426 0.5352577567 0.6196553707 -0.5253396034 0.5823885798
-0.08740288019 -0.08615671098 0.6168458462 -0.6214537024 -0.5357006192 0.5645376444
-0.006817306392 -0.0361995846 0.5441781282 -0.5837888122 -0.5624799728 0.5822263956
-0.01210115012 -0.03551997244 0.5404326916 -0.5047165751 -0.5879453421 0.6294000149
0.006180271506 -0.03297973052 0.5389722586 -0.07753223926 -0.6196474433 0.6276348829
0.01157021243 -0.03099761717 0.5395973921 0.0444287993 -0.6588042974 0.5870876312
0.02569538541 -0.03315365687 0.5365030169 0.3507095575 -0.6663319468 0.6065502763
0.0005332393339 -0.03353759646 0.5392951369 -0.2025548816 -0.5982705355 0.6441386938
0.02243838459 -0.02841825224 0.539945364 0.2877770364 -0.7194243073 0.529571116
0.01740139164 -0.03181343526 0.5383677483 0.1710028946 -0.6628723145 0.5938524008
-0.05878188461 -0.009370314889 0.553108871 0.2552541196 -0.6908096075 0.6714403629
-0.06208994612 -0.006303405389 0.5569269061 0.3006780744 -0.6933189034 0.6527308822
-0.0595061034 -0.002221277915 0.5604088902 0.2626105845 -0.7314302325 0.626273632
-0.05528412759 -0.00453495793 0.5565707684 0.2044694126 -0.7187387943 0.6637097597
-0.0663870573 -0.004881257191 0.5610280633 0.3522416055 -0.6951273084 0.6231178045
-0.07201310247 -0.005183805712 0.564291954 0.444432795 -0.6604019403 0.6024978757
-0.07332571596 -0.009342786856 0.5610052347 0.4769411683 -0.6354653835 0.6053135395
-0.06779391319 -0.009420259856 0.5576207042 0.3863221705 -0.659711957 0.63783741
-0.07404707372 -0.01374323852 0.5578769445 0.4914210439 -0.6162680984 0.6121217012
-0.009639522061 -0.02689566649 0.5496619344 -0.5721934438 -0.5507804155 0.6071378589
-0.005267188419 -0.03036599793 0.5437911153 -0.3887225091 -0.5923868418 0.607950747
0.00615622336 -0.0284766648 0.5439673066 -0.1469332129 -0.6392037868 0.5636645555
-0.002739602467 -0.02812276594 0.5475689173 -0.4238185883 -0.5794751644 0.5833337903
0.006344119553 -0.026012877 0.5493702292 -0.2547399104 -0.6051905751 0.5497171879
0.01815210097 -0.0264607612 0.5444280505 0.1086066514 -0.6860580444 0.5201982856
0.0002773134329 -0.02566364408 0.5521813631 -0.4467829764 -0.5618706942 0.5643543005
-0.004658029415 -0.03309665248 0.5490691066 -0.6249925494 -0.5302797556 0.5716730952
-0.07385271788 -0.09025979042 0.6286245584 -0.4651861787 -0.5748074651 0.671841383
-0.07638711482 -0.09203376621 0.623616755 -0.5104466081 -0.5656504631 0.6467274427
-0.06143622473 -0.08503717929 0.6394125819 -0.2650307715 -0.6200823188 0.7370199561
-0.05612472445 -0.0885945186 0.6401646733 -0.2167377919 -0.6228372455 0.7513677478
-0.01566861011 -0.09482534975 0.6256108284 0.3917062581 -0.5983676314 0.6979224086
-0.01879980974 -0.091194354 0.6301034093 0.32874915 -0.6054234505 0.7195307016
-0.0244963821 -0.0905746147 0.6324667335 0.2618812919 -0.6222441792 0.7359474897
-0.02403022349 -0.0956961289 0.628134191 0.2922527492 -0.6227998734 0.7248978019
-0.02199278399 -0.1019729748 0.6225771904 0.3344675601 -0.6281052828 0.699239552
-0.002116987249 -0.02444623783 0.5603979826 -0.6131741405 -0.5223718286 0.5906069875
-0.004193684086 -0.02655110508 0.55573982 -0.6128361225 -0.5240324736 0.5888331532
-0.001118148444 -0.03159855679 0.5554403663 -0.6109513044 -0.5222197771 0.5888980031
0.00404330669 -0.03122506477 0.5643123388 -0.5152091384 -0.539486587 0.6621906757
-0.01449021138 -0.04545848817 0.5286958218 -0.4722109437 -0.6012021303 0.6441773176
-0.006217321381 -0.0522852093 0.5314385891 -0.4864015877 -0.5993381739 0.6354053617
-0.01134170499 -0.05045571178 0.5277782679 -0.4766628146 -0.5958256125 0.6457996964
-0.01829555631 -0.04647413269 0.5250823498 -0.4272304773 -0.6098101735 0.6645502448
-0.0201320108 -0.04961993918 0.5212027431 -0.4044792056 -0.6056985259 0.6792641878
-0.02495250665 -0.0485715121 0.5185871124 -0.3450701535 -0.6257376075 0.696865201
-0.07952541113 -0.05745258927 0.521471858 0.5432979465 -0.558311522 0.6263455749
-0.08388480544 -0.05825216696 0.5254417658 0.5778250098 -0.5438383222 0.6082012653
-0.07768579572 -0.05238539726 0.5245997906 0.5425646901 -0.5576773882 0.6274777055
0.003230392234 -0.1160179377 0.5838527679 0.7174552679 -0.4580592811 0.5247917771
0.004546393175 -0.1176953688 0.5790528059 0.7203365564 -0.4558534324 0.5227180719
0.009557087906 -0.1222704053 0.5683889985 0.7225686312 -0.4533209503 0.5218209624
-0.01227333769 -0.1341019124 0.5871709585 0.5249581933 -0.5502730012 0.6485387087
-0.01376701985 -0.1302125454 0.5910835862 0.5068478584 -0.5527766943 0.6594340801
-0.02308822237 -0.1329481602 0.593208015 0.341249615 -0.5929478407 0.7225261331
0.003053870285 -0.1013680175 0.5927103758 0.6791733503 -0.5293628573 0.5072975755
0.00476227887 -0.1077635139 0.5884749889 0.7172806263 -0.4939443171 0.490465194
0.006441880483 -0.1123082191 0.581076324 0.7253768444 -0.4756115079 0.4971047342
0.00897314772 -0.1170614138 0.5721473694 0.7246106267 -0.4636213779 0.5095459223
0.01444092765 -0.06062921509 0.5288546085 0.02697823569 -0.3470133245 0.9364007115
0.02022889629 -0.05845193565 0.5283183455 0.02617723309 -0.2830824256 0.9567523003
0.001065738034 -0.06535828859 0.5299127698 -0.3471377194 -0.5759804845 0.7293159366
-0.0005504069268 -0.05954077467 0.5322833061 -0.4206239283 -0.5916644335 0.6756860018
0.003305870341 -0.06179911271 0.535056293 -0.2599031031 -0.5763280392 0.7457740903
0.003249497619 -0.0567538403 0.5381340384 -0.2515052855 -0.6278679371 0.715303421
0.004877616186 -0.07151605189 0.5305498242 -0.2110899538 -0.5470499992 0.8027573824
-0.003807445522 -0.05854716897 0.5274892449 -0.4537526667 -0.5579509139 0.6882120371
-0.09256730974 -0.1082246453 0.5890453458 -0.7890620232 -0.4128791094 0.4536908865
-0.0923364833 -0.1131934673 0.5844998956 -0.7902346253 -0.4005288482 0.4607765675
-0.08839773387 -0.1099924222 0.5939165354 -0.7064090967 -0.4695093334 0.5194526315
-0.08899737895 -0.1125748679 0.5884617567 -0.7332971692 -0.4396460652 0.5060370564
-0.08499844372 -0.1304750592 0.5794038773 -0.6699950099 -0.5064135194 0.5370795727
-0.07000872493 -0.139958322 0.5851089954 -0.4532821774 -0.620115757 0.6293071508
-0.0780761987 -0.1351487637 0.583088398 -0.5576938391 -0.5815173388 0.5828330517
-0.09908409417 -0.1124340147 0.5686677098 -0.8357792497 -0.3745246828 0.4013780057
-0.1011473164 -0.1035326794 0.5737908483 -0.8472670317 -0.3647604585 0.3860939741
-0.1025363207 -0.09861019254 0.5686485171 -0.8544589877 -0.3583771586 0.3760203421
-0.1034357771 -0.1060064808 0.5618490577 -0.8424936533 -0.3716717064 0.3894111514
-0.1017595306 -0.1069019735 0.5668322444 -0.8427835703 -0.3708231747 0.3900042474
-0.09705404937 -0.1143901348 0.574794054 -0.8349227309 -0.3748899996 0.4028395712
-0.09720098227 -0.1092945784 0.5768725276 -0.8334078789 -0.3743498027 0.4050506651
-0.09288986772 -0.1208831519 0.5742456913 -0.783028245 -0.4120340943 0.457613945
-0.08925495297 -0.1176102534 0.583828032 -0.7534118891 -0.4228307903 0.500107646
-0.09340243787 -0.1172544807 0.5797458887 -0.7968798876 -0.3993600607 0.4507503808
-0.02164016291 -0.1177078858 0.6079154611 0.3590763807 -0.6466405988 0.6709025502
-0.02275715582 -0.113807641 0.6120607257 0.3360240459 -0.6499355435 0.6768154502
-0.01028932724 -0.1132199764 0.6027636528 0.5508942604 -0.5910018682 0.58651793
-0.01453250367 -0.1114982069 0.6088222265 0.4650102556 -0.6158877611 0.6354590058
-0.009991662577 -0.1011605039 0.6148816943 0.5002121925 -0.6030040979 0.6183573604
-0.01721009612 -0.09992705286 0.6204203963 0.3858005404 -0.6190891266 0.6763664484
-0.01261502877 -0.09732150286 0.6204505563 0.4425202906 -0.6061300635 0.6596282125
-0.07914789766 -0.1302624643 0.5850553513 -0.5859858394 -0.5383158326 0.5974953771
-0.08262223005 -0.1246685535 0.5868426561 -0.6459323168 -0.5118865371 0.5630834103
-0.07934856415 -0.1226244494 0.5924751759 -0.5845259428 -0.5502848029 0.5934730768
-0.07492108643 -0.1374245733 0.5869549513 -0.5007682443 -0.5881118774 0.629094243
-0.0007075808244 -0.06887432933 0.525062561 -0.3379403055 -0.5584745407 0.748249054
-0.006890056189 -0.06582280993 0.5208514333 -0.39575091 -0.5531455874 0.7238119245
0.001910184626 -0.06251262128 0.5230995417 -0.260727942 -0.4509674609 0.8013148904
0.007108111866 -0.0655593276 0.5277543068 -0.1437328458 -0.462706238 0.8442557454
-0.002460672287 -0.06148149073 0.5199385285 -0.3976755142 -0.4590120018 0.752738595
0.008051659912 -0.05886356533 0.5244873762 -0.1719338745 -0.3418364823 0.8754641414
-0.08861289918 -0.02369829826 0.5639942884 0.5883904099 -0.5605818033 0.5824911594
-0.08312801272 -0.02408020757 0.5560581684 0.5860671401 -0.5602757931 0.5848428011
-0.07874553651 -0.01616287418 0.5606094599 0.5311513543 -0.5956568122 0.6018233895
-0.08357799798 -0.0212952923 0.5611143708 0.5592547059 -0.5752889514 0.5957966447
-0.09276363254 -0.02813428268 0.5668219328 0.624810338 -0.5387340784 0.564000845
-0.09381501377 -0.02201059833 0.5742293596 0.5874816775 -0.5592446327 0.5847058892
-0.08604753762 -0.01876497269 0.5661341548 0.5585014224 -0.5838652253 0.5885436535
-0.09099646658 -0.02183406055 0.5687431693 0.5778761506 -0.569355309 0.5838920474
-0.08182230592 -0.1123105884 0.6003218293 -0.6171166301 -0.5390169621 0.5725286007
-0.08424666524 -0.1145196781 0.5952518582 -0.6313912868 -0.5135840178 0.5808598399
-0.003288409673 -0.04538592324 0.5405336618 -0.5409838557 -0.6299704909 0.5544332266
-0.007291492075 -0.04583722353 0.5358822942 -0.5124239922 -0.608043015 0.6035500169
0.005195622332 -0.04645146057 0.5290535688 -0.156154722 -0.4303044379 0.8050332069
0.01510176249 -0.04893540591 0.5266892314 0.02881980129 -0.3440199196 0.8968443871
-0.01128722355 -0.0432908982 0.5322458148 -0.4679990113 -0.579179883 0.649091661
-0.004845548421 -0.04567138106 0.5303828716 -0.3607358038 -0.5291859508 0.7010666728
0.02247039229 -0.03795653209 0.5340977311 0.2397432327 -0.6136640906 0.6525187492
0.01606085896 -0.04390631616 0.5309457183 0.04947169125 -0.482953757 0.7584853172
0.01051837672 -0.04581822827 0.5306809545 -0.1023772657 -0.46489501 0.7595649362
0.0008081361884 -0.04621938616 0.5324614644 -0.3568443358 -0.519867301 0.6788741946
0.02336537465 -0.04247250408 0.5304680467 0.2453353703 -0.4748545289 0.7874779105
-0.0003026456397 -0.05135330558 0.5383135676 -0.4093239009 -0.6346579194 0.6331470609
0.009009392001 -0.03736163303 0.5363379121 -0.06544413418 -0.6102681756 0.6324213147
-0.005842826329 -0.04048047215 0.5367899537 -0.4502834976 -0.5833367705 0.6200855374
0.003633682849 -0.04096927121 0.5353135467 -0.2417093962 -0.5994821787 0.6189078689
0.0007866487722 -0.04593352601 0.5442353487 -0.4927385151 -0.6687372327 0.5420565605
-0.08931548148 -0.04172910377 0.5489546657 0.648868084 -0.5173552036 0.5572402477
-0.08540892601 -0.03571691364 0.54817909 0.6188361049 -0.5332983136 0.5758440495
-0.08834336698 -0.03573179245 0.5522619486 0.6465069056 -0.5229805708 0.5552194715
-0.0892554 -0.0452388674 0.5429694653 0.6333594322 -0.5207105875 0.5716153383
-0.08063074946 -0.1072681248 0.6046662927 -0.5982955694 -0.548959434 0.578586638
-0.09184703231 -0.09128303081 0.6048487425 -0.732706368 -0.4765930772 0.4849364758
-0.02416938171 -0.02552646399 0.5403527021 -0.3401181698 -0.6271395087 0.6988083124
-0.0208109282 -0.02944544517 0.5392968655 -0.3960278332 -0.6098586321 0.6795546412
-0.01673642918 -0.02576914988 0.54508394 -0.4528256655 -0.5895131826 0.66755265
-0.0661675781 -0.1074743122 0.6164335012 -0.3782352209 -0.6366967559 0.6717472076
-0.07164334506 -0.1031065732 0.6183966994 -0.4653176069 -0.6087402701 0.642172873
-0.07372796535 -0.09690143168 0.622197032 -0.4803932607 -0.5927103758 0.6461701989
-0.06590941548 -0.1023548171 0.622281909 -0.3812575936 -0.6241258383 0.6799997091
-0.08987294137 -0.08868841082 0.6109356284 -0.6704482436 -0.5299592614 0.5188555717
-0.08554726839 -0.09143154323 0.6138447523 -0.643052578 -0.5250406861 0.5568386316
-0.08627269417 -0.09489559382 0.6092115641 -0.6781499982 -0.5099571943 0.527610302
-0.05858959258 -0.09209506214 0.6356063485 -0.2608915269 -0.617644608 0.7380464077
-0.05255438015 -0.09219989181 0.6348832846 -0.1322037727 -0.6436398029 0.7463434339
-0.04792543501 -0.09091344476 0.6399267316 -0.07786046714 -0.6294308901 0.7704163194
-0.01121430378 -0.0221254807 0.5529491305 -0.5545738339 -0.5601692796 0.6146249175
-0.003500435734 -0.01979760639 0.5554904342 -0.4703158438 -0.5797725916 0.5682444572
0.01149783749 -0.0241508428 0.5480954647 -0.07088518143 -0.6532565355 0.5343787074
0.001167699229 -0.02391396277 0.5650794506 -0.5567239523 -0.5176922083 0.644503355
-0.03676978499 -0.04414426163 0.5195711851 -0.1483100355 -0.6570817232 0.7340753675
-0.04499971867 -0.04184130579 0.5206437707 0.01208573859 -0.6701622009 0.7415842414
-0.05157051235 -0.04764711112 0.5158076286 0.1086829603 -0.6439498067 0.7537116408
-0.05298484862 -0.05169773474 0.5127097368 0.1246160567 -0.6304876208 0.7633615136
-0.04281283915 -0.05182681978 0.5116299391 -0.04635290056 -0.6393619776 0.7655488253
-0.04147210717 -0.04820024967 0.5150443912 -0.04355629161 -0.6481943727 0.756141901
-0.03594660759 -0.05049420893 0.5140024424 -0.1389873028 -0.6319362521 0.7614800334
0.0003237586643 -0.1219867319 0.5822774768 0.7106242776 -0.4544273913 0.5364219546
-0.006016027182 -0.1218285114 0.5906924605 0.6178745031 -0.4965763688 0.6053729653
-0.003267207881 -0.1256406456 0.5849655867 0.6771488786 -0.4871646464 0.5512636304
0.01184966601 -0.06966798753 0.5315887332 -0.1218741089 -0.4891388416 0.8497868776
0.01701047458 -0.06534604728 0.5291590691 -0.06238580123 -0.4244972169 0.8768692017
-0.01445100922 -0.1061309353 0.6139258146 0.4403893054 -0.6274567246 0.6420215368
-0.01907775924 -0.1096061766 0.6143510938 0.4019100368 -0.6289231181 0.6623904109
-0.02895379066 -0.1086159721 0.6194085479 0.2262444645 -0.6545060873 0.7172275186
-0.02822535858 -0.1119304523 0.6153330207 0.2415440083 -0.6629279256 0.7057747245
-0.02118086442 -0.1054481864 0.6179010868 0.345356375 -0.6373155117 0.6847827435
-0.05080284178 -0.1255107075 0.6039361954 -0.1226092577 -0.6640586257 0.7199210525
-0.06145315617 -0.1199704409 0.6072810292 -0.3103219569 -0.6458520293 0.6904650927
-0.0548847653 -0.1217216477 0.6092299819 -0.2005452216 -0.6739603281 0.709010303
-0.05709996447 -0.1169899032 0.6125384569 -0.231054008 -0.6629006267 0.7065611482
-0.06215662882 -0.1145902425 0.6122140288 -0.3227250576 -0.6428383589 0.6891159415
-0.05207483098 -0.1155461818 0.6148639917 -0.1240206361 -0.6683177352 0.728978157
-0.07511603087 -0.1302329302 0.5882086158 -0.533703506 -0.5698689818 0.6190712452
-0.07098762691 -0.1341950893 0.5876131654 -0.4730567932 -0.5980232358 0.6405482292
-0.06604553014 -0.1307828575 0.5953694582 -0.3881814778 -0.6088578701 0.6909966469
-0.07116805762 -0.1333970279 0.5931878686 -0.4425182045 -0.6079947352 0.6585825086
-0.06852510571 -0.1258795112 0.5979215503 -0.4249199629 -0.604847908 0.6725236773
-0.08573457599 -0.09903307259 0.6061492562 -0.6809364557 -0.5096838474 0.5248574615
-0.07204883546 -0.1055357233 0.6132205725 -0.471322298 -0.5988650918 0.6353040934
-0.05047794431 -0.03003381751 0.531715095 0.1036643237 -0.6737496853 0.7262811065
-0.06293998659 -0.03089484014 0.534457922 0.3204990923 -0.6483262181 0.6898031235
-0.05922843143 -0.03426467627 0.5303271413 0.2489285618 -0.664385736 0.7017540336
-0.05311496928 -0.03512981907 0.5275579095 0.1467606276 -0.6728736758 0.7219466567
-0.04522436857 -0.031741485 0.5293547511 0.009212963283 -0.6825322509 0.7299083471
-0.07802173495 -0.03487084806 0.540951848 0.536559999 -0.5679427385 0.6230985522
-0.08461678028 -0.04183585569 0.5429230928 0.5897558331 -0.5510636568 0.5892314315
-0.07689395547 -0.03892378509 0.5372812748 0.5224634409 -0.5802885294 0.6219805479
-0.08639085293 -0.0482031554 0.5397949815 0.610229373 -0.5355536342 0.5823181272
-0.07964457572 -0.04372270033 0.5352752209 0.5628350973 -0.5660486221 0.6010345817
-0.07032177597 -0.04283131287 0.5278443098 0.430752337 -0.6157454848 0.6535337567
-0.07403534651 -0.04057922587 0.5324218273 0.4937797189 -0.5935717225 0.6350388527
-0.0652802363 -0.03800527751 0.5292220116 0.3564403653 -0.6378466487 0.6782106161
-0.07615102828 -0.04673593491 0.5281535387 0.5170627236 -0.5850337744 0.6228607893
-0.08304845542 -0.04805369675 0.5344567299 0.5886042714 -0.5490249395 0.5924848318
-0.09482557327 -0.09533134103 0.5962025523 -0.7651543021 -0.450045675 0.4602632821
-0.09560432285 -0.08930938691 0.5999802947 -0.7701102495 -0.44552356 0.4544946849
-0.09180236608 -0.10076949 0.5957709551 -0.7528054714 -0.4546388984 0.4731277227
-0.09348840266 -0.1002051383 0.590144515 -0.7906159759 -0.4168121219 0.4388447404
-0.09872670472 -0.09516793489 0.5833951831 -0.8418594003 -0.3697194755 0.3923999965
-0.09832348675 -0.09488220513 0.5900752544 -0.8054577112 -0.4097640216 0.4241345525
-0.09833753109 -0.09033679962 0.5932766795 -0.8053923845 -0.4125383794 0.4245817959
-0.1015261039 -0.09938839078 0.5806844831 -0.8475946784 -0.3618431091 0.3876962066
-0.08463475108 -0.1040840372 0.6032993793 -0.6594449878 -0.5194392204 0.5425339937
-0.0882832855 -0.100729987 0.6008268595 -0.6971327662 -0.4954819083 0.5126145482
-0.0913393572 -0.09618385881 0.6002684832 -0.734806478 -0.473787725 0.4824192226
-0.0485769771 -0.01590046473 0.5450816154 0.07520766556 -0.6839261651 0.7204113007
-0.05422047526 -0.01830978505 0.5435471535 0.1790697277 -0.6764781475 0.7122941613
-0.05384685844 -0.02270917222 0.5395851135 0.1715614051 -0.6739834547 0.7153684497
-0.05237111077 -0.02633285522 0.5355107188 0.1403464824 -0.6682677269 0.7268308401
-0.04805049673 -0.02344965935 0.5382148027 0.06528196484 -0.6731370687 0.7317942381
-0.05665686727 -0.01350446325 0.548212707 0.2163121998 -0.6804778576 0.6982964277
-0.0627496168 -0.01372264698 0.5505705476 0.3185333312 -0.6666995883 0.6686756611
-0.06603354216 -0.01757957973 0.5486437082 0.3641821146 -0.6352356076 0.6771774888
-0.06889679283 -0.01457498781 0.5531100035 0.4163419306 -0.6421208382 0.6389905214
-0.07826566696 -0.02720925398 0.5485336185 0.536883831 -0.5752987862 0.6160398126
-0.07914166152 -0.02291725203 0.5524150133 0.5428273678 -0.5810016394 0.6054286957
-0.07155164331 -0.01956018433 0.5500085354 0.4585260153 -0.6128817201 0.6381841898
-0.06843115389 -0.02170776762 0.5460612774 0.4029050767 -0.622436583 0.6658164859
-0.07328139246 -0.0240699295 0.5480944514 0.4679042697 -0.6033188701 0.6411421895
-0.07544080168 -0.03047965281 0.5427580476 0.5026013851 -0.5850944519 0.6353448629
-0.07076825202 -0.02696878277 0.5430513024 0.4340092838 -0.6112288237 0.656617403
-0.06561304629 -0.0255804304 0.5411671996 0.3570501804 -0.6361715198 0.6825481653
-0.06836570054 -0.03040053323 0.538173914 0.407161206 -0.6219052076 0.6633656621
-0.07157059759 -0.03440387174 0.5365535617 0.4591366351 -0.6035506129 0.6484943032
-0.021479927 -0.03395520896 0.5348704457 -0.3863457739 -0.6170092821 0.6811945438
-0.01711382158 -0.03336856514 0.5382107496 -0.4423128366 -0.5964338183 0.6642680764
-0.01978244446 -0.04160887003 0.5285952687 -0.4055818915 -0.6189356446 0.6695032716
-0.01823861338 -0.03848239407 0.5328675508 -0.4367815256 -0.6026563048 0.6648342013
-0.02368208207 -0.0368838422 0.5307790637 -0.3630978763 -0.6258067489 0.6871365309
-0.03675994277 -0.02586827613 0.5360851884 -0.1251502335 -0.6722869277 0.7270984054
-0.04252719134 -0.0237321835 0.5377651453 -0.02952604555 -0.6765627861 0.7326683998
-0.03691952303 -0.02035629377 0.5413531065 -0.1432711482 -0.6745781898 0.7212355137
-0.04162774235 -0.01495702751 0.545876205 -0.04799467325 -0.687243104 0.7203403711
-0.08261149377 -0.09693226963 0.6132563949 -0.6270153522 -0.5365918875 0.5636241436
-0.07890447229 -0.09911067784 0.6167315841 -0.5854181051 -0.5593657494 0.5861087441
-0.0801506862 -0.1027420014 0.6088573933 -0.5993762612 -0.5466160774 0.5832118988
-0.08030814677 -0.09364879876 0.6192008257 -0.5792810321 -0.5498829484 0.6011734009
-0.0497991927 -0.09636995196 0.6328098774 -0.08604517579 -0.65079844 0.7513677478
-0.0005683197523 -0.01879845746 0.5684087873 -0.5379193425 -0.5098105073 0.670527041
0.01042510476 -0.02075058036 0.552618742 -0.111104846 -0.6489565372 0.5458596945
-0.006449570879 -0.01713665761 0.5600556135 -0.5715451241 -0.5600456595 0.5831388831
0.002828487894 -0.02004829422 0.5540571809 -0.3003100157 -0.6140056849 0.5572279096
-0.0004741052981 -0.0170889087 0.5601634979 -0.4344495833 -0.5842437148 0.5777109265
0.007721025497 -0.01942718774 0.5584619641 -0.241649583 -0.6573936343 0.5360836983
0.01266518235 -0.02165349945 0.5615503192 -0.1879867613 -0.7558470368 0.4687530994
0.0250479579 -0.02619716339 0.5541596413 0.1601256877 -0.8484335542 0.417580992
0.0245988667 -0.0256074518 0.5482009053 0.2354802042 -0.7816811204 0.4677915871
0.01673374325 -0.022690285 0.5524382591 0.02082697488 -0.7182211876 0.5038428307
0.02607596852 -0.02586413734 0.5431383848 0.336078614 -0.7501596808 0.4941548407
0.01717375964 -0.02333801799 0.5593014359 -0.0674848184 -0.7940585017 0.4466883838
0.009162474424 -0.03123803437 0.5707505941 -0.4893503487 -0.5291824341 0.6931450963
0.00472141197 -0.02427764796 0.5692051649 -0.4934591949 -0.507329464 0.70624125
0.006544974167 -0.01972377673 0.5730753541 -0.4588812292 -0.529945612 0.6934814453
0.01338569913 -0.02666936629 0.5714156032 -0.4383008182 -0.5746039152 0.6586261988
-0.009755810723 -0.008271244355 0.5676388144 -0.469181031 -0.6181720495 0.6257373691
-0.004876237828 -0.01451490168 0.56524086 -0.5797342062 -0.553994 0.5972582698
-0.003579675453 -0.01177303772 0.5696501136 -0.5335027575 -0.5567342639 0.6349778771
0.001550952555 -0.01482674759 0.5735291839 -0.4814959466 -0.5140147805 0.7015635371
0.02005935088 -0.02154143341 0.569393456 -0.1388440132 -0.8542614579 0.4296045303
0.01315693278 -0.0173043143 0.5717276931 -0.2788146436 -0.7440989614 0.520160377
0.02103534527 -0.02522733808 0.5650081635 -0.070406802 -0.9025191665 0.3709499836
0.01515594963 -0.02224913612 0.5660332441 -0.1855621189 -0.8159406781 0.4358626306
0.005021379795 -0.01654746197 0.568772018 -0.3831508458 -0.6597192883 0.5609781742
0.009408988059 -0.01946707442 0.5668144822 -0.2983302176 -0.7328986526 0.4963089228
-0.009092314169 -0.1293158084 0.5872861743 0.5800383687 -0.5243974924 0.6193635464
-0.007752452046 -0.1323864311 0.5831115246 0.5928881764 -0.5244306922 0.5986717343
0.002172924811 -0.1296090931 0.5762386918 0.6990782619 -0.479526937 0.5303259492
0.005344933365 -0.1208796799 0.5728002787 0.719327867 -0.4575169384 0.5224214196
-0.00418526819 -0.103220202 0.6053994894 0.5845416188 -0.5740630627 0.5719895959
-0.004694585688 -0.09760220349 0.6130415201 0.5532715917 -0.5709122419 0.6054941416
0.001592655899 -0.09908480942 0.5989858508 0.6371032 -0.5524445772 0.5339834094
-1.316621001e-05 -0.09832568467 0.6100836396 0.5694647431 -0.5829026103 0.579141438
0.001567956642 -0.09961524606 0.6042028666 0.6110010147 -0.558785975 0.5585206747
-0.05503195897 -0.1287563443 0.6020010114 -0.2044884115 -0.6554990411 0.7250618339
-0.0543117933 -0.1336143464 0.5975287557 -0.16632393 -0.6459057927 0.7447289824
-0.04998155311 -0.1310480386 0.6008335948 -0.1029165536 -0.6635834575 0.7383880615
-0.0454005748 -0.142764464 0.5918691158 -0.04480177909 -0.6652010083 0.7451259494
-0.02899620309 -0.1160273701 0.6118596792 0.2499786317 -0.6665245891 0.6982517242
-0.03434757888 -0.1135129482 0.6163336635 0.1636206508 -0.6720528007 0.7220941782
-0.02899261005 -0.1205031127 0.6079776883 0.2418338656 -0.6684857011 0.6983194947
-0.03230476752 -0.1245717108 0.6041830778 0.2090835422 -0.664119184 0.7159210443
-0.039429795 -0.1291737556 0.6019298434 0.09975621104 -0.6541319489 0.7490685582
-0.04337658361 -0.1268426925 0.6041571498 0.01926188171 -0.6697837114 0.7401278019
-0.05347636342 -0.1045762822 0.6245222688 -0.1473603249 -0.6788767576 0.7167179585
-0.05234016851 -0.1001983806 0.6283226013 -0.1154281646 -0.6647176743 0.7345129251
-0.04739132524 -0.1027913392 0.6268540621 -0.04372181371 -0.6701091528 0.7382631898
-0.04091740027 -0.103025347 0.6259394288 0.07630166411 -0.6654430628 0.7383576632
-0.035263028 -0.1027031764 0.6258744597 0.1493725181 -0.6577133536 0.737336874
-0.04130905494 -0.0994688645 0.6295998096 0.04345275834 -0.660738647 0.7458513975
-0.03249718621 -0.03089266457 0.5320908427 -0.202976495 -0.6663079858 0.7150789499
-0.02696992457 -0.03246632963 0.5330355167 -0.288875252 -0.6473014951 0.7014241815
-0.02938849106 -0.02737261914 0.5365822315 -0.2608420253 -0.6486130953 0.7102200985
-0.01752278581 -0.01856008172 0.5502651334 -0.452870965 -0.6005219221 0.657828033
-0.01289119106 -0.01618197002 0.5562152267 -0.5138863921 -0.5935205817 0.6148206592
-0.009509094991 -0.0127276564 0.5619183183 -0.5493936539 -0.5873491764 0.590053618
-0.01451892778 -0.009393197484 0.560706079 -0.4597527385 -0.6422540545 0.6081928611
-0.03547155857 -0.006240776274 0.5546137691 -0.1490680277 -0.7017659545 0.6962193251
-0.03872856498 -0.009381369688 0.5513057113 -0.1020700037 -0.6964563727 0.7059305906
-0.04383580759 -0.002650171751 0.5580301881 -0.009852653369 -0.7352154851 0.6750665307
-0.0347058624 -0.001402934431 0.5598248839 -0.1610116959 -0.7442641258 0.6461053491
-0.05709834769 -0.1102938354 0.6182973981 -0.2133027464 -0.6638665795 0.7156362534
-0.04676390812 -0.1154295802 0.6150759459 -0.03055336885 -0.6760261655 0.7330070138
-0.04966975749 -0.1194323599 0.6118342876 -0.09550616145 -0.6815581918 0.7201831341
-0.04483212158 -0.1226935983 0.6086392403 -0.004448274616 -0.684706986 0.7280067801
-0.06155208126 -0.1233671755 0.6029062867 -0.3200532496 -0.6467670202 0.6808818579
-0.03778245673 -0.1240844429 0.6058682203 0.1291900873 -0.672673285 0.7237278819
-0.03650732711 -0.1175088286 0.6122066379 0.1473229229 -0.6757640839 0.7194125652
-0.04257139191 -0.1177419499 0.6129699945 0.04093024507 -0.6824234724 0.7255267501
-0.03214112297 -0.01500309352 0.5468555093 -0.2077428102 -0.6744045019 0.705173552
-0.02742077596 -0.01706052758 0.5460497737 -0.2818254828 -0.6521885991 0.7011706829
-0.02769212797 -0.02167223394 0.5424287915 -0.2817529142 -0.6438174248 0.7075469494
-0.02433998697 -0.006076023448 0.5584574938 -0.3284592927 -0.6858163476 0.6476578712
-0.0200981684 -0.004024740309 0.5627760887 -0.3910775483 -0.6872982383 0.6107696891
-0.02348293178 -0.01234486885 0.5529361367 -0.3254315257 -0.6550399661 0.6803030968
-0.01808730513 -0.0139510408 0.5549361706 -0.420997262 -0.6248121262 0.6516891718
-0.01924689114 -0.008999456652 0.5577481389 -0.3911563456 -0.6708596945 0.6280633807
-0.03281842545 -0.01086683664 0.5507786274 -0.1995275468 -0.6875792146 0.6957039237
-0.02793053165 -0.009083379991 0.5541192889 -0.2710658014 -0.6817874312 0.6764550805
-0.03975303471 -0.1141756326 0.616091013 0.07824087143 -0.6745273471 0.7294610739
-0.04468022287 -0.1077096388 0.6227759719 0.001428039861 -0.6731197834 0.7392584085
-0.03963173553 -0.1102859825 0.6203413606 0.07006145269 -0.667563796 0.737573266
-0.03444618359 -0.108519733 0.6213912368 0.1469943374 -0.6634663939 0.7324852943
