# .PCD v0.7 - Point Cloud Data file format
VERSION 0.7
FIELDS x y z normal_x normal_y normal_z
SIZE 4 4 4 4 4 4
TYPE F F F F F F
COUNT 1 1 1 1 1 1
WIDTH 512
HEIGHT 1
VIEWPOINT 0 0 0 1 0 0 0
POINTS 512
DATA ascii
0.02248799615 -0.05113271996 0.550096333 0.4298915267 -0.6639212966 0.5513904691
0.02140987851 -0.05432468653 0.5455465913 0.380990684 -0.6171946526 0.55100137
0.01592494547 -0.05421494693 0.5489733815 0.2180335969 -0.6612349153 0.5431110859
0.01431060396 -0.0574237667 0.5447137952 0.1530567259 -0.6183384657 0.5419605374
0.008544825949 -0.05909321457 0.5454150438 -0.02761391364 -0.6338737607 0.534311533
0.01907400414 -0.0583230406 0.5407617688 0.294270575 -0.5793663859 0.5448935032
0.01763285324 -0.07458706945 0.5483519435 0.06178097427 -0.6419825554 0.6854081154
0.01359036472 -0.07759758085 0.5527132154 -0.04709903523 -0.6423580647 0.7098289132
0.02785081603 -0.06870419532 0.5363157988 0.3219065368 -0.6333809495 0.6397488713
0.02792757377 -0.05298633873 0.5467636585 0.5723472834 -0.5836993456 0.5476179719
0.01439130027 -0.0657183975 0.5625959635 0.2030526102 -0.6967660189 0.6366006136
0.02611941658 -0.05697698146 0.5512127876 0.5245662332 -0.6278937459 0.5453752279
0.03227747604 -0.05584361032 0.5385702252 0.6736754775 -0.4990201592 0.5436280966
0.02288040146 -0.05707844347 0.5573064685 0.4478347003 -0.6880613565 0.5493730903
0.01922885515 -0.06317842007 0.5574486256 0.2885378599 -0.6725811362 0.5965543389
0.02486646548 -0.06324422359 0.5466861129 0.4205602109 -0.5677741766 0.5897629857
0.01385306846 -0.07163529843 0.5582398772 0.06030978262 -0.6568955183 0.6623684168
0.01757704094 -0.06809678674 0.5551127791 0.1905447245 -0.6362775564 0.6329343319
0.02136150375 -0.06680157781 0.5493770242 0.2952583432 -0.5840994716 0.6190467477
0.02263060585 -0.0617066659 0.5526348352 0.3863560557 -0.6298532486 0.5819292665
0.02158226445 -0.07053267956 0.5448373556 0.1843019575 -0.639243722 0.6510984302
0.03314528987 -0.06143541262 0.5330411792 0.5270170569 -0.6095770597 0.5763355494
0.02066600323 -0.08977866173 0.5118329525 0.2563836575 -0.5171095133 0.816452682
0.02037893794 -0.05180746689 0.5590505004 0.39762187 -0.7274454832 0.5586301684
-0.07729069889 -0.1468095928 0.5303561091 -0.9169593453 -0.2622281909 0.286788851
-0.006781150587 -0.06897933781 0.5521603227 -0.4688141346 -0.5987108946 0.6414016485
-0.06521528214 -0.1139202416 0.4991962016 0.5475661159 -0.5413003564 0.6309266686
-0.07841382176 -0.07857032865 0.5485975742 0.6421619654 -0.5875191092 0.4921666384
-0.08144336194 -0.07967202365 0.553820312 0.6504295468 -0.5793880224 0.4910315275
-0.06059339643 -0.1337170005 0.5756002069 -0.4231003821 -0.7482114434 0.5043752789
0.002829953795 -0.07966715842 0.5527832508 -0.3733468652 -0.6427446604 0.6286873817
-0.0007828452508 -0.07812737674 0.5484181643 -0.4961176813 -0.6345180273 0.5624455214
-0.02507176809 -0.09625204653 0.4990506172 -0.216113776 -0.7058807015 0.6696519852
0.02862004004 -0.08864323795 0.5228897333 0.2502042949 -0.5242063403 0.7885257006
0.02374385111 -0.08195478469 0.5373130441 0.1112231165 -0.590272069 0.7487174273
0.0334767513 -0.08669121563 0.5188298225 0.3267873526 -0.5242124796 0.7799530029
0.01761848852 -0.08511458337 0.5415984392 0.01964572072 -0.5849327445 0.7634363174
0.0141914878 -0.08287872374 0.5487862229 -0.06033445522 -0.6125331521 0.7492575049
0.02765299566 -0.08428731561 0.5293747187 0.2008913755 -0.5604532361 0.7636712193
-0.03865218535 -0.1008216515 0.493544817 0.0637300238 -0.6033289433 0.7705725431
-0.04402785003 -0.09822928905 0.4972127378 0.1588855386 -0.6272639036 0.7505688071
-0.04892683774 -0.1053970307 0.4952651262 0.2703133523 -0.5701286197 0.7387222052
-0.04319095984 -0.1045343652 0.4936937094 0.1562131941 -0.5807158351 0.7559688091
-0.05567660928 -0.1090435684 0.4956032336 0.409334749 -0.5366711617 0.7204359174
0.01779775135 -0.05669664592 0.5625947714 0.355060488 -0.7539275885 0.5478273034
0.006582624279 -0.06380178034 0.5642228723 -0.1523490995 -0.4828400314 0.8186702132
0.01270358544 -0.05901403725 0.5646777153 0.2414955199 -0.7054232359 0.6253470778
-0.03110476397 -0.09732227027 0.4955531955 -0.1108471826 -0.6634628773 0.7319154143
-0.01469422877 -0.06302762032 0.5439522266 -0.4827951193 -0.6805537343 0.5452055931
-0.01976678334 -0.0643831566 0.5412604213 -0.3765107989 -0.7115810513 0.5827205181
-0.07513666153 -0.1450883299 0.5369238853 -0.8080344796 -0.4208381176 0.4084696174
-0.07213649899 -0.1250350475 0.5078407526 0.2471878231 -0.4349449575 0.4775525331
-0.0734943375 -0.130927518 0.5170950294 -0.211191535 -0.3601942956 0.4245819747
-0.07633270323 -0.139627561 0.5325468183 -0.874401629 -0.1981506199 0.3311746716
-0.07544410974 -0.1378571242 0.5262134671 -0.6505637169 -0.256275773 0.3474747837
-0.07761261612 -0.1438331157 0.5246497393 -0.6656366587 -0.1832941175 0.2510892749
-0.08036901057 -0.1253775656 0.5088882446 0.7766541839 -0.1020677462 0.3537401557
-0.07779682428 -0.1309521794 0.5130389333 0.3048057258 -0.1559621245 0.3211106956
-0.07856430858 -0.1323004514 0.5212705731 -0.04796878621 -0.1406889111 0.3435572982
-0.07121226937 -0.1169737577 0.5009273291 0.6468244791 -0.4883431494 0.5485725999
-0.07911349833 -0.1197382808 0.5045441985 0.8732686043 -0.2183622122 0.4124020636
-0.07972266525 -0.07399870455 0.556422174 0.6230276823 -0.6036429405 0.4955822825
-0.07607977837 -0.0666166842 0.5605412722 0.5813223124 -0.6372276545 0.5047480464
-0.06438947469 -0.1070978716 0.4974733293 0.5443091393 -0.5526602268 0.6305571795
-0.06688378751 -0.1043659598 0.5031625032 0.5830246806 -0.5488342643 0.5975628495
-0.05921298638 -0.1032804623 0.4972061217 0.4566961229 -0.5590317249 0.6854481697
-0.05941735208 -0.09919017553 0.501406908 0.4672906697 -0.5837384462 0.6542831063
-0.05292502418 -0.1027901098 0.497866869 0.3374354243 -0.5877996683 0.7211229801
-0.04959946871 -0.09803330898 0.4991646409 0.2583804131 -0.6277842522 0.7250838876
-0.06314088404 -0.1292569041 0.5797333717 -0.3693827689 -0.7776227593 0.5030428767
-0.05926295742 -0.1293516904 0.5857180357 -0.2992496789 -0.7856663465 0.5390388966
-0.03969439492 -0.127733767 0.5944656134 -0.07664040476 -0.8067771196 0.5840189457
-0.02097520977 -0.08418320864 0.5167531967 -0.3616291583 -0.7214650512 0.5705640912
-0.07071681321 -0.150544852 0.5411252975 -0.6938951015 -0.5116927028 0.5064357519
-0.0744305104 -0.1523422003 0.5342494845 -0.7971181273 -0.4251827002 0.391898334
-0.06950324029 -0.1563859284 0.5373154879 -0.6742491722 -0.5238767862 0.5198252201
-0.06635321677 -0.1511704922 0.5469385982 -0.6861801147 -0.5205492973 0.5080423951
0.008276151493 -0.07460691035 0.5623672009 -0.0901651606 -0.6238676906 0.7397187948
-0.002604932524 -0.06766471267 0.559376061 -0.368683815 -0.4854082763 0.7835766077
-0.002247110242 -0.0731600672 0.5545996428 -0.4719443023 -0.6039153934 0.6386763453
-0.07157941163 -0.07006854564 0.5498844385 0.6228331327 -0.5990177989 0.5029802322
-0.02480342239 -0.06783789396 0.5311084986 -0.2604752779 -0.7515388131 0.6035121679
-0.006686428096 -0.05564827099 0.5560383201 -0.3029882014 -0.5890190005 0.7184846997
0.004325235263 -0.05248034745 0.5569263101 -0.01226137392 -0.6471341252 0.658678174
0.001875795657 -0.05982353166 0.5481522083 -0.2292911559 -0.6711555719 0.5263156295
-1.785889071e-05 -0.05599901825 0.5533432961 -0.1819462627 -0.6353626847 0.6305280924
0.006795339752 -0.05551530421 0.5516968369 -0.03876589239 -0.6781189442 0.5592646599
0.01383575518 -0.05126676708 0.5544775724 0.1917016804 -0.6996616721 0.5655473471
-0.004506940488 -0.06341403723 0.5459434986 -0.4324813783 -0.6500480175 0.5261877179
-0.03130284324 -0.05787729099 0.5430168509 -0.1463159323 -0.7622048259 0.6260470748
-0.07244794816 -0.1405279338 0.5416782498 -0.7765321732 -0.4131087661 0.4389638007
-0.07539563626 -0.1255015135 0.5260736346 -0.3088769019 -0.32022807 0.4211684465
-0.07300939411 -0.1153625995 0.5129715204 0.3291034102 -0.4717676938 0.5156900287
-0.07419075817 -0.1097508892 0.5156869888 0.4106092453 -0.4818018079 0.512601018
-0.0743881613 -0.120579645 0.520314455 -0.01555526815 -0.3893383443 0.4637116194
-0.07294913381 -0.1213102192 0.5148411989 0.1133459955 -0.4259607792 0.492572993
-0.07166197896 -0.1035966054 0.5100499392 0.6310980916 -0.5394275784 0.5564758182
-0.0696355477 -0.1090320721 0.5051033497 0.6110808849 -0.5462698936 0.5721700191
-0.07517635822 -0.108037442 0.5101003051 0.7020287514 -0.4560796022 0.512490809
-0.075099729 -0.1146752387 0.5041949749 0.6548647881 -0.4883610308 0.5463232398
-0.05491419882 -0.09568854421 0.5028538108 0.381529361 -0.6392804384 0.6636060476
-0.05266016349 -0.06785268337 0.5354163051 0.3132119179 -0.7306488156 0.578310132
-0.05917968228 -0.06808703393 0.5393235087 0.4639066458 -0.6869697571 0.5501179695
-0.004655994941 -0.07990390062 0.5392192602 -0.5782517791 -0.6600701213 0.4684632719
-0.009623514488 -0.0784060508 0.5359323025 -0.4991588891 -0.6843132377 0.513335824
-0.06979639828 -0.1103990227 0.5661348701 0.007123323157 -0.6941094995 0.4881105721
-0.07367489487 -0.0951718241 0.5442672372 0.4738879502 -0.6169595122 0.4834420085
-0.07224559039 -0.1018029526 0.5462670922 0.3474757969 -0.6416503787 0.4820112884
-0.07441926748 -0.08995231986 0.5507410765 0.4898896515 -0.6072303653 0.4883108437
-0.0711010322 -0.1058734581 0.5531433225 0.2112713754 -0.6636189222 0.4837599099
-0.07510652393 -0.08800879866 0.5444818139 0.5858004689 -0.5931521058 0.4860919118
-0.07245666534 -0.09881164134 0.5545337796 0.3093705177 -0.641569674 0.4869206548
-0.06744529307 -0.1256506443 0.5645797253 -0.3264391422 -0.6903880239 0.479445219
-0.07023301721 -0.1129388809 0.5527452826 0.03858220577 -0.6538249254 0.4794570208
-0.06999059767 -0.1257611215 0.548427403 -0.3770405352 -0.5599173903 0.4664952755
-0.07162673771 -0.1151448265 0.5429217815 -0.05941712484 -0.5646061897 0.4699928463
-0.07099954039 -0.1223903745 0.5435830355 -0.2852273583 -0.5364931822 0.4651390612
-0.07314599305 -0.1043919101 0.5382179022 0.264839977 -0.5763764381 0.4742306471
-0.0691831708 -0.1243355349 0.5541858673 -0.3154302239 -0.6128279567 0.4721414745
-0.06797759235 -0.1187820286 0.5643468499 -0.1112266555 -0.7202084661 0.4843603969
-0.07390355319 -0.09758938104 0.536529839 0.4737294614 -0.5941835046 0.4779374301
-0.07703256607 -0.0957281962 0.5500024557 0.4513322413 -0.6116287112 0.4831672311
-0.07239672542 -0.105115369 0.5641748309 0.1296738237 -0.6714092493 0.4885415137
-0.06894762814 -0.1173575595 0.5697801113 -0.1326112449 -0.7199721932 0.4869463742
-0.07413876802 -0.09964261204 0.5606763959 0.2590435743 -0.6474334598 0.4885914028
-0.06643289328 -0.1253722608 0.5747227669 -0.3198637068 -0.754671514 0.4867525697
-0.07853164524 -0.09954614937 0.5389820337 0.5254072547 -0.597623229 0.4741384983
-0.07894404978 -0.09378875047 0.5423448682 0.575524509 -0.5884802341 0.4788968861
-0.0759709999 -0.09463294595 0.5562957525 0.3918500245 -0.6227964759 0.4878498018
-0.07147973776 -0.1162504032 0.5582072139 0.01002741139 -0.6838082671 0.4795216918
-0.07598673552 -0.1113007814 0.5399290323 0.1442528516 -0.5602886081 0.4676550329
-0.06995674968 -0.1313189864 0.5502318144 -0.5299194455 -0.5491552949 0.4632979631
-0.07459230721 -0.1096805185 0.5489136577 0.2190851271 -0.6400036812 0.4760867655
-0.06652653962 -0.1306819916 0.5687956214 -0.4694750011 -0.7011550665 0.4789815247
-0.07273368537 -0.1180360243 0.5497806668 -0.06939763576 -0.6077971458 0.4714430571
-0.06904504448 -0.1288119256 0.5576354861 -0.4275426567 -0.6203371882 0.4709974229
-0.06994264573 -0.1220745146 0.5600714684 -0.1884556413 -0.6714724898 0.4773215652
-0.03426070139 -0.1304188669 0.591547668 0.001096528489 -0.7972732782 0.5998395681
-0.02747262269 -0.129347384 0.5909250379 0.1016001701 -0.7799268365 0.6159483194
-0.03046576492 -0.1343161464 0.5872733593 0.08633620292 -0.7846742868 0.6096283197
-0.0440746136 -0.1357059628 0.5862394571 -0.1481458992 -0.7980892062 0.5805312991
-0.03911629319 -0.1331913173 0.5898782611 -0.06298021972 -0.7965953946 0.5961992741
-0.05418226123 -0.1302426159 0.5876578093 -0.2284639031 -0.7957914472 0.5603321195
-0.05002715066 -0.1347544193 0.5846797228 -0.2144592851 -0.7889917493 0.5744748712
-0.04806297272 -0.1320370287 0.5895263553 -0.1850532889 -0.803638339 0.5651868582
-0.05065822601 -0.1276121736 0.5932457447 -0.1838286519 -0.8068423271 0.560526669
-0.01929185726 -0.08007768542 0.5223001838 -0.3875247836 -0.7180436254 0.5759118199
-0.007668798324 -0.08202185482 0.5310903788 -0.5098113418 -0.6904317737 0.50862813
-0.0143390093 -0.07825181633 0.530389905 -0.4374194443 -0.7019252181 0.5530813932
-0.009906131774 -0.08767798543 0.5208030343 -0.4690768719 -0.7010183334 0.5345814824
-0.004668764304 -0.09113115072 0.5221620202 -0.4034451544 -0.7276129127 0.551366508
-0.005425032694 -0.09545057267 0.5156390071 -0.4407708943 -0.7195258141 0.5354342461
-0.01040910184 -0.09247040004 0.5152683854 -0.4454111755 -0.709623158 0.5431978106
-0.01507978048 -0.08634664863 0.5169073939 -0.4724608064 -0.6988345385 0.5369640589
-0.02756418847 -0.09057620168 0.5039004087 -0.2015812844 -0.7358058691 0.6396113038
-0.02212206647 -0.0924424082 0.506265521 -0.3049076498 -0.7164596915 0.6026456952
-0.001073500491 -0.1119363755 0.5402244329 0.1151652932 -0.6262679696 0.5403716564
-0.0004738295102 -0.1054718494 0.5346480012 -0.01414171141 -0.6409471035 0.5340350866
0.03126541898 -0.07460802794 0.5288524628 0.3094641268 -0.5819329023 0.7203707099
0.03179146349 -0.06560125947 0.528360188 0.4663439393 -0.6302125454 0.6197823882
0.004810449202 -0.1415376812 0.5327779055 0.8860805035 -0.1630788743 0.3737537265
0.002745152684 -0.1450453401 0.5374845266 0.8625791669 -0.3252697885 0.3745234013
-0.0009218127234 -0.1494377553 0.5413272977 0.7880723476 -0.4362099171 0.4340885282
-0.01211869624 -0.1049440131 0.4984312356 -0.427180022 -0.5505647659 0.7018364072
-0.02025146037 -0.1028223783 0.4944133461 -0.2821562886 -0.6869817376 0.6584625244
-0.06964369863 -0.07225249708 0.5440587401 0.6264067888 -0.5958518386 0.5025442243
-0.02580681629 -0.06160656363 0.5386378765 -0.2374463826 -0.749117136 0.6182464361
-0.03134480119 -0.06406702846 0.5381826758 -0.1583264321 -0.7525304556 0.6220172048
-0.04118943214 -0.06174495816 0.5382080674 0.04870969057 -0.7744902968 0.6221746206
-0.003911885899 -0.05073910952 0.5602868795 -0.158615008 -0.5521922708 0.7479735017
0.01110294834 -0.04914306104 0.5597763062 0.1953084469 -0.6904613972 0.6166042686
-0.0128443623 -0.05972749367 0.548869133 -0.4362350404 -0.644669354 0.613753736
-0.01087576617 -0.06617851555 0.5486217737 -0.469702065 -0.6229348183 0.6136574149
-0.02443311922 -0.05805785209 0.5442403555 -0.2703350186 -0.7365765572 0.6153640747
-0.03845778853 -0.0585154444 0.5421225429 -0.004783190321 -0.7747746706 0.6242257357
-0.04668166116 -0.05917726457 0.5426254272 0.1854711622 -0.7659939528 0.6081027985
-0.06980808079 -0.1449836791 0.5451268554 -0.6997426152 -0.508640945 0.5012390614
-0.06766557693 -0.1334379613 0.5633781552 -0.5569025278 -0.6499190927 0.4758216143
-0.06983273476 -0.1376729757 0.5503531098 -0.703461647 -0.529040277 0.4664420187
-0.06881307065 -0.1352957338 0.557060957 -0.6255911589 -0.5929744244 0.4708378315
-0.07163399458 -0.05730257183 0.5661380291 0.5268825293 -0.6744139194 0.517183125
-0.06893811375 -0.05913347751 0.5600391626 0.522709012 -0.6711382866 0.5241444111
-0.06429897994 -0.06678529829 0.5451743603 0.562936008 -0.6377628446 0.5250552297
-0.05876532942 -0.05916867405 0.5482928753 0.4180898964 -0.7219970226 0.5495446324
-0.05863245949 -0.0638981387 0.5435697436 0.4327603877 -0.701533258 0.5595653057
-0.05570640787 -0.04990384355 0.5570688844 0.3460180759 -0.7600409389 0.5437710881
-0.06028049439 -0.05287067592 0.5588732362 0.3951234818 -0.7439724207 0.528306365
-0.06494448334 -0.05390748754 0.562930584 0.4453699887 -0.7138211727 0.5275356174
-0.07911670953 -0.1038439572 0.5201830268 0.6866319776 -0.5090236068 0.5096585751
-0.07938607037 -0.1138662919 0.5102220774 0.814221561 -0.3142648935 0.4438228905
-0.07905166596 -0.1132654697 0.5295048356 0.1267498732 -0.4197716713 0.4425563216
-0.07788175344 -0.1191308051 0.5346853137 -0.1819243431 -0.3911223114 0.4130510688
-0.07530482858 -0.1355926841 0.5378638506 -0.7644647956 -0.3051912189 0.3866789937
-0.07737868279 -0.1253110021 0.5348976851 -0.4125567973 -0.3291112185 0.392336905
-0.07471334189 -0.1256742924 0.5404781103 -0.35838449 -0.4943314195 0.4524969757
-0.07855998725 -0.1098777205 0.5345258117 0.1653090715 -0.4887703359 0.445810765
-0.04219866544 -0.09277091175 0.5015460253 0.1159861535 -0.6927565932 0.7048293948
-0.03494752198 -0.09322934598 0.5002410412 -0.02390743792 -0.7109255791 0.7002080083
-0.07328414917 -0.07610535622 0.547149837 0.6363629699 -0.5900007486 0.4968348444
-0.06560031325 -0.07294831425 0.5384104252 0.5738393664 -0.630433321 0.5175916553
-0.0722528249 -0.08492159843 0.5357016325 0.639901638 -0.594871819 0.4861115813
-0.07466451824 -0.08167264611 0.5444360971 0.6491433978 -0.5818334818 0.4896540344
-0.07316704839 -0.08820310235 0.5298346877 0.6427949667 -0.5988271832 0.4770669341
-0.08073892444 -0.08651654422 0.5444291234 0.6610907912 -0.5736021399 0.483427763
-0.07827047259 -0.08713687211 0.538383007 0.6569484472 -0.5787321329 0.4826206267
-0.08036272228 -0.09486058354 0.5323367715 0.6713188291 -0.5711792707 0.4722035825
-0.06667574495 -0.08369839936 0.5277385116 0.5858657956 -0.6202353239 0.5194737911
-0.04360227287 -0.1432587802 0.5750997663 -0.2066219002 -0.7883444428 0.570787847
-0.04365118593 -0.1401392221 0.580824554 -0.1831268221 -0.791431427 0.5817349553
-0.03781053796 -0.1373232901 0.5840629339 -0.04583134875 -0.7887812257 0.5980177522
-0.05549072474 -0.1382448822 0.5743849874 -0.3948945999 -0.7583624125 0.5132401586
-0.0494774878 -0.1397903562 0.578094244 -0.3114643097 -0.7697934508 0.5549450517
-0.005372313783 -0.1399232596 0.555796206 0.6923120618 -0.51460886 0.4909647107
-0.003762903856 -0.1462872624 0.5481669903 0.7474258542 -0.4651412368 0.4671268165
-0.04350218549 -0.1449784935 0.5678496361 -0.1534489095 -0.7471271753 0.5901268125
-0.04828973114 -0.1425736547 0.5706035495 -0.2831831872 -0.7588273287 0.5486550927
-0.02558561787 -0.1399134696 0.5786930919 0.2041622698 -0.7788404226 0.5851845741
-0.03202743083 -0.1400235444 0.5803134441 0.09483314306 -0.7818695307 0.609541595
-0.02212283202 -0.1418551952 0.5740389228 0.3162257075 -0.7519029379 0.5708566308
-0.02023646422 -0.0873702094 0.5112199187 -0.3758975863 -0.7131735682 0.5877223611
-0.005449759774 -0.08904772252 0.5121503472 -0.2417450845 -0.6423381567 0.6411107779
0.00331329857 -0.08900610358 0.5129005909 -0.1007760242 -0.6006802917 0.6905143857
-0.02587206289 -0.08386161178 0.5119873285 -0.2319491506 -0.7497003675 0.6194041371
-0.03199860081 -0.08682448417 0.5068895221 -0.1097801924 -0.7501556277 0.6458771825
0.002429751679 -0.1129797176 0.5500988364 0.3158064485 -0.5329779983 0.5629314184
0.00437970506 -0.09131471813 0.5491042733 -0.103576906 -0.6490471959 0.6563507915
0.005761115346 -0.09455932677 0.5578864813 0.04047384858 -0.5887103081 0.6674772501
0.003157531144 -0.1154418811 0.5551096797 0.4095591903 -0.4954181015 0.5665642023
0.001422559493 -0.1062111184 0.5414491892 0.1063089892 -0.6107302904 0.5678565502
0.003248104127 -0.1063541546 0.5509400964 0.1983298808 -0.5627752542 0.5948331356
0.001377692795 -0.09568845481 0.5358486772 -0.1455426365 -0.6925665736 0.5983415842
0.002937358804 -0.1093310565 0.5575240254 0.2531168759 -0.5710713863 0.6232560873
0.001317396876 -0.1226743758 0.5556305647 0.4911096096 -0.5091446638 0.5572667122
-0.0009193336591 -0.1286874115 0.5568641424 0.5240858793 -0.5541375279 0.5668735504
-0.001018771436 -0.1365211606 0.5545729399 0.7057901621 -0.4765763283 0.5058933496
0.003717871848 -0.1009240001 0.55752033 0.0907934159 -0.6139879823 0.6594299674
-0.001903173979 -0.1258275956 0.5501865745 0.4043370485 -0.5867444277 0.5476275682
0.002308899537 -0.09688272327 0.5476890206 -0.07949528098 -0.658844471 0.6295072436
0.001785765635 -0.08981050551 0.5397080779 -0.2775674164 -0.703502655 0.6173688173
0.007043008693 -0.08226168901 0.5588035583 -0.1898099929 -0.649858892 0.7248412967
-0.001186700421 -0.1154147312 0.5454950929 0.1891853809 -0.6265980005 0.5605419874
-0.000777758949 -0.1201251596 0.5510981083 0.3242233992 -0.5957995057 0.5698797703
0.005837447941 -0.08807919174 0.5576009154 -0.1110346764 -0.6416217089 0.7009506226
0.0004198637907 -0.1002703309 0.5413523912 -0.09468818456 -0.6747264266 0.5910148025
0.00248961919 -0.127240181 0.5419134498 0.5738803744 -0.4443056285 0.4548499584
0.001488865237 -0.13398242 0.547965467 0.7262839079 -0.4073465466 0.4527738988
0.007200677879 -0.09086495638 0.5282652378 -0.1595209837 -0.6891857982 0.6495970488
0.03003967553 -0.0920375064 0.5159986615 0.2998119593 -0.4994514287 0.8015022874
0.01003701705 -0.08249552548 0.5538017154 -0.1417665929 -0.6334757805 0.7387123108
0.01068448555 -0.08601303399 0.5423813462 -0.1126680449 -0.6412512064 0.7142730355
0.008943500929 -0.08797085285 0.5368106365 -0.1382362992 -0.6634432673 0.685803771
0.002788526006 -0.08973725885 0.533498764 -0.252415359 -0.7224373817 0.6276860833
0.01496910024 -0.08788608015 0.5348268747 -0.01886930689 -0.6118978262 0.7291324735
0.01308609452 -0.08970225602 0.529759407 -0.04791377112 -0.6347625256 0.7008270025
0.02078346536 -0.08794481307 0.532466054 0.09696157277 -0.5626899004 0.7697827816
0.02171185613 -0.09067780524 0.5234337449 0.1280235946 -0.5651153922 0.7538032532
0.02219492756 -0.09368621558 0.5185696483 0.1525425166 -0.517634511 0.7836874127
0.01224261243 -0.09281241894 0.5238003135 -0.04956000298 -0.6131703258 0.7071552873
0.025895264 -0.09700050205 0.5142772794 0.2519142628 -0.4110989571 0.8689975739
0.008059088141 -0.09726211429 0.5216772556 -0.07402079552 -0.5559000373 0.767947793
0.01266385335 -0.09859880805 0.519017756 0.01603172533 -0.482869029 0.8203229904
0.02662696503 -0.0871469304 0.5141294599 0.2932791412 -0.5049749613 0.811567843
0.003250936978 -0.08484437317 0.5459529161 -0.3112952113 -0.6831765771 0.6374425888
0.0004256771645 -0.08423192054 0.5411219597 -0.4395465553 -0.6785926819 0.5519127846
0.005647153128 -0.1388289183 0.5384075046 0.8765415549 -0.2530281246 0.3820879757
0.009996200912 -0.1384546161 0.5234493613 0.8984274268 0.04429347441 0.3956936002
-0.0002481006377 -0.1408075243 0.5492291451 0.7913036346 -0.4123088419 0.4497671425
-0.009879235178 -0.09700309485 0.5094659925 -0.4531622231 -0.6898613572 0.5629498959
-0.004466971848 -0.09987087548 0.512032032 -0.4499689043 -0.6399973035 0.6183534861
0.0002774509485 -0.1050310507 0.5134086013 -0.4525533319 -0.4681047499 0.7136423588
-0.0002189831575 -0.1225590035 0.5391005278 0.3886297047 -0.5262269974 0.4976559281
0.003035672475 -0.1139762104 0.5255041122 -0.1256543398 -0.3791712821 0.6939067245
0.004710103385 -0.1162808537 0.5209196806 -0.2484946251 -0.2365879267 0.7877382636
0.001274897251 -0.1104281843 0.5299215913 -0.02019865438 -0.5403065085 0.5964304209
0.004069380928 -0.107142143 0.5197122097 -0.3756443262 -0.3733778 0.7605988383
0.00179453718 -0.1046793982 0.5261802077 -0.1946606785 -0.5604327917 0.6324120164
0.004249577876 -0.1239106655 0.5231596828 -0.04935970157 -0.04752608016 0.7567670941
0.005631230772 -0.126788497 0.5174925923 -0.03724189848 0.2718593478 0.7934835553
0.001711801859 -0.1342447251 0.5355764627 0.4956841767 -0.1458731443 0.5713724494
0.004294870887 -0.1303314567 0.5249102116 0.2790001929 0.1031739339 0.6685979962
0.006044487935 -0.135929212 0.5275281668 0.8664889336 0.04293171689 0.4232131541
0.004126704298 -0.1282140017 0.534807682 0.4003219903 -0.3193916976 0.5456735492
0.00266682962 -0.1160404757 0.5352811217 0.2387728244 -0.4932436645 0.5318139791
0.002224094467 -0.0995663777 0.5277786851 -0.244948566 -0.5813068748 0.6505454779
0.003624429693 -0.1334777623 0.5406245589 0.6662092805 -0.3530736864 0.4499985576
0.004254120402 -0.119607985 0.5289829373 0.08559247851 -0.3309487998 0.6398711801
0.003528813133 -0.1227429807 0.5347112417 0.3176523447 -0.3919345737 0.5446653366
0.005159304477 -0.1258558184 0.5288761854 0.2135907114 -0.2451145351 0.6239202023
0.007720892783 -0.1214334294 0.5183616281 0.04884228483 -0.1206123233 0.675786674
0.02106096409 -0.10275428 0.514365375 0.1662574708 -0.3135642707 0.8995283246
0.01083691046 -0.1098024473 0.5151306987 -0.2428619117 -0.2196409702 0.8691475391
0.009936857969 -0.1318174601 0.5214923024 0.6531084776 -0.04424023256 0.4507558644
0.01731149107 -0.1172647625 0.5180765986 0.5376791954 -0.1788547784 0.6579644084
0.01908283308 -0.110804826 0.5156066418 0.4002834558 -0.163534075 0.7783563137
0.01295893081 -0.1271734387 0.5180655122 0.723772943 0.1309138536 0.5504776835
0.0005928020691 -0.09979584068 0.5200082064 -0.3989921808 -0.5439895988 0.6701700687
0.01019865368 -0.103925772 0.5165750384 -0.1010538936 -0.380017668 0.8588931561
-0.007892359979 -0.06106261909 0.5588421822 -0.3861227334 -0.5253810883 0.7265607119
-0.01234973036 -0.0588594377 0.5559583902 -0.4677210748 -0.6335533261 0.6078176498
-0.01507205237 -0.05115861073 0.5591782928 -0.3540819585 -0.6299453378 0.6745396256
-0.06353142112 -0.1574405134 0.542544663 -0.6309920549 -0.536419332 0.5543707609
-0.05948991701 -0.1629188061 0.5437023044 -0.5784208179 -0.5752866864 0.5708419085
-0.07211559266 -0.06536880881 0.5555489063 0.5701576471 -0.6434009671 0.5106711984
-0.06763548404 -0.06186695397 0.553530097 0.5515668988 -0.6518059969 0.5203585029
-0.04791286215 -0.06446578354 0.5356955528 0.2075129598 -0.7598964572 0.6066051722
-0.05390521139 -0.05925997719 0.5449586511 0.3722580671 -0.732477963 0.5698354244
-0.05257100239 -0.06224671379 0.5400710702 0.336004585 -0.7366523147 0.5832430124
-0.0760095045 -0.1186444983 0.5282331109 -0.06391034275 -0.3837134242 0.4406577945
-0.07556469738 -0.1137384847 0.5232707262 0.1632412821 -0.4235416949 0.4690877199
-0.077592507 -0.1300131083 0.5302715898 -0.437563777 -0.2476017326 0.3799694479
-0.07913639396 -0.12437924 0.520549953 0.2185394615 -0.2187589705 0.3887788653
-0.08003638685 -0.1218109652 0.5145025253 0.601283133 -0.1886213869 0.3892275393
-0.07970335335 -0.11773552 0.5194097161 0.4577202499 -0.293307811 0.4219618738
-0.08000166714 -0.1109536588 0.5205552578 0.5823025703 -0.3936914504 0.4609338641
-0.07503190637 -0.1030065864 0.5151593685 0.6551043987 -0.5346052647 0.5335435867
-0.06726359576 -0.09919732064 0.5093969703 0.5958657861 -0.5698089004 0.563615799
-0.05965837464 -0.09466522187 0.5065038204 0.4854328632 -0.6254734397 0.6065865755
-0.06996552646 -0.08857554942 0.5249464512 0.6253066063 -0.6042043567 0.4927537739
-0.04469953105 -0.08900651336 0.5046480894 0.1557474136 -0.713724494 0.6811749339
-0.03901164606 -0.07037768513 0.5273478627 0.008677344769 -0.7748224139 0.6262831688
-0.03590318561 -0.06551320106 0.5331902504 -0.05176257715 -0.7825765014 0.6179670691
-0.03111115098 -0.06892315298 0.534261167 -0.1580290794 -0.7428960204 0.6098415852
-0.01058668643 -0.1521793008 0.5542884469 0.5920265913 -0.5236272216 0.6034907103
-0.01217618398 -0.158092916 0.5518452525 0.5320634246 -0.5316328406 0.6411374211
-0.0131649198 -0.1488248557 0.5601582527 0.5460749269 -0.5972428322 0.5765442252
-0.009844940156 -0.1438712031 0.5606887937 0.6076140404 -0.5808950067 0.5363025069
-0.005435055122 -0.152166307 0.5452307463 0.7279788852 -0.4580092132 0.5007696152
-0.008548911661 -0.1454217285 0.5540180802 0.6739869118 -0.5094357133 0.5248323083
-0.01791165769 -0.1516600847 0.5572271943 0.4459803402 -0.5763373375 0.6510919333
-0.01846364327 -0.1578059196 0.5575108528 0.397605598 -0.6196678281 0.6718760729
-0.02312448621 -0.1553682387 0.5600053668 0.3077006042 -0.6442141533 0.6963920593
-0.02193915844 -0.1691323519 0.5512276292 0.2776370645 -0.6028205156 0.7455647588
-0.01065482944 -0.1389866471 0.5663599968 0.5182695985 -0.666904211 0.5278559327
-0.01703858562 -0.1443260908 0.5687634349 0.448449403 -0.6826702952 0.5747303963
-0.02094542794 -0.148597762 0.5631397963 0.3759271204 -0.6650704741 0.6205064654
-0.02317040786 -0.1320217848 0.5875469446 0.1898314208 -0.7716017962 0.5997843146
-0.01660989039 -0.1300390065 0.5851993561 0.2781122923 -0.767269671 0.5763974786
-0.02101781778 -0.1353341192 0.5826866627 0.2620878518 -0.7696740031 0.5807629228
-0.01578152739 -0.1367694139 0.5760026574 0.3921285868 -0.7194104195 0.5694636106
-0.01272581518 -0.131653145 0.5791428685 0.3744179606 -0.7333754897 0.5573458672
-0.009420546703 -0.1337566078 0.5728399754 0.4680939615 -0.6970345378 0.5403962135
-0.01907306165 -0.0698370859 0.5374212861 -0.4041002691 -0.7078187466 0.5744704008
-0.02049817704 -0.07182959467 0.5298285484 -0.3536888063 -0.7218347788 0.5773444772
-0.01417313889 -0.06740566343 0.5405736566 -0.4945041835 -0.6767917275 0.5396869183
-0.01191840973 -0.07198758423 0.5363166928 -0.5340108871 -0.6613503695 0.5251600742
0.01009733602 -0.07505982369 0.5230602622 0.04492731392 -0.6174171567 0.6639578938
0.001600458287 -0.07826080173 0.5223743916 -0.1371921003 -0.6455073953 0.6222310662
-0.009966212325 -0.08118452132 0.5224027634 -0.3698045611 -0.6820217371 0.5716092587
0.01402960904 -0.07124827802 0.5257666111 0.1480416358 -0.642028451 0.6279144883
0.02405306511 -0.06897702068 0.5259140134 0.3442715108 -0.6277385354 0.6430812478
0.004486381542 -0.07284853607 0.5261461139 -0.03382937238 -0.661937356 0.6046026945
-0.007958094589 -0.0744985193 0.5301854014 -0.373377949 -0.6680083275 0.5529346466
-0.002612739336 -0.07391791046 0.52753371 -0.2016579658 -0.6702641249 0.5808036923
-0.002845633077 -0.07438082248 0.5333001018 -0.3896530271 -0.658567071 0.5260786414
0.008477333933 -0.07124909759 0.5300281644 -0.05213654041 -0.64626652 0.5792820454
0.03166050091 -0.07488745451 0.520596087 0.3830409944 -0.5673364997 0.7256350517
0.03399018571 -0.07068831474 0.524726212 0.4292421341 -0.59401685 0.6756672859
0.008043855429 -0.06703369319 0.5364077091 -0.1000033244 -0.6481472254 0.5398375988
0.01371969562 -0.06696718931 0.5341486931 0.06220852956 -0.6498346925 0.5497367382
0.00075287855 -0.06880522519 0.5378121138 -0.3074924648 -0.6500724554 0.5245163441
0.01971882395 -0.06501460075 0.5334326625 0.2326747775 -0.6470490694 0.5631080866
0.00932359416 -0.06293781847 0.539947927 -0.0251361113 -0.6195952892 0.5300551057
0.001218013465 -0.06430476159 0.5418945551 -0.2703561783 -0.6269715428 0.5204027295
0.02591203712 -0.05975243077 0.5364251137 0.4875978529 -0.5983422399 0.5453863144
-0.008031741716 -0.07225729525 0.5465307832 -0.4949747324 -0.6485842466 0.5739545822
-0.009176972322 -0.07412978262 0.5411548615 -0.5287436843 -0.6707842946 0.5147178769
-0.01641195267 -0.09641470015 0.5022437572 -0.3755710423 -0.7006655931 0.6038017869
-0.01704951748 -0.0936505869 0.5077806711 -0.4061527252 -0.6945928931 0.581276834
0.001503989799 -0.09289231896 0.5073511004 -0.09079585969 -0.6102733016 0.6996406317
-0.005184274167 -0.09313795716 0.5068252683 -0.2084737122 -0.6429310441 0.6582535505
-0.01089431066 -0.09094980359 0.5081584454 -0.2778635323 -0.6665506959 0.6323902011
0.001041564043 -0.09985847026 0.5034679174 -0.2193758488 -0.5164382458 0.7459877729
-0.004357565194 -0.101471886 0.5020545721 -0.3341613114 -0.540142417 0.7106461525
-0.02985968813 -0.07580458373 0.5209704638 -0.1633636504 -0.7671505809 0.6155593991
-0.02423473448 -0.07464844733 0.524720788 -0.3030298054 -0.7488784194 0.5872972012
-0.02848350443 -0.07224781066 0.5291746259 -0.2080124021 -0.749073565 0.614598155
-0.03046765365 -0.08226196468 0.5155659318 -0.1714852452 -0.7532926202 0.6218631268
-0.02643243596 -0.07984665781 0.5189450979 -0.2448309511 -0.7473168373 0.5986604691
0.02715105563 -0.07662147284 0.5339441895 0.2092289925 -0.5882396102 0.7333265543
0.03465466946 -0.07929873466 0.5237726569 0.3281728625 -0.5626392365 0.7448624969
0.02153605968 -0.07898244262 0.541343689 0.08231982589 -0.6048177481 0.7369297743
-0.003002589103 -0.08490372449 0.5335457325 -0.5040764809 -0.692180872 0.5042318106
-0.01752797142 -0.1598634422 0.5501269698 0.4635605216 -0.5307984352 0.6713495255
-0.002774619963 -0.1599499434 0.5400158167 0.7159388065 -0.4738678634 0.5082202554
-0.007231123745 -0.1578560919 0.5466651917 0.651209712 -0.4811584949 0.5865747333
-0.009373445064 -0.1637488902 0.5447354317 0.5834649205 -0.5042702556 0.6185612679
-0.01578884199 -0.1674402058 0.5474805832 0.4315475523 -0.5708427429 0.688182354
-0.05674697831 -0.1445245445 0.5627140403 -0.5110265017 -0.6708862782 0.5305773616
-0.06270159036 -0.1451025307 0.5572599173 -0.6558539867 -0.5659365058 0.4963358045
-0.05929205194 -0.1405816227 0.5675304532 -0.514831543 -0.6915019751 0.4862806797
-0.054843124 -0.1433192641 0.5689365268 -0.4188966155 -0.7249549031 0.5310559869
-0.03057902679 -0.1586534977 0.5570379496 0.1057665125 -0.6227095127 0.7615566254
0.003103103722 -0.1405153573 0.5433846712 0.8490794897 -0.3481343687 0.3968650103
0.005118455738 -0.1477679163 0.533031702 0.8767565489 -0.2949434221 0.3554805517
0.008776664734 -0.1433556974 0.5280370116 0.9222002029 -0.1041679904 0.3537636995
0.001452540862 -0.151043728 0.5357294679 0.8150488138 -0.3715106547 0.4079925418
-0.004051761236 -0.105061397 0.5072314143 -0.4628261626 -0.5010095835 0.6928813457
-0.0009872351075 -0.1102799624 0.5091119409 -0.4081543982 -0.2625671327 0.7441839576
0.003452857723 -0.1105449498 0.5138109922 -0.4358185828 -0.256042093 0.8023421168
0.004277355038 -0.1185735017 0.5125813484 -0.321221292 0.1166586205 0.8287541866
-0.01044062804 -0.1016169265 0.5033057332 -0.4891147614 -0.5870908499 0.6440774202
0.01037296467 -0.0953983888 0.5081570745 0.04228118807 -0.5173069239 0.7923089266
0.003682995914 -0.05025977269 0.5618069768 0.01778249443 -0.6544641256 0.6458849311
0.008833641186 -0.05299346894 0.563937664 0.04555996507 -0.5552431345 0.7334246635
-0.004807511345 -0.05536088347 0.5661149025 -0.2760293782 -0.2999167442 0.9102062583
-0.01033565681 -0.05553879961 0.5604332089 -0.3851236403 -0.5004384518 0.7242782116
0.002127218526 -0.05648192763 0.5656962991 -0.1856541038 -0.339774698 0.9189941287
-0.0008902622503 -0.06186561286 0.5652229786 -0.2604679763 -0.3740988076 0.8821519017
0.003281546989 -0.07039315999 0.5632743835 -0.2490503788 -0.4765907526 0.8393241763
-0.02225704677 -0.05089670792 0.556411922 -0.3069430292 -0.7475050092 0.5808369517
-0.02639462613 -0.04730014503 0.5569686294 -0.250805378 -0.7875207067 0.5605166554
-0.01938175224 -0.0575548932 0.5472278595 -0.4058022797 -0.7146956325 0.566234231
-0.01766409352 -0.05619079992 0.5534942746 -0.4036041796 -0.7015187144 0.5734441876
-0.03088949062 -0.05220516771 0.5500716567 -0.1576027572 -0.7743293643 0.6075319648
-0.0250651557 -0.05551934615 0.5494890213 -0.244259268 -0.7591911554 0.5986840129
-0.03253399953 -0.04773005843 0.5550949574 -0.1332189143 -0.8060763478 0.5716546178
-0.0629986003 -0.1499438435 0.5517715216 -0.6685915589 -0.522567153 0.5282914042
-0.06529574841 -0.1415327489 0.5512883067 -0.7002186179 -0.5196781158 0.4850490391
-0.06072032452 -0.1538379043 0.5478041768 -0.6155050993 -0.5362080336 0.5716149211
-0.04890717193 -0.09254412353 0.5026338696 0.2553986907 -0.6675739288 0.6917686462
-0.07426433265 -0.1089047194 0.528072238 0.3366256058 -0.5324627161 0.5007098913
-0.07215017825 -0.1171428636 0.5359740853 -0.04771305248 -0.5360054374 0.4803000987
-0.07047339529 -0.1290734708 0.5427276492 -0.461117208 -0.5133714676 0.4662851989
-0.07480528206 -0.1033461541 0.5257393718 0.5043895245 -0.5478249192 0.5045430064
-0.07111898065 -0.1345686913 0.5441765785 -0.6381323934 -0.5002945065 0.4613004029
-0.07263943553 -0.1110619456 0.5338044167 0.1247907206 -0.5548288822 0.4832524657
-0.07370386273 -0.1022689417 0.5316246152 0.3850493133 -0.5725700855 0.4859758914
-0.07447767258 -0.09586913884 0.5300912261 0.5737760663 -0.5854476094 0.4878197014
-0.07079792023 -0.09736921638 0.516284287 0.6331153512 -0.5685347319 0.5250786543
-0.07259206474 -0.09501281381 0.5225153565 0.6342420578 -0.5841181874 0.5060626268
-0.05248855799 -0.09111937881 0.506831646 0.34984833 -0.6601631045 0.6388683915
-0.04826268926 -0.08711199462 0.5095695853 0.247247234 -0.7063707709 0.6434785724
-0.04496902972 -0.08015162498 0.5189759731 0.1772054583 -0.7325688601 0.6002245545
-0.06655724347 -0.0921131894 0.5181584358 0.573109746 -0.6192725897 0.5361840725
-0.06260351837 -0.09069091082 0.51262182 0.5389147997 -0.6297152638 0.5589207411
0.000400750112 -0.09347330034 0.5254896283 -0.3212313354 -0.7491136193 0.5791096687
-0.003765300615 -0.08823412657 0.5278633833 -0.4501485825 -0.7054496408 0.5415815711
0.007819171995 -0.08620624244 0.5159031749 -0.08324160427 -0.6003079414 0.6696115136
0.01906544901 -0.08160976321 0.5163282752 0.1702782363 -0.5729980469 0.7175754309
0.01494402997 -0.08575333655 0.514374733 0.1085253507 -0.5652669072 0.7344958186
0.00539715495 -0.08094114065 0.5194215775 -0.08699124306 -0.6280571222 0.6430940032
-0.003253427567 -0.08592555672 0.5186952353 -0.3527848721 -0.6545466781 0.577490449
0.02276202291 -0.07589806616 0.519898355 0.2702766061 -0.5765011311 0.7159669995
0.01318912674 -0.07902739197 0.5191363096 0.08031982929 -0.6033120155 0.6813088059
-0.004124234896 -0.08041907102 0.5218336582 -0.257371515 -0.6633666754 0.5966910124
0.02470919676 -0.08167334646 0.514906764 0.3219748437 -0.5420341492 0.773815155
0.03112395108 -0.07985711098 0.5178106427 0.3670507669 -0.5497789383 0.7501977682
-0.02950140089 -0.1668635458 0.5505716801 0.1364704818 -0.6016330123 0.7727966905
-0.06269931048 -0.1380840093 0.5629274249 -0.5879201889 -0.6515133977 0.4670708477
-0.06290563196 -0.1351423264 0.5698443651 -0.5227822065 -0.7008330822 0.4781937599
-0.06548750401 -0.1402714998 0.5577854514 -0.658539772 -0.5775956511 0.4772319794
-0.04548476636 -0.1497491151 0.5626444817 -0.2775243819 -0.6574600935 0.606564045
-0.03327961266 -0.1486821175 0.5698949099 0.05470786989 -0.7554742694 0.6421017051
-0.02902657911 -0.1440646946 0.5744422078 0.1759476215 -0.778339088 0.590667963
-0.02547311783 -0.1469656378 0.5685363412 0.2588633895 -0.7396990657 0.6160782576
-0.02692690305 -0.1514956355 0.5643494725 0.2252267897 -0.6868145466 0.6808938384
-0.03417762369 -0.1526247859 0.5644494891 0.03051676415 -0.7227922082 0.6865742803
-0.02478366531 -0.1639821827 0.5547543764 0.236669004 -0.622369051 0.7428853512
-0.03273884207 -0.1637697071 0.5550715327 0.03523496538 -0.6353421211 0.7636272311
0.005621326156 -0.1019403264 0.5069200993 -0.1142102778 -0.4408529103 0.7957011461
0.004546676762 -0.1148808002 0.5067787766 -0.3854386806 -0.02328597568 0.8678861856
0.005436128471 -0.1093137637 0.5070796013 -0.2601004243 -0.196607396 0.8402090669
0.0151464222 -0.09723927081 0.5119362473 0.165706411 -0.4647293091 0.8414407372
0.01054709312 -0.1135114878 0.5096504688 -0.2473848909 9.761395631e-05 0.9060932994
0.01450874191 -0.1031871662 0.5114093423 0.0297474917 -0.2913859487 0.8728936911
-0.03704533726 -0.05192594603 0.5504823923 -0.03841293976 -0.7873260975 0.60833776
-0.040286351 -0.0547269173 0.5468267798 0.04440499842 -0.7804083824 0.6116617322
-0.04598209262 -0.05521601811 0.5472433567 0.17606695 -0.7811920047 0.5943164825
-0.04822642356 -0.04763633013 0.5558485389 0.209277615 -0.8020983934 0.5529704094
-0.04801872373 -0.05257408693 0.5518735647 0.2020310014 -0.7920781374 0.5667500496
-0.05464800075 -0.05412399769 0.5514109731 0.3544507325 -0.760638237 0.5426470637
-0.03984991089 -0.04813048244 0.5542238951 0.02835819311 -0.8102535009 0.5737327337
-0.04771361873 -0.1555578709 0.5580599904 -0.3385160267 -0.6380642056 0.6564397812
-0.05097886175 -0.1505710632 0.5599470735 -0.4381731749 -0.6096173525 0.5860714316
-0.04668014497 -0.0677382946 0.5306831598 0.1744554043 -0.766669333 0.6118199229
-0.0395383276 -0.07756048441 0.5183443427 0.03818641603 -0.7664422989 0.6323471069
-0.03625136986 -0.07417359948 0.5226436257 -0.04150466248 -0.7762562037 0.6245993972
-0.0375999324 -0.08733665198 0.5055615306 0.001383997034 -0.7467666864 0.659730196
-0.04196689278 -0.08197363466 0.5125249624 0.09427835047 -0.7506828904 0.6481133699
-0.03579171374 -0.08386517316 0.5101196766 -0.03836606443 -0.760689497 0.6459780931
-0.06147650629 -0.07528433949 0.5329816341 0.5073084831 -0.6661657691 0.5362894535
-0.05603706464 -0.07514353096 0.5266335607 0.4119457603 -0.7044926882 0.5718654394
-0.05270396173 -0.07018844038 0.5291882753 0.3460011482 -0.7251797318 0.5904647708
-0.05710823089 -0.07136256248 0.5332149863 0.427456975 -0.7024897933 0.5670372248
-0.07084080577 -0.07849003375 0.5347180963 0.6286038756 -0.5989043117 0.4958919883
-0.06235610694 -0.08672910929 0.5170896053 0.5365975499 -0.6415269971 0.5480747223
-0.06196267158 -0.08181641996 0.5244790912 0.5297580361 -0.6482300758 0.5463564992
-0.03576973081 -0.1453857571 0.5741872191 0.002893303987 -0.7870122194 0.6132403016
-0.0413884297 -0.1512297839 0.5669519305 -0.1384219229 -0.7249270678 0.6621287465
-0.04755558446 -0.1485534459 0.5680860877 -0.2698706686 -0.7306620479 0.6194577217
-0.03935033455 -0.1566650122 0.5602073073 -0.1150587723 -0.6875664592 0.7050573826
0.009157512337 -0.1234369129 0.512180388 0.03596172854 0.2218168229 0.7641537189
0.01338868961 -0.1183604226 0.5137114525 0.2184652239 0.07213736326 0.7634885311
-0.003783192951 -0.1106529459 0.5021901131 -0.4542036951 -0.2807185352 0.7663941383
-0.05842337385 -0.1493248194 0.5575101376 -0.6257964373 -0.5604705811 0.5390617251
-0.05438415706 -0.1560717076 0.5551253557 -0.4644282162 -0.6229980588 0.6282759309
-0.05606963858 -0.1689732969 0.5449468493 -0.4722850323 -0.6315172315 0.6035391092
-0.05445735529 -0.1636230946 0.5499145389 -0.4463361502 -0.6377670169 0.6263883114
-0.0566091463 -0.08009834588 0.5221670866 0.474022001 -0.6765031815 0.5569027662
-0.05155887082 -0.07487870008 0.5227285624 0.3352312148 -0.7287400961 0.5966286659
-0.04677513614 -0.07256652415 0.5255448818 0.2096560299 -0.7656542063 0.6041406989
-0.04979510233 -0.1706848592 0.5472298265 -0.3244938254 -0.6461112499 0.6792169213
-0.04846480116 -0.1617199033 0.5534849763 -0.3188229799 -0.6365793347 0.6940483451
-0.041044835 -0.1642247587 0.5534030199 -0.1467578858 -0.6333453059 0.7525047064
-0.05721367523 -0.1582812518 0.5482323766 -0.5471589565 -0.5591903329 0.6129692197
-0.04109386355 -0.1710207462 0.5492686629 -0.1359622777 -0.6215083003 0.7672034502
-0.03578802943 -0.1680017263 0.5516571403 -0.03216746077 -0.6224967241 0.7803891897
-0.04529776424 -0.1653547138 0.5483360887 -0.2560189068 -0.5968568325 0.7110723257
-0.04856686667 -0.08312483132 0.5141046643 0.245329231 -0.7352591157 0.6205300689
-0.05184549838 -0.07941763103 0.5174302459 0.3534169495 -0.7181165218 0.5963962674
-0.05690711737 -0.08474670351 0.5167207718 0.4259133935 -0.6871114969 0.5819196701
-0.05462373421 -0.08706697822 0.5109950304 0.3718679845 -0.6990209222 0.605758667
