# .PCD v0.7 - Point Cloud Data file format
VERSION 0.7
FIELDS x y z normal_x normal_y normal_z
SIZE 4 4 4 4 4 4
TYPE F F F F F F
COUNT 1 1 1 1 1 1
WIDTH 512
HEIGHT 1
VIEWPOINT 0 0 0 1 0 0 0
POINTS 512
DATA ascii
-0.07445284724 -0.1066782847 0.6150180697 -0.6361342669 -0.523907721 0.5634028316
-0.07084105909 -0.1408558637 0.5956450105 -0.5253441334 -0.5567271113 0.6420169473
-0.08224070072 -0.1329557896 0.5865803957 -0.7039334774 -0.4256826937 0.5639355779
-0.1006981879 -0.1080767959 0.5576905608 -0.9587498903 0.05084029213 0.2142466903
-0.08887900412 -0.0631795153 0.5483363271 0.6696029902 -0.5197152495 0.5305266976
0.03105967119 -0.04374830797 0.5365076065 0.3868148625 -0.4546194375 0.7863554955
0.03957061842 -0.03740045801 0.5434006453 0.5925246477 -0.5144991875 0.6152931452
-0.0221084822 -0.05123264715 0.5262319446 -0.29094401 -0.6439679265 0.7029803395
-0.08761300147 -0.0743585825 0.5378749371 0.4466027617 -0.452689141 0.5462933183
-0.09612394869 -0.09399884939 0.5489958525 -0.4612877667 -0.09173588455 0.3108412921
-0.09029969573 -0.07947684079 0.541293025 0.2038321793 -0.3499701619 0.4788218737
-0.09443143755 -0.08791738003 0.5468331575 -0.1948230565 -0.1875757873 0.3706088364
-0.09115339071 -0.06894875318 0.5471363664 0.5639246106 -0.4800198078 0.5135962367
-0.0910249576 -0.08065096289 0.5478099585 0.1109053195 -0.3845850229 0.4681042731
-0.08938862383 -0.07418880612 0.5438409448 0.3998780847 -0.4581910968 0.5217373967
-0.09255627543 -0.0897314027 0.5514922738 -0.275957793 -0.2875506878 0.4052174687
-0.06884289533 -0.1137482673 0.6135759354 -0.554467082 -0.5663283467 0.609151721
-0.07523599267 -0.1284341216 0.5989081264 -0.6120256782 -0.5066938996 0.6001161337
-0.0832945928 -0.1237595975 0.5942975283 -0.7212378383 -0.4297112525 0.5383896828
-0.08805965632 -0.1315095276 0.5828911662 -0.7662935257 -0.3734469116 0.5185601115
-0.0517818667 -0.09147998691 0.6464116573 -0.2563225031 -0.6025701165 0.7530781627
-0.05890450627 -0.07991437614 0.6496251822 -0.2997597456 -0.596159637 0.744386375
-0.03799938038 -0.1465731263 0.5992052555 -0.003885327373 -0.6728554964 0.7318481803
-0.04494576156 -0.1456466615 0.5992005467 -0.1009610966 -0.6559607983 0.7413110733
-0.07626342028 -0.1349771619 0.5897528529 -0.6320059299 -0.4746547043 0.6053424478
-0.07072219253 -0.1349587739 0.593842566 -0.5613834262 -0.516738534 0.6363283396
-0.07432358712 -0.1304960996 0.5925241709 -0.6255553365 -0.4695793688 0.6120803356
-0.08714113384 -0.1259066015 0.5814042091 -0.7950828075 -0.3271569014 0.5086967945
-0.08880630136 -0.1216899753 0.5853300095 -0.7956588268 -0.3352385461 0.5013388991
-0.08673814684 -0.1187660322 0.5901461244 -0.7731572986 -0.3713642061 0.5118898153
-0.09529712796 -0.1230316982 0.5730000138 -0.8669474721 -0.2822350264 0.4065713882
-0.09207069129 -0.1287878603 0.5782663822 -0.8189720511 -0.3230706155 0.4694651365
-0.0523118712 -0.05919543654 0.5173141956 0.2392666638 -0.6004648209 0.7628261447
-0.07600537688 -0.06332799047 0.5312103629 0.5801054239 -0.5196065903 0.6269309521
-0.08025594056 -0.06770395488 0.5324262381 0.5890794396 -0.5172874928 0.6190459132
-0.05358237773 -0.03289444745 0.5426564217 0.279171288 -0.6596782207 0.6947772503
-0.05174771696 -0.02837966569 0.5462058783 0.2442510426 -0.6691584587 0.6981369257
-0.03073949739 -0.1395945549 0.6031746268 0.1196463704 -0.6649503112 0.7340206504
-0.02587035857 -0.1359180957 0.605337441 0.1776114255 -0.6497360468 0.7379899025
0.007991120219 -0.1318349391 0.5855481625 0.7082564831 -0.4608307183 0.5340492129
-0.0186990872 -0.01193867717 0.5632508397 -0.2989367843 -0.6836585999 0.6634861827
-0.01838966832 -0.01639593579 0.5593063235 -0.3046350777 -0.6592949629 0.6855759025
-0.02550393902 -0.005854454823 0.5666285753 -0.17707026 -0.6969396472 0.6933121085
-0.02535381168 -0.001681820839 0.5704821348 -0.209714219 -0.7296265364 0.6494975686
-0.03144047782 -0.0032512662 0.5680434704 -0.08551544696 -0.7058546543 0.6959789395
-0.01966163144 -0.04143211618 0.5361511707 -0.3201266229 -0.6329120994 0.7028775215
-0.02079242095 -0.04698582366 0.5308262706 -0.3152335882 -0.6328626871 0.705100596
0.03580468521 -0.04907717556 0.5379624367 0.4644749165 -0.4668764472 0.7464394569
0.03651185706 -0.04109777138 0.5390417576 0.5155760646 -0.5185042024 0.6812947989
0.03095438331 -0.05186901987 0.5356948972 0.3563298285 -0.3889889419 0.8351525664
0.01314360928 -0.07035051286 0.53722471 -0.2491464168 -0.5067647696 0.7614560723
0.02042767964 -0.06802718341 0.5411448479 0.01925746165 -0.5677821636 0.7506257296
-0.05835952982 -0.05928974599 0.5211442709 0.3341164589 -0.5865963697 0.7310536504
-0.03147745132 -0.05560857803 0.5197323561 -0.1240052879 -0.6676547527 0.7315164208
-0.03018107079 -0.0478011407 0.5269545913 -0.1441952586 -0.6634674668 0.730150044
-0.03469002992 -0.05032785982 0.5243865848 -0.07646217942 -0.6750036478 0.7329406738
0.009371945634 -0.04563016444 0.5593857169 -0.6688050628 -0.5122072101 0.5320792198
0.007763484027 -0.04772103578 0.5539922118 -0.5827447176 -0.6135591269 0.5246251225
0.004888137337 -0.04100997373 0.5570657253 -0.6298055053 -0.5236057639 0.569499135
-0.05665522441 -0.0909332782 0.6420257688 -0.324945569 -0.6053850055 0.722299993
-0.04753774777 -0.08770687878 0.6503099203 -0.1767606437 -0.5926131606 0.7852310538
-0.07650631666 -0.05582780391 0.5382791162 0.6161668897 -0.529411912 0.5817968845
-0.07917460799 -0.06181149557 0.5354719758 0.6049072742 -0.5307232738 0.5933658481
-0.0555810295 -0.1188263297 0.6201542616 -0.3308631778 -0.6393748522 0.6931148171
-0.08200715482 -0.09582008421 0.6160356998 -0.7000529766 -0.4917552173 0.5151219964
-0.07662674785 -0.09989336133 0.6192870736 -0.6464847326 -0.5249000192 0.549249053
0.02695151977 -0.0349059552 0.5431216359 0.3102061152 -0.512660563 0.7001912594
-0.0006539163296 -0.03815306351 0.5459157228 -0.3786695302 -0.5609584451 0.6548722982
0.01362791099 -0.04127763584 0.5412185788 -0.04021053761 -0.5002525449 0.7371960282
0.02487237379 -0.04525673762 0.5364922881 0.2205967754 -0.4411638975 0.8206272125
0.03241287917 -0.03045021184 0.5451497436 0.4607256353 -0.5314557552 0.6624253392
0.009778645821 -0.03584191948 0.5455934405 -0.1142852679 -0.5507648587 0.6587148309
0.03018259257 -0.03843129054 0.5401514769 0.3762569726 -0.4779730737 0.7533552051
0.01867142506 -0.0372023657 0.5430647135 0.09864512831 -0.5173155069 0.7028044462
0.003269170411 -0.04134437442 0.5431886315 -0.3008365631 -0.5347496271 0.6919362545
0.01872582547 -0.046539139 0.5370064974 0.05288221315 -0.4626330435 0.7904664874
0.008234719746 -0.04391392693 0.5407648087 -0.1983348727 -0.5143257976 0.7175385952
-0.05902274698 -0.1422212124 0.597235024 -0.3694434166 -0.6080124974 0.6912103295
-0.09375210106 -0.08261481673 0.55465734 -0.03436753526 -0.343922019 0.4158432484
-0.09395144135 -0.08589111269 0.5655673146 -0.2944820821 -0.3322753608 0.4186565578
-0.09518498182 -0.09290723503 0.5621253848 -0.515312314 -0.2443542331 0.3571245968
-0.09965223819 -0.09896623343 0.554735899 -0.7225949764 0.01662991196 0.2337852418
-0.09797552228 -0.09385453165 0.5559289455 -0.5272172093 -0.08802293241 0.2900747061
-0.09946029633 -0.1019588783 0.5607418418 -0.8996699452 0.01021865476 0.2352873832
-0.0971653834 -0.09719993919 0.5660452843 -0.7569797635 -0.129536733 0.3092402518
-0.09553776681 -0.08723851293 0.5590019226 -0.2886366248 -0.2389069349 0.3707866073
-0.09635218978 -0.09806020558 0.5721021891 -0.8483742476 -0.1750947982 0.3319279253
-0.09353932738 -0.07552887499 0.5512090921 0.2573495507 -0.3723837733 0.4456351995
-0.046519164 -0.05682131648 0.5186082721 0.1244497448 -0.6496296525 0.7481988072
-0.05329589546 -0.05018668249 0.5259732008 0.2598488331 -0.6298016906 0.7305520177
-0.05365752801 -0.05537591875 0.5209917426 0.256357342 -0.6117902994 0.7478631735
-0.04642360285 -0.03646813333 0.536978066 0.1414912045 -0.6741723418 0.7212585807
-0.04766989127 -0.03223508596 0.5411403775 0.1852613986 -0.6708937287 0.7145049572
0.004708375316 -0.1372864246 0.5864718556 0.6744875312 -0.4922193885 0.5496753454
0.001121693174 -0.1362386048 0.5911580324 0.6409643292 -0.5024665594 0.577573657
0.01179450843 -0.1182260066 0.5898315907 0.7398164272 -0.4381957352 0.5104896426
0.01277337223 -0.1300003529 0.5809587836 0.714020431 -0.4586770236 0.5286833048
0.01584026031 -0.117442362 0.5846483111 0.7461474538 -0.4312663674 0.5071037412
0.01439190656 -0.1217395514 0.5815091133 0.7373198867 -0.4419439733 0.5108469725
0.01564691216 -0.1258366257 0.5775532126 0.7268229127 -0.4501926303 0.518389225
0.02020970918 -0.122767739 0.5704399347 0.7322195172 -0.4466162622 0.5140500069
-0.08906972408 -0.09527623653 0.602750957 -0.8126536608 -0.3989302218 0.4239995778
0.01250778139 -0.1061288565 0.5982978344 0.7215798497 -0.4721487164 0.505409956
-0.06484898925 -0.06068216264 0.5235322118 0.4464411438 -0.5543140173 0.7023803592
-0.07094337046 -0.06028202176 0.528744638 0.5222799778 -0.5381244421 0.6609910131
0.03262948245 -0.02145307139 0.5567258596 0.6224013567 -0.3326387703 0.6775314808
0.03580645099 -0.02629075758 0.548992157 0.5457308888 -0.5473152399 0.6334636807
0.01625962742 -0.03552658111 0.5772371292 -0.2044479996 -0.3234553635 0.9135133624
0.01871098019 -0.04157477245 0.5791534781 -0.3329104185 -0.3626621664 0.8624005318
0.005924223922 -0.03239911795 0.5658460259 -0.5697807074 -0.4751584828 0.6562265158
0.01044147927 -0.03276758268 0.5721971989 -0.3763673604 -0.398745805 0.8009771705
-0.02470776625 -0.05714262649 0.5183990002 -0.2193737775 -0.6507600546 0.726447165
-0.04118330032 -0.06141157821 0.5143210292 0.09370040894 -0.6086220145 0.7646411657
-0.03461502865 -0.06172651798 0.5135577917 -0.02325499617 -0.6195443869 0.7558262944
-0.02824432962 -0.06268322468 0.5115081668 -0.1471024156 -0.6416187882 0.7385777831
0.0008067422896 -0.04205728695 0.5500252843 -0.5791983604 -0.5732953548 0.5781946778
0.004361020867 -0.04836753756 0.5483143926 -0.5254744291 -0.6388088465 0.5595899224
-0.0744445622 -0.1120327041 0.6099850535 -0.617965281 -0.5312845111 0.573387742
-0.06966995448 -0.118970558 0.6082024574 -0.5695403814 -0.5469223857 0.6131623387
-0.08348383009 -0.1167835221 0.5963366032 -0.7375568748 -0.4177500308 0.5285842419
-0.08463948965 -0.1063629985 0.601854682 -0.7748301029 -0.438416332 0.453828454
-0.08465375006 -0.111680761 0.5982634425 -0.7694128752 -0.421413213 0.4766417742
-0.07909210026 -0.1127879694 0.603231132 -0.6965636015 -0.4783147275 0.5269975662
-0.08920641989 -0.1076850593 0.5877779126 -0.8203599453 -0.3370255232 0.4612569213
-0.07882457972 -0.1264577359 0.5913971663 -0.6872999668 -0.4280773401 0.5853062272
-0.08274070919 -0.1244863719 0.5880829096 -0.7370300293 -0.3847605288 0.5539727211
-0.06431430578 -0.08472589403 0.6441541314 -0.4351610243 -0.5793866515 0.687451303
-0.01512267347 -0.09045761824 0.6435564756 0.2813722491 -0.613969624 0.7351555824
-0.01049149595 -0.09172002971 0.6408248544 0.342281878 -0.6107631922 0.7123168707
-0.014203039 -0.09576404095 0.638686955 0.3333468437 -0.6180958152 0.7103326321
-0.04488425329 -0.01053328346 0.5619465113 0.1409627646 -0.6963498592 0.7023070455
-0.03639015928 -0.006591479294 0.5644493103 0.006027618889 -0.6897650361 0.7216229439
-0.05250065774 -0.004324306734 0.569633007 0.2493731678 -0.7077764273 0.6562886238
-0.04618098959 -0.001284596161 0.5708984733 0.1666538417 -0.7202219367 0.6718399525
-0.06570923328 -0.05214422196 0.5319826007 0.4749413133 -0.5788024068 0.6598228216
-0.06003005803 -0.05503584817 0.525439024 0.3886401653 -0.5946835279 0.6967931986
-0.07260737568 -0.05076113716 0.5398534536 0.5718513131 -0.5556451678 0.5948365927
-0.0721373409 -0.05401905626 0.5343734622 0.5635969639 -0.542724669 0.6213672161
-0.06783894449 -0.1044649631 0.6241931915 -0.5292744637 -0.5765283108 0.6191057563
-0.07416097075 -0.09584911168 0.6258837581 -0.5931297541 -0.5551909804 0.581379652
-0.05789698288 -0.09658373892 0.6385086775 -0.3456508815 -0.6180359125 0.7050217986
-0.05865022168 -0.1011542752 0.6332407594 -0.3796896636 -0.6140016913 0.6849181056
-0.05354650691 -0.1038698629 0.6322752833 -0.3061460853 -0.6301665306 0.7109582424
-0.06293661147 -0.1093804389 0.6240369081 -0.4581803381 -0.6051333547 0.6507896781
-0.06343392283 -0.1027866378 0.629881084 -0.4531671703 -0.6024012566 0.6567685604
-0.05624076724 -0.1123329327 0.6245924234 -0.3450464308 -0.6321488023 0.6924491525
-0.06722194701 -0.1094459668 0.6184771657 -0.5271328092 -0.5845776796 0.6107401848
-0.06233707815 -0.1139416471 0.6190620065 -0.4394600987 -0.6050491333 0.6551811099
-0.05712113529 -0.1065958366 0.6290642023 -0.3594860137 -0.6287950873 0.6882299185
-0.09032483399 -0.04229514301 0.5717083216 0.7004721761 -0.4883001745 0.5204164386
-0.0933945775 -0.07904795557 0.5662807226 -0.1381051987 -0.3572401702 0.4329577088
-0.09270951152 -0.07167791575 0.5652976632 0.08854211122 -0.395696789 0.4546861351
-0.09090384841 -0.05245628953 0.5623878241 0.6871936321 -0.4977371693 0.5123671889
-0.09147008508 -0.06302081048 0.55621171 0.5276447535 -0.4808340669 0.5034106374
-0.09218515456 -0.06513351202 0.5659566522 0.2564068735 -0.4221257269 0.469498843
-0.09151670337 -0.07288147509 0.5572161078 0.2260369062 -0.43402493 0.4772828817
-0.09140123427 -0.06929372996 0.5526528955 0.4588364661 -0.4787948132 0.5028994679
-0.09404373914 -0.08542326093 0.5728714466 -0.4647062123 -0.2935923934 0.3968793452
-0.08950984478 -0.05819810182 0.5634945035 0.4622857273 -0.4550742805 0.490745455
-0.09024125338 -0.06604611874 0.5605453253 0.3116670549 -0.4391216934 0.4810808003
-0.09452496469 -0.09195067734 0.5726762414 -0.6439977288 -0.2658752203 0.3811351061
-0.08726593107 -0.0374628678 0.5709163547 0.6862207055 -0.4911855161 0.536290884
-0.08043971658 -0.08953115344 0.6243206859 -0.6581996679 -0.5088302493 0.5495332479
-0.07722187042 -0.08605935425 0.6300764084 -0.5957199931 -0.5313552022 0.5912474394
-0.0741802156 -0.08574423194 0.6355685592 -0.5440884233 -0.538582921 0.6369590759
-0.08532387763 -0.08978150785 0.6160421371 -0.7261281013 -0.4685863853 0.5013974905
-0.08349138498 -0.1008400023 0.6080608964 -0.7524139285 -0.4521248639 0.476139009
-0.07969572395 -0.1027112976 0.6131861806 -0.7019480467 -0.483948499 0.5212126374
-0.07983648777 -0.1082617119 0.6078209877 -0.7109358907 -0.4768765569 0.5159441233
-0.08579409122 -0.04388280958 0.5623670816 0.6884682178 -0.5017316937 0.5236718059
-0.07839435339 -0.03297917917 0.562523365 0.6600310802 -0.5105147958 0.5510092378
-0.0757829994 -0.03648738191 0.5555331707 0.6040599942 -0.5489554405 0.5757500529
-0.00912669301 -0.04005990922 0.5435546041 -0.4654848874 -0.5955369473 0.6526568532
-0.02778016962 -0.03357678279 0.5403719544 -0.188376531 -0.6623290777 0.719687283
0.003428129945 -0.02680793777 0.5550162792 -0.2609623373 -0.579016149 0.6327847242
0.02990712784 -0.02465697005 0.55135113 0.4027976394 -0.5573715568 0.6394443512
0.0009501588647 -0.03124704771 0.5612117052 -0.5708044171 -0.5213730931 0.6297584772
0.001903090277 -0.02749988437 0.5653873086 -0.5489691496 -0.5283784866 0.6467941403
-0.03384686634 -0.1345721185 0.607943356 0.06578885019 -0.6613194346 0.7460470796
-0.06094229221 -0.1194173098 0.6160320044 -0.4198773205 -0.6120444536 0.6673026085
-0.0698364377 -0.1314368546 0.6006347537 -0.5414972305 -0.5399137735 0.6421033144
-0.06652467698 -0.1249816194 0.6055895686 -0.5228997469 -0.5440915823 0.6554316878
-0.07085065544 -0.1238441467 0.6021502018 -0.5816345811 -0.5214806199 0.623231709
-0.07923112065 -0.1208853349 0.6004679799 -0.6786785126 -0.4690303206 0.5617727041
-0.0652326718 -0.1393835247 0.5985477567 -0.4608716071 -0.5803741813 0.6655569077
-0.06455930322 -0.1308887601 0.6031315327 -0.4884238541 -0.5649639964 0.6646769643
-0.06078671664 -0.1279647499 0.6074104905 -0.4470897317 -0.5709912181 0.6866083145
-0.03734023869 -0.1401051432 0.6032498479 0.009703517891 -0.6573796272 0.7494581938
-0.09295330197 -0.1093730032 0.5802441239 -0.869459033 -0.2748365998 0.4049565792
-0.1001815423 -0.1143521816 0.5657960176 -0.9024612904 -0.1912668794 0.3419626355
-0.09669180214 -0.1034953669 0.5661607981 -0.9436622262 -0.1416137516 0.2921513021
-0.09610620886 -0.1051138639 0.574914217 -0.9085839391 -0.2170431018 0.3454298079
-0.05946432799 -0.03597299755 0.5420352817 0.398239702 -0.6303630471 0.6653652191
-0.06117639318 -0.03180866688 0.5475170016 0.4221035242 -0.6252144575 0.6551426053
-0.05429014936 -0.03728962317 0.5386039615 0.2906593084 -0.6556811333 0.6957405806
-0.01661877707 -0.1139052212 0.6216396093 0.3293973505 -0.6461068392 0.6783509254
-0.06255260855 -0.09332660586 0.6388468146 -0.4175395966 -0.5923900604 0.6877120137
-0.06980523467 -0.09820890427 0.6287776232 -0.5433423519 -0.5716392398 0.6135718822
-0.06411866844 -0.09812621027 0.633458972 -0.4509013891 -0.5914357305 0.6681367755
-0.05407005548 -0.08447825164 0.6460698843 -0.2673896551 -0.6001776457 0.7533037663
-0.02011575922 -0.08858004212 0.6459732056 0.2034196109 -0.6186140776 0.7566768527
-0.05012648553 -0.1159528345 0.6238036156 -0.2389211953 -0.6528095603 0.7138656378
-0.04755324498 -0.1202515736 0.6206258535 -0.1733933091 -0.6712564826 0.7162681222
0.01459927764 -0.108071804 0.5921321511 0.7420697212 -0.4451204538 0.5008714199
0.02097626589 -0.1163255051 0.5680314898 0.676815331 -0.4694496989 0.5267259479
0.01983239315 -0.08825751394 0.5642054677 0.3324545026 -0.6158374548 0.6158823371
0.01995603181 -0.09861575812 0.5675092936 0.4761890471 -0.554314971 0.5775853395
0.01940445974 -0.1026558504 0.5725994706 0.5657094121 -0.5152499676 0.551808238
0.01969878003 -0.1071559489 0.5666584373 0.5475215912 -0.5250865817 0.5619360805
0.01901011541 -0.1142158732 0.5797825456 0.7455086112 -0.437717557 0.5024262667
0.01691027731 -0.1114065126 0.5858492255 0.7504072189 -0.4319585562 0.5002042055
0.0193580091 -0.1202907041 0.5768159628 0.7400573492 -0.439373523 0.5090407133
0.005233814009 -0.1285256296 0.5899324417 0.6929299235 -0.4631410241 0.5471764803
-0.03417337686 -0.01265095826 0.5589589477 -0.05139856413 -0.6835127473 0.7248288989
-0.02719667554 -0.01232929993 0.5605675578 -0.1709139347 -0.6829630136 0.7038331032
-0.03427864239 -0.01723322459 0.5546951294 -0.04805857688 -0.6811500788 0.7290576696
-0.0279929135 -0.01808095165 0.5549014211 -0.1587793827 -0.6686711311 0.7219141722
-0.08994749188 -0.09913479537 0.5982960463 -0.823040843 -0.379907608 0.4213987887
-0.0894073844 -0.1045073494 0.5945610404 -0.8212102652 -0.3737152219 0.4292173088
0.007729466539 -0.07126389444 0.5336998105 -0.4254298806 -0.4380328357 0.789698422
-0.006331099663 -0.05200073496 0.5346887112 -0.4737731516 -0.5713158846 0.669899404
-0.01126442477 -0.0529650636 0.5306957364 -0.4329198003 -0.5931841135 0.6781331897
-0.01427584514 -0.04626228288 0.5350570083 -0.383061558 -0.6108457446 0.6919531226
0.02494204044 -0.05731194839 0.5362462401 0.02014443651 -0.07948013395 0.97221452
0.01809268445 -0.06563133746 0.5369487405 -0.0148674855 -0.3815436661 0.8613796234
0.01530877315 -0.05753191561 0.5355040431 -0.1788588613 -0.3626556396 0.8966327906
0.005948239937 -0.06031521782 0.5291227698 -0.3323599398 -0.3521742821 0.7888215184
0.014107408 -0.06283669919 0.5331383944 -0.262488842 -0.2407092452 0.8745011687
0.0178267695 -0.05335020274 0.5325013399 0.01799914613 -0.4458532631 0.8241177201
0.0006115684519 -0.05814697593 0.5282981396 -0.3189946413 -0.5319733024 0.7160429955
0.01216676645 -0.05217839777 0.5320200324 -0.051186461 -0.4796903431 0.7827523947
0.02506054752 -0.05155238509 0.5348534584 0.112593323 -0.2980952859 0.9050844908
0.01290771738 -0.04420941696 0.5682742 -0.5608897805 -0.4177348018 0.6846658587
0.01339312177 -0.04875922948 0.5632508397 -0.7068099976 -0.4903979301 0.5064818263
0.02039702982 -0.06521756202 0.5550301671 -0.1379001737 -0.6204178929 0.6268377304
0.02056624927 -0.0583384335 0.5559337139 -0.2636978328 -0.5468673706 0.5921123028
0.02548882924 -0.06819397956 0.5465419292 0.2390559316 -0.6296690106 0.7083551288
0.02329669148 -0.06241918355 0.5509597659 -0.01230439637 -0.5781267285 0.6491547227
0.02016539127 -0.07116603851 0.5543825626 -0.03444825485 -0.6843908429 0.6557670236
0.02875054628 -0.06315389276 0.5417041779 0.35491997 -0.5555039048 0.73393929
0.02011389285 -0.04667067528 0.5700042248 -0.4631172419 -0.4433304071 0.6485372782
0.02462488599 -0.04445128143 0.5652416945 -0.2376709729 -0.4578092694 0.6338528991
0.03632954136 -0.03853448108 0.5537058115 0.350245297 -0.490364641 0.610522151
0.02053382993 -0.04797839001 0.5616946816 -0.4703947306 -0.4926796556 0.505733788
0.03579778597 -0.0435976088 0.5466548204 0.2800221741 -0.5079719424 0.6200698614
0.03172950447 -0.04254822433 0.5528930426 0.09675844014 -0.5048334599 0.5521482229
0.02710445412 -0.0458804667 0.5553723574 -0.1459262967 -0.4998240173 0.5497481227
0.03354511783 -0.0548029542 0.5402735472 0.4236083627 -0.5155807734 0.7121056318
0.0256379135 -0.05567527562 0.5490816236 -0.008186693303 -0.5064578056 0.6386672854
0.02265482396 -0.05253792554 0.5551378131 -0.2676486969 -0.4993080497 0.5776072145
0.0314200446 -0.04709358141 0.5489041805 0.08627845347 -0.5046316385 0.6159326434
0.03103140742 -0.05175749585 0.5456935763 0.1937804371 -0.5091263056 0.6567873955
0.007117354311 -0.1015648544 0.6140159965 0.6350576878 -0.5409163833 0.5498098135
0.009530412033 -0.1022560224 0.608538568 0.6655566096 -0.5241777301 0.5289453268
-0.02069344372 -0.1253365278 0.6142078042 0.2780447006 -0.6506819725 0.7015962601
0.01852625795 -0.02399643138 0.5773619413 0.2616147399 0.06281784177 0.9201277494
0.03227258846 -0.02776444517 0.5608242154 0.5675891042 -0.2188501656 0.733109355
0.02949951962 -0.02268445306 0.5639060736 0.5993615985 -0.1371525079 0.7570026517
0.03611207381 -0.02969631366 0.5548291802 0.6172412634 -0.3347480893 0.6611969471
0.0400627926 -0.03540569916 0.549731195 0.5877627134 -0.4678633213 0.6070494652
0.02323954552 -0.03333106264 0.5761024952 0.1198149323 -0.1290694475 0.8787372708
0.02628104761 -0.03445316851 0.5713445544 0.1750004143 -0.2102674097 0.8244444132
0.03200978041 -0.03450054675 0.5623558164 0.360300988 -0.3080364764 0.7364928722
0.02409725823 -0.0398777239 0.5748426914 -0.1099487767 -0.3183244169 0.8202753663
0.02854785696 -0.02936137095 0.567720592 0.4495590627 -0.112493962 0.8250389695
0.02945986204 -0.03908796608 0.5664174557 0.09635359794 -0.3875729144 0.7437220216
0.01482659392 -0.0415407531 0.5741793513 -0.421862483 -0.3945695162 0.8036828637
0.009142817929 -0.03869669139 0.5661230683 -0.5880333781 -0.4463930428 0.6582071185
0.004663913511 -0.03598860651 0.5610118508 -0.6182659864 -0.4976637959 0.606797576
-0.0485936068 -0.0816609934 0.6498174667 -0.1848252863 -0.5887436271 0.7752600908
-0.04112284631 -0.08441241086 0.6507266164 -0.08930721134 -0.5884370804 0.7922993302
0.009770127945 -0.02717963792 0.5755323172 -0.2412354648 -0.1547088325 0.9292838573
0.00682397699 -0.02230254188 0.5753321052 -0.2250408381 -0.03219666705 0.9330341816
0.0081125414 -0.01882147416 0.5805459023 -0.0294356253 0.2051976174 0.9205107093
-0.04051668942 -0.02923413552 0.5429153442 0.05863698572 -0.6786244512 0.7257198095
-0.03558981791 -0.0261493139 0.5456682444 -0.03356494755 -0.682258904 0.7289545536
-0.01158107352 -0.1219276413 0.6132360697 0.4152049422 -0.6206002831 0.6634386182
-0.01250645611 -0.1164380386 0.6184259653 0.3978847861 -0.6338314414 0.6626728773
-0.01713340171 -0.1210792661 0.617077291 0.3368388414 -0.6430935264 0.6862205863
-0.08511195332 -0.02616085671 0.5777493715 0.6391246319 -0.5083239675 0.5753579736
-0.09009299427 -0.03560230508 0.5760124922 0.6835728288 -0.4900260568 0.5393884778
-0.08619482815 -0.03174572065 0.5745464563 0.6656769514 -0.4958531857 0.5561186075
-0.08206389099 -0.02733571641 0.5717559457 0.6463532448 -0.5062092543 0.5707805157
-0.07665069401 -0.02733916976 0.5650714636 0.6091805696 -0.5335689187 0.5843141079
-0.08282204717 -0.03278328478 0.5691372752 0.6618883014 -0.5012415051 0.5556503534
-0.08407840878 -0.01854059845 0.5822987556 0.6050194502 -0.5259664655 0.5977109075
-0.08612208068 -0.05197203159 0.5541433096 0.6836361289 -0.5078675747 0.5240635872
-0.09050927311 -0.05512813851 0.5572823286 0.6902718544 -0.5028242469 0.5200702548
-0.08871357143 -0.05807556957 0.5517666936 0.6816638112 -0.5116209388 0.5230041146
-0.070379816 -0.04492244497 0.5410091281 0.549464047 -0.5695982575 0.6102385521
-0.07255168259 -0.02744767256 0.5604654551 0.5629559159 -0.5607862473 0.6070691943
-0.06070823967 -0.01552276406 0.5633680224 0.3958444297 -0.6275889874 0.6613134742
-0.06551747024 -0.01952108927 0.5628104806 0.49606511 -0.5900896788 0.6341205835
-0.05444218963 -0.01394710224 0.5615585446 0.2947571874 -0.6605354548 0.6842212081
-0.05147509649 -0.008825485595 0.5646685958 0.2421628684 -0.6975985169 0.6719834805
0.01166190207 -0.05114690587 0.5572217107 -0.6840408444 -0.5758005977 0.4443840086
0.009969681501 -0.05503610149 0.5509395599 -0.5172580481 -0.66617769 0.518473804
0.01357756369 -0.06733644754 0.5469724536 -0.4178038538 -0.6866242886 0.5690953135
0.02018961124 -0.02946763486 0.5493219495 0.1259966046 -0.5536765456 0.6258835793
-0.003557484131 -0.02809601091 0.5555490851 -0.4465377331 -0.5823945403 0.6283149719
0.02606925182 -0.02899193391 0.5481399894 0.283064127 -0.5493937731 0.6289054155
-0.0002676247968 -0.03778300807 0.5536165833 -0.583850503 -0.5488200188 0.5958379507
0.003459771862 -0.0346188508 0.5483931303 -0.2916196287 -0.5674266815 0.6273909807
0.01154541504 -0.03136439621 0.5504162312 -0.122991398 -0.5564671755 0.6173037887
-0.009633406065 -0.03270999715 0.5498529673 -0.4758477509 -0.5934715271 0.6480557919
-0.0056305998 -0.03615362197 0.5494167805 -0.5299882889 -0.5736414194 0.6232874393
-0.06117606163 -0.1230666041 0.6114962697 -0.436735779 -0.5990743637 0.6697232127
-0.05691730231 -0.1237897649 0.6152368784 -0.3575567305 -0.6218627691 0.6947414875
-0.04811640456 -0.126500994 0.6153270006 -0.1847622246 -0.6630197763 0.7218174338
-0.04029155523 -0.1351308674 0.6074051857 -0.04412327707 -0.664257586 0.7403826714
-0.05562216416 -0.1274841428 0.6108396649 -0.3518994749 -0.6102781892 0.7033299208
-0.0379615128 -0.1310556084 0.6115092039 -0.007622305304 -0.6620066166 0.7449918389
-0.04287958518 -0.1276884675 0.6140609384 -0.09318222106 -0.6763617992 0.7266115546
-0.05621999875 -0.1402257979 0.6021348238 -0.3246499598 -0.6224286556 0.7099410892
-0.05475534126 -0.1331718266 0.608602345 -0.3011304438 -0.6235321164 0.7182012796
-0.04887646809 -0.1305897534 0.6101322174 -0.2082019746 -0.6382843256 0.7276342511
-0.05734631419 -0.1335375905 0.6037353277 -0.3627307117 -0.593070507 0.7126129866
-0.09554119408 -0.1093238667 0.568744719 -0.9185771346 -0.1866590083 0.3298090398
-0.09606945515 -0.1113763377 0.5748306513 -0.8862589598 -0.2582288384 0.3822139502
-0.09052014351 -0.1223938018 0.5776540637 -0.8343088031 -0.2961436808 0.4587144852
-0.09039457887 -0.1164992154 0.580904305 -0.8380628228 -0.2985328436 0.4507111311
-0.09766824543 -0.1174489781 0.5714576244 -0.8777370453 -0.2717554867 0.3939474225
-0.06062235683 -0.0199210085 0.5584607124 0.4205658436 -0.6215962172 0.6605976224
-0.06445465237 -0.02478087135 0.5564919114 0.4628439546 -0.612716198 0.6391230822
-0.05526025966 -0.01824880391 0.55669415 0.313182801 -0.6497332454 0.6906298995
-0.04973713309 -0.02281522192 0.5512260199 0.2181461155 -0.6695114374 0.7067316175
-0.06225024909 -0.04169433564 0.5392161608 0.4063764215 -0.6208728552 0.6635187864
-0.05674726143 -0.04193948582 0.535520196 0.3212259114 -0.6432225704 0.6914411783
-0.03150569648 -0.03756786138 0.5363399982 -0.1220645085 -0.6678486466 0.7295616865
-0.02547767758 -0.03914147615 0.5359556079 -0.2275856286 -0.6520920396 0.722609818
-0.03980963677 -0.0413781777 0.5324521065 0.02363526076 -0.6691840887 0.7339720726
-0.04025459662 -0.03690163791 0.5362199545 0.03244223446 -0.6774648428 0.7302169204
-0.03291326389 -0.04265758395 0.5315844417 -0.1148418039 -0.6644262075 0.7369230986
-0.03668665513 -0.0455926694 0.5283192992 -0.03838774934 -0.6681323647 0.7389528751
-0.04472442344 -0.04448901862 0.5292285681 0.1228791773 -0.6657764316 0.7349403501
-0.01524530351 -0.1023203805 0.6327725053 0.3305135071 -0.639995575 0.6903178096
-0.01847985201 -0.09961183369 0.6366903186 0.2710028589 -0.636849463 0.7189595699
-0.07134782523 -0.09161508083 0.6311441064 -0.5364424586 -0.561303854 0.6221717596
-0.06916139275 -0.08463975042 0.6410109997 -0.4816630185 -0.560105145 0.673294425
-0.06808373332 -0.08916778117 0.6379864812 -0.4837705493 -0.556883812 0.6748039126
-0.04555443302 -0.09606739134 0.6434362531 -0.1484071016 -0.6233202219 0.7648323178
-0.03914036602 -0.0962818563 0.6437090039 -0.04572839662 -0.6342455745 0.7685226798
-0.03826476634 -0.09118562192 0.6472768784 -0.03477736935 -0.6185988188 0.7804706693
-0.0269591976 -0.1013111845 0.6386703849 0.1625676751 -0.6476508379 0.7438783646
-0.02104540356 -0.09536939114 0.6421663761 0.2097919732 -0.6325805187 0.7426586747
-0.03492056578 -0.0996099785 0.641161561 0.04028851166 -0.6470419765 0.760961175
-0.02870324068 -0.09559512138 0.6431607604 0.09945967048 -0.6371222734 0.7623484731
0.01777742989 -0.1043936685 0.5831983685 0.6788558364 -0.46484074 0.5165656805
0.01798381284 -0.1001302451 0.5787789226 0.5950051546 -0.5013204217 0.5404239297
0.01854371093 -0.09327490628 0.5628658533 0.3677048981 -0.6019209027 0.6095063686
0.01765353233 -0.1109730601 0.575671494 0.6593116522 -0.4761365652 0.529316783
0.01911332645 -0.08105332404 0.5558311939 0.1853051037 -0.6801769733 0.6585786343
0.01818051003 -0.09649074823 0.573269248 0.5054225922 -0.5406319499 0.5667837262
0.01920761168 -0.07611588389 0.5520500541 0.08099525422 -0.7118986249 0.6745063066
0.01938587427 -0.1042035297 0.560049355 0.3784449399 -0.5438241959 0.5572257638
0.0182159543 -0.08989436924 0.5538030863 0.1175324023 -0.6274607182 0.6008133292
0.01961246505 -0.09677888453 0.5578384399 0.2866246104 -0.5893291235 0.5875015259
0.01700896211 -0.08437181264 0.5496788621 -0.07198350132 -0.6585188508 0.6048787832
0.01608789153 -0.07610023767 0.5455217361 -0.2510284781 -0.7064625025 0.6260072589
0.01653992012 -0.05645693839 0.5618715286 -0.5285428166 -0.5450427532 0.5353381634
0.01359342597 -0.05794466287 0.5548973083 -0.4945766032 -0.6216162443 0.489164412
0.02070251666 -0.07179933786 0.5472316742 0.04767181352 -0.6552665234 0.711374402
0.01479833759 -0.06422377378 0.5518218875 -0.3419647813 -0.665352881 0.5469473004
-0.03235146031 -0.1444829702 0.5999360085 0.08956991136 -0.6690309644 0.7340940237
-0.002641315572 -0.1408280581 0.5920453072 0.5469859838 -0.5658017397 0.6115507483
-0.01398379635 -0.1420584917 0.5975129008 0.3620808721 -0.6252359748 0.6904342175
-0.007482585497 -0.1417030841 0.5952234864 0.4631450474 -0.600522995 0.6506732106
-0.01916901581 -0.137909174 0.602615118 0.2702476084 -0.6358277202 0.7209413648
-0.02156013437 -0.143833831 0.5986126661 0.2549344599 -0.6512871981 0.7115062475
-0.03953333572 -0.0207606703 0.5515748262 0.04190744832 -0.6815029979 0.7256643176
-0.04346657917 -0.02432828955 0.5482268333 0.1063028052 -0.6810411215 0.7221516967
-0.04011665285 -0.016079152 0.5559380651 0.05876125023 -0.6843832135 0.721244216
-0.04888715222 -0.0161149893 0.5570791364 0.2068246752 -0.6748790741 0.7044844627
-0.09334015101 -0.08001761883 0.5785700083 -0.2928847671 -0.365395695 0.4395775497
-0.09254869819 -0.09057467431 0.5922033787 -0.701521039 -0.3512451947 0.4182916284
-0.09314123541 -0.08764883876 0.5867903829 -0.5804473758 -0.3474764824 0.4230053425
-0.09110408276 -0.07790875435 0.5869185328 -0.2699398398 -0.4171964526 0.4516755939
-0.09468839318 -0.09511099756 0.5867536068 -0.8186491132 -0.2943402231 0.4010841548
-0.09252918512 -0.0712768808 0.5742780566 0.006386080757 -0.406971395 0.4620945752
-0.09102888405 -0.06046589836 0.5709767938 0.3685936332 -0.4687471688 0.4914544523
-0.09126307815 -0.08347467333 0.589933157 -0.4493688941 -0.3988835514 0.4379462004
-0.09087344259 -0.08665499091 0.5960768461 -0.595585227 -0.396884352 0.4325777292
-0.09095557034 -0.07144577056 0.5812059641 -0.03102670237 -0.4389908612 0.4666608274
-0.09100162238 -0.06615076959 0.5758865476 0.1668415666 -0.4533309937 0.4784442186
-0.09136895835 -0.09238294512 0.5973889232 -0.7683958411 -0.3714076281 0.4172562361
-0.09485979378 -0.09944297373 0.5788420439 -0.8977885842 -0.234175086 0.3679525554
-0.09333536774 -0.1017557308 0.5860988498 -0.8797852397 -0.2725386024 0.387778908
-0.09251988679 -0.09919312596 0.5913777947 -0.8486317992 -0.3276526034 0.4137978256
-0.01794757508 -0.06510180235 0.5127959847 -0.2770547569 -0.6170318723 0.7305698991
-0.009739708155 -0.06554975361 0.5202736855 -0.3520232439 -0.5791690946 0.7270911336
-0.02235966548 -0.06501302123 0.5086011291 -0.232495442 -0.6372931004 0.734436214
-0.003138842294 -0.06487374008 0.5263919234 -0.4462144077 -0.5522796512 0.7010793686
-0.01752233133 -0.06120669097 0.5200235844 -0.3470311463 -0.6223580241 0.6970896721
-0.02319634706 -0.06201743707 0.5139147639 -0.2301997244 -0.6377711892 0.7340282798
-0.01529923733 -0.05730367079 0.5243378282 -0.4055209756 -0.6208607554 0.6698675752
-0.004225727636 -0.05775695294 0.5318807364 -0.4566910863 -0.5504609346 0.6982476711
0.0005366934347 -0.05858833343 0.5351065397 -0.4382893443 -0.5637154579 0.6992669106
0.009758080356 -0.06253048778 0.5439744592 -0.3949260414 -0.609428525 0.6720363498
0.00716808578 -0.0558924973 0.545399189 -0.427598536 -0.6500700712 0.6202529669
0.0003610414278 -0.05223860592 0.5348238945 -0.3429339528 -0.5407835245 0.7068358064
0.006901398767 -0.04998029396 0.5351675749 -0.1871608198 -0.5124672651 0.7412906289
0.0007979832008 -0.05135479942 0.5411669612 -0.4903647602 -0.6165723205 0.6143885255
-0.006895480212 -0.04743527994 0.5376726389 -0.4832036793 -0.5838480592 0.6522877812
-0.004423263483 -0.04496860132 0.5424144864 -0.5220285654 -0.5863010287 0.6189002395
0.001145891962 -0.0457017608 0.5399247408 -0.3566147387 -0.5509382486 0.6737077832
0.01178435702 -0.04702311009 0.5368310213 -0.0875108093 -0.4948003888 0.7554957867
0.005050668027 -0.098844558 0.6198824644 0.5982481241 -0.5574821234 0.5748654604
0.0045697405 -0.1068083644 0.6108781099 0.631562829 -0.5428845286 0.5502455235
0.001691476791 -0.1040847301 0.6185757518 0.5847622156 -0.5708405972 0.5752646923
-0.001079160487 -0.1087170318 0.61587286 0.5771192312 -0.5723880529 0.5806217194
0.001402809401 -0.09705488384 0.6245165467 0.5424348712 -0.5789569616 0.6068626046
-0.004382812884 -0.1021540835 0.6248137951 0.4672159553 -0.6117345691 0.6378746033
-0.001987360651 -0.1281023324 0.5988046527 0.5870888829 -0.5077736378 0.6296940446
-0.008069314063 -0.1307234615 0.6013769507 0.4805622697 -0.5608215928 0.6643403769
-0.008340934291 -0.136642158 0.598772645 0.4559784532 -0.5870358348 0.6663865447
-0.01332471799 -0.1340163946 0.6031453013 0.3653636575 -0.6012329459 0.7068690062
0.001614835695 -0.1306460649 0.5943068266 0.6639958024 -0.4787529707 0.5736841559
0.003396552056 -0.1243000701 0.5966498852 0.6869206429 -0.4642457962 0.558067739
-0.01589309797 -0.1269124448 0.6114287376 0.3540868461 -0.6277168393 0.6923757792
-0.01279538125 -0.1296245903 0.6068264246 0.4112519622 -0.5982825756 0.685824573
-0.01955869235 -0.130303219 0.6076327562 0.2992164195 -0.6314795613 0.7108261585
-0.007903607562 -0.126577124 0.6059895158 0.4844388962 -0.5600409508 0.670030117
-0.01305805519 -0.0144504495 0.5641283393 -0.4122802913 -0.6418447495 0.6456255317
-0.00883889012 -0.02004887722 0.5625033379 -0.4396618903 -0.6083843708 0.6598010063
-0.007185879629 -0.01601236686 0.5677658916 -0.4216991365 -0.610720098 0.6678990126
-0.01316111628 -0.009991250001 0.5682144761 -0.3749415576 -0.6684535146 0.6370714307
0.003772512777 -0.0244246386 0.5701594949 -0.4174354672 -0.3577550054 0.7925430536
0.004385767039 -0.0156503506 0.5677473545 -0.1631383896 -0.3925095499 0.6748126745
-0.0002257257293 -0.01890718751 0.5712716579 -0.4172723293 -0.5582614541 0.7136744857
0.005377899855 -0.01421330869 0.5753602982 -0.07397347689 -0.03528675064 0.7888237238
0.02205323055 -0.01767201163 0.5662825108 0.5161800981 0.164314881 0.7892964482
0.01069622673 -0.01542603783 0.5714584589 0.1004527286 -0.02902294137 0.7710126638
-0.00104507606 -0.01360108051 0.5742149353 -0.3793952465 -0.4007993042 0.707325995
0.02551140822 -0.02317380533 0.569093287 0.5154563785 0.03447456658 0.8376115561
0.01160503365 -0.02319477499 0.5587462187 0.09739623964 -0.2599038184 0.6899032593
0.02112626657 -0.02074111626 0.5602261424 0.4267370403 -0.0674475953 0.7247419357
0.01682243124 -0.02531758323 0.5536693931 0.0772941485 -0.5629389882 0.6376346946
0.02399946563 -0.02290119044 0.555747509 0.3583382964 -0.3510859907 0.6755616069
0.01779222861 -0.01902978495 0.57364887 0.3447459638 0.1987372786 0.8654097319
0.01253125351 -0.01641602255 0.5773494244 0.2160671055 0.2872283757 0.8872748613
-0.02988096699 -0.02859651484 0.5445225835 -0.1456109434 -0.6678532958 0.7260064483
-0.03339011222 -0.03137185797 0.541236639 -0.09371639788 -0.6662070751 0.7379081249
-0.03326189891 -0.02202770114 0.5506488681 -0.07295978814 -0.677284956 0.7282427549
-0.02661243267 -0.0231786035 0.5501421094 -0.1901860535 -0.6665676236 0.7191520333
-0.07538665831 -0.04664846882 0.5456533432 0.6200985909 -0.5416074395 0.5664106607
-0.0815128088 -0.04731526971 0.5514301658 0.6699986458 -0.5151506662 0.5343553424
-0.07702276111 -0.04298213124 0.5506982803 0.6477396488 -0.5290374756 0.5479842424
-0.08658091724 -0.04969946295 0.5598582625 0.6927974224 -0.5000896454 0.5191329718
-0.08320079744 -0.03783658519 0.5649040937 0.6779202819 -0.4980190694 0.539937377
-0.08369755745 -0.04484073818 0.557164073 0.6833506823 -0.5051302314 0.5271127224
-0.07491000742 -0.01056618337 0.5787531734 0.5418952107 -0.5695409775 0.6148509383
-0.07438894361 -0.02151873522 0.5685979724 0.5936666131 -0.5391945839 0.5952938795
-0.07087060809 -0.02306536213 0.5640110373 0.5600089431 -0.5591675043 0.6106815338
-0.08048730344 -0.01946199499 0.5773161054 0.6086177826 -0.5259307027 0.5939138532
-0.07616654038 -0.01726508513 0.573592782 0.5880137086 -0.5440118909 0.5975531936
-0.05067897588 -0.1374435425 0.6055088043 -0.229598999 -0.6436887383 0.7271891236
-0.04518919811 -0.1397257149 0.6036564112 -0.1344759315 -0.6475508809 0.7496016026
-0.05057121068 -0.1415118873 0.5998484492 -0.2283077389 -0.6294267178 0.7318435907
-0.066902183 -0.04782830551 0.5356047153 0.4976647794 -0.5814131498 0.641079545
-0.05934767798 -0.05017617717 0.5292670131 0.3767911792 -0.6054460406 0.6934497952
-0.06058196723 -0.04628232867 0.5333653688 0.3925899565 -0.6138927937 0.6792951226
-0.03295868635 -0.1043181196 0.6362816095 0.0530215092 -0.6525933146 0.752224803
-0.04297173768 -0.1005746275 0.638364315 -0.1148864999 -0.6409743428 0.7455014586
-0.03455113247 -0.1094751656 0.6320793033 0.02521302365 -0.6694959402 0.7417252064
-0.02741613612 -0.1069985703 0.633007884 0.1550561637 -0.6588879228 0.7320685983
-0.03366962448 -0.08842059225 0.6503466964 0.01559728198 -0.5910235643 0.8053494692
-0.02693445422 -0.09051682055 0.6460541487 0.09590747952 -0.6328746676 0.7671416998
-0.0399736017 -0.1176565662 0.6238327622 -0.05681592599 -0.6822381616 0.7239510417
-0.03657532483 -0.1210740134 0.6205872297 0.01309335418 -0.6841243505 0.7268135548
-0.04261185974 -0.1221959293 0.6193032265 -0.07948296517 -0.6804351807 0.7244713902
-0.03768252954 -0.1257764101 0.6159094572 0.005571557675 -0.6799112558 0.7289043665
-0.00749103725 -0.09674520791 0.6347731352 0.4042506814 -0.6039803624 0.6862713695
-0.01170717832 -0.1060517281 0.6286759973 0.3962413669 -0.6269718409 0.6703995466
-0.007712905761 -0.102207303 0.6303757429 0.424660176 -0.6104911566 0.6681794524
-0.003815054661 -0.09763143957 0.6296309829 0.4544761479 -0.6080280542 0.6499707103
0.008599072695 -0.06681730598 0.5385892391 -0.3626440763 -0.5613461137 0.7414150834
0.002259822097 -0.0658801198 0.5312661529 -0.4494653046 -0.5245773196 0.7221394777
-0.008412198164 -0.1108239144 0.6198894382 0.4553011954 -0.6116873026 0.6459894776
-0.007516491693 -0.1166491136 0.6142871976 0.4950773418 -0.6007914543 0.6227584481
0.01587725431 -0.01850292459 0.5631451011 0.2750021815 -0.1187893525 0.7170034051
0.007371055894 -0.0210589543 0.5624726415 -0.07043214142 -0.3149107099 0.6853137612
-0.003433851758 -0.02575692721 0.5609791875 -0.5177972317 -0.5673625469 0.6395557523
0.001405229676 -0.02264918759 0.5618392825 -0.2971563339 -0.4477276802 0.6627608538
-0.0161917638 -0.02212839574 0.5555081367 -0.3481333852 -0.6397353411 0.6844289899
-0.02058961056 -0.02516648173 0.5511721373 -0.2958622575 -0.645129323 0.7014709711
-0.02403703332 -0.02816741355 0.5464784503 -0.2435700148 -0.6572810411 0.7111779451
-0.01725183986 -0.03117540106 0.5469025373 -0.3517279923 -0.6300384402 0.6912276149
-0.02265820093 -0.03221984953 0.5432159901 -0.2712495625 -0.6503529549 0.7066190839
-0.08050131798 -0.05358978361 0.5460200906 0.6498785019 -0.527602613 0.546733439
-0.08346626908 -0.06550182402 0.5373094678 0.6215436459 -0.5311889648 0.5754222274
-0.08698245138 -0.0644062534 0.5428409576 0.6466905475 -0.523902297 0.5526783466
-0.08344957978 -0.0594689399 0.5453153849 0.6581112146 -0.5222227573 0.542337656
-0.02326958627 -0.1136368588 0.6258880496 0.2285112143 -0.671325922 0.7038050294
-0.01632718556 -0.1089171767 0.6277953386 0.3403422236 -0.6420312524 0.6840744615
-0.03883060068 -0.1050115526 0.6356908679 -0.04627756774 -0.6545513272 0.7480402589
-0.05052874237 -0.1009406894 0.6378708482 -0.241449818 -0.6418361664 0.7236320376
-0.0371474959 -0.1138866618 0.6277698278 -0.01596011408 -0.6825546026 0.7274665833
-0.04486495256 -0.1148312464 0.6264489889 -0.1579426825 -0.6663953066 0.7283418775
-0.0468423292 -0.105956763 0.6343461871 -0.1816658527 -0.6615472436 0.7244346142
-0.04865582287 -0.1101563126 0.6291853189 -0.2147637457 -0.6566738486 0.7142732143
-0.03083703108 -0.120926328 0.6215729713 0.09942629933 -0.6863851547 0.7176782489
-0.0207365267 -0.1182244718 0.6209326386 0.2689431608 -0.6622924805 0.6950400472
-0.03247258812 -0.116127193 0.6255380511 0.0691190809 -0.6862791777 0.7213720679
-0.02784187719 -0.1115519553 0.6293644905 0.1563082337 -0.6765514612 0.7188347578
-0.02837986127 -0.1305109859 0.6107445955 0.1445367634 -0.654530406 0.7415058017
-0.0269310791 -0.1241720021 0.6176687479 0.1656158566 -0.6746331453 0.7188612819
0.001135770697 -0.117743507 0.6057425737 0.631773293 -0.5224591494 0.568287611
0.0005957273534 -0.1223108545 0.6022500992 0.6360403299 -0.495662272 0.5881868601
-0.002001213375 -0.1143004447 0.6119962335 0.5909145474 -0.5615502596 0.5767710805
0.00245780265 -0.1119849533 0.6061221361 0.6371682882 -0.5218478441 0.5549080372
0.007734404411 -0.1092232987 0.6043034792 0.6779751778 -0.5155553818 0.5236013532
0.007089146413 -0.114928171 0.5995740891 0.7098443508 -0.4646945298 0.5271165967
