# .PCD v0.7 - Point Cloud Data file format
VERSION 0.7
FIELDS x y z normal_x normal_y normal_z
SIZE 4 4 4 4 4 4
TYPE F F F F F F
COUNT 1 1 1 1 1 1
WIDTH 512
HEIGHT 1
VIEWPOINT 0 0 0 1 0 0 0
POINTS 512
DATA ascii
0.03314967081 -0.0614407286 0.5630773306 0.301971674 -0.6990468502 0.6207646132
-0.06134584546 -0.05007750168 0.5406371355 0.3887876868 -0.7236984372 0.5619187355
-0.05907808617 -0.04474376515 0.5444897413 0.3261316419 -0.7682723999 0.5482773185
-0.06876806915 -0.04590183869 0.5494211912 0.3937140107 -0.7414623499 0.5431525111
-0.06761267036 -0.04975289851 0.5440309644 0.4172342122 -0.7271852493 0.5425182581
-0.06149561331 -0.04064089805 0.5504306555 0.3439185321 -0.7696166039 0.5374888778
0.02265746333 -0.06209245324 0.5712586641 -0.1446935833 -0.9513718486 0.2419242412
-0.07190973312 -0.1119341999 0.5142615438 -0.09301324934 -0.5917284489 0.5020022988
0.03693178669 -0.06163014472 0.5578109026 0.3905782998 -0.6439889669 0.6574540138
-0.01836087741 -0.08654244989 0.4930585325 -0.3715188205 -0.68026191 0.6133039594
-0.0173730962 -0.09361883998 0.4874817133 -0.3867114782 -0.6396002173 0.6372042894
-0.06514759362 -0.09862472117 0.4892141819 0.4368433952 -0.649094224 0.6219536662
-0.06185937673 -0.09246696532 0.4909549654 0.443359375 -0.6482774019 0.617805779
-0.03676295653 -0.08574923873 0.4853994548 -0.04501499608 -0.7021021247 0.6978862286
-0.02583419718 -0.08976813406 0.4843159318 -0.2571580708 -0.6355414391 0.724435389
-0.05237677693 -0.04387449473 0.5410740376 0.2348859012 -0.7763037682 0.5819786191
-0.05152613297 -0.03991319612 0.5457782149 0.1942989826 -0.7935657501 0.5754709244
-0.0712453872 -0.05466058105 0.5428527594 0.4724748135 -0.6917781234 0.5459350944
-0.07235239446 -0.05285488814 0.5481368303 0.4637577236 -0.6984460354 0.545019567
-0.07944958657 -0.05690093338 0.5555139184 0.4640870094 -0.6982296705 0.5450549722
-0.07273346931 -0.04949996993 0.5534578562 0.4177566767 -0.7246685028 0.5452696681
-0.05713597313 -0.118552953 0.5798290968 -0.3420801163 -0.7854927778 0.5064504147
-0.06134169549 -0.1196529493 0.5753466487 -0.4326097071 -0.7704105973 0.4674924612
-0.0685890764 -0.1206462532 0.5683630109 -0.5568193793 -0.7049282789 0.4346978366
-0.06993839145 -0.1186195686 0.5630341172 -0.5968834162 -0.6820446849 0.4183880687
-0.05087514594 -0.1160736382 0.5900771618 -0.1249842271 -0.8201729655 0.5566340089
-0.04198136926 -0.1159939244 0.5893386006 -0.03470662236 -0.8218260407 0.5639167428
0.03123638965 -0.05816363543 0.5565438271 0.2712422609 -0.6532139778 0.6471714377
0.02165237814 -0.05770993233 0.5551550984 0.03644249961 -0.7128310204 0.5549424887
0.01372086909 -0.05750311539 0.5519651771 -0.1080534384 -0.7121933103 0.5439290404
0.004899996333 -0.0572504513 0.5486916304 -0.2754429877 -0.7181963325 0.5229084492
0.02590974793 -0.05733606964 0.5627344251 -0.02922720276 -0.8568535447 0.3730779588
0.01938675344 -0.05698126182 0.5623460412 -0.2026273012 -0.9110649228 0.2924858928
-0.04785019159 -0.05551050976 0.5266545415 0.1707564741 -0.7540741563 0.6006125808
-0.07135386765 -0.09283275157 0.4996845424 0.52507025 -0.6245491505 0.5777322054
-0.07272487134 -0.1113679409 0.5215499997 -0.1616187394 -0.579159677 0.4839376211
-0.0726910308 -0.1175792292 0.5254417658 -0.3571846187 -0.5697835088 0.4606944025
-0.07293554395 -0.1044603884 0.5187733769 0.0388808772 -0.5869646668 0.5060541034
-0.07332263887 -0.08824994415 0.5112951994 0.5199431181 -0.6069073677 0.5602709651
-0.07146508992 -0.102921769 0.5045515299 0.2325066626 -0.6116964221 0.5437071323
-0.07316016406 -0.09416080266 0.5138308406 0.3466256857 -0.5999587178 0.5409616232
0.02061069757 -0.06814528257 0.5674092174 0.08932536095 -0.8364931345 0.4229300022
0.02673389949 -0.06471315771 0.5685267448 0.1047945544 -0.8135015965 0.4644365311
-0.008223437704 -0.09516786784 0.4899489284 -0.5727639794 -0.5456122756 0.6008976698
0.03413661942 -0.06636230648 0.5590795279 0.3940837681 -0.6499501467 0.6460859776
0.0245284196 -0.0685615465 0.5632330179 0.1989578307 -0.7744616866 0.4919293225
0.02769773081 -0.07077727467 0.556188643 0.2365330607 -0.7669366598 0.4852442443
-0.01271948032 -0.07411474735 0.5123721361 -0.5053854585 -0.7133447528 0.4844618738
-0.01178834215 -0.07152523845 0.518783927 -0.5357062817 -0.6912438273 0.4834329784
0.0410945937 -0.06621317565 0.5490939021 0.4308375716 -0.6431141496 0.6327926517
-0.03611030057 -0.117087774 0.5858101249 0.0490465872 -0.7873994708 0.5848335624
-0.02863701805 -0.1165866926 0.5849776268 0.1883548945 -0.7662212253 0.6030387282
-0.01116700564 -0.0693128705 0.5253486633 -0.5659864545 -0.6581430435 0.4772340953
-0.006895282771 -0.0765254721 0.5174940825 -0.560020864 -0.6800041199 0.4717626572
0.006554050837 -0.09352492541 0.5059388876 -0.7141255736 -0.3817670941 0.50182724
0.00383025757 -0.09862321615 0.4979441464 -0.7322057486 -0.3896602988 0.5183336139
0.01013198216 -0.09747546911 0.50415802 -0.6552494764 -0.3173967004 0.6050198078
0.01489105262 -0.0969722867 0.5084313154 -0.5959324837 -0.2609790266 0.674749732
-0.00936565455 -0.09185747802 0.4941427708 -0.515811801 -0.6313524246 0.5644850135
-0.0005633788533 -0.09286500514 0.5007842779 -0.7586326003 -0.4648678005 0.4406200349
-0.001547618187 -0.09680635482 0.495177865 -0.7214182019 -0.4507149756 0.5161479115
-0.02384157293 -0.08673290908 0.4905968308 -0.2731342018 -0.6931698918 0.6424232125
-0.01597751305 -0.07788521796 0.5043068528 -0.4332579374 -0.7081598043 0.5559350252
-0.01318037882 -0.08556078374 0.4966623783 -0.4515461028 -0.6790391803 0.5771376491
-0.07035862654 -0.1032982767 0.4898536205 0.4354813099 -0.6453605294 0.6274560094
-0.04456459731 -0.03822949901 0.5460973382 0.08911614865 -0.8567167521 0.5062019229
-0.03672703728 -0.04167965055 0.5416021347 -0.0659641847 -0.818819046 0.5652855635
-0.03796190396 -0.03845201805 0.546554029 -0.009918989614 -0.8318862319 0.5499038696
-0.03498999774 -0.0492326282 0.5296938419 -0.1522141844 -0.7812960744 0.6045572758
-0.03766863421 -0.04693733901 0.5339521766 -0.07169498503 -0.7935860753 0.5949881673
-0.04482102394 -0.0476786755 0.5339403152 0.1226413101 -0.7905589342 0.5990849733
-0.06194971874 -0.1211170405 0.5694611669 -0.4943591356 -0.7323815823 0.4572404027
-0.06588744372 -0.05383185297 0.539670229 0.4555806816 -0.6968613863 0.5536743402
-0.01499796659 -0.06195640191 0.5279049277 -0.4732800126 -0.7027992606 0.5277078748
-0.01348410454 -0.05978265777 0.5334765315 -0.4707263708 -0.6917652488 0.5458990932
-0.01182112284 -0.056654118 0.5386087894 -0.4677406549 -0.6890114546 0.5525262952
-0.02185890824 -0.06093586981 0.5230430365 -0.3824010193 -0.7423538566 0.5494112968
-0.03133952245 -0.05472865701 0.5274564624 -0.2135091871 -0.7698873878 0.5902033448
-0.04581100494 -0.09048627317 0.4869555831 0.1583477706 -0.6820454597 0.6722652912
-0.04199050739 -0.0861806944 0.4885482788 0.1151519045 -0.7100123763 0.6759560108
-0.05058615282 -0.08580645919 0.4913362265 0.2841262519 -0.694024086 0.6469430327
-0.05664197728 -0.09202125669 0.4866250455 0.3809323907 -0.6544173956 0.6521875262
-0.03735747933 -0.09104317427 0.4837408066 -0.005859946832 -0.6976354718 0.7026000023
-0.0492114462 -0.09309608489 0.4818789661 0.2678241134 -0.659289062 0.6870113015
-0.04282708839 -0.09227702767 0.4817540348 0.1378425807 -0.6739798188 0.7012255192
-0.02092750371 -0.066350393 0.5168542862 -0.4104399383 -0.7327048779 0.5390840769
-0.01686815172 -0.06555487961 0.5223540664 -0.4741393924 -0.7077311873 0.5198503733
-0.03865941241 -0.0601105243 0.5183451772 -0.05012328923 -0.7753521204 0.6216641665
-0.04477664083 -0.05881458521 0.5215135217 0.09365134686 -0.7589759231 0.6112728715
-0.0514254123 -0.05916365236 0.522593081 0.2508225441 -0.7441387177 0.5991036892
-0.03314709291 -0.0584278293 0.5216644406 -0.1727124602 -0.7713515162 0.6013284326
-0.02732701972 -0.0585273616 0.5224657655 -0.2935162187 -0.76227355 0.571328938
0.02218285576 -0.05678155646 0.5674847364 -0.1825482696 -0.9620708823 0.1584799439
0.04221832007 -0.07080934197 0.5426012278 0.4194503427 -0.6687663794 0.6134850979
-2.876770304e-05 -0.06704769284 0.5536736846 -0.2905759215 -0.8256795406 0.3983196914
0.02149210684 -0.09911609441 0.5118472576 -0.5018078089 -0.1465066969 0.8044323921
0.01238488313 -0.1091473773 0.5056149364 -0.5453704596 0.1443276107 0.7714576125
0.008584283292 -0.1033602804 0.5018668175 -0.6372784972 -0.144682765 0.6467357874
0.01594045386 -0.1053185165 0.5080581903 -0.5277164578 0.03438173234 0.785304606
-0.01216158736 -0.08289627731 0.5021404028 -0.491538018 -0.6797026396 0.5424849391
-0.006028661039 -0.08859812468 0.5028398037 -0.663928926 -0.5590392351 0.4553034902
-0.001179168932 -0.08373229951 0.5109372735 -0.7212664485 -0.5596880317 0.3843943179
-0.07162419707 -0.1424615383 0.5251643062 -0.6514268517 -0.5789393783 0.4903235435
-0.07168953121 -0.07972669601 0.5257723927 0.3095935583 -0.6579079032 0.5553624034
-0.07214506716 -0.09237430245 0.5327811241 -0.01033506636 -0.6454700232 0.4962799549
-0.07087025046 -0.1021793559 0.5412179828 -0.2554096282 -0.6412603855 0.4493770003
-0.07050483674 -0.114190124 0.5491501093 -0.5551719069 -0.6347243786 0.3926542997
-0.05246445164 -0.1361092031 0.5598531365 -0.3986798823 -0.7425758839 0.5315543413
-0.05222635716 -0.1207560375 0.5842460394 -0.1988279521 -0.7979307175 0.5678957105
-0.04134137183 -0.1201126948 0.5842211246 -0.06433688849 -0.811065495 0.5676612854
-0.04664597288 -0.118235603 0.585621357 -0.1529616416 -0.8098922372 0.5551500916
-0.06460579485 -0.1415428221 0.53765589 -0.641734004 -0.5852273107 0.4951886237
-0.06939071417 -0.1383537799 0.5329403877 -0.6573082209 -0.5742376447 0.4872846007
-0.04213061184 -0.1483290941 0.5519471765 -0.1729948521 -0.7051619291 0.6751521826
-0.05799146369 -0.1257360727 0.5692391396 -0.4527876079 -0.7627086639 0.4605650604
-0.05897438899 -0.1266064048 0.5632719994 -0.5138281584 -0.7334893942 0.4364705682
-0.05464527383 -0.1296220869 0.5665003061 -0.4166131914 -0.767546773 0.4858305156
-0.04877910763 -0.1327370554 0.5659262538 -0.2757370472 -0.7802813053 0.5421939492
-0.06584483385 -0.0751445666 0.5140186548 0.464722842 -0.6682960391 0.5807926655
-0.06995309889 -0.07473646104 0.519666791 0.4705293775 -0.6617398858 0.5836061835
-0.06616771966 -0.05728371069 0.5339946151 0.4454159737 -0.6930030584 0.5654004812
-0.01415395923 -0.04132502526 0.5550838113 -0.4198606312 -0.8233116865 0.3471523225
-0.005020145793 -0.04514986277 0.5596493483 -0.3744477928 -0.8647827506 0.2419032902
0.005955348723 -0.04990951717 0.5648378134 -0.318908453 -0.9140142798 0.1181621701
-0.002205139026 -0.04908796772 0.5624675155 -0.3506227136 -0.8910319805 0.1369376332
0.003869276727 -0.05300297588 0.5588282943 -0.3519417942 -0.8551207185 0.2225246727
-0.01509688888 -0.04512174055 0.5490666032 -0.4423792958 -0.7714234591 0.4410177469
-0.003726657014 -0.05123272538 0.5532902479 -0.3982762992 -0.8026739955 0.3387707472
0.001489348011 -0.05537397787 0.5536560416 -0.387806356 -0.798743248 0.3196041584
-0.008856058121 -0.05410989374 0.5447659492 -0.4592811167 -0.7116530538 0.5017068386
-0.009696161374 -0.04695117846 0.5523335934 -0.4136001468 -0.8009200096 0.3702006936
0.01064323727 -0.05690979585 0.5637524724 -0.3017451465 -0.9100390673 0.09744405746
-0.02359043993 -0.05362603441 0.5321151018 -0.3300560713 -0.7385943532 0.5874058008
-0.02922873013 -0.05024200678 0.5326993465 -0.2582389712 -0.7582483888 0.5940806866
-0.02830284648 -0.04362975806 0.5427840352 -0.2211333662 -0.7703530192 0.5935532451
-0.04388999566 -0.04367445037 0.5395462513 0.1023529023 -0.8054842949 0.5765502453
-0.03352756426 -0.04628549889 0.5383371115 -0.1406378746 -0.7705083489 0.5965111256
-0.02513531037 -0.08169814199 0.4952140152 -0.2508210242 -0.7250119448 0.6149849296
-0.04416772723 -0.08186914027 0.4922106266 0.183647722 -0.7273709774 0.6552948952
-0.03238597885 -0.08442017436 0.4897533357 -0.1012978777 -0.7342637181 0.6618129611
-0.03616795689 -0.05422499031 0.5242576003 -0.1186375991 -0.7775758505 0.614482224
-0.06436097622 -0.08832672983 0.498583138 0.4844118357 -0.6489943862 0.5849412084
-0.05788858235 -0.06580126286 0.5182462335 0.3765038252 -0.7130386829 0.5887289643
-0.05167336762 -0.06279409677 0.517742157 0.2650336921 -0.74887532 0.5979967117
-0.04775062576 -0.0650261119 0.511490941 0.2071140856 -0.7505666614 0.6222904921
-0.04620618373 -0.06136750057 0.5160827041 0.1641288102 -0.7623297572 0.6202337146
0.04185223207 -0.08594764024 0.5338305235 0.0975163877 -0.6110502481 0.7606393099
0.04224967957 -0.0913779214 0.5295306444 -0.004848847631 -0.5736789107 0.8124209046
0.01331651211 -0.07376642525 0.5615320802 -0.1024802253 -0.9079400897 0.3524852693
0.03404415399 -0.07965694368 0.5390902758 -0.07729618251 -0.7215002179 0.6556597948
0.03186102957 -0.07194618881 0.5509387851 0.2616146505 -0.727869153 0.5416799784
0.02911883593 -0.07761241496 0.5458679795 -0.05608141422 -0.7707126141 0.5668036938
0.02571110614 -0.07647952437 0.5501840711 -0.05499590933 -0.8053258061 0.5085287094
0.01948774047 -0.07183018327 0.5614179969 0.0719563663 -0.8626577258 0.3738527596
0.02268381976 -0.07430608571 0.5555341244 0.002487792401 -0.8334152102 0.4439825714
0.03458340093 -0.0752402395 0.5443876982 0.1450466514 -0.7056615949 0.6143906713
-0.007720607333 -0.06208878383 0.5364297032 -0.5148420334 -0.6632313728 0.5380871296
-0.008380633779 -0.064460136 0.5313473344 -0.5294951797 -0.6750437021 0.511346817
-0.004190425854 -0.07124853879 0.5281226039 -0.5942161083 -0.6464529634 0.4715102613
-0.001625087927 -0.07704558969 0.5232728124 -0.6292537451 -0.6294239163 0.4455287457
-0.0004477762268 -0.08089114726 0.5167723894 -0.702852726 -0.5811797976 0.3917426765
-0.0332268104 -0.121574536 0.5825654864 0.09488588572 -0.7976943254 0.5901780128
-0.001895757741 -0.1423222274 0.5336385965 0.7210776806 -0.4892952442 0.4825390279
-0.06672692299 -0.1434045136 0.5316587687 -0.6446197033 -0.5858427882 0.4902169406
-0.0726326257 -0.1305383593 0.5333237052 -0.7095994353 -0.553994298 0.433360517
-0.07164881378 -0.1244313121 0.5105666518 -0.2015159875 -0.6047764421 0.5492867231
-0.06967484206 -0.1235853583 0.5209295154 -0.368634671 -0.5834494829 0.5093524456
-0.07100135833 -0.1114128605 0.4960904121 0.2210205495 -0.6362290382 0.6022037268
-0.07142360508 -0.1185792834 0.504299283 -0.01711465791 -0.6182900667 0.5710811615
-0.07170715183 -0.1176222563 0.5098367929 -0.1188937128 -0.6051946282 0.5349979401
-0.07200788707 -0.1271792203 0.5169442892 -0.3582842648 -0.5903170705 0.5174427629
-0.07216931134 -0.1329403967 0.5208331347 -0.4946324825 -0.5822720528 0.5092561245
-0.07250089198 -0.1335174292 0.5275067091 -0.6347413659 -0.5667996407 0.4703840315
-0.06895593554 -0.108720459 0.5021111965 0.1495924443 -0.6157868505 0.5811951756
-0.06948388368 -0.09708078951 0.50337255 0.3549743891 -0.6176126599 0.5698213577
-0.06895230711 -0.1165502593 0.5198649764 -0.2388037592 -0.5833525658 0.5121367574
-0.06916639209 -0.1022543758 0.4984284043 0.3226536214 -0.6241546273 0.5929528475
-0.06934140623 -0.09685576707 0.4953164756 0.467643708 -0.6312032342 0.6029224992
-0.06909502298 -0.1086535081 0.5093181729 0.05392222852 -0.6037194729 0.5514404774
-0.07091813534 -0.1180609241 0.5328266025 -0.4295851886 -0.5792549849 0.4582134187
-0.0725517869 -0.1038541719 0.524960041 -0.01775520667 -0.5986617804 0.492390424
-0.06926790625 -0.1261679828 0.5342003107 -0.6100914478 -0.5599198341 0.4585816562
-0.07320192456 -0.1075056419 0.5316248536 -0.2048332393 -0.605984807 0.4539915025
-0.07116496563 -0.1241776198 0.5403365493 -0.6790301204 -0.5818318725 0.4172001481
-0.07347136736 -0.09788376093 0.5221183896 0.1452062875 -0.6079038382 0.5024203062
-0.07375548035 -0.115879871 0.5426980257 -0.5607138276 -0.6115733385 0.3924312294
-0.07363066077 -0.111361295 0.5364034176 -0.366997093 -0.6074253917 0.4249936342
0.01364478283 -0.05699566007 0.5582369566 -0.2597704828 -0.8642376065 0.3416182399
-0.002193039283 -0.05703802779 0.5466932058 -0.41563043 -0.7321245074 0.4843257666
0.007503292523 -0.05707914755 0.5573944449 -0.3246923983 -0.8472920656 0.2688063979
-0.007864586078 -0.08207660913 0.5091520548 -0.5784419179 -0.6505207419 0.479033947
0.02800178714 -0.1001148373 0.5167813897 -0.4201206267 -0.06886335462 0.8992528319
0.0208485052 -0.1053612307 0.5118192434 -0.4687571228 0.07717538625 0.854123354
-0.07093704492 -0.1227065325 0.5580135584 -0.655234158 -0.6417148709 0.3916645944
-0.07337766886 -0.1226354912 0.5468373895 -0.703122139 -0.599778533 0.3819211125
-0.07257596403 -0.119058989 0.5529266596 -0.6617609262 -0.6357466578 0.3900803328
-0.06757307053 -0.128007099 0.55078125 -0.6623827219 -0.6426559687 0.3840509355
-0.06919113547 -0.1308892816 0.5426864028 -0.6735720634 -0.60137254 0.4257934988
-0.0644871816 -0.1285777241 0.5588897467 -0.6103130579 -0.6799606085 0.4054152369
-0.06549329311 -0.1243604645 0.5651131868 -0.564619422 -0.7005547881 0.4336391091
-0.0605308935 -0.1550878286 0.5306800604 -0.5113433599 -0.6481624842 0.5469292402
-0.05384794995 -0.1571209729 0.5334993005 -0.4246305823 -0.6730117798 0.5821646452
-0.06629917026 -0.1504356861 0.5283472538 -0.601917088 -0.6112822294 0.5120340586
-0.05953625217 -0.1478727907 0.5367127657 -0.5858948827 -0.5939084291 0.550500989
-0.03884704784 -0.1367638856 0.5618984699 -0.01630713977 -0.7812284827 0.6168302298
-0.04443025216 -0.1441491097 0.5564986467 -0.1958654374 -0.7313511968 0.6462876201
-0.04549368098 -0.1355618089 0.5608574748 -0.2092180401 -0.7721954584 0.5677993298
-0.03782666847 -0.1406992078 0.555867672 -0.02414223738 -0.7428645492 0.6581836939
-0.05705202371 -0.1288941354 0.5570437908 -0.4409031272 -0.7205661535 0.4789389372
-0.04163936526 -0.1244414672 0.5798271894 -0.02292407677 -0.8133292198 0.5716325045
-0.05140199885 -0.1268322915 0.5726102591 -0.3049017489 -0.7927879095 0.5123800039
-0.05594071373 -0.1230506003 0.57471627 -0.3810123205 -0.7822511196 0.4900899827
-0.04650376365 -0.1254451722 0.5759707093 -0.1645179689 -0.8039382696 0.5438069105
-0.04931515828 -0.1209021434 0.5789354444 -0.2181805521 -0.7848616838 0.5319658518
-0.03581721336 -0.1285599619 0.5742007494 0.09649691731 -0.7954381108 0.5946843028
-0.03986768052 -0.1329451054 0.5683640838 -0.006069800351 -0.7952768803 0.5952333808
-0.02746756002 -0.1210881248 0.5803173184 0.2321591973 -0.7640801072 0.6005336046
-0.02148690075 -0.1187685728 0.5806251168 0.2888793051 -0.7469827533 0.597599864
-0.02156845294 -0.1572823226 0.5371370316 0.314866513 -0.6422947049 0.6863366365
-0.01149752643 -0.1532576829 0.5353160501 0.5379280448 -0.582194984 0.6059830189
-0.01690789312 -0.1530949026 0.5369719267 0.4221962094 -0.6118089557 0.6480467916
-0.03191204742 -0.139015168 0.5582486391 0.1318831295 -0.734495461 0.6547792554
-0.008511939086 -0.1053113267 0.5721811652 0.2380024791 -0.791305542 0.4891314209
-0.001378182904 -0.09436949342 0.5708888769 0.1398009211 -0.8472308517 0.4057839215
-0.004610145465 -0.09986483306 0.5718471408 0.1908144206 -0.8210339546 0.444678843
0.001736203092 -0.09023129195 0.5693680644 0.1162729263 -0.8614320159 0.3719519675
0.006200450473 -0.0803469196 0.5692287683 -0.004992421716 -0.9195055366 0.3109963238
-0.009840109386 -0.1116301119 0.5719145536 0.3369881809 -0.7512292266 0.5166745186
-0.01394454949 -0.1170186326 0.5739524961 0.3665517271 -0.7331357002 0.5610560179
0.00876942277 -0.07507724315 0.5686958432 -0.06354665756 -0.9473763704 0.2774424553
0.004983868916 -0.05730865896 0.5688299537 -0.2806191444 -0.9528172612 -0.01445777807
0.01215351652 -0.05708124489 0.5702499151 -0.2568770647 -0.9655581713 0.001137332409
0.01216913108 -0.06629541516 0.5705680847 -0.1797892451 -0.9699050784 0.1443835199
-0.05933750048 -0.05536905304 0.5313282609 0.3526546657 -0.7228805423 0.5925199986
-0.05051361397 -0.05161576346 0.5312945843 0.2223189473 -0.7629423141 0.600484252
-0.05390704051 -0.04806554317 0.5362918377 0.2832167447 -0.754989326 0.5911493301
-0.0565970242 -0.08624542505 0.4920364022 0.4082732797 -0.660451293 0.6295631528
-0.05274087563 -0.08251456171 0.496581167 0.3365776837 -0.6978476048 0.6215844154
-0.04242090136 -0.07194229215 0.503280282 0.07561182231 -0.7749832869 0.6170153618
-0.03631588817 -0.0706243217 0.5038101673 -0.07315091789 -0.7854415178 0.6110470295
-0.03099095449 -0.07237818092 0.5030645728 -0.1771685034 -0.7812592983 0.5925462842
-0.02630089968 -0.06765367836 0.5114219189 -0.2811927497 -0.7649464011 0.5769848228
-0.04222590476 -0.06703929603 0.5094445944 0.05963262171 -0.7720171809 0.6255723238
-0.03978215903 -0.06379722059 0.5143679976 0.009293929674 -0.7824015617 0.6123816967
-0.02831802703 -0.06296695769 0.5177295208 -0.2485903352 -0.7653059363 0.5781976581
-0.03656494245 -0.06675504148 0.5096000433 -0.05903711542 -0.7862782478 0.6111285686
-0.07200761139 -0.08153250813 0.5361321568 0.1418405175 -0.6534696817 0.4952857494
-0.07183594257 -0.08989289403 0.5396825671 -0.04480330274 -0.6442162991 0.4674987495
-0.07197374851 -0.07182557136 0.5325011611 0.3581512272 -0.6641315222 0.5274342895
-0.07215674222 -0.08705899119 0.5304474831 0.1115005165 -0.6492961049 0.5162777305
-0.07171028852 -0.07265976071 0.5263332725 0.4262913167 -0.6648644209 0.5614796281
-0.07225231826 -0.07771794498 0.5319317579 0.2548914254 -0.6583020687 0.5197437406
-0.07143371552 -0.1065958068 0.546205163 -0.4091808796 -0.625880599 0.4156039357
-0.07155567408 -0.09584645182 0.5413561463 -0.1632772088 -0.6378652453 0.4538646936
-0.07161983848 -0.06006449834 0.5394908786 0.4573416412 -0.6916418076 0.5584042668
-0.07271040231 -0.06417890638 0.5333921313 0.4921212494 -0.6755468249 0.548722744
-0.07586681098 -0.05967514962 0.5454542041 0.4766231179 -0.6884943247 0.5462599397
-0.06559053808 -0.06189667806 0.5283990502 0.4154722095 -0.6951459646 0.5842423439
-0.07173708081 -0.06730628014 0.528275013 0.4896903634 -0.6701543331 0.557305038
-0.05903319269 -0.0604489632 0.5246282816 0.3613366485 -0.7214353681 0.5900682807
-0.06347875297 -0.06506508589 0.5224294662 0.4302083254 -0.6807969213 0.5915178061
-0.0654168278 -0.0699897334 0.5188122392 0.4562729895 -0.6684444547 0.5873313546
0.03416990861 -0.09439853579 0.5205977559 -0.2647327185 -0.3490227759 0.8737137914
0.02153121307 -0.09208226949 0.5185770988 -0.4187235534 -0.3858615458 0.7464619875
0.01997078396 -0.08532012999 0.5202491879 -0.4193795621 -0.5476908088 0.6009575725
0.03299981356 -0.08784361184 0.5236130357 -0.1845359802 -0.5258051753 0.7911985517
0.005687372759 -0.08474329114 0.5158581138 -0.6861439347 -0.5177200437 0.433996886
0.01658271067 -0.09244512767 0.5142985582 -0.516087532 -0.3941727281 0.6562559605
0.01011652593 -0.08921832591 0.5136178732 -0.6238911748 -0.4492135048 0.5302579999
0.04253755137 -0.07466613501 0.5386992097 0.1959213316 -0.7157005668 0.6360834241
0.006000099704 -0.0790386498 0.525878489 -0.6047673821 -0.6089704037 0.458322823
0.01580129191 -0.08072864264 0.5240295529 -0.4820144475 -0.6160787344 0.5019251704
0.01925398782 -0.07915053517 0.5285578966 -0.3956779242 -0.6461639404 0.5526569486
0.02986253053 -0.08250530064 0.526724875 -0.2390735894 -0.6211861968 0.663300395
0.02432117239 -0.08266978711 0.5244072676 -0.3405297697 -0.6053831577 0.6043182611
0.01215201709 -0.08306053281 0.5192895532 -0.5633190274 -0.5701565146 0.4752902687
0.0383435376 -0.07749435306 0.5354170203 -0.02196849138 -0.6983429193 0.6891272664
0.02892333642 -0.0718716234 0.5410068035 0.09620223939 -0.6372281909 0.5878462791
0.01874868013 -0.07398964465 0.5360835195 -0.1734841764 -0.6245427132 0.5315024257
0.03847500682 -0.08544697613 0.527402997 -0.07650207728 -0.597805202 0.7921973467
-0.002854170045 -0.06595460325 0.5470992327 -0.3856559694 -0.7605060339 0.4410744309
0.003553738352 -0.07126868516 0.5567210317 -0.2629848123 -0.8515959382 0.3403887451
-0.006209976971 -0.06308501959 0.5422222018 -0.4470504224 -0.7145414352 0.4939152598
-0.00540848868 -0.06796163321 0.535553813 -0.5702109337 -0.6413723826 0.475877434
0.001757989521 -0.07159968466 0.5506227612 -0.3572173715 -0.7895248532 0.3662520945
0.002085141139 -0.0752197206 0.5448554158 -0.4610729516 -0.7269435525 0.3567831218
-0.001143858652 -0.07456703484 0.5362221003 -0.5894815326 -0.6403844953 0.4049018621
0.01526496839 -0.08014377207 0.5328151584 -0.4491835535 -0.62565732 0.5070306659
0.0229240749 -0.0795160532 0.5372752547 -0.2689417005 -0.6846142411 0.5624035001
0.01034299191 -0.07894731313 0.5372193456 -0.4672644138 -0.6607351899 0.4394538999
0.002968106186 -0.07935251296 0.5338301659 -0.6286453009 -0.6130523682 0.3821519315
0.01559071615 -0.07849645615 0.5403696299 -0.3425005376 -0.7020775676 0.4769778252
0.0210441649 -0.07806367427 0.5434808731 -0.2150300741 -0.7434100509 0.5166877508
0.01268878859 -0.07620063424 0.550193727 -0.2559892535 -0.7952939868 0.4053317308
0.008777481504 -0.07756678015 0.5431644917 -0.4119181335 -0.7174991369 0.3979632258
0.01078529563 -0.07475347817 0.5563706756 -0.2028337866 -0.8537580967 0.3595113456
0.0344415158 -0.08105196059 0.532712698 -0.1494159251 -0.6601712704 0.6952607036
0.02807918563 -0.06751823425 0.5447535515 0.195612669 -0.6426600218 0.6067646742
0.02293087728 -0.07064962387 0.5404423475 0.007345980965 -0.6319784522 0.5655924082
0.005108852871 -0.0660950318 0.5380744338 -0.3109716773 -0.6466313004 0.5467970967
0.00632236246 -0.07300910354 0.5328492522 -0.4323229194 -0.6234856844 0.4949985743
-0.001119031804 -0.06465066969 0.5371268392 -0.425396055 -0.6512579322 0.5390457511
0.0115290964 -0.06972365081 0.5373060703 -0.2393525392 -0.6346859932 0.5375908017
0.001154572237 -0.07491309941 0.5295324922 -0.5944630504 -0.6169198155 0.4636307061
0.01775824092 -0.06501866877 0.5432696342 0.008281157352 -0.6506826282 0.5947704911
0.0001228604087 -0.05955282599 0.5420665741 -0.3095292747 -0.6647723317 0.5766463876
0.01741906442 -0.06131449342 0.547704041 0.01580644585 -0.6590773463 0.6087133884
0.02407605201 -0.06353907287 0.5476499796 0.1448584348 -0.6531328559 0.6163878441
0.0342723392 -0.06697970629 0.5475180745 0.3426246941 -0.6439404488 0.6280395985
0.03475481272 -0.06380084157 0.5524335504 0.3417914212 -0.6522743702 0.6389085054
0.01035524346 -0.06102579832 0.5447099805 -0.1148137897 -0.6599484682 0.5941731334
0.02840985917 -0.06190335006 0.5521569252 0.2194680274 -0.657355547 0.6309058666
0.004219601862 -0.06901628524 0.56214571 -0.1903335899 -0.8992928863 0.3278552294
6.183348887e-05 -0.06242563203 0.5604333878 -0.3240650296 -0.8600179553 0.2831370831
-0.003707941854 -0.05947670341 0.5536068082 -0.400291115 -0.7889172435 0.3712562919
0.003292261856 -0.06420213729 0.5675911307 -0.2699095607 -0.9297466874 0.1757208407
0.007105264813 -0.06937810034 0.5681572556 -0.162205562 -0.9548787475 0.2164282054
-0.002040911 -0.09087081254 0.5068619251 -0.7435507178 -0.4636116624 0.425899446
-0.001372448402 -0.08894298226 0.5145382285 -0.6173937917 -0.4183108211 0.528991282
-0.0001407148666 -0.09605748206 0.5077736378 -0.7056772709 -0.2852671742 0.5169255137
0.002750212792 -0.1022783816 0.51256001 -0.5925258994 -0.02268793806 0.6915190816
0.001063063624 -0.1019631997 0.505559206 -0.6613579392 -0.1785772294 0.6084777117
-0.0005215503625 -0.08226696402 0.5252766013 -0.7112780809 -0.5111590028 0.4232812822
0.002397024771 -0.09394303709 0.5223385692 -0.6115735769 -0.1674618721 0.6200162172
0.001818437595 -0.09745962918 0.5162258148 -0.5595641136 -0.1236959994 0.6758864522
-0.0002773268498 -0.08747795969 0.5201695561 -0.6508207321 -0.4011498988 0.5086277723
-0.0591077432 -0.1332889497 0.5534413457 -0.5540539622 -0.671456039 0.4838398993
-0.06295297295 -0.1313406676 0.5470921993 -0.6095539927 -0.6291857362 0.468157351
-0.06513492763 -0.1229178905 0.5538113713 -0.5873245597 -0.6731132269 0.4087906182
-0.05361394584 -0.1526967436 0.5368691087 -0.47992751 -0.6381073594 0.5873137712
-0.04814770445 -0.1525232941 0.5441981554 -0.3213451505 -0.6891759038 0.6438900828
-0.04506260157 -0.1606593281 0.536572516 -0.2627748549 -0.7208146453 0.6364040971
-0.05107652396 -0.1477451026 0.5467864275 -0.4143174887 -0.6594671011 0.6115545034
-0.05409583822 -0.1416577846 0.5503771305 -0.4782085419 -0.6735567451 0.5605203509
-0.05768379942 -0.1371458322 0.5475209951 -0.5522512197 -0.6278029084 0.5094131231
-0.04868925735 -0.1373833269 0.5548245907 -0.2867116332 -0.7395305634 0.5773453712
-0.06366954744 -0.131603092 0.5403741598 -0.5952384472 -0.6006255746 0.4856342077
-0.06229071692 -0.1383246779 0.5436984897 -0.6461834908 -0.5801736712 0.4955243468
-0.04152239487 -0.142067343 0.5513720512 -0.1473553181 -0.6767289042 0.6470939517
-0.04786129668 -0.1418705434 0.5480764508 -0.3024435043 -0.6479286551 0.6028624177
-0.05419985577 -0.1429949552 0.5442139506 -0.45182091 -0.6292243004 0.5713320971
-0.04133523256 -0.127989471 0.5717328787 -0.06467856467 -0.7790898681 0.5480769277
-0.03618910909 -0.1286440492 0.5674393773 0.02199336886 -0.7566916347 0.5270257592
-0.04372979328 -0.1288252771 0.5661295056 -0.1715724319 -0.7536138892 0.4943810999
-0.02782741562 -0.126592204 0.5732313991 0.2462966442 -0.762034595 0.5924330354
-0.03130451217 -0.1320530921 0.5680086017 0.1931157261 -0.7765704393 0.5886235833
-0.01785116643 -0.1465471685 0.5458342433 0.446940273 -0.6209521294 0.6407514811
-0.01548927836 -0.1437240988 0.5415132642 0.4769576788 -0.5504695177 0.6241606474
-0.02287594043 -0.129400894 0.5666927099 0.345054239 -0.7480407953 0.5658733845
0.001578031341 -0.09434511513 0.540554285 -0.173359707 -0.6077767015 0.4171548784
0.001447823714 -0.1136740223 0.5511902571 0.474481225 -0.6222859621 0.4715834558
0.003109529847 -0.1006441787 0.5544921756 0.2554588914 -0.7110460401 0.4147782922
0.005241229199 -0.08122174442 0.5571169853 -0.1187719926 -0.821736753 0.3345161378
0.006525267381 -0.0758504644 0.5624637008 -0.1262053847 -0.8958306909 0.3034439683
0.001098698936 -0.1022921354 0.5420942903 0.03410485387 -0.5870837569 0.4449745715
0.003904642304 -0.08906074613 0.5528891683 -0.03359789774 -0.747246027 0.3729963005
0.002879144624 -0.09402680397 0.5490214825 -0.004364341497 -0.6888638139 0.3996582329
0.002737038769 -0.08532367647 0.5428969264 -0.3238285184 -0.6697632074 0.3777162731
-0.04215878621 -0.1537795067 0.5474982262 -0.1905280948 -0.685043931 0.6947416663
-0.03667552397 -0.1545229703 0.544780314 -0.04847703874 -0.677383244 0.721973896
-0.03300757706 -0.1589981914 0.54234761 0.06952984631 -0.6853168011 0.7056234479
-0.02195829339 -0.1523764431 0.5417075753 0.3510856032 -0.622286737 0.6882692575
-0.04301411659 -0.1468755305 0.54557693 -0.1732515395 -0.656537056 0.6638718843
-0.05130602047 -0.1488193721 0.5407780409 -0.3956694901 -0.6263982058 0.613979876
-0.03316044807 -0.1449164003 0.5510520339 0.08156882972 -0.6915655136 0.710938096
-0.02951288968 -0.1548177749 0.5443795919 0.1747777164 -0.6826471686 0.7053098083
-0.03183991835 -0.1493954062 0.5476552248 0.1147302538 -0.682839036 0.7136951685
-0.02548348904 -0.1490511298 0.546110034 0.2593710721 -0.6370636225 0.7238994837
-0.01073797978 -0.05316298455 0.55028826 -0.3704578578 -0.7794699073 0.4412813783
-0.01446015947 -0.05077062547 0.545068562 -0.3736380041 -0.737552762 0.5401565433
-0.008022324182 -0.05090590566 0.5604255795 -0.3799206913 -0.8670250177 0.2572085261
-0.001162338303 -0.05772070959 0.5666407347 -0.344315201 -0.911642611 0.1527846158
-0.01829337515 -0.05441175774 0.5357646942 -0.3807782531 -0.7205083966 0.5779129863
-0.02472822927 -0.04969510436 0.5375689268 -0.3223941326 -0.7374558449 0.5916442871
-0.01867226139 -0.04999633878 0.5413571596 -0.3697234392 -0.7263494134 0.5733739138
-0.05117233843 -0.0767911002 0.4994353056 0.3170329928 -0.7185622454 0.6154655218
-0.04486477003 -0.07581128925 0.4989823103 0.158467114 -0.7582163811 0.6321180463
-0.06709641218 -0.08098328859 0.5088804364 0.4879760742 -0.6526631117 0.5794504285
-0.05931944773 -0.07445222884 0.5096788406 0.4149742126 -0.6933909059 0.5874528885
-0.06449317932 -0.08310805261 0.5031808615 0.4959009886 -0.6471033096 0.5787804723
-0.06191412732 -0.07017336041 0.5145480633 0.4551480114 -0.6683192253 0.5881393552
-0.06164097041 -0.07856570929 0.5048366785 0.467784822 -0.6661449075 0.5803158879
-0.0596074909 -0.08414973319 0.4964228272 0.453386277 -0.6540174484 0.6035028696
-0.07004671544 -0.09865181148 0.5110875964 0.2475898415 -0.6024923921 0.5441530943
-0.0688919127 -0.1218485609 0.5283020139 -0.4529872239 -0.5673720241 0.480260402
-0.06963735819 -0.08611417562 0.5068904161 0.5432059765 -0.6196187735 0.5653427839
-0.02938133664 -0.07702958584 0.4978206456 -0.1893555671 -0.7546114922 0.6228330135
-0.0209516827 -0.08008100092 0.5008124113 -0.3395315409 -0.7154108882 0.5762503743
-0.03609840572 -0.07483641058 0.4995729625 -0.06797387451 -0.7753703594 0.6230612397
-0.0558697693 -0.07935537398 0.5029465556 0.3850846291 -0.6996812224 0.5893929601
-0.03787266091 -0.07868182659 0.4954798818 0.00890721567 -0.7624973655 0.6389766335
-0.02372010611 -0.07205322385 0.5074362159 -0.3127861619 -0.7577702403 0.5692225099
-0.02356814779 -0.137176916 0.5572967529 0.3269848228 -0.7164027095 0.6125884056
-0.01249358337 -0.1310278177 0.5560944676 0.545635581 -0.6478268504 0.5301660299
-0.02419902384 -0.1331476867 0.5628190637 0.3332949579 -0.7402233481 0.5792338252
-0.01798129641 -0.1307269931 0.5605220199 0.443883121 -0.6954981089 0.5466929078
-0.02852832898 -0.1412395537 0.5539255738 0.2148638219 -0.694303453 0.6769508719
-0.03016686067 -0.1354651004 0.5624317527 0.1834321767 -0.7646706104 0.6058844924
-0.01668026112 -0.1364884079 0.5550960898 0.4632681906 -0.6657571793 0.5821468234
-0.02208289877 -0.1249639243 0.5711192489 0.3389407694 -0.7413442135 0.5734407902
-0.0008032728801 -0.09386635572 0.5621069074 0.08513306826 -0.7924346924 0.3988771141
-0.001637859386 -0.08818219602 0.5407590866 -0.391474694 -0.6252616644 0.4068949223
-0.002033493016 -0.09351196885 0.5519692898 -0.1099245399 -0.700388968 0.4145811796
-0.003675687127 -0.09500990063 0.5436760783 -0.2456502765 -0.6154379249 0.4364986122
0.0007946656551 -0.08081502467 0.5393583775 -0.5160262585 -0.652050972 0.3719365895
0.001036267844 -0.08751894534 0.5589845181 -0.05814275891 -0.7977614999 0.3720648587
0.004123521503 -0.07687333226 0.5537629724 -0.2981515527 -0.8068374395 0.327069968
-0.001815204276 -0.08647862077 0.534905076 -0.5241026282 -0.5802013278 0.4083586335
-0.001375927706 -0.08969395608 0.5467355251 -0.2591075599 -0.6724917293 0.4042467773
-0.002866443945 -0.09920299053 0.5608709455 0.133100763 -0.7521694303 0.4280858338
-0.004243756644 -0.1001245752 0.5530256629 -0.001902361517 -0.6744810939 0.4463059604
0.001501037856 -0.08310240507 0.5507185459 -0.2722353041 -0.7449928522 0.3639285862
-0.00564044062 -0.1060991138 0.5584671497 0.1799407899 -0.6926612258 0.4672227204
-0.005321544129 -0.1219284907 0.5584987998 0.5847848654 -0.6270473003 0.5113881826
-0.006694086827 -0.1123984382 0.5556391478 0.2683558166 -0.6364994049 0.4872130156
-0.005820604973 -0.1067969799 0.551494658 0.09511391819 -0.6268641353 0.4720236957
-0.003099596361 -0.1054630429 0.546007514 0.06595744938 -0.5938642025 0.4623800218
-6.527017376e-06 -0.1112628058 0.5445441604 0.2765682638 -0.5687469244 0.4763740003
-0.00939182099 -0.1177224517 0.5676581264 0.4724799991 -0.6972627044 0.5256643891
-0.0004050884454 -0.1205296144 0.5525254607 0.60333395 -0.5987624526 0.5017752051
0.004489928018 -0.09753573686 0.5604885817 0.2699317634 -0.7743866444 0.3859837055
-0.0006512014661 -0.1087603122 0.5605230331 0.4063107967 -0.7136204243 0.4501499832
-0.005668657366 -0.112640202 0.5651531816 0.4223941863 -0.7220161557 0.4813292921
-0.003769224975 -0.1064509749 0.5664673448 0.338229537 -0.7640094757 0.4485458434
0.002412698697 -0.1028810292 0.5599761605 0.3384335339 -0.7420824766 0.4155099988
0.0062423544 -0.0857084766 0.5656753778 0.09110510349 -0.8716663122 0.3285502791
-0.002440373646 -0.1145842224 0.5592890978 0.4854898453 -0.6741225719 0.4810034931
0.006402973086 -0.09082365036 0.5614043474 0.177913025 -0.8167907 0.3528189361
-0.01041597873 -0.1403530389 0.5393570662 0.5941160917 -0.5025240183 0.5542090535
-0.02230879292 -0.1403926313 0.5518952608 0.356605351 -0.6501202583 0.6537796259
0.00351394969 -0.117457211 0.5239044428 0.1557824463 -0.05190239847 0.591335535
0.006072308868 -0.1215872467 0.5170449018 0.5836796761 -0.2350629121 0.2102982104
0.005055205431 -0.1264394075 0.5206214786 0.8883956075 -0.3586518466 0.09945423901
0.002102787374 -0.1242542043 0.5288751125 0.5833041668 -0.2253380269 0.434923321
0.005242685322 -0.1118112206 0.5181657672 -0.1719498187 0.07949129492 0.6746630073
0.01005291659 -0.1179695353 0.5079605579 -0.06821341813 0.03894121572 0.5036773086
0.003979341127 -0.1098562554 0.5019307137 -0.6364421844 0.03403174877 0.6170800924
0.004389144015 -0.1141993552 0.5055427551 -0.2407532483 -0.07216142118 0.4076574743
0.0029894053 -0.1082740128 0.5081751347 -0.340290159 -0.1415483505 0.541495204
-0.0007834372227 -0.1028601527 0.4970495999 -0.6543738246 -0.396161586 0.4583100677
0.005417359993 -0.115007028 0.5135495067 0.1271068156 -0.1282096654 0.3997702301
-0.006333942991 -0.1484206319 0.5343011618 0.6338520646 -0.5506620407 0.5403804183
-0.01513342932 -0.1416437328 0.5482107997 0.4883327484 -0.6134105921 0.6126478314
-0.0008423610125 -0.1467140466 0.5296593904 0.7323019505 -0.4936646819 0.4676828682
-0.01112754829 -0.1476987898 0.5397133231 0.570053041 -0.5626988411 0.5944288969
-0.01234602556 -0.1270733029 0.5611854196 0.5254945755 -0.6728090048 0.5171720982
-0.01030833088 -0.1223309189 0.5637514591 0.5206058025 -0.6713299751 0.5210967064
-0.01623792388 -0.1257526129 0.567720294 0.4277686775 -0.719047308 0.5459424853
-0.003952267114 -0.1349253654 0.5404346585 0.7004913092 -0.4882395566 0.5097961426
7.526950503e-05 -0.1060460955 0.5368930101 0.1432874799 -0.4576923549 0.4257787764
-8.587700722e-05 -0.09753944725 0.5356829166 -0.1588453352 -0.5276263356 0.4265742898
0.0004220767878 -0.120922111 0.5463200212 0.615511775 -0.504733026 0.4811972678
0.001593268011 -0.105625011 0.5308405161 -0.06950867176 -0.2636746168 0.5471266508
0.003678994719 -0.1023133248 0.5214969516 -0.4629299343 -0.002634090837 0.7152578235
0.003875830444 -0.1078869253 0.5230773091 -0.2840259075 0.02807727456 0.7298115492
0.00185485906 -0.09976629168 0.5273917317 -0.3186333776 -0.2365542054 0.5694280863
0.0006781489355 -0.1185571253 0.5397416949 0.5244108438 -0.3663570881 0.4707973897
0.002661663806 -0.1136386991 0.5301160216 0.08534251153 -0.1199351177 0.6310839057
0.002191177104 -0.1199457794 0.5335304737 0.3982073069 -0.1649828255 0.5737162232
0.004576364066 -0.109782055 0.5370739698 0.0533387661 -0.3226371408 0.5758950114
0.013427848 -0.1079015434 0.5221069455 -0.3924537301 0.2203375101 0.8031433821
0.006074193865 -0.09550372511 0.5274502635 -0.4761556387 -0.2327001542 0.5704630017
0.01107738446 -0.1099436954 0.5268650055 -0.2238959968 0.07636836916 0.7476488948
0.007633448578 -0.1083968133 0.5315309763 -0.1245579571 -0.1352095306 0.6520680189
0.002017798368 -0.09299577773 0.5325976014 -0.381463021 -0.4819999933 0.455727756
0.002328621456 -0.08656611294 0.5288396478 -0.6040970087 -0.4638193846 0.4437022507
-0.04344499484 -0.1553009599 0.5407570004 -0.2316456586 -0.6862447262 0.6808150411
-0.03026255779 -0.1608600616 0.5376957059 0.1136357114 -0.6727036238 0.7196097374
-0.03883306682 -0.158985734 0.5379914641 -0.09208794683 -0.6896191835 0.697478056
-0.05416094884 -0.07040239125 0.5091706514 0.3392057717 -0.7191585302 0.6041926742
-0.05038915575 -0.07398667186 0.504686892 0.2595135868 -0.7403811812 0.6053001881
-0.01027477346 -0.1361841261 0.5475830436 0.6212455034 -0.5529578328 0.5545659065
-0.00587369455 -0.1330899 0.5458018184 0.6374584436 -0.5468335748 0.541932404
0.0005339016789 -0.1371371448 0.529604435 0.821713984 -0.4070887268 0.3636282384
0.00255301455 -0.1303590387 0.5281195045 0.8683533072 -0.3552588224 0.2785286009
0.0001513828611 -0.1275490373 0.5415173173 0.8032399416 -0.3910501301 0.448684454
-0.0008431907627 -0.1323882192 0.5356986523 0.8194196224 -0.366201967 0.4373078346
0.009793522768 -0.1246287674 0.5274749994 0.5756675601 -0.1999077052 0.5064588189
0.01363259181 -0.1210295781 0.5246993303 0.3576997221 -0.1425450444 0.5937843919
0.008513559587 -0.1312843412 0.5247763395 0.8411317468 -0.2648424804 0.3698020577
0.004127034917 -0.1276001334 0.5331270099 0.8146597147 -0.2649178207 0.4237131476
0.01322338544 -0.12631917 0.5217362642 0.5543022752 -0.1898538917 0.4877690077
0.008893538266 -0.1194879562 0.5330415964 0.4101973772 -0.18984662 0.6046211123
0.003517711535 -0.1239413917 0.5378789306 0.6916595101 -0.2811989486 0.494296968
0.01182637084 -0.1149452627 0.5354549289 0.1479488313 -0.2655231059 0.7054391503
0.007330652792 -0.1189393178 0.5389817953 0.398674041 -0.3235498965 0.6086217761
0.01524412446 -0.1132101119 0.5298965573 0.02699551545 -0.1397684366 0.7551912069
0.01064618491 -0.1319200844 0.5181595683 0.8829038739 -0.3044240773 0.3092094064
0.01915696077 -0.1152981818 0.5192275643 0.06388764083 -0.08731084317 0.6859705448
0.01472692005 -0.1202872097 0.515846014 0.5258491635 -0.366771698 0.2046429664
0.01050664112 -0.1222782806 0.5116993785 0.4674743414 -0.278639406 0.181845665
0.02537448332 -0.1068008617 0.5152745247 -0.2994852662 -0.05995034799 0.7965772748
0.01674214564 -0.1153139919 0.5128158927 0.09189685434 -0.1562957913 0.472158581
0.03723515198 -0.0970376581 0.5248842239 -0.1701560616 -0.362128973 0.8664095998
0.03202975914 -0.1010040194 0.5228547454 -0.2633287609 -0.1961601377 0.8899967074
0.03498049453 -0.09233484417 0.5280642509 -0.1544734687 -0.4116580784 0.8164381981
0.01191169117 -0.08231686056 0.5288386345 -0.5496986508 -0.5444323421 0.508579433
0.03033233248 -0.08904167265 0.5286763906 -0.2400720417 -0.4358945489 0.7575256228
0.02802660502 -0.09425191581 0.5261636376 -0.2916787863 -0.2913130224 0.8013707995
0.008218437433 -0.08763289452 0.5260818005 -0.6259281039 -0.3920232356 0.5412619114
0.02597149834 -0.09961106628 0.523624599 -0.339194864 -0.143754378 0.8493145704
0.01977688633 -0.08507376909 0.528817296 -0.4172521532 -0.5010799766 0.6134554744
0.02622182667 -0.08183521032 0.5311008096 -0.2970486879 -0.6092351079 0.6312581301
0.01932683028 -0.09917603433 0.5228499174 -0.4551099539 -0.1308787465 0.7841873765
0.01712089777 -0.09112413228 0.5259024501 -0.4768017232 -0.3332640827 0.6645640135
0.01180512551 -0.1018397659 0.5218241811 -0.5117943883 0.107900843 0.7390328646
0.01177820098 -0.09611988813 0.5234651566 -0.5520400405 -0.1320641637 0.6746422648
0.02208766714 -0.1057554632 0.5206385255 -0.4104943573 0.0485147424 0.8892464042
-0.007578050252 -0.1297034174 0.5511988401 0.6214047074 -0.5866453648 0.5189353228
-0.002566747367 -0.1263599843 0.5472176075 0.7006434202 -0.5013831854 0.4930595756
0.006560204551 -0.1377448589 0.5230346322 0.8670799136 -0.3406530917 0.3521673083
0.003348506987 -0.1415869594 0.5264681578 0.8288447261 -0.4002037644 0.3871566951
