# .PCD v0.7 - Point Cloud Data file format
VERSION 0.7
FIELDS x y z normal_x normal_y normal_z
SIZE 4 4 4 4 4 4
TYPE F F F F F F
COUNT 1 1 1 1 1 1
WIDTH 512
HEIGHT 1
VIEWPOINT 0 0 0 1 0 0 0
POINTS 512
DATA ascii
0.02610837109 -0.0007253194926 0.5923195481 -0.7363294363 -0.2997139692 -0.4774367809
0.02877403423 -0.01810836792 0.5722572207 -0.6968143582 0.4176401198 -0.5824102163
0.0322537832 -0.02316190116 0.5709211826 -0.6983126402 0.4226022065 -0.5741949081
0.03129794821 -0.009469209239 0.5774019957 -0.7372310162 0.4032619298 -0.5383419394
-0.0686057508 -0.1268301159 0.636021018 -0.5589187145 -0.4331966639 0.6927524805
0.007921563461 0.002275348408 0.6175169945 0.3643346727 0.5700034499 -0.7273613214
0.01498901751 0.001446161536 0.6086197495 -0.08490563929 0.1246903241 -0.6235049367
0.02332577854 0.000577150553 0.5974609256 -0.6402993202 -0.4118507206 -0.4893936515
-0.08687920868 -0.06291490048 0.6120796204 -0.7717660069 0.1606863141 -0.1108793542
-0.08577346802 -0.05776476115 0.5942597985 -0.6850403547 0.4319145977 -0.487909466
-0.08626530319 -0.05809833482 0.6081725359 -0.747856319 0.2640606463 -0.2451147139
-0.08526280522 -0.05227686837 0.5955408812 -0.683498919 0.4821697772 -0.5427334309
-0.08827769011 -0.0761834383 0.6139557958 -0.7977898121 -0.01940367557 0.1067986935
-0.08764993399 -0.06361366063 0.6056830287 -0.7518628836 0.2180983424 -0.1923297644
-0.08498997986 -0.04765554145 0.6007185578 -0.7007681727 0.4759729207 -0.5182988048
-0.08888380975 -0.06979402155 0.6103621125 -0.7849810123 0.08456715196 -0.01664502732
-0.0861492157 -0.05518186837 0.601770699 -0.7186310291 0.3700957 -0.3876878619
0.007727274671 -0.04716247693 0.5806283355 0.4246110022 0.2297711521 -0.7164549828
0.01082805358 -0.05683735013 0.5781337619 0.3619505167 -0.2919996381 -0.7871022224
-0.05736827478 -0.1309570372 0.6403958201 -0.3733143806 -0.5351911187 0.7424909472
-0.05943507701 -0.1320852488 0.645868063 -0.3977775276 -0.5287530422 0.7463849783
-0.05221904069 -0.06966434419 0.6900796294 -0.3355598748 -0.5232778192 0.782409966
0.02679052576 -0.0256071277 0.5690996647 -0.6227728724 0.4029951692 -0.6698597074
0.02292735688 -0.03110536374 0.568095386 -0.517085731 0.3538736701 -0.7620139122
0.02632792294 -0.006134784315 0.5805171132 -0.6829777956 0.4272607565 -0.5455127954
0.008244649507 -0.01335837506 0.5838012695 -0.1128537878 0.5133551359 -0.6510758996
0.002002475318 -0.04768495634 0.5658406615 0.1240344569 0.3797075152 -0.8600417972
0.007017401978 -0.04501581937 0.5666720867 -0.002061684383 0.3002102375 -0.8808359504
-0.08179002255 -0.01645974629 0.621624589 -0.6628097296 0.5017753243 -0.5548014045
-0.08193442971 -0.02366762236 0.6174642444 -0.6942814589 0.4803782403 -0.5357474089
0.002169401385 -0.02774930559 0.5888285637 0.4848453701 0.5911050439 -0.6434140205
0.01405618899 -0.03692804649 0.5679170489 -0.2925439179 0.3106853366 -0.8738312721
0.008718300611 -0.03769684955 0.5683560967 -0.173426941 0.3726078272 -0.8482313156
-0.002601843327 -0.04379619285 0.5675996542 0.1775112748 0.4703198075 -0.814814806
-0.08686863631 -0.06463867426 0.6197085381 -0.7900007367 0.05848026276 0.005658305716
-0.08788582683 -0.07213293016 0.6195578575 -0.810472548 -0.03399986774 0.1312921196
-0.08801216632 -0.07782430947 0.634358108 -0.8452079296 -0.2585478723 0.3823564351
-0.08551742136 -0.05092760921 0.6082173586 -0.7374081612 0.3494223654 -0.3469957113
-0.08619364351 -0.05860715732 0.6165137291 -0.7692584395 0.1672197133 -0.1300613582
-0.08704207093 -0.06791694462 0.6259101033 -0.8070193529 -0.04682113603 0.1260248125
-0.08872014284 -0.07856691629 0.6203277707 -0.8292049766 -0.1227002218 0.2485362887
-0.08564566821 -0.05329627544 0.613054812 -0.7502786517 0.2694655657 -0.2560242712
-0.0891578123 -0.07831721008 0.6281892657 -0.8437171578 -0.209004119 0.338751018
-0.07271891087 -0.1129714698 0.6410599947 -0.6676312685 -0.3833224475 0.636577785
-0.07872993499 -0.111298278 0.6372153759 -0.7516265512 -0.3323165774 0.5672317147
-0.07672566175 -0.1005181298 0.6420605779 -0.7530272007 -0.3488994539 0.5507842302
-0.08015999943 -0.09273467958 0.645701766 -0.7837132215 -0.3505242169 0.5113716722
0.02944528311 -0.04278020561 0.5762310028 -0.1186509579 0.1727256179 -0.6309280992
0.02781183273 -0.04740670323 0.5820853114 0.2063871324 0.2422040999 -0.4642370939
0.03009333275 -0.03139162809 0.5787780881 -0.3485938311 0.3485007584 -0.6511715651
0.03239782155 -0.02894425765 0.5740979314 -0.5720267296 0.385769546 -0.6040247083
0.02379443683 -0.03080613166 0.5969510674 0.3515933156 0.3102707267 -0.6563549638
0.03604249284 -0.01525990199 0.5773258805 -0.8296961188 0.3143748045 -0.4415253997
0.03213104606 -0.02378454059 0.5800101757 -0.474571228 0.3698659241 -0.5314022303
0.02575341053 -0.02569371648 0.5968827009 0.2047121078 0.295057565 -0.5826592445
0.02832829393 -0.02411868796 0.5911672711 -0.05791436508 0.3102034032 -0.5536874533
0.03275042772 -0.01926586777 0.5842802525 -0.4779052138 0.2960021198 -0.4818241894
0.02263760753 -0.03736381605 0.5993771553 0.6191105843 0.2816987038 -0.5566145778
0.02331377752 -0.04760365188 0.5960175395 0.75513345 0.2527416348 -0.4032177925
0.02537128702 -0.05306796357 0.5891968012 0.6273420453 0.2466848046 -0.3305687606
0.02666096762 -0.03836692497 0.5873215795 0.165100649 0.3007750809 -0.5630643368
0.02585529163 -0.032325726 0.5905089974 0.1328888088 0.3156064451 -0.6513563395
0.02932742611 -0.03705873713 0.5795930624 -0.1773869097 0.3197187185 -0.5976022482
0.02447361872 -0.04071115702 0.593493104 0.4728477001 0.2811759412 -0.515235126
0.0263402015 -0.04516974092 0.5873713493 0.346401453 0.2772736847 -0.4569765627
0.01658993959 -0.0322477594 0.6007374525 0.652271986 0.3970683515 -0.6403816938
0.02336067893 -0.06794905663 0.591283977 0.7369550467 -0.1546725333 -0.4490714669
0.01955820248 -0.06602565944 0.5847742558 0.4705343246 -0.4462402165 -0.6834502816
0.02249604277 -0.07371786237 0.5888880491 0.5836061239 -0.2935508788 -0.4514502287
0.02273703739 -0.07955632359 0.592487216 0.6435275078 -0.2613130212 -0.295304805
0.02604739182 -0.08776117861 0.5971564054 0.7767689824 -0.08877550066 -0.04693504795
0.02579925209 -0.05437033251 0.5812869668 0.2738819718 -0.1392434537 -0.6933391094
0.02507146075 -0.06102800742 0.5939310193 0.9178999662 0.1886914223 -0.2004959583
0.01497922186 -0.06247189641 0.5792015195 0.3429400325 -0.5322652459 -0.7711874247
0.008665106259 -0.003148880322 0.6132267118 0.4111692011 0.5079661608 -0.7493077517
0.01372044533 -0.001334399334 0.6206273437 0.4036745429 0.4281967878 -0.8059734106
0.02158474922 -0.01400948875 0.620911777 0.6059712768 0.3254597187 -0.7183904052
0.01376106497 -0.007564519998 0.6156717539 0.4903583825 0.3958773315 -0.7663345337
0.01316921692 -0.01241034828 0.6110711694 0.5585420132 0.3771577775 -0.7317406535
0.02291392162 -0.01451255754 0.6133477688 0.8343554735 0.1821909547 -0.3247251511
0.02288720757 -0.01099107787 0.6090194583 0.9550617337 0.09552429616 -0.04765466228
0.02018783242 -0.009330981411 0.6165849566 0.684543252 0.2625876069 -0.4850904644
0.02990591154 -0.03882516176 0.5688890219 -0.43078807 0.02428701147 -0.87439394
0.02974672057 -0.0329866372 0.5687966347 -0.5707507133 0.3398624063 -0.7457307577
0.02244381607 -0.04406658188 0.5690102577 -0.2916689813 0.02286644652 -0.9114103913
0.007056752685 -0.05206853151 0.5679247975 0.1998022497 0.05614973605 -0.9271525741
0.01348531339 -0.04938288406 0.568821311 0.00253863656 0.007831842639 -0.9151101112
0.01681543887 -0.05437636375 0.5735900402 0.04770056903 -0.3308382332 -0.8314167261
0.02233165875 -0.04927233234 0.5728158355 -0.133935526 -0.1733433604 -0.8550459743
0.0230718907 -0.05398863927 0.5766915083 0.06204767898 -0.3382745683 -0.8254124522
0.02737849765 -0.04627946019 0.5724349618 -0.1851121187 -0.1892827451 -0.8785500526
0.02052671649 -0.05944398418 0.5801113248 0.2581273913 -0.4350605309 -0.7855053544
-0.07206975669 -0.1038429886 0.6459136009 -0.6925014257 -0.3888633847 0.5992830396
-0.07238659263 -0.1221039668 0.634886384 -0.6429530978 -0.3905478418 0.6377730966
-0.07908438146 -0.1182348728 0.6327933073 -0.7495251894 -0.3274765909 0.5746141076
-0.07509788871 -0.1149317101 0.6357082725 -0.7218281627 -0.34047544 0.601551652
0.005324539263 -0.05768958852 0.5712391138 0.2847640514 -0.1775200516 -0.8670328259
-0.07758902758 -0.01801955514 0.6152732372 -0.6577974558 0.5076892972 -0.5547994971
-0.07987251878 -0.005617171526 0.6245416403 -0.6214290261 0.5386087894 -0.568892777
-0.07787747681 -0.01007160172 0.6196461916 -0.6286196113 0.5317399502 -0.5674903989
-0.004655066412 -0.04165477678 0.5725205541 0.2955617607 0.5783833861 -0.759524703
-0.009205393493 -0.04615595564 0.5664724708 0.2988405824 0.526064992 -0.7944765091
-0.0002235357824 -0.05453434214 0.5679239035 0.2979861796 0.174185425 -0.845489502
0.0005043401616 -0.04885545373 0.5727759004 0.2742123902 0.2380246222 -0.7933186889
0.007594796363 -0.02896551043 0.5928446651 0.5488879085 0.591945529 -0.582957387
0.0120360963 -0.02987020835 0.5964092612 0.6175925136 0.4418070614 -0.6427120566
0.007668863982 -0.03604693338 0.5876545906 0.5131757855 0.6133701801 -0.5945397019
-0.06326156855 -0.0719313249 0.6811663508 -0.5153709054 -0.4977519214 0.6972253919
-0.08025934547 -0.07745525241 0.6560953259 -0.7661451697 -0.3685048819 0.526363492
-0.07946068048 -0.08592651039 0.6469506025 -0.7968226671 -0.3657064736 0.4792001545
-0.08607903868 -0.102966629 0.6305614114 -0.8350286484 -0.2551113367 0.4859384596
-0.08988406509 -0.09729558975 0.6285471916 -0.8486553431 -0.2614203691 0.4584434628
-0.08796558529 -0.109692201 0.6256241798 -0.8249766827 -0.2532585859 0.5043927431
-0.07051132619 -0.07342014462 0.671954453 -0.6321411133 -0.4558216631 0.6257485747
-0.07610976696 -0.07606320083 0.6617179513 -0.7114018202 -0.4093722105 0.5680593848
-0.07691045105 -0.08408531547 0.6566356421 -0.7535307407 -0.3954653144 0.5240659118
0.01415009797 -0.02761716582 0.6021018028 0.6498104334 0.3743672967 -0.6541513205
0.013191076 -0.04976446927 0.5842329264 0.640797317 0.2090066373 -0.5436884165
0.01904141158 -0.05547550321 0.5879321694 0.8932023048 0.2764362991 -0.2179394513
0.01407368947 -0.03632854298 0.5950145721 0.6984385848 0.4705265462 -0.5200192928
0.01637541503 -0.04960614815 0.5898643732 0.755077064 0.3736802936 -0.4197387695
0.01281069685 -0.041291181 0.5904622078 0.6626346707 0.466068089 -0.527295053
0.01049207244 -0.0443136692 0.5857722759 0.5992540717 0.4865130484 -0.5643861294
0.01677595451 -0.04373935238 0.5938941836 0.7680880427 0.3952825963 -0.4341673851
0.02169787511 -0.05999967456 0.5888012648 0.8456817865 0.04938098788 -0.3340418935
0.02021170408 -0.04294579104 0.5990630388 0.7663334608 0.3116521537 -0.4866384268
0.02430758439 -0.04737522453 0.6028565764 0.8240497112 0.2483068258 -0.4139085114
0.02169650048 -0.03510878608 0.6050761342 0.7318325639 0.2817183137 -0.5870710611
0.02777456678 -0.06056800112 0.6009240746 0.9382676482 0.1936331987 -0.2206543833
0.02432471886 -0.05379227921 0.5980496407 0.8948843479 0.2260787636 -0.3114456236
0.02671752311 -0.0663068369 0.5978837013 0.9704018235 0.1744792461 -0.1202137247
0.02827985212 -0.09014657885 0.6039915681 0.9649811387 0.08444545418 0.1553272456
0.02639300004 -0.07481154799 0.5950988531 0.7961516976 -0.05434566364 -0.2695017159
0.02837533504 -0.08053674549 0.5984559059 0.8748791814 0.05751738325 -0.07418937236
0.03007206134 -0.09425380826 0.6007146835 0.9056803584 0.1088306755 0.166069001
0.03538838029 -0.008977373131 0.5810570121 -0.8341473341 0.2622345984 -0.4357685447
0.03109187633 -0.005321640521 0.5869384408 -0.7985406518 -0.05396831036 -0.4421194494
0.0214378871 -0.0004910402931 0.6038649082 -0.254260242 -0.1703905314 -0.4795508087
0.01995411702 -0.004158156458 0.6102570295 0.6363666058 0.214238897 -0.07681985945
0.0227700267 -0.005636818241 0.604446888 0.6977910399 0.09114158899 0.2472445667
0.01706068031 -0.00111454376 0.6150853634 0.2568359077 0.2311047465 -0.6064063311
-0.05515856296 -0.07355970889 0.6862102747 -0.4116665125 -0.5153271556 0.746907711
-0.01367432997 0.007315005641 0.608450532 0.2412966788 0.6704473495 -0.6999515891
-0.02413748577 0.006266755518 0.6039444804 0.07780882716 0.6799715757 -0.7279497385
-0.01959680207 0.01003156882 0.6082381606 0.158217445 0.6902331114 -0.7046974301
0.007320346776 0.003010671353 0.610837698 0.07563409209 0.3479537964 -0.6019945145
0.001222903142 0.004557101056 0.6135341525 0.3139581382 0.6761202812 -0.6659418344
-0.004142858554 0.005641575437 0.6107016206 0.2975352705 0.6560625434 -0.6934003234
0.00181244954 4.327838178e-05 0.6102792025 0.3452395797 0.5959767699 -0.7222493291
0.006891001482 0.0009115997236 0.6035692096 -0.1711047143 -0.005581896286 -0.5669450164
0.01990955509 -0.03868697211 0.5683689117 -0.3523316681 0.1666183472 -0.9112004638
-0.05887638405 -0.1244950369 0.6433838606 -0.4245255888 -0.5096732974 0.7450486422
0.02163600549 -0.1038508564 0.6221633554 0.8586308956 -0.2986339331 0.3955182433
0.0233655218 -0.09916472435 0.6179651022 0.9001920819 -0.1640504152 0.3447788656
0.02501538396 -0.1023518369 0.6133849025 0.9049031138 -0.1421690285 0.3359439671
0.02393194661 -0.08346831053 0.6196877956 0.8992683291 -0.1308540404 0.1982961595
0.0250517223 -0.07901252061 0.6146730781 0.9170560837 -0.05354394391 0.1064994633
0.02491635643 -0.09410675615 0.6135819554 0.9228880405 -0.07446404546 0.2632839978
0.02510878257 -0.08569539338 0.6124944091 0.9245793223 -0.0438759625 0.1588442475
-0.07598215342 -0.1067808419 0.6401443481 -0.741291523 -0.3246332109 0.581078589
-0.06961660832 -0.1100409552 0.645186007 -0.6433601379 -0.3945032954 0.6519901752
-0.0688829869 -0.1191071793 0.6390610337 -0.6147879958 -0.4039388299 0.6641585231
-0.05931810662 -0.1194808111 0.647269845 -0.443765223 -0.4939533472 0.7468757033
-0.06282218546 -0.1293605864 0.6377387047 -0.4724047184 -0.4938592315 0.7299239039
-0.06496921927 -0.1279150397 0.6439604759 -0.5035882592 -0.4732154906 0.7171644568
-0.02051996812 -0.05150048807 0.5580918193 0.204215318 0.5620927215 -0.7762351036
-0.02683659084 -0.0507058017 0.5561173558 0.104678534 0.6182366014 -0.7579681277
-0.01272687875 -0.04965201765 0.5628045201 0.314777106 0.5194994807 -0.7924138308
-0.0190197397 -0.04487041384 0.5639702678 0.2157365829 0.6038911939 -0.7645872235
-0.08272890747 -0.09079249948 0.6340310574 -0.8285818696 -0.3249029219 0.4531802237
-0.08456408978 -0.09287123382 0.6282325387 -0.8361352086 -0.3014456034 0.4553672373
-0.08675530553 -0.09440112859 0.6223250031 -0.8452126384 -0.2764188349 0.45585379
-0.08994966745 -0.08806191385 0.6126018763 -0.8177626729 -0.1175508201 0.2534406185
-0.08751581609 -0.07265134901 0.6027881503 -0.7477455139 0.1702065915 -0.1327181309
-0.08744177967 -0.09369698167 0.6160024405 -0.8349626064 -0.2031712234 0.3816161454
-0.08710262924 -0.08105645329 0.608664453 -0.7848369479 0.01346066967 0.08437222987
-0.08692543209 -0.06722386926 0.6010273099 -0.7324404716 0.2433389723 -0.2320570797
-0.08911511302 -0.07524190098 0.6075775623 -0.7783609033 0.06618177891 0.001943682786
-0.09149998426 -0.08382026851 0.6188592315 -0.8496911526 -0.191388905 0.3430342376
0.002414023271 -0.04098403081 0.5791707039 0.4204390943 0.5695427656 -0.6984111071
0.005276313052 -0.05323831737 0.5750316381 0.2878697515 -0.04330242425 -0.7976366878
-0.001066492172 -0.03593794256 0.5801201463 0.3957839608 0.6082510948 -0.6841463447
0.01711795665 -0.0928767398 0.6456087828 0.7685310841 -0.4246663451 0.4772295654
0.01747745834 -0.09506589919 0.6399743557 0.791093111 -0.3948270977 0.4627872109
0.01379045378 -0.09254243225 0.6511794925 0.7315196991 -0.4660011232 0.4970100522
-0.06516187638 -0.1065017506 0.6536359191 -0.5751643777 -0.491756618 0.651851058
-0.06330864877 -0.1236813292 0.6476292014 -0.497784704 -0.4899403155 0.7089756131
-0.06527207792 -0.1183541268 0.6469183564 -0.558937192 -0.4480057657 0.6891919971
-0.06535869092 -0.1111557037 0.6485005617 -0.5731931925 -0.4417615831 0.6838678122
-0.02801879123 -0.0691614151 0.6956636906 -0.001149529824 -0.5554417968 0.8313214779
-0.0831156373 -0.08068972081 0.6457448006 -0.8153757453 -0.3391703665 0.4681965113
-0.0826074481 -0.07836497575 0.6507558823 -0.7911072373 -0.351455152 0.4989130795
-0.08558734506 -0.08339641243 0.6373465061 -0.8416715264 -0.3162901103 0.4366247356
-0.08412131667 -0.08771656454 0.6408727169 -0.8268211484 -0.3161416054 0.463807404
-0.08999781311 -0.0839561373 0.6335554719 -0.8567963243 -0.2800285816 0.4320920706
-0.08169919252 -0.09576481581 0.6393463612 -0.8251214623 -0.3087460101 0.4721339941
-0.08995069563 -0.0915607363 0.6311318874 -0.8576247096 -0.2659206092 0.4399974048
-0.08390125632 -0.09686752409 0.6329213381 -0.8391322494 -0.2713752985 0.4695368409
-0.08040325344 -0.1043640226 0.6335722208 -0.8034154177 -0.2784132957 0.5241901278
-0.08463346213 -0.09958150238 0.6251301765 -0.8314274549 -0.2682070136 0.4841496348
-0.08282276988 -0.1079057008 0.6282763481 -0.8088806868 -0.2660287917 0.5205307603
-0.08009977639 -0.1120398045 0.630890131 -0.7764661312 -0.300987035 0.5483031273
-0.091475375 -0.1059158891 0.6210723519 -0.8396773338 -0.2541975975 0.4794718325
-0.08832418919 -0.1024070308 0.6185252666 -0.8440262675 -0.2545841038 0.4720043838
-0.09251756966 -0.09927821904 0.6208525896 -0.8483955264 -0.2586503625 0.4616652429
-0.09143073112 -0.08773272485 0.6268125772 -0.858394742 -0.2683371603 0.4370401204
-0.06672331691 -0.06978280097 0.6773545146 -0.5670785904 -0.4824970067 0.6656710505
-0.06566972286 -0.07606805861 0.6730486751 -0.5864393711 -0.4774399698 0.644674778
-0.05839027464 -0.06923810393 0.6849793792 -0.4311357737 -0.5078840852 0.7446519732
-0.06141628698 -0.08015526086 0.6746200919 -0.5260134339 -0.5029358268 0.6751841903
-0.003564284649 1.584224447e-05 0.607006073 0.3142655492 0.6253028512 -0.7129761577
0.005372378044 -0.004627022427 0.6088300347 0.353841126 0.5571755767 -0.7484164238
0.009335756302 -0.01422154997 0.6055622101 0.5116817951 0.3964582384 -0.7522198558
0.008853817359 -0.02432132699 0.5984646678 0.5827266574 0.4480748475 -0.6676093936
0.006318040192 -0.01889650337 0.5998610854 0.5217084289 0.4147297144 -0.7386721373
0.003837419907 -0.01332553197 0.6012497544 0.4147205651 0.4459500313 -0.7905233502
-0.0004065986141 -0.02106572315 0.5923990607 0.5022906065 0.5238844156 -0.6861410737
0.01407748368 -0.01914113201 0.6078585982 0.6345773339 0.3302515447 -0.6940731406
0.01617194898 -0.02459292114 0.6076793671 0.6797047853 0.280744195 -0.6727454066
0.01988581382 -0.02067346685 0.6150045991 0.7061958313 0.2293174267 -0.6640171409
0.005857240874 -0.09616148472 0.6584512591 0.606810987 -0.5277631879 0.5933856368
0.02586958371 -0.02163933404 0.6047593951 0.3617619574 0.2413133979 -0.5590490103
0.03187936544 -0.01754598133 0.589979291 -0.3205405772 0.2298636585 -0.47477144
0.03452708945 -0.01309671998 0.5863162279 -0.5439932346 0.2273308933 -0.3747745752
0.02849089727 -0.01652116328 0.5997591019 0.1534456462 0.2169698477 -0.4049304724
0.02944754437 -0.01178006083 0.595587194 0.1411539167 0.1536228359 -0.1834496111
0.0250744801 -0.01478462759 0.6055808663 0.6341769695 0.1542223394 -0.2323250771
0.02388439886 -0.02621478401 0.6030524373 0.469568193 0.2260763198 -0.6089135408
0.02598636597 -0.008856228553 0.6002832055 0.5820415616 0.1300015301 0.1672891527
0.02121285722 -0.02669295296 0.6096848845 0.7376909852 0.2112713903 -0.6404747963
-0.05252359435 -0.1139428467 0.6538112164 -0.3308943808 -0.5499561429 0.7557230592
-0.05052375793 -0.1231197119 0.6518951058 -0.2737576962 -0.5810328126 0.7649374604
-0.05642779171 -0.1260532439 0.6502351165 -0.3623990715 -0.5567864776 0.7437968254
0.02532381751 -0.108640641 0.6153811216 0.8343342543 -0.3702443838 0.408357352
0.01920832135 -0.09652580321 0.6340819597 0.8226963282 -0.3561214209 0.4422930181
0.03050931729 -0.1008701101 0.6060563326 0.9574041367 0.04620140418 0.2840762734
0.02548427694 -0.08906066418 0.616812706 0.9015141129 -0.103863664 0.2445521355
0.02768426016 -0.08160870522 0.6085506678 0.9340702295 0.04384483024 0.1010479555
0.02992825583 -0.0844393447 0.6026957631 0.9525552988 0.1536602229 0.1037786603
0.02915204316 -0.09532362968 0.6076465249 0.9294182658 0.06921990961 0.2724044323
0.02783624083 -0.07516025007 0.6065166593 0.9446934462 0.07728371769 0.006321399007
0.02367569692 -0.09223636985 0.6228772402 0.8789141178 -0.2137396783 0.3203526139
0.02780814283 -0.06920427084 0.6051595211 0.9537601471 0.1054234132 -0.0758221522
0.0215062499 -0.0930968523 0.6296247244 0.8623523116 -0.2910938263 0.3861757815
-0.05800839886 -0.1087093279 0.6582853198 -0.4105418324 -0.5650864244 0.7153396606
-0.05964513496 -0.116543971 0.6535025239 -0.4281271994 -0.540609777 0.723172605
-0.03849518299 -0.06926496327 0.6936760545 -0.1591535509 -0.5495502949 0.8182070255
-0.03703632206 -0.07460899651 0.6918666363 -0.1413854957 -0.5695685744 0.8073835969
-0.0295910649 -0.1219618767 0.653018117 0.03199000657 -0.6284379363 0.7737562656
-0.02461299673 -0.1175289005 0.6563153267 0.1253445894 -0.6300122738 0.7658555508
-0.03825736418 -0.1321743131 0.6469856501 -0.07695702463 -0.641294539 0.7613617182
-0.03094532155 -0.1318741292 0.6473377943 0.01632911712 -0.6506761312 0.7563726306
-0.03013951145 -0.1270617396 0.6492399573 0.03357464075 -0.635312438 0.7678940296
-0.05298445746 -0.1260796636 0.6459524632 -0.3318523467 -0.5485061407 0.7615286112
-0.04747061804 -0.1310762763 0.644914031 -0.2120606899 -0.5974360108 0.7630012035
-0.03881211206 -0.05254868418 0.5505136251 -0.07973509282 0.6799516082 -0.726824522
-0.02601863071 -0.04334779084 0.5624905229 0.1124760881 0.6424696445 -0.7572293878
-0.01226000208 -0.03673964366 0.5719854832 0.254285723 0.5847430229 -0.7561963797
-0.002753220964 -0.03567056358 0.5726386309 0.1179967448 0.5089367628 -0.7780563831
-0.04726286605 0.003468529321 0.6060070992 -0.3032228053 0.66251266 -0.6824731231
-0.04973299056 -0.002328210743 0.6017592549 -0.340269357 0.6327519417 -0.6919103861
-0.05616253242 0.001247771434 0.6102469563 -0.430268079 0.6252801418 -0.6440622211
-0.06419738382 -0.004836051259 0.6102151275 -0.5667048097 0.5678716302 -0.5966005325
-0.06250735372 0.001313709188 0.6145500541 -0.5259168148 0.595379293 -0.6067108512
-0.05907769129 -0.003878122196 0.6062713861 -0.493896693 0.5954366326 -0.6288722754
0.003089273581 -0.03306799009 0.585318923 0.4015132785 0.6604264975 -0.6315053105
0.01107992698 -0.1043533832 0.6422387362 0.7437961698 -0.429589659 0.5044562221
0.01367879007 -0.09878344089 0.646993041 0.7487803698 -0.4472539425 0.4881291389
-0.02219908684 -0.1057421789 0.6650637984 0.1656353027 -0.6431042552 0.7411550879
-0.01448803954 -0.1027296484 0.6652219892 0.2808848321 -0.6260051727 0.71700418
-0.01982916705 -0.1006391793 0.6693075299 0.1787580401 -0.6355674863 0.7409934998
0.00506399991 -0.1038384587 0.6528660655 0.5969944 -0.5299341679 0.5992842913
0.009593300521 -0.1015078425 0.6489255428 0.7103857398 -0.4706528485 0.5223150253
0.009411536157 -0.09661567211 0.6534373164 0.6691407561 -0.4998520911 0.5437099934
-0.01185688097 -0.1122960448 0.657941401 0.3180633485 -0.6097311378 0.7227658629
-0.008014874533 -0.1069369614 0.6611608863 0.3791489005 -0.6077364683 0.6955845952
-0.007428130135 -0.1130176708 0.6544438601 0.3941085339 -0.5889941454 0.7031796575
-0.02151313238 -0.09541063011 0.6740692854 0.1616430283 -0.6224093437 0.7623844147
-0.0739742592 -0.09425293654 0.6531150341 -0.7223578095 -0.4245728254 0.5454666615
-0.07814981043 -0.08883307874 0.6513297558 -0.7531482577 -0.394618541 0.5249177814
-0.01976985857 -0.08101941645 0.685923636 0.1518813372 -0.5809784532 0.7958003879
-0.01606971398 -0.07618497312 0.6877194047 0.1813552827 -0.5692501068 0.8004903197
-0.003275271738 -0.1018875092 0.6631049514 0.4663933218 -0.5853976607 0.658408165
0.004455607384 -0.08150652796 0.6713244319 0.5202005506 -0.5292455554 0.6678264737
0.008271685801 -0.08471208066 0.6651133895 0.5700227022 -0.5325741172 0.6232590079
-0.000622922671 -0.07937474549 0.6777235866 0.4122521877 -0.5525760651 0.723315537
-0.02340976894 -0.08650115877 0.6815608144 0.09151440859 -0.6004782915 0.7924857736
-0.01021076366 -0.08439487964 0.6791772842 0.2853578031 -0.5790334344 0.7549215555
-0.005996887572 -0.07923997194 0.6804348826 0.3285470903 -0.563008368 0.7483724356
0.01545824856 -0.1016448736 0.6347682476 0.8010334373 -0.3764761686 0.4531887472
0.01366485097 -0.1066681221 0.6378494501 0.7593901753 -0.4159419239 0.4976649582
0.02034277469 -0.1085385159 0.6260128021 0.8191796541 -0.3627064526 0.442140609
0.01580704376 -0.1003657356 0.6413286328 0.7693850994 -0.4182843268 0.4823124409
0.0001006338935 -0.1282857805 0.6382204294 0.5514494181 -0.5516616702 0.6250030398
-0.03062730469 -0.08433398604 0.6840045452 -0.006273111794 -0.5911205411 0.8039639592
-0.03433071449 -0.07995092869 0.6880265474 -0.0721186623 -0.5834159255 0.8075987697
-0.02817131765 -0.07639418542 0.6904569268 0.03163457662 -0.5654109716 0.8216227293
-0.04329752177 -0.07643403113 0.6889818311 -0.2262731642 -0.5448945165 0.8044529557
-0.04498970136 -0.0708841756 0.6914891601 -0.232981801 -0.5429069996 0.806270659
-0.03524805233 -0.12248189 0.6529798508 -0.05464781448 -0.6244738102 0.7787043452
-0.0411763303 -0.1214493066 0.6523738503 -0.1402498782 -0.6029089689 0.78292346
-0.03993825242 -0.1169853508 0.6560020447 -0.1306967288 -0.6097159386 0.7768548131
-0.0463553369 -0.1179211363 0.6547870636 -0.2303067595 -0.5856557488 0.7766060233
-0.04550274834 -0.1244552657 0.6491155624 -0.2080238611 -0.5918396711 0.7775952816
-0.03911230713 -0.1258403361 0.6497460008 -0.09687069803 -0.6081288457 0.7837523818
-0.02629362233 -0.03777628765 0.5670050979 0.1040840447 0.6418921947 -0.7577674389
-0.03069504723 -0.04075615108 0.5644221306 0.03090830147 0.6601347923 -0.7478063107
-0.05262175202 -0.050570108 0.5616993308 -0.343626678 0.6089478731 -0.7007851005
-0.03409375623 -0.04957474768 0.5557923317 -0.002780163195 0.6629329324 -0.7462818027
-0.0311326813 -0.04662965611 0.559432745 0.02405613475 0.6635189652 -0.7448970675
-0.04227071628 -0.04691189155 0.561119616 -0.1836991757 0.6528621912 -0.7234841585
-0.0379303433 -0.0437884517 0.5631995201 -0.1152570844 0.6709110141 -0.725827992
-0.03250826523 -0.03414898366 0.5703365803 -0.0100701768 0.648509264 -0.7551468611
-0.02599838004 -0.0331566073 0.5712608695 0.119624339 0.6271942258 -0.7661514282
-0.08239175379 -0.02932747453 0.6097732782 -0.69769454 0.4824185669 -0.5294545889
-0.08454950899 -0.02974465862 0.6163016558 -0.7000257969 0.4795206189 -0.5290322304
-0.0842757225 -0.03684455901 0.6091368198 -0.7070184946 0.4801113904 -0.5190913081
-0.04591552913 -0.005851577036 0.5971291065 -0.2782208323 0.629350841 -0.7231510282
-0.0521418415 -0.111195609 0.6600129008 -0.33344841 -0.5896377563 0.7347913384
-0.06022443995 -0.1105658188 0.6526694894 -0.4514944255 -0.5168325305 0.7255312204
-0.03011450171 -0.1157623976 0.6585264206 0.03387472779 -0.6370975375 0.7644866705
-0.0602264367 -0.08542766422 0.6713938117 -0.5193671584 -0.507600069 0.6722212434
-0.0559024699 -0.08902976662 0.6739880443 -0.4464455843 -0.5393586159 0.7120059729
-0.05607499927 -0.09471274912 0.6688843966 -0.4394155443 -0.5482868552 0.709074676
-0.06197590753 -0.09358556569 0.6658771634 -0.542729497 -0.504668057 0.6675425172
-0.0192826502 -0.1103203371 0.6619840264 0.1936378479 -0.6412255764 0.7399095297
-0.02553867921 -0.1111423746 0.661690712 0.1014121026 -0.6434250474 0.7570075393
-0.01624686643 -0.1156947017 0.6564071774 0.2496812791 -0.6157559156 0.7453182936
-0.03163815662 -0.1064136326 0.6648769975 0.006042379886 -0.6446243525 0.7459480166
-0.0609559007 -0.09808842093 0.6618999243 -0.5250917077 -0.5180981159 0.6589558721
-0.06556156278 -0.100922972 0.6570696831 -0.6003112793 -0.4906176925 0.6269625425
-0.009802651592 -0.07832268625 0.684915185 0.278695941 -0.5658393502 0.7741456032
-0.004257384222 -0.08464977145 0.6768748164 0.3881650269 -0.5628094673 0.7284641862
-0.008665543981 -0.1028415784 0.6653021574 0.3651817441 -0.6141727567 0.6955601573
-0.01512717828 -0.09748632461 0.6722730398 0.2474330217 -0.6167320609 0.7453238368
-0.005867611151 -0.09218217432 0.672382772 0.407787174 -0.5837855935 0.7016361952
-0.008695174009 -0.0889139697 0.6761851907 0.3384961486 -0.5816786289 0.7353596687
-0.002715166193 -0.09448001534 0.666975081 0.4625513852 -0.5736225843 0.6675395966
-0.009161905386 -0.09771460295 0.6680488586 0.3604877293 -0.6103804111 0.7012573481
-0.001451343996 -0.08977426589 0.6705280542 0.4644377828 -0.5700452328 0.6739848852
0.003390662838 -0.09034529328 0.6654625535 0.5324429274 -0.5536977649 0.6366295815
-0.01585805789 -0.09262754768 0.6764746904 0.2322671413 -0.6049658656 0.761282146
-0.0229773242 -0.09148095548 0.6785060167 0.1361502707 -0.6164019108 0.7732111216
-0.01690967195 -0.08599692583 0.6825282574 0.2112871557 -0.5922117233 0.7766397595
0.001709794975 -0.1023351476 0.6585682034 0.5557931662 -0.5491427779 0.6237335801
0.002770235762 -0.1082090735 0.6497946978 0.5985966921 -0.5135564208 0.593282342
-0.0007614301285 -0.1083245352 0.654918313 0.5304437876 -0.5491317511 0.641705215
0.0133077018 -0.1105822921 0.6323344111 0.7873313427 -0.369312346 0.4841372967
0.01911169477 -0.1008082107 0.6281400919 0.8504779339 -0.3323501647 0.4076325595
-0.02062588371 -0.1225821972 0.6516487002 0.1783533096 -0.6239911914 0.7569822669
-0.02364642173 -0.1268282682 0.6497504115 0.1213089749 -0.63684237 0.7590606809
0.01695771329 -0.1190297306 0.6277053356 0.7776757479 -0.4102530479 0.4763112962
0.0108237043 -0.1121354401 0.6383072138 0.7439528704 -0.4050452709 0.5308156013
0.007533454802 -0.1089536175 0.6451870799 0.6973289847 -0.4643086791 0.5434840322
0.007229529321 -0.1173422262 0.6394591928 0.6687079668 -0.4657756984 0.5745664239
0.00129311427 -0.1132092997 0.6471064091 0.5680649281 -0.5250710249 0.6156470776
-0.002583386377 -0.1126459166 0.6507735848 0.4906721115 -0.5521076322 0.6576829553
-0.06647517532 -0.08131995797 0.6714018583 -0.5903840065 -0.4790067077 0.6464162469
-0.0665114671 -0.08821560442 0.6658048034 -0.6028285623 -0.475214988 0.6402915716
-0.06655459851 -0.09390424937 0.6611480713 -0.6284829974 -0.4695923328 0.6174322367
-0.07221029699 -0.08786230534 0.6596037149 -0.6947954297 -0.4306151867 0.5686950684
-0.07295871526 -0.07657772303 0.6668995619 -0.667644918 -0.43942222 0.599522233
-0.06895904988 -0.08181324601 0.6662595868 -0.6493057609 -0.4516582489 0.6094017625
-0.07365447283 -0.08164905757 0.6629520655 -0.6983222365 -0.4267352521 0.5739803314
-0.07393030077 -0.09930083901 0.6491997838 -0.710437119 -0.4011333883 0.5764810443
-0.06971685588 -0.09906519204 0.6537997723 -0.6788143516 -0.4496429861 0.579290092
-0.05232518539 -0.07937914133 0.6822972894 -0.3592860103 -0.5399865508 0.7514328957
-0.04696954042 -0.08018792421 0.6851151586 -0.2816064358 -0.5473521948 0.7845960259
-0.04621703178 -0.0855518505 0.6815440655 -0.2515542209 -0.5737427473 0.7762399912
-0.05680173263 -0.08018004894 0.6791554689 -0.4334916472 -0.5355445147 0.719060719
-0.05217494816 -0.08509688824 0.6786810756 -0.3668441772 -0.5457489491 0.7434539795
-0.04507874697 -0.05102639273 0.5560798049 -0.2053633034 0.6539231539 -0.7202805281
-0.07284096628 -0.05204930529 0.5765613317 -0.6040120721 0.528069973 -0.5967229605
-0.06761223823 -0.04750056937 0.5749982595 -0.5484992266 0.5514501929 -0.6269292831
-0.02137694322 0.001408132375 0.6008754373 0.1384332776 0.6517485976 -0.74017483
-0.01528319344 0.001748924726 0.6030164361 0.2453817874 0.6451428533 -0.7227987051
-0.04207766801 0.005341536831 0.6054933667 -0.2104568779 0.6746896505 -0.7023806572
-0.03595177829 0.01048037782 0.6086248159 -0.0946399644 0.7027617693 -0.7025460005
-0.03105294332 0.00741010299 0.6056132913 -0.01951378398 0.6840219498 -0.7259134054
-0.02599123865 0.01016096305 0.6076923013 0.05159518495 0.6967340708 -0.7146804929
0.002132622991 -0.01445596758 0.5862298012 0.05767701939 0.5309857726 -0.6664892435
-0.00459943153 -0.01695100963 0.5874722004 0.2596438527 0.5602263808 -0.7008534074
-0.001945133205 -0.01442276314 0.5963358879 0.4193875194 0.5316492319 -0.7327579856
-0.04361479729 -0.03087591939 0.5745361447 -0.2247300148 0.6418609619 -0.7309479117
-0.03806080297 -0.02290918306 0.5804319382 -0.1427078098 0.6449942589 -0.7464901805
-0.04419799894 -0.02589313127 0.5793832541 -0.2390241623 0.6412785053 -0.728135705
-0.00740192784 -0.02418643795 0.5850664973 0.3989904523 0.5762744546 -0.7084220648
-0.01223242655 -0.0286999587 0.5797720551 0.2998675406 0.613528192 -0.7263882756
-0.007205465809 -0.03505333513 0.5765010118 0.3310047686 0.6086492538 -0.7203086019
0.02130870894 -0.01836274564 0.5750759244 -0.4850097895 0.4413842559 -0.6095190644
0.008369734511 -0.01878331974 0.5807039142 -0.09379713237 0.5024594665 -0.6519701481
-0.001931997947 -0.0233333949 0.5835427046 0.281362325 0.5502550602 -0.6918416619
0.01455282047 -0.01937592775 0.5777908564 -0.2580367327 0.4752765894 -0.6264559031
0.0269189626 -0.01388835348 0.574862361 -0.6696109772 0.4256265759 -0.5790957808
0.01750821248 -0.01191730238 0.5804200172 -0.377858907 0.4786155224 -0.6192034483
0.00771077536 -0.02914066985 0.5760117173 -0.03673930466 0.4301496744 -0.7694625258
0.002965506865 -0.0251414068 0.580381155 0.1298366934 0.5132282972 -0.7024356127
0.01405763812 -0.02772666141 0.573705852 -0.2489122003 0.4081299901 -0.7432329655
0.0129172625 -0.0326093398 0.5716985464 -0.2180615366 0.3511074185 -0.8272528052
0.02024924755 -0.02316389419 0.5731218457 -0.4508939981 0.4285874069 -0.6631012559
0.01105751656 -0.02395798452 0.5771172047 -0.1416487694 0.4769940078 -0.6796064377
0.0009625716484 -0.03089359961 0.5776839852 0.1707454175 0.4909288287 -0.7623152733
-0.005777388811 -0.02919862233 0.5814011693 0.390055418 0.581731081 -0.7109294534
0.006956253201 -0.03430974856 0.5728802681 -0.04091567919 0.416328162 -0.8104566336
-0.01357219834 -0.02147116885 0.5847218037 0.2985223532 0.6061515808 -0.7331062555
-0.0464297682 -0.113436915 0.657677114 -0.2430501133 -0.5933046341 0.7649656534
-0.05341815948 -0.1047378778 0.6623265147 -0.3703790009 -0.5966975093 0.7096084952
-0.04164523631 -0.1119501293 0.6608794928 -0.1644534469 -0.6291555166 0.7572093606
-0.03596237302 -0.1139107272 0.6597584486 -0.06535890698 -0.63890028 0.7647124529
-0.03687934577 -0.1096690744 0.6639429927 -0.08910171688 -0.6387304664 0.7619031072
-0.03073742799 -0.0961138159 0.6746852398 0.0001162056942 -0.6235320568 0.7763041854
-0.02607314661 -0.09905841947 0.6721115708 0.07795444131 -0.6364486217 0.7654990554
-0.03174844012 -0.1023014933 0.6701885462 -0.01378057431 -0.6452765465 0.7606310248
-0.03756930307 -0.1044440195 0.666952908 -0.1010869145 -0.6426098943 0.7478259802
-0.04958198592 -0.09013017267 0.6769224405 -0.3354610801 -0.5767463446 0.7431207299
0.006634008139 -0.1233199909 0.6361012459 0.6573562622 -0.4725753665 0.5852224231
0.01407751907 -0.1164031252 0.6329395771 0.7596612573 -0.410626024 0.5032663345
-0.01621217839 -0.125540778 0.6492236853 0.2474679649 -0.6243777275 0.7401822805
-0.0192178525 -0.1298275739 0.6470936537 0.1908385307 -0.6389678121 0.740801692
-0.02950234339 -0.08961468935 0.6803219318 0.03009362891 -0.6195873618 0.7824115157
-0.03633270413 -0.08981857449 0.6805184484 -0.06944741309 -0.6157668829 0.7839813232
-0.04057434201 -0.08668405563 0.6823217869 -0.1436049491 -0.5921348333 0.7903428674
-0.04523899034 -0.09454786032 0.6748187542 -0.2272320539 -0.6004447341 0.7661882639
-0.03686917201 -0.09397641569 0.6766781211 -0.0951436311 -0.6161516309 0.7796266675
-0.06042479724 -0.05078426003 0.5663602352 -0.4642315507 0.5608080029 -0.6849706173
-0.06651300192 -0.05213612691 0.5703710318 -0.5331898332 0.5325139165 -0.6565084457
-0.04395484179 -0.04054579139 0.5663182139 -0.2318931669 0.6452870369 -0.7258322239
-0.03662686795 -0.03855410218 0.5667344928 -0.07552168518 0.6662787199 -0.7369315624
-0.06202974543 -0.02267537452 0.5922273993 -0.5137482285 0.5718725324 -0.6363824606
-0.06550568342 -0.02133468725 0.5971714258 -0.5665460229 0.5470231771 -0.6088860631
-0.05849226192 -0.01760868728 0.5937289596 -0.4692129493 0.5882165432 -0.6563399434
-0.07476337254 -0.04848892242 0.5818623304 -0.6361758113 0.5065934062 -0.5815429091
-0.02865513042 0.00305876229 0.6016221642 0.0125630023 0.6686511636 -0.7394132614
-0.03973584995 0.0006547707017 0.6015083194 -0.1632387042 0.660138011 -0.7277459502
-0.001956776017 -0.00918023847 0.6008659005 0.3654032052 0.5505781174 -0.7495691776
0.001044539968 -0.004130482674 0.6009828448 0.07270050049 0.2739195228 -0.6659213901
0.007434026804 -0.003970213234 0.5985725522 -0.2070969641 -0.1159746349 -0.5637819171
0.01478051767 -0.001784463646 0.5996133089 -0.4726007581 -0.424544245 -0.4971311986
-0.00054259022 -0.009382470511 0.5934615135 0.1769467741 0.5492411256 -0.6860432029
0.01574991457 -0.007942558266 0.585665822 -0.3314991295 0.4739428461 -0.5994058251
0.006071203854 -0.01018601377 0.5898118019 -0.005584710743 0.5188060403 -0.6528314352
0.02299209312 -0.003961812705 0.5878303647 -0.6496187449 0.05012854561 -0.5102276206
0.01086640265 -0.006245328113 0.5894096494 -0.2208541632 0.4383528233 -0.6155428886
0.01406462677 -0.003990262281 0.5939498544 -0.3963849843 -0.04696535319 -0.5403347015
0.02010538243 -0.002510338556 0.5941897631 -0.6229192019 -0.3196817935 -0.4780450165
0.004595842678 -0.006109968293 0.594173789 -0.04885419458 0.3341647089 -0.6322318316
-0.007763766684 -0.006499377079 0.5992813706 0.328854084 0.5899913907 -0.7357433438
-0.01435404178 -0.004409559537 0.5984863043 0.250896275 0.6181724072 -0.7446435094
-0.03042886779 -0.02952482924 0.5744854212 0.01258993056 0.6424433589 -0.7602049112
-0.02607052028 -0.02648421936 0.5771354437 0.0955908671 0.6371363401 -0.7631421089
-0.03064692207 -0.02285688184 0.5796022415 -0.001969581936 0.6391739249 -0.7626404762
-0.01844615676 -0.022142414 0.582356751 0.2181889415 0.6196103096 -0.7493472099
-0.02441272885 -0.02183614857 0.5807715654 0.1204521954 0.6278003454 -0.7675536275
-0.006795544177 -0.01480319351 0.5931742787 0.3799446225 0.5756466389 -0.7210151553
-0.01353720576 -0.0157017298 0.5896178484 0.2928383052 0.5992378592 -0.7403146625
-0.01416392997 -0.009978058748 0.5941618681 0.2633446455 0.603938818 -0.751439631
-0.07116741687 -0.0225424543 0.6014574766 -0.6408820152 0.5143579245 -0.5688661337
-0.07556428015 -0.02092447318 0.6105134487 -0.6658425927 0.4914320409 -0.5598911643
-0.07121678442 -0.01086655632 0.6126805544 -0.6185796261 0.5358304381 -0.5745641589
-0.04099547863 -0.09882474691 0.6723886728 -0.1566172689 -0.6254242659 0.7626870871
-0.04787635058 -0.1080289185 0.6636859775 -0.2659279704 -0.6139769554 0.7398260832
-0.0427739732 -0.1029105708 0.6687504053 -0.180348441 -0.6305589676 0.7541765571
-0.04748850688 -0.09868278354 0.6705616713 -0.2768970728 -0.6027866006 0.7394992113
-0.04908963293 -0.1032211706 0.6669268608 -0.2972709835 -0.6020044088 0.7351527214
-0.05536704883 -0.09891113639 0.6654364467 -0.4136043191 -0.5634819865 0.7123371363
0.001054981607 -0.1223823056 0.6399715543 0.5948902965 -0.4991131425 0.6119716167
-0.0006810009945 -0.1186458468 0.6441709995 0.5363506675 -0.5280255079 0.6422157884
-0.005774282385 -0.1305455565 0.6417130232 0.4304705858 -0.6096356511 0.6638173461
-0.01262611151 -0.1317114532 0.6439835429 0.3020426333 -0.633625567 0.7082079649
-0.01307816897 -0.1203151122 0.6511735916 0.3101615012 -0.6023642421 0.7290129066
-0.005706112366 -0.1244091839 0.6444027424 0.4719166756 -0.5727463365 0.6680004597
-0.007688960992 -0.1202042848 0.6486145854 0.4145301878 -0.5827189684 0.6926503778
-0.0598686412 -0.04344458506 0.5717037916 -0.4606269002 0.5798879862 -0.669652164
-0.05586187541 -0.04650585353 0.5667594075 -0.423949331 0.5928226113 -0.6840223074
-0.06787004322 -0.04348018765 0.5783078074 -0.5612235665 0.5476659536 -0.6182017922
-0.04812942445 -0.04541259259 0.5630057454 -0.3043246269 0.6352623105 -0.7022669911
-0.05149619654 -0.04272212461 0.5676683784 -0.3611005247 0.6144679189 -0.6966248155
-0.05547747388 -0.03999180719 0.5716050863 -0.4131478667 0.5989220738 -0.6858512163
-0.04567230493 -0.03583865613 0.5705067515 -0.2569543719 0.6368604898 -0.7254247069
-0.04873549193 -0.03154608607 0.5754380226 -0.3271669745 0.6264864802 -0.7050818205
-0.05338496342 -0.03521310911 0.5742778182 -0.3911006451 0.6087322235 -0.6899627447
-0.03293969855 -0.001565915532 0.5984029174 -0.04295373708 0.6490294933 -0.7550436258
-0.03184607625 -0.006386741996 0.5926876664 -0.02721965685 0.64448452 -0.7612843513
-0.02641246282 -0.001202226034 0.5974856019 0.06911356002 0.646063745 -0.7589894533
-0.02585544623 -0.006634389516 0.5937732458 0.06576725096 0.6363760233 -0.7667658925
-0.0195583757 -0.01157666743 0.5913392305 0.1833585352 0.6232473254 -0.7556096315
-0.02024350129 -0.00631100731 0.5952473879 0.1581086069 0.6236776114 -0.7609761357
-0.03873719275 -0.01449382398 0.5871255398 -0.1480020285 0.6389516592 -0.7501555085
-0.03250185773 -0.01825300232 0.5835207105 -0.0496269092 0.6415929198 -0.7605386972
-0.02655972354 -0.0173360426 0.5845230818 0.07035210729 0.6384989619 -0.762611568
-0.02535594814 -0.01274655294 0.5889840722 0.08810899407 0.6393998861 -0.7619485855
-0.03238921985 -0.01371925324 0.58675915 -0.04226109385 0.6397688389 -0.7637962699
-0.04435426742 -0.02006164379 0.5845261216 -0.2429228276 0.63689363 -0.7305402756
-0.07045019418 -0.01438594144 0.6076075435 -0.6275607944 0.525079608 -0.5742503405
-0.06635146588 -0.01612389646 0.6014998555 -0.5830281973 0.5527502894 -0.5934900045
-0.0642260015 -0.01121599413 0.6036986113 -0.5640693903 0.5657703876 -0.6006481647
-0.05784218386 -0.01045345422 0.5990536809 -0.4544083178 0.5926405787 -0.6574031115
-0.06220811978 -0.01496376563 0.5982465148 -0.5242307186 0.5716571212 -0.627648592
-0.05517827347 -0.005057693459 0.6016979814 -0.4192245305 0.6051356792 -0.6763880253
-0.07958606631 -0.04037068784 0.5975147486 -0.6975551248 0.4870474339 -0.5251682997
-0.07610408962 -0.03716990724 0.5945824981 -0.6643583775 0.5007091761 -0.5544455647
-0.07236027718 -0.02780776098 0.5972095728 -0.6395526528 0.5213544369 -0.5646921992
-0.07725130022 -0.02869871072 0.6014335752 -0.6689971089 0.5011121631 -0.547906518
-0.07742853463 -0.02628431283 0.6071962118 -0.6858178973 0.4835914671 -0.543646872
-0.08014000952 -0.03416652232 0.6042004824 -0.6986557841 0.4843700528 -0.526316762
-0.08276054263 -0.03975792229 0.6027944684 -0.7095326781 0.4811624885 -0.5147997737
-0.03680301085 -0.01064441074 0.5910150409 -0.1117932796 0.6352609396 -0.7635297775
-0.03954764456 -0.006042898633 0.5955387354 -0.1694357693 0.6351902485 -0.7486535311
-0.05258255452 -0.01353761181 0.5939510465 -0.3821219802 0.6125469804 -0.6880555749
-0.04478864372 -0.01154477242 0.5921009183 -0.2548807859 0.6338213086 -0.7282456756
-0.06337870657 -0.03677709773 0.5802856684 -0.5355767012 0.5662953854 -0.6254557371
-0.06827186793 -0.0369842723 0.5849196911 -0.6060412526 0.5409511924 -0.5810670853
