# .PCD v0.7 - Point Cloud Data file format
VERSION 0.7
FIELDS x y z normal_x normal_y normal_z
SIZE 4 4 4 4 4 4
TYPE F F F F F F
COUNT 1 1 1 1 1 1
WIDTH 512
HEIGHT 1
VIEWPOINT 0 0 0 1 0 0 0
POINTS 512
DATA ascii
0.1401562989 -0.1112446636 0.649900198 0.6408522725 -0.5311608315 0.4434172511
0.1392510533 -0.109277308 0.6560714841 0.3972977996 -0.5151381493 0.4514338076
0.1356369555 -0.1122098044 0.6599299312 0.1378821731 -0.5115332603 0.4774764776
0.1360286772 -0.1143552661 0.6547664404 0.3288072646 -0.5257086158 0.4732922912
0.1294674277 -0.120697543 0.6598092914 -0.07483806461 -0.5248633623 0.5200088024
0.1447773278 -0.1041538045 0.6513673067 0.7495906353 -0.5158261657 0.4136274159
0.1411520541 -0.1120174751 0.6438872218 0.7056965232 -0.475473851 0.5227774978
0.135141477 -0.1129370332 0.642224133 0.6604545712 -0.4478466213 0.5996835828
0.07917645574 -0.07316452265 0.6764461994 -0.05095709488 -0.6488876343 0.75610286
0.02252349444 -0.08864174038 0.7073032856 0.7536605597 -0.4918969572 0.4356095493
0.01836175658 -0.09478199482 0.7096767426 0.769454658 -0.4729811847 0.429161787
0.05855512992 -0.1645394862 0.7522889972 -0.1682653129 -0.505050838 0.8456290364
0.1274612993 -0.09048955142 0.6781079769 0.5089047551 -0.07209324837 0.8502635956
0.1394261718 -0.08981646597 0.66142416 0.6675360203 -0.4162864983 0.5790402293
0.1335185021 -0.09085748345 0.6709579229 0.5880075693 -0.2343555093 0.7222530246
0.1219821647 -0.08902898431 0.6834240556 0.09155496955 -0.1964582354 0.9707195163
0.1287407428 -0.09457806498 0.6815786362 0.3911961317 -0.2212779969 0.8595062494
0.1317487806 -0.08800040185 0.6663297415 0.5828689933 -0.2178638428 0.7120659351
0.1274311393 -0.08768551797 0.6727157831 0.5173081756 -0.04545904323 0.8194358945
0.07365927845 -0.07093723863 0.6799983382 0.05389701575 -0.6609457135 0.7444217205
0.0861710906 -0.07062017918 0.6795567274 -0.1515490711 -0.6352345347 0.7555046082
0.03857599199 -0.1991182417 0.7199957371 -0.4882566929 -0.4534235001 0.7443446517
0.04335424304 -0.1957416832 0.7234991193 -0.4151729047 -0.4852822423 0.76789397
0.1241123006 -0.1128025576 0.6778915524 -0.5786405206 -0.3800195456 0.7205054164
0.132405892 -0.1135029793 0.664744854 -0.09746584296 -0.4941182733 0.5210952759
0.1309898943 -0.1100796387 0.6704478264 -0.1749790907 -0.4409858882 0.6096301079
0.1370018274 -0.1066101789 0.6631884575 0.2172950953 -0.465465039 0.5347841382
0.1246078536 -0.1206259653 0.6716912389 -0.6154854894 -0.4916630387 0.5743217468
0.1283356547 -0.117099978 0.6684843898 -0.3674250543 -0.4914864302 0.5508984923
0.1309222877 -0.09950249642 0.6784416437 0.2960757315 -0.2587299347 0.7600976825
0.1392681003 -0.1020271108 0.6627488732 0.5421241522 -0.4141708016 0.550804615
0.1290755123 -0.1054656804 0.6772713661 -0.0962677151 -0.3427565396 0.7174056172
0.1328648925 -0.1023603901 0.6731727719 0.2357245237 -0.3361339867 0.6803992391
0.1258973479 -0.1235129908 0.6428357959 0.4638049603 -0.5146837234 0.7035338879
0.1275772303 -0.166350767 0.6741166115 0.6980665922 -0.1978765577 0.2956105769
0.1280703694 -0.1685703695 0.6846823096 0.8165480494 -0.2394071966 0.3002533615
0.1267913133 -0.162985906 0.6846432686 0.6314496994 -0.3827320039 0.4191611707
0.1266931891 -0.1526135504 0.6865022779 0.3371824622 -0.38765046 0.4193874598
0.1242383495 -0.1513212621 0.6681268811 0.1765791327 -0.5170359612 0.5770933628
0.124486357 -0.1444258988 0.671110332 -0.005885977298 -0.497943908 0.5539752841
0.1259000748 -0.1577524841 0.6796742082 0.4424282908 -0.4342139959 0.4760220051
0.1253179461 -0.1530962884 0.676014483 0.2813344002 -0.4611685276 0.5089711547
0.1226171851 -0.1345494688 0.6585452557 -0.3796481788 -0.5888409615 0.6649617553
0.1259710193 -0.1461473703 0.6820729375 0.1178265661 -0.4204977155 0.4595568776
0.1242844537 -0.1304671168 0.671821177 -0.4108373821 -0.4967145622 0.5527783632
0.125892669 -0.1392702311 0.679363668 -0.1085795686 -0.4383659959 0.481487751
0.1278480291 -0.1576420218 0.6882109046 0.483659327 -0.3684741855 0.39592278
0.1281427741 -0.1646180004 0.6923552752 0.7221713662 -0.3403266668 0.3614632487
0.04043342918 -0.1740060449 0.736481607 -0.4853249788 -0.4841536283 0.7261999249
0.03296499699 -0.1693265885 0.7342057824 -0.5564363599 -0.4438575506 0.7004036903
0.03189779446 -0.1742879301 0.7305527925 -0.5773110986 -0.4733095765 0.6642680168
0.04408143088 -0.1786485612 0.735799253 -0.4468492866 -0.5144767761 0.7313777208
0.03874827921 -0.1793331802 0.7327001095 -0.5132712722 -0.4979483783 0.6980739832
0.02753666788 -0.168288976 0.7287234664 -0.6276826859 -0.446559608 0.6345859766
0.03692406788 -0.1671665013 0.7380841374 -0.5094761848 -0.4369369149 0.7398564816
0.05568604171 -0.1614207774 0.7494238019 -0.2234814167 -0.4951512516 0.8332939744
0.04943627492 -0.1651637852 0.748221457 -0.3007333279 -0.4750397205 0.8125933409
0.01754938252 -0.1326203346 0.6663526893 0.7632518411 -0.4523841441 0.4610375166
0.04154798016 -0.1640108675 0.7427877784 -0.4335882366 -0.4404526949 0.7769931555
0.06568411738 -0.1639011502 0.7523103356 -0.08145879209 -0.5083370805 0.8523753285
0.07121569663 -0.1652416289 0.7528089881 0.005722437054 -0.511778295 0.8545782566
0.09445793182 -0.07392814755 0.6799506545 -0.2605947554 -0.6166557074 0.7422863245
0.09086496383 -0.07616210729 0.6764423251 -0.2345965058 -0.6135691404 0.7520260215
0.0340323858 -0.2078144103 0.7135924101 -0.5276480317 -0.4207140505 0.729554534
0.0151268458 -0.1908602566 0.6994658709 -0.7165517807 -0.3515876532 0.6022925973
0.02108189836 -0.1934606135 0.7054177523 -0.7112534046 -0.3400662839 0.6150522232
0.1279264539 -0.1264705062 0.6545599103 0.01244185492 -0.5573077798 0.5588866472
0.1308976263 -0.1243699342 0.6494726539 0.3194389045 -0.5557214022 0.5153628588
0.12422847 -0.135823831 0.6513100266 -0.1132304296 -0.6132164001 0.6659612656
0.1270971447 -0.1306263953 0.6509045362 0.06257897615 -0.5863192677 0.599058032
0.1258886158 -0.1247488633 0.662545383 -0.3184500337 -0.5330861807 0.5639122128
0.1375786066 -0.1177904755 0.6428568959 0.6852228045 -0.5135573745 0.5128242373
0.1301252097 -0.1196064726 0.6421059966 0.5207810998 -0.4129014015 0.70121032
0.1377711594 -0.0983017832 0.6675232649 0.6449798346 -0.3368650377 0.6274945736
0.1414697915 -0.09467291832 0.6589723229 0.6965687871 -0.45399189 0.5254251361
0.1425940245 -0.1001998559 0.6573210955 0.7143458724 -0.456849277 0.4883273244
0.1376683712 -0.09185822308 0.6668252945 0.6414768696 -0.3659314513 0.6363261342
0.1336454302 -0.09492907673 0.6760007143 0.5850872993 -0.2428618222 0.7481480837
0.1390520334 -0.09145968407 0.6543169618 0.6786543727 -0.5089686513 0.5248414874
0.1437183321 -0.09797716141 0.6528311372 0.7354342937 -0.4981972277 0.4563608766
0.1263030469 -0.1854515076 0.68416816 0.8932370543 -0.2969783843 0.2811443806
0.03530977294 -0.185121268 0.7246434093 -0.5703500509 -0.4678333104 0.6744144559
0.03088874742 -0.1823949665 0.7215241194 -0.6398890615 -0.4233850241 0.639529109
0.026759075 -0.1740260869 0.7232498527 -0.7009929419 -0.396915257 0.5918379426
0.03487534821 -0.1893274188 0.7207087874 -0.5685014129 -0.4448542595 0.6896599531
0.03384644911 -0.1960746646 0.7177142501 -0.5515870452 -0.4447079897 0.7039198279
0.03139929473 -0.178079024 0.7255519032 -0.6270638704 -0.43829301 0.6376649141
0.01936240494 -0.18802163 0.7070568204 -0.7269414663 -0.3369754851 0.5973899961
0.05981707573 -0.1699334383 0.7502370477 -0.1851297766 -0.523994863 0.83027637
0.06568285823 -0.1699979603 0.7501840591 -0.09695857763 -0.5377257466 0.8364627957
0.112225689 -0.1171243489 0.6457926035 -0.03411731869 -0.4637548923 0.7767258286
0.1060062125 -0.1154160202 0.6478159428 -0.172875002 -0.5132850409 0.7528247237
0.09989646822 -0.116330795 0.6492530107 -0.3795448542 -0.5924820304 0.7051309347
0.1071770266 -0.1135219857 0.6583803296 -0.5340787172 -0.537430644 0.6496341228
0.01634790748 -0.1128011718 0.6955997944 0.8023815751 -0.4273820817 0.4165385067
0.01756535657 -0.111565277 0.6899909377 0.7956390977 -0.4376021922 0.4187068343
0.1213439181 -0.1291970611 0.6620046496 -0.5069692731 -0.5652669668 0.6098588109
0.1195499375 -0.1365047991 0.6540821195 -0.3493636549 -0.6158804297 0.6762942672
0.1199204177 -0.1225552484 0.6647999287 -0.6340069771 -0.5524103045 0.5342645645
0.1162227914 -0.1235790029 0.659338057 -0.5730090141 -0.574747026 0.5752862692
0.1162409931 -0.1294678003 0.6547894478 -0.4565761685 -0.5947927237 0.6388661265
0.0934972167 -0.10616602 0.6544544101 -0.3498144448 -0.5724963546 0.7394647002
0.08792150021 -0.1081593409 0.6503653526 -0.2545444071 -0.6040412188 0.7484884858
0.1121706367 -0.123162739 0.6546869278 -0.5189133286 -0.5763577819 0.6291103363
0.1373558939 -0.09650354087 0.650203824 0.6452264786 -0.5475370884 0.5298208594
0.1408536434 -0.1039545387 0.6474038363 0.6986994743 -0.5298554301 0.479465425
0.02201333456 -0.1301227957 0.663249433 0.7569946051 -0.4627155364 0.4611396492
0.01884590089 -0.1313535124 0.6746736765 0.7823621631 -0.4437741041 0.4357039332
0.02596050501 -0.08821091056 0.7014964223 0.739287734 -0.5092610121 0.4386622012
0.02853587829 -0.08306591213 0.7008279562 0.7230572104 -0.5266332626 0.4462469518
0.02454960905 -0.09246148169 0.697717607 0.753279388 -0.488325119 0.4404168129
0.1098249853 -0.0816456005 0.6782141328 -0.03794991225 -0.3540373743 0.7959362268
0.1031381488 -0.08269780874 0.6772540808 -0.3538739085 -0.5398671031 0.7593211532
0.0171029754 -0.1015384644 0.7039713264 0.7904179692 -0.4442541003 0.4210268855
0.02140245773 -0.09805369377 0.7005019784 0.7698903084 -0.4719295204 0.4293886721
0.05398492515 -0.1694067717 0.7478366494 -0.2870754898 -0.4993020594 0.8154009581
0.1250433028 -0.1906235665 0.6868575811 0.8634022474 -0.3854061663 0.3253592551
0.09663426876 -0.1992145479 0.7176074386 0.477378279 -0.5259823203 0.7011303306
0.09133704752 -0.2027602345 0.7185031176 0.3864832819 -0.561152637 0.7268818021
0.05921796709 -0.1698478609 0.7446777821 -0.192196101 -0.5231101513 0.8277419806
0.04563081264 -0.1729488671 0.7398677468 -0.4247450233 -0.4875319004 0.7595739365
0.05039393529 -0.170823887 0.7422267199 -0.3410084546 -0.4883487821 0.7967903614
0.04315714911 -0.203442052 0.7174709439 -0.4180601537 -0.4981635809 0.7570725083
0.04942243174 -0.2052443773 0.7184211016 -0.3052980602 -0.5171511173 0.793418467
0.09039583057 -0.2084042132 0.7151824832 0.3686554432 -0.5769944191 0.7260398269
0.09672676027 -0.2105441242 0.7133346796 0.4524629116 -0.5701965094 0.6845903993
0.05990643054 -0.207531184 0.7197226286 -0.1349705011 -0.5768130422 0.7963285446
0.1199144647 -0.1170789897 0.6693990827 -0.607060194 -0.4880588353 0.6159332395
0.1135636792 -0.1184093133 0.6609876156 -0.5417778492 -0.6056788564 0.5787996054
0.1173390448 -0.1112309024 0.6711078882 -0.5705778003 -0.471531719 0.6620612741
0.1150273606 -0.1139597073 0.6657005548 -0.5772847533 -0.5495706797 0.598528266
0.1146210432 -0.1065294668 0.6708568931 -0.5567219257 -0.406788826 0.7197268009
0.1186807826 -0.1070645303 0.6757221222 -0.5580298305 -0.3852767348 0.7340989709
0.02034943923 -0.118585065 0.6821226478 0.7920582891 -0.4426533878 0.4202905297
0.02125809528 -0.1124842018 0.6831169724 0.7909609675 -0.4439607561 0.4209740758
0.08832786977 -0.08489405364 0.6695215106 -0.2269341797 -0.5961236954 0.7672761083
0.09428393841 -0.08585657924 0.6704637408 -0.3088929951 -0.5802018046 0.7535665631
0.0939565599 -0.08111447841 0.6739002466 -0.2849379778 -0.5904482007 0.7540104985
0.01622632891 -0.1172480434 0.692186296 0.8013781905 -0.4292573035 0.416534096
0.01680558547 -0.1244475394 0.6868112087 0.7996976376 -0.431319952 0.4176419377
0.01688857377 -0.1263153702 0.6771098971 0.7906811237 -0.4368957281 0.4283355772
0.01473046653 -0.1350143254 0.6711925268 0.7776101828 -0.439456135 0.4493746758
0.1148386896 -0.1433000267 0.6392090917 -0.3203347921 -0.5225499272 0.7640761733
0.1203248501 -0.1407900006 0.6474032402 -0.2306641936 -0.6046815515 0.7277578712
0.1323954314 -0.1257089823 0.6434662938 0.5663205385 -0.5739910007 0.5121921897
0.1190073937 -0.1395840496 0.6412790418 -0.1387201548 -0.5449567437 0.7108092308
0.1281415671 -0.1313363165 0.6455719471 0.2658419609 -0.5917189121 0.5925967097
0.1204221621 -0.1335143149 0.6396912932 0.1183363348 -0.5274723172 0.7035257816
0.1244052947 -0.1295558959 0.6410359144 0.3137661517 -0.5426822305 0.6495855451
0.1167550683 -0.1462297291 0.6467834711 -0.1233643815 -0.4794668555 0.6923187375
0.1168022603 -0.15119946 0.6436668038 -0.05647095293 -0.3712249696 0.6042692065
0.1218078136 -0.1556172967 0.6535630226 0.2535998225 -0.3004033267 0.4533426762
0.1221211255 -0.1442037374 0.6515909433 -0.1365934759 -0.5646771789 0.6597573757
0.1204072535 -0.1511040777 0.6488822699 0.02207065932 -0.3971169889 0.5572894216
0.1278458387 -0.1681470871 0.6607154608 0.7187021971 -0.05791637674 0.1448066235
0.1251152009 -0.1627125442 0.6563729644 0.4872005582 -0.1637840867 0.2812343836
0.1287262589 -0.1746718585 0.6870642304 0.8976297379 -0.2863660157 0.3030109107
0.1265100837 -0.1774516702 0.6932149529 0.877928555 -0.3410721421 0.335413754
0.1247835532 -0.1844411641 0.6907498837 0.8661215901 -0.3611858785 0.3448151052
0.09337914735 -0.1322641522 0.6332110763 -0.3655946851 -0.5858606696 0.7166618109
0.0864296481 -0.1303446293 0.6324726343 -0.2621516883 -0.6275496483 0.7320916653
0.1084314659 -0.1323524565 0.6455001831 -0.3626520336 -0.536151886 0.7543659806
0.108938925 -0.1261775643 0.6504237652 -0.4295925498 -0.563028574 0.7009621859
0.1144152284 -0.1342803836 0.6502320766 -0.3318390846 -0.604516983 0.7150048614
0.09076900035 -0.09720826149 0.6600241661 -0.2868286073 -0.5941401124 0.7507512569
0.08902364224 -0.09143882245 0.6642658114 -0.2571297288 -0.5916689038 0.7616487741
0.03264582157 -0.1077071428 0.6694175005 0.6748108864 -0.5083554387 0.53438133
0.04550112784 -0.1296680123 0.6348989606 0.4169773757 -0.5992915034 0.6832491159
0.03622033447 -0.2007418573 0.7148938775 -0.5351843834 -0.4417745173 0.7129863501
0.03029720858 -0.1900940388 0.7154665589 -0.635356009 -0.4042734802 0.6568289995
0.02642233483 -0.1873556525 0.7122074962 -0.6747738123 -0.3826286197 0.6270022392
0.02455610782 -0.1920305938 0.7096971869 -0.70510149 -0.350387007 0.6158893704
0.02882309817 -0.1963450164 0.7128953934 -0.6241099238 -0.4087969661 0.6644692421
0.02426862158 -0.1986926794 0.7078419924 -0.674356997 -0.3659743965 0.6388667822
0.0307412874 -0.2022019029 0.7114700079 -0.5998515487 -0.4142510295 0.6797547936
0.01393711753 -0.1406863481 0.6691896915 0.7686783671 -0.4472347498 0.4571838081
0.01699774899 -0.1324858218 0.679947257 0.793184042 -0.4361100197 0.4245382249
0.0182302203 -0.1385425776 0.664599359 0.7579993606 -0.4600872695 0.4619490206
0.0774044469 -0.07915704697 0.6718985438 -0.02541525848 -0.6367465258 0.7673204541
0.08388894796 -0.0763188228 0.6746553779 -0.1499637514 -0.6310185194 0.7592384219
0.08190669119 -0.08666551858 0.6664181352 -0.1212623492 -0.603883028 0.7839127183
0.1042283103 -0.1079055145 0.6566118598 -0.3895654082 -0.5366836786 0.6924296021
0.1230082288 -0.1070786491 0.647801578 0.2611992955 -0.5443683267 0.6050469875
0.1169695184 -0.1088575497 0.6471891403 0.1587012559 -0.5607639551 0.6300147176
0.09881994873 -0.1106354296 0.6534749269 -0.4011606574 -0.5655419827 0.7124393582
0.1116527021 -0.1082239002 0.6516594291 -0.08676473051 -0.5477679372 0.6565490365
0.1326845288 -0.1067193151 0.6440674663 0.5652723908 -0.5309718251 0.5746206045
0.1207246706 -0.1163390428 0.6436918378 0.2398227006 -0.3597975373 0.8380363584
0.1113565937 -0.111594826 0.647619307 0.009731670842 -0.5236412883 0.7043514252
0.1270370781 -0.1135114133 0.643116653 0.4070456326 -0.3955614865 0.7612991929
0.1084939241 -0.0785273388 0.6839097738 -0.3442306519 -0.4904114008 0.7810219526
0.1223855317 -0.08614309132 0.6773403287 0.3308683038 -0.05321926624 0.8572513461
0.1131187975 -0.08615992218 0.682153821 -0.4391365051 -0.4507989883 0.776873827
0.03960297629 -0.1844711751 0.7297605276 -0.5126077533 -0.5029357076 0.6951956749
0.1233531013 -0.1831397116 0.6971380115 0.8504773378 -0.3582525849 0.3832910657
0.1236824021 -0.1029815748 0.6828978658 -0.4899466932 -0.3681453764 0.76544559
0.1189658046 -0.09510082752 0.6822977662 -0.4143591523 -0.3882399499 0.7957648635
0.06714943796 -0.2012982219 0.7267930508 -0.04260790348 -0.6014276743 0.7935444713
0.06584329158 -0.1969341338 0.7299658656 -0.06619814783 -0.5924181938 0.8006541133
0.07706727087 -0.1894807816 0.7346571684 0.1498578489 -0.6045114398 0.775375545
0.08299208432 -0.1885837018 0.7323863506 0.2552441359 -0.6041380763 0.7403019071
0.07031495124 -0.1912071705 0.7345690131 0.02031010762 -0.5986976624 0.7954530716
0.0772832185 -0.1971976757 0.7280588746 0.1530124694 -0.5971893668 0.7818183303
0.09060622752 -0.1890048385 0.7313165665 0.3646398187 -0.6013619304 0.7077473998
0.04494453594 -0.2017237842 0.7230978012 -0.3899925351 -0.5226329565 0.7554975152
0.03912664577 -0.2085443139 0.717600584 -0.456349045 -0.4489553571 0.7672246695
0.04582127184 -0.2109630406 0.7170049548 -0.3284668624 -0.5265863538 0.7827538252
0.1191265509 -0.1958128065 0.6955971718 0.8115251064 -0.3873197436 0.4330644608
0.1011929289 -0.2058392763 0.7106174231 0.5488004088 -0.5244787335 0.6455303431
0.01616259106 -0.1779310554 0.7048589587 -0.7534618378 -0.3276323974 0.5699729919
0.0180775132 -0.1770641506 0.7097647786 -0.7557037473 -0.3238095343 0.5692026615
0.02081658691 -0.1823799014 0.7076559067 -0.7325158119 -0.3457188904 0.5859700441
0.01455598883 -0.1719474941 0.7028418779 -0.8364454508 -0.1717444807 0.49995327
0.01738031395 -0.1704333127 0.7092577219 -0.811815083 -0.2117146105 0.5145454407
0.02561650984 -0.1075816453 0.6800493598 0.7477675676 -0.4634429812 0.4727567434
0.02307560295 -0.115404591 0.6775413752 0.7705456018 -0.454235971 0.4463798404
0.02037803642 -0.1207525432 0.675874114 0.7752473354 -0.4468315244 0.4461725354
0.02945949696 -0.115523532 0.6661319733 0.7053773999 -0.4996477664 0.500007093
0.0260697417 -0.1148636565 0.6727553606 0.7477306128 -0.4689808786 0.4696175456
0.02071257494 -0.1259129345 0.6680319309 0.7675562501 -0.4497529268 0.456428498
0.02395527251 -0.1202120259 0.6698758602 0.7584128976 -0.4613372087 0.4602463841
0.02509735711 -0.1230676249 0.6643000841 0.7493253946 -0.4736364186 0.4622934461
0.1293687969 -0.1786655188 0.6754919291 0.9593804479 -0.07503668964 0.1428664476
0.1293138415 -0.1793177873 0.6825911403 0.9023893476 -0.2667045891 0.2714489996
0.1308312714 -0.173909992 0.6794163585 0.9456146955 -0.1227444634 0.1900360882
0.128240943 -0.1525391042 0.6812393069 0.2909130752 -0.3474389315 0.3927422762
0.1257515103 -0.1343747526 0.6762399077 -0.2779489756 -0.456825763 0.5048748851
0.1272437721 -0.1459086388 0.676612854 0.08621562272 -0.3419674933 0.4013188779
0.1294322163 -0.1624313444 0.6787531376 0.6062027216 -0.2034558058 0.2715193331
0.1252876073 -0.1578379124 0.6592309475 0.3769484162 -0.2939461768 0.3685250878
0.1236967891 -0.1493050754 0.6569541097 0.06052455679 -0.4762439132 0.5747149587
0.1312042177 -0.171289891 0.6678777337 0.9055280685 0.02053105645 0.02766542509
0.1303940564 -0.1648334265 0.6678100824 0.701693356 -0.04700670391 0.08651293069
0.1291736066 -0.1591119766 0.669662416 0.5145205259 -0.1118894517 0.1811220199
0.1243669093 -0.1424081177 0.6596378088 -0.1098812744 -0.4652674496 0.5339634418
0.1286921352 -0.1607771516 0.6639811397 0.5326026678 -0.1639387906 0.2125355601
0.1259967089 -0.1426455528 0.665518105 -0.0449049212 -0.3568545282 0.4134879112
0.1254374981 -0.1360852122 0.6676137447 -0.2388768494 -0.3990270495 0.4554482698
0.1269141436 -0.1533946097 0.6620887518 0.2729589939 -0.2876778245 0.3446500301
0.1117128134 -0.1396189332 0.6430308819 -0.2989421487 -0.5226240158 0.7963936329
0.1045948192 -0.1221214458 0.6498808861 -0.4405269325 -0.5576393604 0.7019171119
0.1051084101 -0.1176309362 0.6544566751 -0.4453900456 -0.6117152572 0.6477695107
0.09040445089 -0.1138646007 0.6472759247 -0.2984689772 -0.601868391 0.7367615104
0.07467499375 -0.1326006949 0.6267286539 -0.07128905505 -0.6999124289 0.701720953
0.08209979534 -0.1298419535 0.6286818385 -0.1862580627 -0.665681839 0.722394526
0.0758831054 -0.1342192888 0.6195613742 -0.04793421179 -0.7011692524 0.7106893063
0.08111740649 -0.1333231628 0.6226539016 -0.1512751132 -0.6822891235 0.7125467062
0.07559645176 -0.119671233 0.6380099654 -0.07014232874 -0.6658313274 0.7396142483
0.0773621425 -0.1147243604 0.642062068 -0.09321881831 -0.6515844464 0.7496954799
0.0839657411 -0.1151174456 0.6436558962 -0.2125919014 -0.6221936941 0.7518475652
0.07089738548 -0.116495125 0.6420735121 0.009679230861 -0.6493068337 0.7501379848
0.1043367311 -0.1300499439 0.6433414221 -0.3736678958 -0.5128871202 0.7686759233
0.09032783657 -0.1237802058 0.6394498944 -0.3204931319 -0.6085186005 0.7237671614
0.09703271091 -0.123561509 0.6433343291 -0.3930402994 -0.5783982873 0.7139087915
0.09530134499 -0.1183553115 0.646549046 -0.3674040139 -0.5857585669 0.7216984034
0.1026218235 -0.1223341823 0.6417152882 -0.1988403946 -0.520395577 0.7507770658
0.1106759459 -0.1222332865 0.6397740245 0.008039489388 -0.4416079223 0.79304564
0.06080524996 -0.09137552977 0.6639969945 0.2190688699 -0.6266611814 0.744815588
0.07819236815 -0.0940232724 0.660318315 -0.07437138259 -0.6240183115 0.7728210092
0.08343437314 -0.09334744513 0.6614873409 -0.1682578474 -0.6102988124 0.7710208297
0.1314452887 -0.09716274589 0.6521782279 0.4523331225 -0.5712041855 0.5518972874
0.1245917752 -0.1016208529 0.6521975398 0.2505873144 -0.5263726115 0.5998982191
0.129362762 -0.1031056494 0.6487446427 0.4192526937 -0.5301830769 0.577922523
0.1354103237 -0.1020305157 0.6467030644 0.6180313826 -0.5293986201 0.5502443314
0.09831845015 -0.09979876131 0.662820816 -0.40060848 -0.5561994314 0.7271854281
0.1157427132 -0.09494498372 0.6580299735 0.109062545 -0.5825912356 0.6311229467
0.1264833361 -0.09412385523 0.6550583243 0.3681044877 -0.5932944417 0.5721959472
0.1209852248 -0.09609496593 0.6561208963 0.2166654021 -0.5870425105 0.6017543674
0.1051274538 -0.09954442829 0.6598467231 -0.1929641217 -0.570124805 0.6878814697
0.1015980467 -0.09479614347 0.6631051302 -0.2539386153 -0.5633724332 0.7106605768
0.1169155985 -0.1014996991 0.6556019187 -0.002198559465 -0.5647957325 0.6228968501
0.09979123622 -0.1040370613 0.6600095034 -0.4161306918 -0.5508401394 0.7161756754
0.1085026115 -0.1046350449 0.657137692 -0.2586723864 -0.5489723086 0.6683985591
0.1050323397 -0.104419142 0.6633342505 -0.5219022632 -0.511680305 0.6809610128
0.09354818612 -0.1016213074 0.6581716537 -0.3369424939 -0.5796884894 0.7406508923
0.08760501444 -0.1029751226 0.654750824 -0.2365330607 -0.6096937656 0.7547160387
0.08523519337 -0.09819956124 0.6578949094 -0.1900413781 -0.613016665 0.7653462291
0.02827120759 -0.1332736313 0.6507199407 0.6914300919 -0.4909466207 0.5286899209
0.03141469881 -0.08509026468 0.6928774118 0.7102518678 -0.5308981538 0.4605592489
0.02837179787 -0.1246109232 0.6579173803 0.6945120096 -0.4955706894 0.5199357271
0.03273611888 -0.1167464405 0.6604725718 0.6470806599 -0.5249354839 0.5445874333
0.03298375756 -0.120967254 0.656299293 0.6586116552 -0.5180255771 0.5424208045
0.06785731763 -0.08539124578 0.6671960354 0.1189174429 -0.6257845759 0.7674129605
0.07315393537 -0.08371707052 0.6681905389 0.03952146694 -0.6282538772 0.7746187449
0.1182201058 -0.1021048054 0.6791715026 -0.5338653922 -0.3816967309 0.7543162107
0.1128999814 -0.09931124002 0.674705863 -0.5056348443 -0.4163564146 0.7530193925
0.1124278754 -0.09322556853 0.6777655482 -0.4729342461 -0.431396693 0.7662210464
0.1061469764 -0.08827868104 0.6750454307 -0.4094971716 -0.4951341152 0.7651116252
0.1049119681 -0.09504865855 0.6691086292 -0.4522670209 -0.5054252148 0.7336104512
0.1154887974 -0.09106410295 0.667253077 -0.09886950999 -0.487229228 0.6985205412
0.1289269477 -0.08951848 0.6608456373 0.3638142049 -0.4844980836 0.6096862555
0.1091283411 -0.09097445756 0.670701921 -0.3062631488 -0.4920749068 0.739744246
0.1129640043 -0.08620823175 0.6747182012 -0.04755970463 -0.3465027213 0.7837167382
0.1239405572 -0.08716145903 0.6660853028 0.2582322955 -0.4365619719 0.6674778461
0.1194940284 -0.08679941297 0.6706950068 0.1541945189 -0.3496387303 0.7372671962
0.1217780784 -0.09212337434 0.6618669033 0.133669436 -0.5009233356 0.6293125749
0.1346759349 -0.08959627897 0.6572139263 0.564625144 -0.4947191477 0.5621953011
0.1105181426 -0.09578038752 0.6642636061 -0.2402917892 -0.5345218182 0.6709275842
0.09944138676 -0.09033685178 0.6698291302 -0.3879663944 -0.5519829988 0.7332980633
0.09535053372 -0.09188035876 0.666328311 -0.3432469964 -0.5623984933 0.7505676746
0.08535639942 -0.175676316 0.7438883781 0.2485498041 -0.5854378343 0.7702711225
0.07724823058 -0.1696887612 0.7503750324 0.074733302 -0.5334606767 0.8416631222
0.0520179458 -0.1992302537 0.724229455 -0.2722815573 -0.5407949686 0.7926923037
0.04852209613 -0.1927113682 0.7295537591 -0.3746049106 -0.5534170866 0.7424665689
0.055003535 -0.2109500766 0.7196480036 -0.1844653636 -0.5645942092 0.7994846106
0.1101001129 -0.2036081105 0.7061923742 0.6564044952 -0.4802374244 0.5723028183
0.1064522937 -0.2071247101 0.7083383203 0.5920298696 -0.5088296533 0.6129953861
0.1253017783 -0.1774575412 0.6991538405 0.8485379815 -0.3482719362 0.3949488401
0.09832314402 -0.2052316368 0.7166246176 0.462959826 -0.5579192042 0.6870362163
0.09772863239 -0.1940743625 0.722441256 0.4827848971 -0.5274748206 0.6952003241
0.05118459463 -0.1817372143 0.7371509075 -0.3343221545 -0.5434113741 0.7653399706
0.06272616982 -0.1652619243 0.7470378876 -0.1352058202 -0.5203871727 0.8391436934
0.06778754294 -0.1740221828 0.7468243241 -0.07492852211 -0.546900928 0.8302506804
0.05958497897 -0.1845115274 0.7382065654 -0.1825510412 -0.5827826858 0.7881863117
0.05430572107 -0.1756106317 0.7431775928 -0.2760334015 -0.5173621178 0.8072208166
0.05617318675 -0.1806496531 0.7403628826 -0.2400937974 -0.5571290851 0.7902727723
0.05013439432 -0.1772033274 0.7401569486 -0.3504054248 -0.511128068 0.7784263492
0.07062545419 -0.2064909488 0.7220250964 0.04058497399 -0.6086140871 0.7881729603
0.06363944709 -0.2051885277 0.7239306569 -0.08007387817 -0.5949614644 0.7992430329
0.06040573865 -0.199849233 0.7267950177 -0.1449750811 -0.5813065767 0.7978312373
0.0559915565 -0.2038440853 0.723791182 -0.1867147982 -0.5629876256 0.8037406802
0.08391498774 -0.2103093714 0.7172220349 0.2851799726 -0.5879047513 0.7554764748
0.07791946083 -0.206794098 0.7205481529 0.1718331575 -0.5879549384 0.7858156562
0.08395076543 -0.2047455162 0.7211364508 0.2764778435 -0.5787018538 0.7659362555
0.07742765546 -0.2119375765 0.7180895209 0.1629124284 -0.6011693478 0.7785429955
0.02412461117 -0.1812581718 0.7143422961 -0.7313562632 -0.3478051722 0.5861223936
0.02213789895 -0.1753406674 0.7165262103 -0.7396366596 -0.342754513 0.5778044462
0.02054150961 -0.1695458442 0.7153963447 -0.7701646686 -0.2809990942 0.543989718
0.02312577143 -0.1696367264 0.7204562426 -0.7314648032 -0.3483601511 0.5736352801
0.02165745571 -0.1083960459 0.6871662736 0.7883867025 -0.4476816952 0.4219003916
0.02214086242 -0.1012340486 0.6931914687 0.7805328369 -0.4554990828 0.4271947145
0.01820846833 -0.1042188853 0.698620379 0.7966478467 -0.4354991615 0.4185795784
0.1158133522 -0.1270999759 0.639426887 0.02663926408 -0.4370511174 0.7825511694
0.1143791825 -0.134816125 0.6385880709 -0.07714676857 -0.5206263661 0.7385812402
0.1057519987 -0.1373813599 0.6362433434 -0.39071697 -0.5084807873 0.7450765967
0.1070624366 -0.1320641786 0.6372007728 -0.2764286101 -0.4764927626 0.7614121437
0.1002603546 -0.1288950443 0.6371771097 -0.3091171682 -0.5306691527 0.7402141094
0.1209969968 -0.1219173148 0.6404373646 0.1907949299 -0.3544043005 0.8361531496
0.1053092703 -0.1256917119 0.6382591724 -0.1512105912 -0.4867485464 0.7664044499
0.09825953096 -0.1348369718 0.6341677904 -0.4000738859 -0.5488630533 0.7275938392
0.08615192771 -0.1333309412 0.6262518764 -0.2326576561 -0.6472565532 0.7176118493
0.09276589006 -0.1361801773 0.6284617782 -0.2725525796 -0.6055925488 0.7336361408
0.10743922 -0.1428133249 0.633826077 -0.3560498357 -0.5136995912 0.774024725
0.1006965637 -0.1401928365 0.6310115457 -0.3075581491 -0.5586317778 0.7577397823
0.06658252329 -0.1298273653 0.6311600208 0.06577602029 -0.6944671869 0.7147600055
0.06865236908 -0.1329487264 0.6263767481 0.03389332816 -0.7088727355 0.7017448545
0.05645886809 -0.1313680857 0.6270876527 0.2499951869 -0.6405379772 0.7072376013
0.0617621094 -0.1322678924 0.6293743849 0.1464467645 -0.6825333834 0.7104661465
0.06570486724 -0.1089945883 0.6475705504 0.1327727586 -0.6529937983 0.7452630997
0.07068830729 -0.1106477305 0.6458052397 0.04048203304 -0.6513028145 0.7534133792
0.07595901936 -0.1092825904 0.647113502 -0.05031661317 -0.6443369985 0.7622908354
0.04969520494 -0.1007088497 0.6619844437 0.3973650634 -0.6052514911 0.6865470409
0.04396878183 -0.1023494601 0.6631554365 0.476726979 -0.5864983201 0.6543461084
0.04270397872 -0.1075186282 0.6597858667 0.4860281646 -0.5822095275 0.6483618021
0.03743405268 -0.1118609235 0.6607285142 0.5754330754 -0.5530977845 0.5906051993
0.04122327641 -0.1129300892 0.6562755704 0.4992327392 -0.5759574771 0.6375048757
0.06714086235 -0.09786012769 0.6578081846 0.1197229847 -0.6379314661 0.7590134144
0.07201032341 -0.09452145547 0.659925878 0.04040648416 -0.6338931918 0.7673906684
0.1089307815 -0.1094760746 0.6633277535 -0.5646526814 -0.4991897345 0.6540432572
0.1092380509 -0.1016214564 0.668708384 -0.5294397473 -0.4314326644 0.7286537886
0.01397008169 -0.1777302623 0.6987140179 -0.738920331 -0.3464838862 0.5777648091
0.01774325408 -0.1838219613 0.7029672265 -0.7327471375 -0.3502807617 0.5833544135
0.01110050827 -0.1727944613 0.6921362281 -0.6620886326 -0.178952083 0.4570553005
0.01308706682 -0.1592133343 0.6884083748 -0.2509242296 -0.2219623625 0.4570695758
0.01230495889 -0.1571949571 0.6810919642 0.05195969716 -0.3131814897 0.4569227993
0.01160452794 -0.1701503545 0.6830272675 -0.3489941955 -0.2745643854 0.4609260261
0.01004996058 -0.1791289002 0.6896582842 -0.71116364 -0.2184778452 0.4642017782
0.01489005517 -0.1536441147 0.6720175147 0.3072430491 -0.394261241 0.4702020288
0.01196466386 -0.1627666056 0.6798065305 -0.06067639217 -0.317707926 0.4586856961
0.01552124042 -0.1489887387 0.6683492064 0.4973500371 -0.418289125 0.4640128314
0.01475014444 -0.1635873616 0.6843523979 -0.1528602242 -0.382302314 0.5281990767
0.01435076352 -0.167715013 0.6883832216 -0.3306486309 -0.3667409122 0.540587604
0.01328031998 -0.1709055752 0.6972541809 -0.7480916977 -0.1840979457 0.4949625731
0.01353063993 -0.1662751436 0.6942261457 -0.6213260889 -0.1572714299 0.4667374492
0.01535031572 -0.1543323696 0.6775456667 0.1372154057 -0.3510480523 0.479020685
0.0133903455 -0.1471500099 0.6758960485 0.443035841 -0.3755181134 0.4568887651
0.04019381106 -0.1302922666 0.6389908195 0.5022987723 -0.5751460791 0.6407214403
0.0321694389 -0.1271507442 0.6515568495 0.6642634273 -0.5082899928 0.5477922559
0.03938471153 -0.1198812649 0.6517931223 0.5418480039 -0.5640687943 0.622430563
0.03654389083 -0.1167339385 0.656034112 0.5844034553 -0.551269114 0.5946575999
0.022109868 -0.1339550316 0.6593597531 0.7448818088 -0.4706254601 0.4724975228
0.02392067946 -0.1376487166 0.6536912918 0.7254930735 -0.4831416607 0.4895583391
0.02751116082 -0.139759168 0.6483486891 0.6992909312 -0.4780679643 0.5307018161
0.02827420644 -0.09598911554 0.6866496205 0.7470020056 -0.4864082336 0.4527548552
0.02813345008 -0.0901812315 0.6928007603 0.7323517799 -0.5086081624 0.4508894682
0.03162282705 -0.09068264067 0.6867453456 0.7155058384 -0.5104582906 0.4751736224
0.02514225058 -0.0958847031 0.6920942664 0.7564701438 -0.4808387458 0.4429794252
0.0252754055 -0.1015806645 0.6869531274 0.7657685876 -0.4644976854 0.4441685081
0.05416245013 -0.07634606957 0.679703474 0.3620756269 -0.6581736803 0.6563885212
0.04903187975 -0.07819604129 0.6799767017 0.4382325709 -0.6460413933 0.6236480474
0.04390192032 -0.0815057531 0.6820201874 0.5223166943 -0.6113877892 0.5904960036
0.07124384493 -0.1667214632 0.747226119 -0.01580361463 -0.5149493814 0.8430434465
0.08614674211 -0.1648990661 0.7488614917 0.1949405223 -0.4849620461 0.8466006517
0.08262158185 -0.1713255197 0.7465003133 0.1611297429 -0.5323985219 0.8235432506
0.07783039659 -0.1634010971 0.7493597865 0.08470503986 -0.4936543703 0.8471127152
0.06253387034 -0.1597203612 0.7483151555 -0.1295501739 -0.5021708608 0.8437381387
0.1168633774 -0.1965012252 0.7002577186 0.7742535472 -0.4101856351 0.4800088704
0.111408405 -0.1946078688 0.7086983919 0.7021493316 -0.4395468533 0.5592445731
0.1141689941 -0.2017529756 0.7023743987 0.7211742401 -0.4463807344 0.5279511213
0.1025079936 -0.2013116032 0.715760231 0.5417310596 -0.5201014876 0.6573405862
0.1066831872 -0.1996762156 0.7108803988 0.6235817671 -0.4842303991 0.6070622206
0.1029170454 -0.191691801 0.7183600664 0.5657804012 -0.4988845289 0.647780776
0.1088278592 -0.1869068891 0.717484355 0.6464537382 -0.4692607522 0.6015083194
0.1053136736 -0.1947980821 0.7147397399 0.6053495407 -0.4730965495 0.638980031
0.1163222045 -0.1693876386 0.7224411964 0.7208127975 -0.4699319601 0.5070634484
0.1156348437 -0.1743265986 0.7192551494 0.7382382154 -0.4618382156 0.4889487326
0.1296578348 -0.1717722118 0.6948854327 0.8713988662 -0.3320713639 0.3577111065
0.1246366128 -0.1742172688 0.7034594417 0.8318071961 -0.3607520461 0.4209709167
0.1262436211 -0.1686871797 0.7039319873 0.8334286213 -0.3683818877 0.408534646
0.06112090498 -0.1771536767 0.74307549 -0.1747353375 -0.5407159328 0.8190495968
0.06406784803 -0.1882680357 0.7362759113 -0.09925806522 -0.5928618312 0.7982107997
0.05940274522 -0.1909571141 0.733419776 -0.1864768863 -0.5725447536 0.7933208942
0.05216448754 -0.1874441057 0.7339249253 -0.3200979829 -0.5685877204 0.7554053664
0.04610493407 -0.1868070513 0.7310431004 -0.4149504304 -0.5326149464 0.7326725125
0.04352694005 -0.1904702634 0.7270599604 -0.4591540992 -0.5039215684 0.7266551256
0.05422177538 -0.1962746233 0.7279706597 -0.2472842187 -0.5508942604 0.7961913347
0.06331972778 -0.2121404111 0.7202574611 -0.06943242997 -0.5636215806 0.8196303248
0.07067895681 -0.2124057263 0.7197482586 0.05264963582 -0.5851948857 0.8033852577
0.09122092277 -0.1944283843 0.726626277 0.3754500449 -0.5860749483 0.7161625028
0.08965689689 -0.1994087845 0.722694695 0.3465416729 -0.5737197399 0.7407306433
0.08518777788 -0.1930530369 0.7277645469 0.295715481 -0.593313694 0.7378633022
0.07888200879 -0.2024270892 0.7239956856 0.1891663969 -0.5893249512 0.7816293836
0.08321803063 -0.1230032593 0.6378911734 -0.1980264783 -0.6522638798 0.7239043713
0.08124536276 -0.1269232482 0.6341730952 -0.1665671617 -0.6690963507 0.7175636292
0.07545145601 -0.1290940046 0.6319260597 -0.07517743111 -0.6816429496 0.7189998627
0.07059264183 -0.1214420423 0.6363303065 0.02010049485 -0.6755380034 0.7340134382
0.06989456713 -0.1248175353 0.6322928071 0.03349709138 -0.6820601821 0.7276697755
0.06105013564 -0.1177081093 0.6420182586 0.1970873475 -0.6564296484 0.7268641591
0.06589540094 -0.1183126718 0.6392239332 0.1011391357 -0.6613073945 0.7412206531
0.03779652715 -0.1063858122 0.6648395061 0.5799916387 -0.5509356856 0.5957297087
0.03581705689 -0.09832514822 0.6733676195 0.6233329177 -0.5274230242 0.5763685107
0.03624119982 -0.1028806493 0.668944478 0.6106825471 -0.5365439057 0.5820947886
0.02843545377 -0.1091191322 0.6747151613 0.7179057598 -0.4820492268 0.4984675348
0.03151044622 -0.1012214199 0.6778796315 0.7021307349 -0.4901252985 0.5133841634
0.04310401529 -0.09540877491 0.6693837643 0.5018510818 -0.573915422 0.6425766349
0.04911848903 -0.09353282303 0.6676502228 0.4032630324 -0.5979518294 0.6856549978
0.05448941514 -0.1003200635 0.658403337 0.2981790304 -0.6247982383 0.7210450768
0.05490425602 -0.0951602608 0.6625269651 0.2943537235 -0.6240602136 0.7235873342
0.06090535223 -0.09822709113 0.6595772505 0.2245083302 -0.6292182207 0.7367159724
0.07528803498 -0.103958115 0.6517940164 -0.02393454127 -0.638831079 0.7679157257
0.08231541514 -0.1076146737 0.6485307217 -0.1633149087 -0.6263806224 0.7611340284
0.08165227622 -0.1031154022 0.6527613401 -0.1392401159 -0.6249065995 0.7650423646
0.03390509263 -0.1311941445 0.6461549997 0.6274985671 -0.5149798393 0.5818974376
0.03604846075 -0.1354009509 0.6377603412 0.5683374405 -0.5420407057 0.6179018617
0.03524670377 -0.1380489171 0.6432005167 0.5858659744 -0.5190346837 0.5836936235
0.04299499467 -0.1345525831 0.6349819899 0.4494212866 -0.5830470324 0.6546020508
0.04981099069 -0.133389771 0.633739233 0.3386868238 -0.616866231 0.6850018501
0.01926106587 -0.1408614814 0.6582285762 0.740757823 -0.4765316844 0.4734867513
0.06569568813 -0.07565765083 0.6759801507 0.1820043474 -0.6638352871 0.7239747047
0.0732377395 -0.07507307082 0.675293386 0.04526155442 -0.6595785022 0.7469355464
0.07107955962 -0.07920980453 0.6723595262 0.08736427128 -0.6452268958 0.7529676557
0.06418154389 -0.08102493733 0.6715955734 0.1933711618 -0.6416306496 0.741614759
0.08813069016 -0.171104908 0.746943891 0.25830549 -0.5382830501 0.7896516323
0.093963027 -0.1683799475 0.7458141446 0.3804133534 -0.5658185482 0.7262140512
0.09171694517 -0.1739732176 0.7430417538 0.3438038826 -0.577544868 0.7366349697
0.1210867986 -0.1892496347 0.6960229278 0.8306676149 -0.3681744933 0.4130322635
0.1207302958 -0.1844547987 0.7024787664 0.8209326863 -0.3687590957 0.433812499
0.1167196557 -0.1898189187 0.7046139836 0.7749160528 -0.4011368454 0.4870094955
0.1162429899 -0.1852675527 0.7087187171 0.7666848898 -0.4073802233 0.4935252666
0.1149736568 -0.1816188693 0.7136797905 0.7424170971 -0.4305590987 0.511105299
0.1003513113 -0.1850167364 0.7284064889 0.5107503533 -0.5689552426 0.64315027
0.10481745 -0.1822603345 0.7252967954 0.5915244818 -0.5419347882 0.5928182602
0.103910692 -0.1876888126 0.7225814462 0.579936862 -0.5205902457 0.6254059076
0.09577785432 -0.1884834021 0.7251442075 0.4675375819 -0.5583192706 0.6719502211
0.1192186773 -0.1698792428 0.7165170908 0.7643336058 -0.440309763 0.4671593904
0.07728228718 -0.1848329008 0.7392324805 0.1334807873 -0.6141906381 0.7761928439
0.07050863653 -0.1861505955 0.7382032275 0.01435325015 -0.6084143519 0.7877064943
0.0802244097 -0.1774349958 0.7424402833 0.1458816677 -0.5713449121 0.7952657938
0.07279478014 -0.1767247766 0.7445144057 0.005706026684 -0.5576472878 0.8278950453
0.06549306214 -0.1806066036 0.742325902 -0.08881089836 -0.5894455314 0.8022928238
0.05218885466 -0.1152233928 0.646680057 0.3148497045 -0.6483643055 0.6901298761
0.05125469714 -0.1110063195 0.6501236558 0.351688832 -0.6254348755 0.6964520812
0.05384117365 -0.105488658 0.6543468833 0.3058844507 -0.6250280142 0.7170931101
0.04549596459 -0.112508215 0.6528696418 0.4242430329 -0.5993071795 0.6779708862
0.0470366776 -0.1069304049 0.6562570333 0.4073717296 -0.602992177 0.6847806573
0.09442691505 -0.1843043417 0.732445538 0.4158630073 -0.5958740711 0.6866419911
0.09234960377 -0.1793936193 0.7358204126 0.3775098026 -0.5831628442 0.7010997534
0.09831410646 -0.1796459258 0.7345986366 0.4543608427 -0.582279563 0.6718972325
0.08764483035 -0.1845101863 0.7352295518 0.3023805618 -0.6080408096 0.7295624018
0.08356294036 -0.1817281991 0.7401540875 0.2327421159 -0.6060348153 0.7570438385
0.1088766679 -0.1691793501 0.735411644 0.5718208551 -0.5413973927 0.6151533723
0.1037939042 -0.1713896245 0.7388645411 0.4840928316 -0.5621630549 0.6674614549
0.1072818786 -0.176871568 0.7276816964 0.6172626615 -0.5372924805 0.5723137856
0.1101736277 -0.1716168225 0.7295879126 0.6236171126 -0.5302008986 0.5678365231
0.1052182689 -0.1744187474 0.7330317497 0.5513270497 -0.5549595356 0.6212077737
0.1014533266 -0.1666590571 0.7430876493 0.4509391487 -0.5550341606 0.6978375316
0.09831744432 -0.1722399443 0.7419500351 0.4123476148 -0.5740776062 0.7069690824
0.05417822301 -0.08113685995 0.675763309 0.3531207144 -0.630230844 0.6881189346
0.05875941738 -0.0833171308 0.6718628407 0.2706886828 -0.6289833784 0.7250509262
0.0627277419 -0.08675257117 0.6670547128 0.1930655092 -0.6240693331 0.7543568015
0.03966115415 -0.09243047982 0.674661696 0.5587376952 -0.5591627955 0.6094418168
0.03447186947 -0.09430274367 0.6791042686 0.6667228341 -0.5106359124 0.5371778607
0.03898131847 -0.07966872305 0.6876642108 0.6097093225 -0.5850419402 0.5343804359
0.06314428151 -0.1026375368 0.6540565491 0.1815350354 -0.6445777416 0.7415676117
0.07452465594 -0.09863439202 0.6559790373 -0.01022930816 -0.6374771595 0.7700948715
0.05510034785 -0.1203104258 0.6406787038 0.2597075701 -0.6626850963 0.7021966577
0.05933388695 -0.1272613555 0.6324648857 0.1899128854 -0.6664338708 0.709817946
0.06486410648 -0.1241437644 0.6350967288 0.09758105129 -0.6887966394 0.7170026898
0.05951340869 -0.1234233007 0.6364212036 0.1938742101 -0.6550409198 0.7254827023
0.0430958569 -0.126068905 0.6428465247 0.4747979641 -0.587626338 0.6458519697
0.03838342428 -0.1265804023 0.6467963457 0.5593255162 -0.5470238328 0.6171044111
0.0542392768 -0.1260455102 0.635592103 0.2738831043 -0.6443193555 0.7119956613
0.05002548546 -0.1232072487 0.6412748098 0.341088742 -0.6269684434 0.6926467419
0.04492505267 -0.1211945713 0.6453800797 0.440585047 -0.604521215 0.6630821824
0.04600862041 -0.1165557727 0.649123013 0.4142849743 -0.6044133902 0.6793760657
0.122287862 -0.1723441035 0.7095307708 0.8124229312 -0.3873455524 0.4355774522
0.1205293089 -0.1776578128 0.7070405483 0.8172342777 -0.3767750263 0.4360070229
0.03877962753 -0.08553183824 0.683257699 0.6149455905 -0.557625711 0.5507254004
0.04199195281 -0.08705305308 0.6775813699 0.5336862803 -0.5825661421 0.6098132133
0.04549680278 -0.08981996775 0.6727235317 0.4743580222 -0.5840187669 0.6567569375
0.04941710085 -0.0864032805 0.6737141609 0.4192993939 -0.6009861231 0.6752112508
0.05426127091 -0.08853744715 0.6687845588 0.3198640943 -0.616638422 0.7144312263
