# .PCD v0.7 - Point Cloud Data file format
VERSION 0.7
FIELDS x y z normal_x normal_y normal_z
SIZE 4 4 4 4 4 4
TYPE F F F F F F
COUNT 1 1 1 1 1 1
WIDTH 512
HEIGHT 1
VIEWPOINT 0 0 0 1 0 0 0
POINTS 512
DATA ascii
-0.04129013047 -0.1642256677 0.7251681685 -0.8142127991 0.2819921672 -0.2768859267
-0.04035960138 -0.189270243 0.7413455248 -0.9428120852 -0.08804870397 0.3146338761
0.08556745946 -0.1011677682 0.7010954022 -0.8369944692 0.4004685879 -0.3717522919
0.009600644 -0.1805979311 0.8022617102 -0.1307825148 -0.4683360457 0.8700152636
-0.01128353365 -0.2175472081 0.7711600661 -0.4237832129 -0.4370173216 0.7835707068
0.003275600262 -0.2207226008 0.77393049 -0.2387214601 -0.4983097613 0.8308115602
0.01767252944 -0.2222860754 0.7802772522 0.006850852165 -0.5275381804 0.8302785158
-0.006594950799 -0.08904957771 0.7316104174 -0.4962806702 0.5829438567 -0.6379897594
-0.009303966537 -0.08661534637 0.7362118363 -0.5411527157 0.5719847083 -0.6120763421
-0.03703845292 -0.1869400591 0.7458869815 -0.9171020985 -0.1019964889 0.3682868183
-0.01046096999 -0.138709262 0.6945304871 -0.5218526721 0.5227057934 -0.6720389724
-0.005868314765 -0.1716374904 0.7990413308 -0.3787243068 -0.4923942685 0.780181706
-0.0121010216 -0.1702425778 0.7950118184 -0.5065259933 -0.4795840383 0.7156099081
-0.01931358688 -0.1738813967 0.787776351 -0.577499032 -0.4548267722 0.674872458
-0.0060279225 -0.2084371001 0.7771112919 -0.3734283149 -0.4794518054 0.7912381887
0.05743191764 -0.1502463967 0.6967164874 0.6018230915 0.2936192155 -0.732429266
0.07680168003 -0.1985353231 0.7449841499 0.8008589149 -0.3111626506 0.5108425617
-0.001982616493 -0.08364243805 0.7341176867 -0.3914818168 0.6364535689 -0.6482618451
-0.0127783455 -0.08534216881 0.7404091358 -0.5810621381 0.5619673729 -0.585375607
-0.03699078783 -0.1945731789 0.7476622462 -0.8890942335 -0.1898246109 0.39412117
-0.03299365565 -0.2006274164 0.7556138635 -0.8226485848 -0.2965385616 0.4722324908
-0.0166020859 -0.2117363662 0.7685953379 -0.5285164714 -0.400141269 0.7458427548
-0.007313875016 -0.212266013 0.772520721 -0.4033900201 -0.4458802044 0.7872319818
0.003361274255 -0.2140876651 0.7749046683 -0.2685808241 -0.468731612 0.8372219801
0.03421839327 -0.1709505618 0.8015677929 0.2534298301 -0.4679446518 0.8401968479
0.04051805288 -0.1735863686 0.8008821607 0.3562059104 -0.4546118081 0.8111435175
0.07805193216 -0.1881571263 0.7465568781 0.8208159208 -0.318080157 0.4743360877
0.05905983597 -0.1968943775 0.7708765268 0.6643646955 -0.4464953244 0.5944547653
-0.0083347857 -0.1764986217 0.7961415052 -0.4647921324 -0.5027153492 0.72834903
-0.03013554402 -0.1135194227 0.7390975952 -0.7588707209 0.4343456924 -0.4843655229
0.0707161054 -0.14947249 0.7112718821 0.8334883451 0.1096986309 -0.5168533921
0.07755178958 -0.1024303958 0.6981726289 -0.7679638267 0.3881337941 -0.5059310198
0.07829295099 -0.09684539586 0.7012790442 -0.7540332675 0.4429343343 -0.4732349515
0.08148403466 -0.09105678648 0.7033346295 -0.7492246628 0.4511714578 -0.4828992784
0.06924426556 -0.2054989636 0.7537994981 0.7490158081 -0.3481597602 0.5574573278
0.07333720475 -0.2028393894 0.7494881153 0.7831736207 -0.3136464655 0.535143435
0.06000720337 -0.2105461061 0.7610421777 0.6736065745 -0.415609479 0.6071816087
0.06375993788 -0.2081224024 0.7579128742 0.7108601928 -0.3820497096 0.5826531053
0.03870054707 -0.2024957091 0.7798240185 0.3929972649 -0.5044474602 0.7593396902
0.05089655891 -0.2027334273 0.773288846 0.5790407658 -0.4761034846 0.6571642756
0.04553538933 -0.2049993575 0.7753697038 0.4693134129 -0.5001274943 0.7267423272
0.02535029128 -0.2228555977 0.7804951072 0.1298955381 -0.5448877811 0.8276913762
0.01233503968 -0.2218931019 0.7768709064 -0.0939437598 -0.5125716329 0.8369705081
-0.01248955354 -0.2094153613 0.7731196284 -0.4901533425 -0.4453773499 0.7473469377
-0.009839928709 -0.199606657 0.7803042531 -0.4597794712 -0.4969403446 0.7322839499
-0.02217052132 -0.212295711 0.7661452889 -0.582554996 -0.3636627197 0.7263478041
-0.0180428382 -0.2054478228 0.7708851695 -0.5751221776 -0.3901827931 0.7180613875
-0.02727942914 -0.2006734908 0.760427475 -0.7679717541 -0.3385246396 0.5294891596
-0.02396873944 -0.202008158 0.7686856985 -0.6430547833 -0.3722088337 0.6637089849
-0.02643772773 -0.2100565732 0.7638170719 -0.6594579816 -0.3587366939 0.6491052508
-0.02763101459 -0.2041359097 0.7649130225 -0.7048388124 -0.367046237 0.5981212258
0.02266122028 -0.1696967483 0.8023415208 0.0655849725 -0.4952012002 0.8468603492
0.003871930297 -0.174642235 0.8031605482 -0.2242012024 -0.4662373662 0.8490742445
0.01268766727 -0.1748363823 0.8041864038 -0.08455695957 -0.4495242834 0.8815953135
0.01905849949 -0.1772665232 0.7977871895 0.006338789593 -0.5104337931 0.821754694
0.01365684345 -0.1806298643 0.7966955304 -0.09123640507 -0.5215286016 0.8128054142
0.02563425899 -0.1752835065 0.7973455191 0.1365102679 -0.500112772 0.8225784898
0.01551330369 -0.1702621728 0.8010185957 -0.05104481056 -0.4976195097 0.8254232407
-1.624175457e-05 -0.1728245914 0.7978588343 -0.306786418 -0.5060680509 0.7800735235
0.00115120993 -0.1786268502 0.7966303825 -0.2989600897 -0.5213686228 0.7869787216
0.007656321861 -0.1709354967 0.799572289 -0.1792493016 -0.5002375841 0.8021157384
0.08115590364 -0.1928306371 0.7406334281 0.8186859488 -0.3209971786 0.4760881066
0.07862783223 -0.1785518974 0.731888473 0.854752481 -0.2152120769 0.2040698081
0.08012420684 -0.1851030886 0.7364868522 0.837679863 -0.2741046846 0.3665913343
0.07663030177 -0.1661535352 0.7257239223 0.8820475936 -0.1210564524 -0.05576435849
0.07360865176 -0.1944520772 0.747200191 0.8155320287 -0.310218662 0.4880208075
0.05821849033 -0.1882154495 0.775216341 0.6844777465 -0.455545336 0.5686071515
0.05369010195 -0.1932107359 0.7761459947 0.6247867942 -0.4687660038 0.6183640957
0.06946951896 -0.1497265697 0.7044106126 0.71041888 0.01080128644 -0.6773390174
0.06275956333 -0.1501743942 0.698402822 0.6378646493 0.08841725439 -0.7518215775
0.06598366797 -0.1444333494 0.6976715922 0.6151301265 -0.08163739741 -0.7424778342
-0.02609699592 -0.1078612208 0.7393894196 -0.7497310638 0.4428974986 -0.4902543724
-0.01784395427 -0.1491055787 0.6928454638 -0.5980094671 0.4877571166 -0.6342212558
-0.01075719018 -0.1454417855 0.6890772581 -0.5012024045 0.526208818 -0.6778570414
-0.006903336383 -0.1396982968 0.6896653175 -0.4566622078 0.5479266047 -0.6957000494
-0.02569002472 -0.177080214 0.7787547708 -0.6404195428 -0.422434032 0.6397483945
-0.03585144505 -0.1866713017 0.7555426359 -0.8284732699 -0.2869772315 0.4725993574
-0.02239875868 -0.1893485188 0.7757486105 -0.6374199986 -0.3996581733 0.6576198339
-0.02926080674 -0.1783151329 0.7737541795 -0.6991989017 -0.374330163 0.6077773571
-0.01615904272 -0.1329255849 0.7035816312 -0.6020333767 0.5014098883 -0.6190565825
0.01534256153 -0.1422097236 0.6814177632 -0.06309153885 0.6074800491 -0.7852618694
-0.01762143523 -0.14234896 0.6979575157 -0.602621913 0.498516351 -0.6225548983
-0.0324370116 -0.1921504438 0.7577269077 -0.8160988092 -0.318170011 0.4823025167
-0.02580271848 -0.1854987442 0.7721115947 -0.6978166699 -0.3772638142 0.6055040359
-0.03113027662 -0.1908164173 0.765534699 -0.7736526728 -0.3413432837 0.5289689302
-0.03088808432 -0.1845075935 0.7692911625 -0.7531872392 -0.3492040038 0.5526411533
-0.03080282919 -0.197588712 0.7651312351 -0.7504270077 -0.3615023792 0.5521151423
-0.02606375515 -0.1918396205 0.7712349892 -0.6831413507 -0.3758838475 0.6217691898
-0.03772947192 -0.1759789139 0.7363236547 -0.886090219 0.06749867648 0.1226447597
-0.03763274103 -0.166123867 0.7296453714 -0.8330614567 0.2051775157 -0.125092864
-0.03996216506 -0.1546995789 0.7186722159 -0.7529264092 0.4073333442 -0.4978587329
-0.03664886579 -0.1598546356 0.7214157581 -0.7945408225 0.3078314662 -0.3181124926
-0.04112530127 -0.1818418652 0.7357376814 -0.9354869723 0.03385249153 0.1583876312
-0.03934990987 -0.1722130328 0.7291184068 -0.8747543097 0.1570228636 -0.05766826868
0.07337710261 -0.1807759702 0.7540656924 0.8263030648 -0.3099623919 0.4702340066
0.07660795748 -0.1793323159 0.7460912466 0.8293414712 -0.3051581979 0.4680437446
0.07650358975 -0.1610779315 0.7315327525 0.8884907365 -0.04954480007 0.01957661472
0.07633156329 -0.1561018527 0.7279865146 0.9045746922 0.02041028067 -0.1024999544
0.07695573568 -0.1670140475 0.7357710004 0.8699308038 -0.1272949725 0.1661972106
0.07745354623 -0.1750993282 0.7408556938 0.8450098634 -0.2363776863 0.3508654237
0.07972665131 -0.1824101061 0.7417063117 0.8307668567 -0.295465529 0.4441972077
0.07655005902 -0.1510138065 0.7245175838 0.9218828678 0.101142481 -0.2226583511
0.0762797296 -0.1694538593 0.7300946116 0.8697175384 -0.1644755453 0.06986180693
0.07446973026 -0.1566523463 0.7193472981 0.9067088962 -0.03631952778 -0.2874242067
0.07392533123 -0.1528014392 0.7155759931 0.9128801227 0.01733568683 -0.4036727846
0.07691438496 -0.09611788392 0.7195164561 0.01552231982 0.4921240211 -0.4236511588
0.07981722057 -0.09646321088 0.7136846185 -0.3002872765 0.451831609 -0.4122574031
0.08219311386 -0.09511948377 0.7074663043 -0.6186708212 0.4268643558 -0.4199594259
-0.02576957084 -0.1367071569 0.7126086354 -0.7203113437 0.4381619394 -0.5364814401
-0.01420372166 -0.1266632825 0.7066855431 -0.5605626106 0.5142173767 -0.6477642655
0.06510939449 -0.1978924423 0.7598875165 0.7606534958 -0.3626011312 0.5370692611
0.07029314339 -0.1970765442 0.7516421676 0.8051695824 -0.2942510545 0.5144545436
0.05299317464 -0.2036273777 0.7678819299 0.6033972502 -0.4441878498 0.6535562873
0.05946335569 -0.1997410953 0.7643967867 0.6915286779 -0.4167598784 0.5847919583
0.05868301541 -0.2049108595 0.7627989054 0.6752020121 -0.4102644622 0.6061745882
0.03038188443 -0.2176739573 0.7810619473 0.2205768377 -0.5383548737 0.7988156676
0.03541122749 -0.2181227505 0.7761131525 0.3182747662 -0.5203163028 0.7894607186
0.03292822465 -0.2050900757 0.7806147337 0.2881584764 -0.5150390267 0.8016782999
0.02888175659 -0.2208768278 0.775311172 0.2023917288 -0.5022040009 0.8274009228
0.02209529653 -0.2207308412 0.7757381797 0.08750735968 -0.4874505103 0.8578318357
0.03168990836 -0.2111317515 0.7769546509 0.280597508 -0.5213547349 0.7992811799
-0.01791074127 -0.1154760271 0.7193122506 -0.6228592396 0.4900042713 -0.6072156429
-0.01437759586 -0.1954704523 0.7780514956 -0.5563725233 -0.4371055961 0.704062283
-0.00682673743 -0.1951363981 0.7840199471 -0.4235055149 -0.5243061781 0.7357878089
4.327418355e-05 -0.1960767955 0.7863919139 -0.3165388405 -0.571767807 0.7527033091
-0.003441424109 -0.1997790635 0.7811365128 -0.3596993983 -0.4992147684 0.7822352052
-0.000402568141 -0.2050384134 0.7785339355 -0.295483321 -0.5004040599 0.8113026619
0.03151888028 -0.1763782352 0.801638186 0.210088402 -0.5033439398 0.836961925
0.02105316147 -0.1762992591 0.8034974337 0.06155351549 -0.4731733203 0.873685956
0.04950983822 -0.1755491942 0.7941892147 0.4961811304 -0.3928121328 0.7708519101
0.04951156303 -0.1984265298 0.7770255804 0.5679080486 -0.4848940969 0.6645408869
0.0275651291 -0.205186218 0.7839751244 0.1535449177 -0.528197825 0.8310613632
0.03099815547 -0.209860906 0.7831935287 0.2274710387 -0.542334795 0.8029400706
0.03308965266 -0.197123453 0.786686182 0.2572648227 -0.5627935529 0.7824042439
0.02579413913 -0.1986228973 0.787319243 0.143847242 -0.5709113479 0.8070102334
0.0633771643 -0.1939902604 0.7637987137 0.7448780537 -0.3957073689 0.5368211269
0.06848053634 -0.1805895269 0.770806849 0.7620765567 -0.4167919755 0.4949713647
0.06480205059 -0.1863404214 0.7687169313 0.7524029613 -0.4157536328 0.5092661977
0.06289511919 -0.1840207279 0.7741526961 0.726218462 -0.4317903519 0.5347325802
0.06650200486 -0.1885862648 0.7632814646 0.7811176181 -0.3702427447 0.5000070333
0.06820781529 -0.1935517192 0.7563676834 0.8106930256 -0.3036694527 0.4994478226
0.06598757952 -0.1729123592 0.7778988481 0.7172288895 -0.4369192421 0.5416909456
-0.0334174633 -0.1053655669 0.7546435595 -0.7680427432 0.4292562902 -0.4750621915
-0.03020865843 -0.1102483869 0.7445197701 -0.7710530162 0.4287324548 -0.4706772566
-0.03786347434 -0.1044142321 0.7613091469 -0.768786788 0.4336110353 -0.4699994028
-0.0331582278 -0.09715361148 0.7565216422 -0.7497804761 0.4473148584 -0.4874548912
-0.02106362395 -0.1001459956 0.7363856435 -0.7003695965 0.4700270295 -0.5362047553
0.00704983389 -0.1423768699 0.6866631508 -0.2217387259 0.5933130383 -0.7475947738
-0.0005705791991 -0.1420391798 0.6829065681 -0.3454354107 0.5735638142 -0.7376233935
0.005547839683 -0.1421892494 0.678855598 -0.2341910452 0.5831115246 -0.7761459947
-0.008481398225 -0.1831606925 0.7916914225 -0.4703689814 -0.5008987188 0.7215948701
-0.003692744998 -0.1815522462 0.7975652218 -0.3637838364 -0.5123289227 0.7741286755
-0.005790198222 -0.18938604 0.7892282009 -0.4320430756 -0.5339588523 0.7249344587
-0.03223860636 -0.1267997026 0.7300900817 -0.7620505691 0.4240298271 -0.4893085361
-0.02729089744 -0.1191280633 0.7287993431 -0.7405793667 0.4414925873 -0.5064804554
-0.0287795309 -0.1258527935 0.7250080705 -0.7457604408 0.4328419566 -0.5061608553
-0.0327652432 -0.1220082492 0.7359421253 -0.7653609514 0.4261313677 -0.4814825952
-0.03614812344 -0.1227725893 0.7413904071 -0.7883431315 0.4166689813 -0.4526173472
-0.03611407056 -0.1827507615 0.7598743439 -0.8221697211 -0.2853455544 0.4884808064
0.05241926387 -0.1500787884 0.6922080517 0.5336517096 0.3472477198 -0.7691870332
-0.003887209343 -0.1304189414 0.6969024539 -0.4061092436 0.5832024813 -0.7015537024
-0.0130943032 -0.1352674514 0.6988520026 -0.5580610037 0.5165601373 -0.645378828
-0.01172182057 -0.1295578629 0.7021996975 -0.5300764441 0.5272648335 -0.6616539955
-0.006655583158 -0.1268446147 0.7014586926 -0.4471440017 0.5640651584 -0.6897653341
-0.006999678444 -0.09591759741 0.726162076 -0.4668783844 0.5752443671 -0.6675931811
-0.01213415246 -0.09598091245 0.7302994132 -0.5610913634 0.5446977615 -0.6186565757
-0.01760780998 -0.09500838071 0.7373070121 -0.6470159888 0.5107941628 -0.5617735982
-0.02009351924 -0.08738534898 0.7460551858 -0.6769211888 0.5166968107 -0.5214321613
-0.02192799188 -0.09343224019 0.7434381247 -0.7090930939 0.4780027866 -0.5176604986
-0.02841067128 -0.09647925198 0.752150178 -0.7501180172 0.443891257 -0.4900387228
-0.03059081361 -0.1044190377 0.7473153472 -0.7609496713 0.4369772673 -0.4788452387
-0.02586494014 -0.100472413 0.7448296547 -0.7470685244 0.4441158175 -0.493950516
-0.02415303513 -0.1454033405 0.7029963732 -0.6902031302 0.4414181113 -0.5727066994
-0.03793190047 -0.1492116898 0.7216377854 -0.7525805235 0.4205749929 -0.5066806674
-0.03337582573 -0.1463148892 0.7167080045 -0.7496933341 0.4212821722 -0.5103577375
-0.02227522433 -0.1266821474 0.7158613801 -0.6775817871 0.4618825614 -0.5718643665
-0.02102698199 -0.1314396113 0.7106035352 -0.6575422287 0.4705144763 -0.5881457329
-0.01795744523 -0.1270538867 0.711789012 -0.6199079752 0.4879595935 -0.6086531878
-0.0215950273 -0.1204648688 0.7185178995 -0.6677297354 0.4716184437 -0.5757285953
-0.02254709043 -0.1168692932 0.7230854034 -0.6861565709 0.469417572 -0.5551313758
0.02483600751 -0.2137131989 0.7842553854 0.1157947779 -0.5613133311 0.817638576
0.004861410242 -0.1916258782 0.791669786 -0.2367849201 -0.600094378 0.7625489831
0.0003094276763 -0.1887660623 0.7928811908 -0.3159633875 -0.5638478398 0.75900805
0.005891458131 -0.1863594353 0.7969326377 -0.2037222683 -0.529953897 0.8176384568
0.05311823264 -0.2117640525 0.7642454505 0.612869978 -0.4482080042 0.6487367153
0.04818173498 -0.2128739059 0.7671219707 0.5445037484 -0.4634207189 0.6982768774
0.04207106307 -0.2154879272 0.7723456025 0.418328315 -0.4946587682 0.7566323876
0.04304302111 -0.2095986158 0.7718421817 0.461864382 -0.4895126522 0.7332482338
0.03817132488 -0.2117631435 0.7741116881 0.3963577151 -0.49985075 0.7652996778
0.05053358525 -0.2091963291 0.7704694867 0.542953968 -0.4699492455 0.6826990843
-0.02564058267 -0.1125040203 0.7337142229 -0.7289992571 0.4517592192 -0.5090412498
-0.02079716325 -0.1096651405 0.7294501066 -0.6693361402 0.4805707037 -0.5571177602
-0.02316691354 -0.1069125757 0.7334651947 -0.7168591619 0.4609546065 -0.5227569342
-0.0171188321 -0.1050239652 0.7272776365 -0.640176177 0.4964218736 -0.5835965276
-0.01695125923 -0.1100331694 0.7232888937 -0.6261330247 0.497705549 -0.598788023
-0.01868156716 -0.1949727535 0.7738610506 -0.6282610893 -0.3960605264 0.6627373695
-0.0124318637 -0.2012083083 0.7745072842 -0.5194551349 -0.4229085147 0.7335902452
-0.02495078929 -0.1968102008 0.7654804587 -0.7248969674 -0.3574038744 0.5832850337
0.0276491195 -0.1811263561 0.7973729968 0.1784258634 -0.5157525539 0.8334897757
0.02041471563 -0.1824976802 0.7973876595 0.06527853012 -0.5310803652 0.8321347833
0.01614478417 -0.1827822775 0.8015313148 -0.02398603596 -0.483941704 0.873164475
0.05324553698 -0.178536877 0.7874578238 0.5603295565 -0.4395417571 0.6918775439
0.04185539111 -0.1725566089 0.7941644788 0.3956490159 -0.457113266 0.7798084617
0.0563739948 -0.1824635714 0.7829935551 0.6219059825 -0.4463901222 0.6398082972
0.06032062694 -0.1782556772 0.7814109921 0.6723473668 -0.4324514866 0.5970441103
0.04900957271 -0.1913222373 0.7823932767 0.5250931978 -0.5052217841 0.6734973788
0.05341971666 -0.1877911091 0.7809823751 0.5844830871 -0.4791213572 0.6390342712
0.04428261146 -0.1981154531 0.7802936435 0.4712536931 -0.5082626343 0.7080100179
0.03901454806 -0.1977548301 0.7843614817 0.3688516021 -0.5426464677 0.7495577931
0.03319882974 -0.1756860465 0.7964758873 0.2722263336 -0.5001655221 0.8195887208
0.03904091194 -0.1926970333 0.7882605195 0.3627413511 -0.5399927497 0.752317369
0.04402445257 -0.193557173 0.7850302458 0.4410783648 -0.5287186503 0.7223719954
0.07281732559 -0.1909460425 0.7532982826 0.8109606504 -0.309885025 0.4953228831
0.06974317878 -0.1871895939 0.7579059601 0.8171440959 -0.3254740834 0.4755975902
0.06929555535 -0.1743799448 0.7726556063 0.7581463456 -0.4058741629 0.5052243471
0.07122784108 -0.179027468 0.7633472681 0.8187301159 -0.3297210336 0.4694099724
0.0645430088 -0.1781713814 0.7751905918 0.7270043492 -0.4288500845 0.5351138711
-0.01084122527 -0.1894177496 0.7859044075 -0.5019453764 -0.4985840023 0.7055338621
-0.01380789559 -0.1761959195 0.7916103601 -0.5259443521 -0.4733202755 0.7060245872
-0.01897152141 -0.1814405173 0.7839264274 -0.5959072113 -0.4509541392 0.662525475
-0.01624621265 -0.1895902902 0.7815541029 -0.5673258901 -0.4576194286 0.6823182106
-0.03864648566 -0.1157859564 0.7517636418 -0.7827574015 0.4197483659 -0.4593572319
-0.03986797482 -0.1104102731 0.7612115145 -0.7773957253 0.4230462313 -0.4654891789
-0.03451634943 -0.1151641309 0.7455517054 -0.7810145617 0.4187363386 -0.4633166492
-0.03564336151 -0.1094888002 0.7501584888 -0.7755941153 0.4248687029 -0.4667482376
-0.03960817307 -0.1398307532 0.7322926521 -0.767134726 0.4204127491 -0.4845113456
-0.03756574541 -0.1733650565 0.7562156916 -0.8426066637 -0.1042047366 0.3062433898
-0.04030441865 -0.1787375212 0.7450380921 -0.9104782939 -0.01754526421 0.2411970496
-0.04001711681 -0.1507102698 0.7392125726 -0.7991644144 0.2736013234 -0.2517269254
-0.03629089519 -0.1728628874 0.7619281411 -0.8185954094 -0.1663946062 0.3728919029
-0.04049002752 -0.1638122052 0.7403845787 -0.8570718765 0.1554748118 -0.041428525
-0.03948494792 -0.1826151311 0.7497803569 -0.9109796286 -0.1034404412 0.3604721129
-0.0391567871 -0.1745417416 0.7492265701 -0.8746598363 -0.03260227293 0.2330715209
-0.04088005424 -0.1584206671 0.7372239232 -0.8433802128 0.2351218462 -0.1627225578
-0.03929540887 -0.1603159606 0.7449665666 -0.8230926991 0.1302757412 -0.03403133899
-0.04012716189 -0.1447593719 0.7363334894 -0.7811582685 0.3538408279 -0.3748548627
-0.03739387542 -0.1634679437 0.754046917 -0.803424716 -0.0004074654425 0.1321682483
-0.03691997752 -0.1787614673 0.7553724647 -0.867937088 -0.1411590427 0.3927880824
-0.03842937574 -0.1688955724 0.7455232143 -0.8579840064 0.05140210688 0.1194678098
-0.03756487742 -0.1684918404 0.7520413995 -0.8332104087 -0.0190262422 0.1892321408
-0.03855890036 -0.1549179852 0.7465801835 -0.7910362482 0.1543760896 -0.092194736
-0.03547441214 -0.1767065376 0.7664716244 -0.8195669055 -0.2498405427 0.4896661639
0.05706243962 -0.1376152784 0.6902015209 0.0671005249 0.3897309303 -0.8144660592
0.06240011752 -0.1335184574 0.6922197938 -0.02397597581 0.2681160867 -0.7977724671
0.01788975857 -0.1367341429 0.6868900061 -0.04603134841 0.6391142607 -0.7649101615
0.04180446267 -0.1418189108 0.6839984655 0.3457650244 0.5537061095 -0.754130125
0.04543706775 -0.1491247863 0.6830016375 0.3532034159 0.434163332 -0.8238245845
0.03940535709 -0.147012651 0.6803987622 0.2761106193 0.4980500937 -0.8098104
0.02854720689 -0.1423596442 0.6780006289 0.1400825381 0.5948743224 -0.788228333
7.042578363e-05 -0.1236036271 0.70050776 -0.3434468806 0.5922110677 -0.7270545959
-0.003854311537 -0.1208816916 0.7060344219 -0.4045880735 0.5693241358 -0.707557559
0.06768527627 -0.09183202684 0.7380829453 0.4942829907 0.5119590759 -0.6113695502
0.07317051291 -0.09487186372 0.7245115638 0.3078215718 0.5734791756 -0.4510345757
0.07012235373 -0.09638012201 0.7350834012 0.6786783934 0.5426293612 -0.4738500416
0.07098092139 -0.09369377792 0.7299624681 0.385207504 0.5489585996 -0.5143040419
0.0746557042 -0.08933576196 0.714810431 -0.27415061 0.5834998488 -0.5394455194
0.06211948395 -0.08690940589 0.7269770503 0.1487313062 0.5606244802 -0.643630147
0.07687056065 -0.08826234937 0.7063618898 -0.5547245145 0.6097892523 -0.5166591406
0.06956620514 -0.08911934495 0.7241199017 0.02176633105 0.5572265983 -0.5923377275
0.06256151199 -0.08893791586 0.7361887693 0.4246971607 0.525360465 -0.6564976573
0.05695458874 -0.08613421023 0.7327045202 0.3499890864 0.5489814281 -0.6855589151
0.02184771188 -0.08220027387 0.7291915417 0.003951167222 0.6707048416 -0.731959939
0.01406915952 -0.0813748017 0.7301818728 -0.1300182492 0.6962583065 -0.7010314465
0.007228063419 -0.08404326439 0.7291054726 -0.24734734 0.6773367524 -0.6895805597
0.01263450086 -0.08691591769 0.7260246277 -0.146609664 0.663955152 -0.7290948033
-5.316505121e-05 -0.09228194505 0.7248958349 -0.3713626266 0.602697134 -0.7011315823
0.002110548783 -0.09689734131 0.7206802368 -0.3119473159 0.5999608636 -0.7310136557
-0.02414561436 -0.1516629905 0.6990858912 -0.6862795949 0.4498080611 -0.5714826584
0.01776268147 -0.1994225383 0.7871130109 -0.02592361532 -0.5733731389 0.8106881976
0.01252486371 -0.2058931887 0.7820107341 -0.1231905371 -0.5173794627 0.8447354436
0.01012832578 -0.2130261511 0.7766933441 -0.1336822808 -0.4995400906 0.8515500426
0.01765673421 -0.2062893212 0.7859703898 -0.03177935258 -0.5751699209 0.8105264902
0.02234196663 -0.2059979439 0.7813029289 0.06611138582 -0.5202465653 0.8228238821
0.0163943395 -0.2150244117 0.7766401172 -0.03123768792 -0.49472785 0.8588472009
0.01605619676 -0.2103457302 0.7797313929 -0.05335630849 -0.5063792467 0.8528823256
0.02635629661 -0.2089719474 0.778531909 0.1611129194 -0.5148606896 0.8113898039
0.02478852868 -0.2150505781 0.7765953541 0.1461727023 -0.5169931054 0.8361337185
0.01657873951 -0.1946344674 0.7911465168 -0.04165478796 -0.5895513296 0.8021867275
0.02304179594 -0.1938177049 0.7917122841 0.09549192339 -0.5797120333 0.8055316806
0.01057671756 -0.1907882094 0.7933710814 -0.1479528844 -0.5790231824 0.79683882
0.01639982313 -0.1894840598 0.7953055501 -0.02229238302 -0.5649889112 0.8212708235
0.02279354259 -0.1884884983 0.7958188057 0.09872963279 -0.5490697622 0.827501595
-0.004934981 -0.1004988328 0.720706284 -0.4356476068 0.5633597374 -0.7002313137
0.04875393212 -0.1802257299 0.791452527 0.4813957512 -0.4229398668 0.7632853985
0.04671709985 -0.1862562895 0.7893217206 0.4454478621 -0.4907020628 0.7477166057
0.07790321857 -0.1288348287 0.7073038816 -0.1060802341 0.3387309611 -0.3333048224
0.07618328929 -0.1223432198 0.7102085352 -0.09211942554 0.4109547138 -0.429564923
0.0796488449 -0.1233240142 0.6985144615 -0.6302765608 0.3915858269 -0.2915108502
0.07565768808 -0.13302432 0.7172105312 0.4460099638 0.3009720147 -0.4004641771
0.07534157485 -0.126558587 0.7151988745 0.2263199389 0.3692225814 -0.4425180256
0.07319399714 -0.125712201 0.7223303318 0.5497538447 0.3837131262 -0.5291714072
0.07444307208 -0.14295201 0.7130881548 0.7507432699 0.02616125904 -0.423631072
0.07742138952 -0.1299880892 0.6989392042 -0.2320468575 0.1874579638 -0.3644490838
0.07614500076 -0.137783587 0.7084282041 0.3399004042 0.1260154843 -0.3755084872
0.07488289475 -0.1179905683 0.7197087407 0.2955547273 0.4189406335 -0.5436131358
0.08126919717 -0.1164125949 0.6993178725 -0.6984455585 0.4023377001 -0.3222517073
0.08286218345 -0.1075127497 0.7044845819 -0.5830797553 0.4035618305 -0.3958006799
0.0791574344 -0.1164819151 0.7066059113 -0.3504332602 0.4081132412 -0.4022988379
0.08000540733 -0.1113364175 0.7098479867 -0.2715983391 0.4090221822 -0.4476256371
0.08136064559 -0.1200665012 0.6938841939 -0.8703259826 0.3968645334 -0.2826403379
0.08373842388 -0.1091958359 0.6959042549 -0.820151031 0.3735386133 -0.4289549887
0.03457500786 -0.1434200108 0.6778452992 0.2234944105 0.5798413157 -0.7817363143
0.04294194654 -0.1432589591 0.6894472241 0.3914822638 0.4832122326 -0.758464396
0.03616029397 -0.1424064934 0.683886528 0.27380687 0.5910604 -0.7535431981
0.02951390669 -0.1414633244 0.684134841 0.1640116423 0.6108413935 -0.7591008544
0.02384534851 -0.1421627551 0.6837385893 0.06888471544 0.6176766157 -0.7666792274
0.01000349969 -0.1236533895 0.6978012919 -0.2078635991 0.6176036 -0.7573847175
-0.002118478529 -0.1349229813 0.6928642392 -0.3666595221 0.5851762891 -0.7167142034
0.0004125930718 -0.1370575726 0.6875792742 -0.3248119354 0.5839887261 -0.7404888868
0.01994674839 -0.1420145929 0.6776685715 0.03148863465 0.5896035433 -0.8006781936
0.02063273825 -0.1372152269 0.6817167997 0.02233170345 0.6128515601 -0.7863547802
0.01044983789 -0.1385914534 0.6802427173 -0.1497917026 0.5968107581 -0.7812405825
0.06289674342 -0.1338944435 0.7107233405 0.6724526882 0.4676803648 -0.5490002036
0.05978569388 -0.1456734389 0.701493144 0.6513991356 0.3114967942 -0.6634790897
0.06796188653 -0.1439906657 0.7095841169 0.7829601169 0.2144658267 -0.5702887177
0.05915058404 -0.1362487972 0.7061417699 0.6162973046 0.4846886992 -0.6029304862
0.06254860014 -0.1416424513 0.7061393857 0.6868402958 0.3387321532 -0.6074257493
0.07096720487 -0.1314740777 0.6956169605 0.2416097373 -0.1544158757 -0.7585018277
0.05674279481 -0.1431515366 0.6910949349 0.4597262442 0.197917819 -0.7930501699
0.0617200546 -0.1405349821 0.6930348873 0.5016824603 0.01202617306 -0.7697378397
0.03007873707 -0.1351386458 0.689417243 0.1690100729 0.6209778786 -0.7484187484
0.024396047 -0.1344310641 0.6885921955 0.0525226742 0.6323772669 -0.7634260058
0.03007144295 -0.1288305968 0.6926192641 0.1572002769 0.6239008904 -0.7587117553
0.0582963489 -0.1314734221 0.689178884 -0.1001139209 0.4247205257 -0.7930436134
0.06305724382 -0.1269089133 0.6908203959 -0.2656073272 0.3820538521 -0.8113787174
0.05021414906 -0.1370532662 0.6864965558 0.1913801581 0.4880661368 -0.7705292702
-0.01286903769 -0.1161162928 0.7151924372 -0.5311234593 0.5164200664 -0.6702813506
-0.009217822924 -0.1180779859 0.7100198865 -0.4814918041 0.5285152793 -0.6958839893
-0.01448967494 -0.1214929372 0.7116631269 -0.5593897104 0.504796803 -0.6537274718
0.003888221458 -0.1181946918 0.7034766674 -0.2720275521 0.6005925536 -0.7500967979
0.01483187545 -0.1193191186 0.6985134482 -0.09373237938 0.6329564452 -0.7656344175
0.009667798877 -0.09745322913 0.7176968455 -0.1895091683 0.6149196029 -0.7620420456
0.01146784518 -0.09213814884 0.7215322256 -0.1801400483 0.639556706 -0.7405180335
0.005323025398 -0.0905226171 0.7240363359 -0.2844495177 0.6303794384 -0.7213067412
-0.02861080877 -0.150442794 0.7053105831 -0.7153194547 0.4357427359 -0.5458518267
-0.02818113193 -0.1437509507 0.7108155489 -0.7313227654 0.426407069 -0.5321356654
-0.03281438723 -0.1524190307 0.7100294828 -0.7259141207 0.4293847382 -0.5361388326
-0.03373387083 -0.1370166391 0.7245298624 -0.7593094707 0.4217346907 -0.4955638051
-0.03594616055 -0.1429949254 0.7232385874 -0.7572873831 0.4188733995 -0.5009902716
-0.03140192851 -0.137674287 0.7195664048 -0.7516383529 0.4196090996 -0.5088308454
-0.04064571112 -0.1531068236 0.7271915078 -0.7843529582 0.3573968112 -0.3946573138
-0.0393229723 -0.1636866927 0.7341457605 -0.8388525248 0.2035952657 -0.1158739328
-0.03862206638 -0.1591201723 0.728064239 -0.8018466234 0.2919762731 -0.2763203084
-0.03909604624 -0.1702124327 0.7383074164 -0.8731883764 0.1132560149 0.04739592224
-0.04037060589 -0.1446132958 0.7284309864 -0.7621500492 0.4183160961 -0.4940690994
-0.002256216714 -0.2204958946 0.7762212157 -0.2855830789 -0.481885314 0.8282549977
-0.001505236374 -0.2134566307 0.7782123089 -0.2904935181 -0.4890401363 0.8214098215
0.004763696343 -0.1993687898 0.7857045531 -0.2354427129 -0.5692857504 0.7858738899
0.005323559046 -0.2058501095 0.7819515467 -0.2068560719 -0.5123869181 0.8318685293
0.04034686089 -0.1865159273 0.7924093604 0.359605968 -0.5007891059 0.7838279009
0.03477869555 -0.1813917607 0.7945597172 0.2919254601 -0.5132071972 0.8052483201
0.03437847644 -0.1896257997 0.792188406 0.2821900249 -0.5416522026 0.7907226086
0.02950870991 -0.1869396269 0.7959828973 0.2022912949 -0.5256097913 0.8221090436
0.03881183639 -0.1800151467 0.798414588 0.3390127122 -0.476331234 0.8082472682
0.04350544885 -0.1816454679 0.7946618795 0.4024688303 -0.4691524208 0.7853850722
0.01875590719 -0.08638264239 0.7251618505 -0.0449314639 0.6518734097 -0.7525155544
0.02321016975 -0.09075437486 0.7218846679 0.03871840611 0.6479129791 -0.7563192844
0.01740474813 -0.09313116968 0.7207385898 -0.07186495513 0.6454939842 -0.7559288144
0.02298406884 -0.09971448034 0.7145463228 0.02782977931 0.6183767319 -0.7825388908
0.01529883221 -0.100629501 0.7137416601 -0.09514283389 0.6197089553 -0.7785853148
0.07715607435 -0.1045147404 0.7466856837 0.61956954 0.4672451615 -0.6302218437
0.07418047637 -0.1009205729 0.7413976192 0.6513743997 0.5030239224 -0.554456234
0.02892406471 -0.101374492 0.7135306001 0.1142770126 0.6058943868 -0.7834470272
0.03439354897 -0.09882650524 0.7158997059 0.2038521916 0.604850769 -0.7687490582
0.05106165633 -0.08889912814 0.7323067784 0.4298144579 0.5435986519 -0.7201194167
0.06650840491 -0.08694729954 0.7172954082 -0.1731197685 0.590246737 -0.5943710804
0.05369534716 -0.08527294546 0.7280809879 0.2085024118 0.5787791014 -0.678014338
0.07237989455 -0.08758235723 0.7097243667 -0.4334636331 0.6072881222 -0.5454005599
0.06053130329 -0.08663006872 0.7186747193 -0.1012138203 0.5985585451 -0.6217319369
0.05479911715 -0.08788120747 0.7205872536 0.01667821966 0.5974905491 -0.6577280164
0.04503368959 -0.08562657237 0.7316662669 0.3627519608 0.5816231966 -0.7251805663
0.0382514745 -0.08679158986 0.728623569 0.2641694248 0.6184100509 -0.7345466018
0.07930048555 -0.1091045812 0.7366642952 0.40097031 0.436214 -0.5847477317
0.07729290426 -0.1106556877 0.729198277 0.310526371 0.4177953899 -0.5672918558
0.08172530681 -0.1064959839 0.7238667011 -0.04670439288 0.423221916 -0.5055958033
0.08056464046 -0.1073045135 0.7169319391 -0.1658381075 0.4083438218 -0.4834729135
0.08474265039 -0.1008791327 0.7071993947 -0.6647164822 0.4051902592 -0.4081839323
0.0822474435 -0.1043153256 0.7309464812 0.07307457924 0.4357585609 -0.5374794602
0.08311053365 -0.1006718576 0.7191814184 -0.3145771325 0.4187867045 -0.4809135795
0.07803629339 -0.09998003393 0.7274368405 0.1875736415 0.4785684943 -0.4698709249
0.07719448209 -0.1019660756 0.7350346446 0.4486005008 0.4920175374 -0.5042956471
0.08234728873 -0.105508551 0.7102060318 -0.4257513583 0.4032744765 -0.4376392663
0.07756370306 -0.1103016064 0.7231864333 0.1456517577 0.4093771279 -0.5374867916
0.07802570611 -0.112927787 0.7149406075 -0.01146259066 0.4132764041 -0.4990113378
0.07576840371 -0.1215227544 0.7353124619 0.7240703106 0.3539496362 -0.5545352697
0.07433839887 -0.1247983277 0.7301369905 0.7184744477 0.3719158471 -0.5566780567
0.07564053684 -0.1358070374 0.7267589569 0.8308614492 0.2598463297 -0.4330069423
0.07410541177 -0.1297008693 0.727088213 0.7615129948 0.330716759 -0.5087614059
0.0757464543 -0.1420036107 0.7236661315 0.8887135983 0.2034827769 -0.3689166903
0.07934430242 -0.1167152226 0.7439450026 0.6873768568 0.3903255463 -0.5949822664
0.07773057371 -0.1310527623 0.7332572937 0.8052022457 0.2798275054 -0.463059485
0.06214432046 -0.1185523421 0.7202202678 0.5378016233 0.5744939446 -0.6113876104
0.06666945666 -0.117852442 0.7264615297 0.6387952566 0.4520753324 -0.6213231087
0.01144836098 -0.1315752864 0.6903607845 -0.1194745526 0.6396013498 -0.7562131286
0.006191852968 -0.1271606535 0.6944355965 -0.2357266098 0.6090783477 -0.7551648617
0.01794316806 -0.1293934435 0.6886917949 -0.05456026644 0.64324826 -0.7610732317
0.01471011154 -0.1262230873 0.6933417916 -0.0978750214 0.6188617945 -0.7766925693
0.01302763354 -0.1346310973 0.684304297 -0.1125667989 0.6198236942 -0.7710755467
0.006040627602 -0.1334471852 0.6895204186 -0.2264524847 0.6165620685 -0.7511188388
0.005538692232 -0.1378661841 0.6833809614 -0.2277896702 0.5951201916 -0.7689983249
0.07262898982 -0.1367117912 0.7004923224 0.4974519014 -0.186804682 -0.5896667838
0.07488235831 -0.1462069601 0.7185051441 0.9022422433 0.1258445531 -0.3801802695
0.07131162286 -0.1419689059 0.705483079 0.7833709121 -0.1743131727 -0.5786147118
0.06652446836 -0.1373712569 0.7131927609 0.7393659949 0.3938547671 -0.5007420778
0.06413295865 -0.1271034926 0.7164481878 0.6550597548 0.5115028024 -0.5528055429
0.06892888248 -0.1301293671 0.7212125659 0.7342161536 0.3899781406 -0.5100761652
0.06647866219 -0.1243047416 0.7210706472 0.6647245288 0.4696717858 -0.5774444938
0.07118139416 -0.1372779459 0.7203956842 0.8098726869 0.3087133467 -0.4303394854
0.07876998186 -0.1122846827 0.6936631799 -0.7558884621 0.367282331 -0.5308890343
0.07378190011 -0.1174110174 0.6925298572 -0.5751558542 0.293541193 -0.7314760685
0.0743489489 -0.1234098896 0.6929231882 -0.3833946288 0.1151410192 -0.9008147717
0.05708330497 -0.1229049638 0.7119680643 0.4117233753 0.7117680311 -0.5670248866
0.04209481925 -0.1380647123 0.6921445131 0.3640334308 0.5251666903 -0.7471225858
0.04854065925 -0.1430100054 0.6931379437 0.4513551891 0.4361175895 -0.7620401382
0.03776236251 -0.1367983818 0.6875904799 0.3017920554 0.5842246413 -0.7510647774
0.02890405804 -0.1243571639 0.6962893009 0.1471497267 0.6189673543 -0.7679703832
0.03469494358 -0.1237861961 0.6980819702 0.2264367193 0.613751173 -0.7558786273
0.03003615141 -0.1194248721 0.6999761462 0.143120721 0.6045458913 -0.7799575329
0.03627789393 -0.1120677292 0.7077870369 0.253077507 0.5840751529 -0.7701017857
0.05138864368 -0.1046452448 0.7214676142 0.4821865559 0.5021073222 -0.7162570953
0.02335708775 -0.1281562746 0.6901909709 0.05231913179 0.640365839 -0.7655054331
0.02101836726 -0.1235528514 0.6939146519 0.003094283631 0.6450086236 -0.7637791038
0.02779589035 -0.1361919194 0.6831011176 0.1222766638 0.6185406446 -0.7703908086
-0.0006575436564 -0.1081212536 0.7131462097 -0.3597359657 0.565972209 -0.7385987639
-0.008023736067 -0.1090299785 0.7164683342 -0.4713553786 0.5405831337 -0.6953137517
-0.00574459834 -0.1130954102 0.7119215131 -0.4274328649 0.5401534438 -0.7232747078
-0.003051854437 -0.1046189293 0.7170549631 -0.4058257341 0.5581851006 -0.7192142606
0.002526431112 -0.1028285325 0.7161043286 -0.3132749498 0.5830788016 -0.7440121174
-0.0005779450294 -0.1143368036 0.7075808048 -0.3440933824 0.5701823831 -0.7432488799
0.01182993595 -0.1072099954 0.7088183761 -0.1498772502 0.6089836955 -0.7765678763
0.009173807688 -0.1027331129 0.7133387923 -0.1956910938 0.6057097316 -0.7687394023
0.03297024965 -0.08775288612 0.7256993651 0.1929131746 0.6336246729 -0.7465957999
0.02555361204 -0.08561416715 0.7252775431 0.07261777669 0.6482374668 -0.757494688
0.03418203443 -0.09398435056 0.7203689218 0.2051791847 0.6124827266 -0.7619546652
0.02762011066 -0.0944981873 0.7188151479 0.1082831919 0.63127774 -0.7655598521
0.06825563312 -0.09713108093 0.7413105965 0.5998088121 0.4815430641 -0.6383733749
0.06706886739 -0.1028007716 0.7368296385 0.6156842709 0.4651736617 -0.6356981397
0.07177517563 -0.1119757965 0.7379448414 0.6422317624 0.4335674047 -0.6317329407
0.06730624288 -0.1080043316 0.7343735695 0.6278035641 0.4504204988 -0.6345593333
0.07550328225 -0.1114014685 0.7433924675 0.6517900825 0.4227113128 -0.6293711066
0.06009646878 -0.1126039177 0.7238678932 0.5724630356 0.4671010077 -0.6730436683
0.05658604577 -0.1063893363 0.7247743607 0.5338349342 0.4675762057 -0.7030168772
0.06417635828 -0.1112106964 0.7294312119 0.6136541367 0.4499551654 -0.6484318376
0.03674666956 -0.1282702982 0.6947972775 0.2532945573 0.6163662672 -0.7453422546
0.04845232144 -0.1261255443 0.692225039 0.003425608622 0.5016899109 -0.7822313309
0.04634627327 -0.1224264652 0.6958245635 0.02456068993 0.5153958797 -0.7852187753
0.05570641533 -0.120204404 0.6949632764 -0.1540920287 0.4328818619 -0.8117187023
0.05279919505 -0.1291927546 0.6898652315 0.02569197677 0.4601334035 -0.7897776961
0.05769000947 -0.1241194159 0.6913123131 -0.1587674022 0.416433692 -0.8102582693
0.06625594199 -0.1206630096 0.6913517118 -0.3370812833 0.3354870677 -0.8398504853
0.04612994567 -0.1314529926 0.6900325418 0.153035894 0.5235066414 -0.7672361135
0.0534276776 -0.1435881257 0.6968688369 0.5338193774 0.4143206775 -0.7193759084
0.05409497768 -0.1387172937 0.7000083327 0.5280308127 0.467931211 -0.683087647
0.04888565838 -0.1356386095 0.6965667009 0.4153876901 0.513656497 -0.7340211272
0.03100241907 -0.1072053313 0.7105187178 0.1612690389 0.5922367573 -0.7804300785
0.02977291867 -0.1118693277 0.7067559958 0.1586777121 0.6079536676 -0.770229578
0.02368201874 -0.1044683382 0.7109414935 0.0325759463 0.6054872274 -0.7933680415
0.01762387529 -0.1055768579 0.7102313638 -0.05273326114 0.6147645712 -0.782366693
0.06080131605 -0.1058974937 0.7297122478 0.5819078088 0.4613967836 -0.6687366366
0.05377603322 -0.09466005862 0.7309529781 0.4831039906 0.5134367347 -0.7062774301
0.05746836215 -0.09962057322 0.7308464646 0.5326105952 0.4845854938 -0.6934079528
0.05001132563 -0.09895925969 0.7241023183 0.4597666264 0.5206538439 -0.7188959718
0.0384048 -0.09097988904 0.7243967652 0.2689936757 0.6005556583 -0.7511851788
0.04471610114 -0.09466767311 0.72364223 0.3870708942 0.5686136484 -0.725174427
0.04409162328 -0.08915517479 0.7264169455 0.2955001295 0.5894411206 -0.726798594
0.0497758314 -0.0885342285 0.7229482532 0.1331324726 0.5954658985 -0.6897000074
0.06534127146 -0.09019078314 0.7121573687 -0.2393762916 0.5983920097 -0.5899783969
0.04813097417 -0.09248135239 0.7281318903 0.4124655724 0.546736002 -0.7280386686
0.04345630482 -0.1163583398 0.7016808391 0.09320305288 0.5244525075 -0.7896595001
0.05274029449 -0.1172155216 0.6985884309 -0.06504807621 0.4512404203 -0.806338191
0.03787889704 -0.1181201488 0.7034220695 0.2637829483 0.590873301 -0.7589937449
0.04290102795 -0.1230188087 0.7020492554 0.2903283536 0.6299920082 -0.7184900641
0.05053569749 -0.1155844331 0.7034707069 0.1400603354 0.520070076 -0.7192451358
0.06783874333 -0.1157597601 0.6942363381 -0.3963924348 0.3515707254 -0.7794783711
0.06260489672 -0.1127355322 0.6988549232 -0.2511264086 0.4350241423 -0.6884892583
0.07207017392 -0.1101607829 0.6954441667 -0.5598631501 0.3720496893 -0.6560293436
0.05132690445 -0.1129065827 0.7157310247 0.4680692852 0.516651392 -0.7117047906
0.04802009836 -0.117199488 0.7094913125 0.3871642947 0.6031762958 -0.6896045208
0.05572360754 -0.117323339 0.7149795294 0.4982620776 0.5725156069 -0.644841373
0.07164502144 -0.1052591577 0.6992362142 -0.5482295752 0.4029329121 -0.5840252638
0.05587181449 -0.111068964 0.7038584948 -0.02462540381 0.4927320182 -0.6739605069
0.0598376058 -0.1057878733 0.7058672309 -0.1242615059 0.4616524577 -0.6534928679
0.04939783737 -0.1102254018 0.7084492445 0.2129457444 0.525375247 -0.7061693668
0.05414108559 -0.1058408916 0.7092453837 0.07848462462 0.4918958247 -0.6819349527
0.06587263197 -0.1080452353 0.7003645897 -0.3573685884 0.4340344965 -0.623654902
0.06905122846 -0.09922353923 0.705483079 -0.4594904184 0.4311674833 -0.5567703247
0.06537047029 -0.09622532129 0.7083605528 -0.2596048415 0.5346556902 -0.5927630067
0.07409080863 -0.09351716936 0.7052268982 -0.5744521022 0.4893399179 -0.5365892649
0.04930341616 -0.1038583294 0.7135395408 0.258010149 0.5277697444 -0.699015379
0.05379748717 -0.1099372059 0.719986558 0.5096086264 0.4924765825 -0.7025544047
0.04100486636 -0.1093524843 0.7120984197 0.33952263 0.5622205734 -0.7490887046
0.04586910456 -0.1119796336 0.7131640315 0.3948577642 0.542019248 -0.7338257432
0.05507921427 -0.1289118081 0.707023859 0.5068019629 0.5786908865 -0.6068975925
0.05961558223 -0.1286726594 0.7108979225 0.5781431198 0.5807248354 -0.5547921062
0.04779562727 -0.1221541464 0.7055363655 0.3436453342 0.6437907219 -0.6775667667
0.05036436394 -0.1308085471 0.7013393044 0.4215897024 0.5700149536 -0.6775909066
0.0440928787 -0.1291329116 0.6973664165 0.2884020209 0.6089525819 -0.7368771434
0.01528274454 -0.1116197407 0.7064586878 -0.09356438369 0.6134093404 -0.7719873786
0.006250505336 -0.1114158779 0.7085362077 -0.240321666 0.5933947563 -0.7613150477
0.02127838321 -0.1103093848 0.7066747546 0.008238379844 0.6180081964 -0.7810034752
0.01102505624 -0.1150411442 0.7037755251 -0.1641504318 0.6201714873 -0.7642261386
0.02100615948 -0.1176812053 0.6995707154 0.003901012242 0.6390908957 -0.7679227591
0.06337808818 -0.09802384675 0.736309886 0.576936841 0.480394572 -0.659393847
0.05778355896 -0.0918283388 0.7350400686 0.5152690411 0.5119659305 -0.6853320003
0.03545533493 -0.1040285677 0.7126250267 0.240718767 0.5838832259 -0.7742810845
0.04562566057 -0.1020856574 0.7191933393 0.4096465409 0.5362415314 -0.7322365046
0.04058269039 -0.1035975143 0.7147865891 0.3436119258 0.5622150898 -0.7472547889
0.05308549479 -0.09419072419 0.7168272138 0.1113966331 0.579660356 -0.6677705646
0.04639135674 -0.096741952 0.7179235816 0.2693003118 0.5716397762 -0.7077587247
0.0594134219 -0.09395631403 0.7113286257 -0.1084294841 0.5888303518 -0.6239529848
0.05467724428 -0.09795638919 0.7125000954 0.06542235613 0.5726478696 -0.6582201719
0.04065515101 -0.09758614004 0.7190071344 0.3470526934 0.5736339688 -0.7395859957
