# .PCD v0.7 - Point Cloud Data file format
VERSION 0.7
FIELDS x y z normal_x normal_y normal_z
SIZE 4 4 4 4 4 4
TYPE F F F F F F
COUNT 1 1 1 1 1 1
WIDTH 512
HEIGHT 1
VIEWPOINT 0 0 0 1 0 0 0
POINTS 512
DATA ascii
0.09760596603 -0.1182356924 0.6119655371 0.4465970695 -0.6911474466 0.559450984
0.09609745443 -0.1239319742 0.6077414751 0.3904446661 -0.6688548326 0.6213476658
0.003662338015 -0.1687933952 0.7049654722 -0.1615653336 -0.628352344 0.7589371204
-0.00267146132 -0.1678533107 0.7042692304 -0.2684666216 -0.609439671 0.7433308363
-0.04424455389 -0.1661400646 0.6224655509 -0.386737138 -0.1645037979 0.2962586284
-0.0417945981 -0.1647640765 0.62803334 -0.3011346459 -0.2747882307 0.3678687215
-0.04026994482 -0.1756629795 0.6411944032 -0.7382730842 -0.3037704229 0.4006052017
-0.04822700098 -0.178590551 0.6218397617 -0.951990068 0.04921587184 0.1695784181
-0.04335584119 -0.1710650921 0.6289592981 -0.5819732547 -0.1862135977 0.3167772591
-0.0387070626 -0.1630382687 0.6350569129 -0.1936000139 -0.4137450755 0.4581062794
-0.03999787197 -0.1582933664 0.6276116967 -0.01050633099 -0.3740891814 0.4258807302
-0.04112793878 -0.1554549783 0.622178793 0.09490036964 -0.3349339664 0.3963443935
-0.0210837964 -0.2134047002 0.6556271315 -0.5653061867 -0.5323137045 0.6279799342
-0.00878973119 -0.2156418115 0.6588582397 -0.3960116804 -0.5774831176 0.696346283
-0.0145587977 -0.2148228139 0.6575061083 -0.4844728708 -0.5807631612 0.6482700706
-0.00359104597 -0.2106303275 0.6699566245 -0.3019647002 -0.6176239252 0.7242622972
-0.009405101649 -0.2122951746 0.6642557979 -0.4185996652 -0.5848225951 0.6868736744
-0.004972120747 -0.2207643837 0.661903441 -0.293453455 -0.6201152205 0.7243782878
-0.03919713199 -0.175134182 0.6469073296 -0.7418883443 -0.3621219993 0.4454203546
-0.03881382197 -0.14841111 0.624160409 0.3981164992 -0.4631624818 0.4759128988
-0.02812461928 -0.1974060535 0.6546297073 -0.7200213075 -0.4160547554 0.5427094102
0.0926913321 -0.1094804183 0.635977447 0.2914760411 -0.6937584281 0.6550616622
0.09734178334 -0.1089293435 0.6252062917 0.3591736853 -0.6929616928 0.620172143
0.09858055413 -0.1077563986 0.6190961599 0.3550994992 -0.7210310102 0.5861393213
0.07498799264 -0.1057109907 0.6462479234 -0.413441509 -0.5016188025 0.7285903096
-0.02317670174 -0.2013233453 0.657930553 -0.65555197 -0.4552269876 0.5927388072
-0.03326224908 -0.1956748068 0.6493923664 -0.7771200538 -0.3939830959 0.4870815575
-0.02645871043 -0.2084055692 0.6525365114 -0.6570792198 -0.4608566761 0.5878087878
-0.0207733307 -0.2076479495 0.6559088826 -0.6006880403 -0.4935162961 0.6240902543
-0.02798601985 -0.1814903617 0.6669190526 -0.740219593 -0.4124118388 0.5302568078
0.1002738401 -0.1137623712 0.6190478802 0.5042506456 -0.6316372752 0.582529068
0.09387148172 -0.1093809307 0.6161536574 0.2696199417 -0.7847716212 0.5533812046
-0.02509739809 -0.1694875658 0.6770865917 -0.6614258289 -0.4737364352 0.5707064867
-0.04067938775 -0.1096989661 0.6514853239 0.7455866337 -0.4983673692 0.4410915673
-0.03697576374 -0.103365168 0.6522582769 0.7250781059 -0.5236442089 0.444650054
-0.03672198206 -0.105138123 0.6469577551 0.7298744321 -0.5142383575 0.4494747519
-0.03370872512 -0.0940232724 0.6548586488 0.6932634115 -0.5618206263 0.4513496161
-0.03198419139 -0.09861490875 0.6496885419 0.7092437744 -0.5383226871 0.4521864355
-0.02663385682 -0.1342606544 0.5989909768 0.6236389875 -0.5486336946 0.5565867424
-0.02714247257 -0.139249444 0.5957420468 0.6147312522 -0.5497512221 0.5653384328
-0.04303168133 -0.1486962736 0.6196487546 0.2949388027 -0.3579282463 0.3962423503
-0.04680387676 -0.1720932722 0.6209566593 -0.6687901616 -0.03987399861 0.2202732861
-0.04300018772 -0.1685394198 0.6361040473 -0.5082047582 -0.3129033744 0.4101991653
-0.04489864036 -0.1594257057 0.6207031608 -0.1540881544 -0.2148851454 0.3171316385
-0.04406107217 -0.1745381355 0.6365106106 -0.7587300539 -0.230604142 0.3643224537
-0.04636005312 -0.1770580858 0.6288761497 -0.8779624104 -0.07826450467 0.2591131628
-0.0468454212 -0.1826987565 0.6286098957 -0.9299108982 -0.1383288354 0.298181653
-0.04435961694 -0.181022048 0.6368629336 -0.8635793328 -0.2702894509 0.3934938908
-0.04312201217 -0.1881774664 0.6370194554 -0.819988668 -0.3631547093 0.4423662126
-0.04156415164 -0.1839220971 0.6414046288 -0.8204091787 -0.3624242544 0.4422306418
-0.03900240734 -0.1897942722 0.6419732571 -0.8156379461 -0.365611285 0.4479569197
0.069375664 -0.1772231013 0.6566378474 0.7836172581 -0.425188154 0.4517613053
0.06969749182 -0.1952212006 0.6444162726 0.780077517 -0.4032693803 0.4774622023
0.06893552095 -0.18146047 0.6522196531 0.7988137603 -0.4060692191 0.4438361228
0.02102704532 -0.1684888899 0.703681469 0.07657888532 -0.6039615273 0.7880966067
0.01484821457 -0.17005831 0.7043324113 -0.005640262738 -0.6080721021 0.7936660647
0.009192233905 -0.1723286361 0.7036600709 -0.07832882553 -0.6225352883 0.7758564949
-0.03378802538 -0.2010633498 0.6466786861 -0.7681248784 -0.3940762877 0.5037538409
-0.03760150447 -0.1973319054 0.6424726844 -0.7917192578 -0.3847154081 0.4731378257
0.04747508094 -0.08673685789 0.6327753663 -0.4751712382 -0.6139730215 0.6295005679
0.02208378166 -0.07592301816 0.6329802871 -0.0495669432 -0.7173410058 0.6918468475
0.01604729705 -0.07879310101 0.6300045252 0.05078362301 -0.7065569758 0.7024989724
0.008322437294 -0.08504719287 0.6248366833 0.1535686553 -0.6945169568 0.6982577443
0.006724340841 -0.0760653764 0.6340101957 0.1788421869 -0.7408361435 0.6451787949
0.01375036035 -0.07510275394 0.6335375309 0.07819648832 -0.7321240902 0.6751018763
0.05114151165 -0.08552815765 0.6371257305 -0.4892915487 -0.6027414203 0.6245122552
0.04454937577 -0.08119865507 0.6357976198 -0.4126091599 -0.6401722431 0.6456985474
-0.02629511245 -0.1792394221 0.672524333 -0.7083245516 -0.4267062843 0.5614017844
-0.03146403655 -0.1693676114 0.6709464788 -0.7455979586 -0.4064142406 0.525812149
0.06632111222 -0.1869868934 0.6496418715 0.7911298275 -0.4120664299 0.4501246512
-0.03429190069 -0.1767250448 0.6626640558 -0.780365169 -0.359041214 0.5117966533
-0.03188269585 -0.1837595701 0.6623937488 -0.7671853304 -0.3862863779 0.5109903812
-0.0238001328 -0.1944640428 0.6636660099 -0.657399416 -0.4618131816 0.5947349668
-0.03210233524 -0.1747505218 0.669013381 -0.7664837241 -0.3851709664 0.513823092
-0.03574350104 -0.1407431215 0.6103848815 0.7022705674 -0.5083551407 0.497004807
-0.03346687555 -0.1415849924 0.6030882597 0.6702395082 -0.5310479999 0.5173889995
-0.03162954003 -0.1365229189 0.6037698984 0.6848585606 -0.5192174911 0.5098996758
-0.0387057364 -0.1110010594 0.6448018551 0.7454056144 -0.4982468188 0.442776531
-0.03445781767 -0.1124526262 0.6363247633 0.7463044524 -0.4988787174 0.4405180812
-0.03414790705 -0.1096862629 0.6416870356 0.7459050417 -0.48936975 0.4514937699
-0.004195728339 -0.2049260288 0.6733162403 -0.3282411397 -0.6157469153 0.7145152092
-0.01446757466 -0.1965256929 0.6707553864 -0.5284513235 -0.5299358368 0.6552944779
-0.01249082852 -0.2061752975 0.6667958498 -0.4977327883 -0.5557098985 0.6653153896
-0.01970796473 -0.2036051899 0.6620656848 -0.5832847357 -0.5135252476 0.626535356
-0.01929198205 -0.1945281923 0.6676888466 -0.6160203815 -0.485696882 0.6186703444
-0.02403062768 -0.1871681958 0.6684715748 -0.6969823837 -0.4461512864 0.5577681065
0.008447276428 -0.2218698412 0.6615135074 -0.09161573648 -0.6597421765 0.7368068099
0.0007521608495 -0.2209918648 0.660220921 -0.2255648822 -0.6347135901 0.7329872847
0.003905736376 -0.2160933018 0.6642105579 -0.1772710532 -0.6515378952 0.735683322
0.0703843385 -0.1825875044 0.6450397968 0.8013502359 -0.4028387964 0.4422147572
0.07696981728 -0.1382746994 0.5994904637 -0.03361113742 -0.6788383722 0.653327167
0.07186926901 -0.1855072081 0.6385550499 0.801327765 -0.4025833607 0.4424398839
0.0670106113 -0.09561564028 0.6449525356 -0.4852246344 -0.5528862476 0.6714658141
0.07237047702 -0.09803000093 0.6442489028 -0.4137087464 -0.5672353506 0.6888583302
0.05934752151 -0.09159365296 0.6406448483 -0.5363590717 -0.5640354753 0.6255961061
0.06488973647 -0.09416613728 0.6387010217 -0.4226185679 -0.6302817464 0.6252154708
0.07495968789 -0.09931852669 0.6379086971 -0.2658669651 -0.712693572 0.6324418783
0.05499725789 -0.0925244391 0.6340482235 -0.5449419618 -0.5711924434 0.6132084727
0.02312900126 -0.08346647024 0.6263718009 -0.07952413708 -0.6908841729 0.7139390707
0.02523590252 -0.08038697392 0.6298817396 -0.110019438 -0.6970580816 0.7030168176
0.02025409229 -0.08687354624 0.621938765 -0.02141385898 -0.6871558428 0.7241101265
0.01006442774 -0.08011825383 0.6294131279 0.1436557919 -0.7026750445 0.6909418106
0.003970746882 -0.082434237 0.6281196475 0.2272705138 -0.7024031878 0.6732996702
-0.01457032468 -0.1761559844 0.6898065805 -0.5121205449 -0.5564568639 0.6494371891
-0.01837366074 -0.1773734689 0.6830928326 -0.6153988242 -0.5148440599 0.5955120325
-0.02434108593 -0.1753222644 0.6785331964 -0.6803727746 -0.4575793743 0.5718276501
-0.01663016155 -0.1693530232 0.69329983 -0.5205014348 -0.5431186557 0.6386253238
-0.01822450943 -0.1717219949 0.6885641217 -0.5614793897 -0.5214546323 0.6282241344
-0.01025699638 -0.1689764857 0.7018291354 -0.391682595 -0.5995455384 0.695628345
-0.01560191344 -0.1846594214 0.6809121966 -0.5586749911 -0.5420889258 0.6261267066
-0.021485826 -0.1842603683 0.6757911444 -0.6500461698 -0.4725743532 0.5927504897
-0.0168921724 -0.09215921909 0.6319480538 0.5489584208 -0.6137266755 0.5664795041
-0.02245066687 -0.090638116 0.6387498379 0.6266533136 -0.5879145265 0.5097548366
0.02948107943 -0.1699462235 0.7028966546 0.1793756932 -0.6037633419 0.770691812
0.03545371443 -0.1706141829 0.6996902823 0.2700104117 -0.6008758545 0.7481888533
0.01972304843 -0.191487819 0.6861716509 0.06152279302 -0.6541557908 0.7492398024
0.02505889907 -0.1898209304 0.6871477365 0.1369438767 -0.6428581476 0.7516101003
0.05768248439 -0.1948380023 0.6582272053 0.7184579372 -0.4727542102 0.5098024607
-0.00837663468 -0.2014229447 0.6687688828 -0.4165775478 -0.5643393397 0.6847504973
0.06279081106 -0.2048279196 0.6459903121 0.7391746044 -0.4258950651 0.5188452005
0.05768198892 -0.2054048032 0.6503927112 0.7085306048 -0.4566015899 0.5348415971
0.05482099578 -0.2120084167 0.6501792669 0.6554809809 -0.4984362125 0.5657907724
-0.03428067267 -0.1853475571 0.6563538313 -0.7778835893 -0.3870205879 0.495013088
-0.03104679845 -0.1920726597 0.6559506655 -0.7595235705 -0.3920198977 0.5181875229
-0.0280807931 -0.1890864819 0.6613312364 -0.7484639287 -0.4053575993 0.5244392753
-0.0367234908 -0.181876123 0.6510937214 -0.8015405536 -0.3735570908 0.4654732943
-0.03854366019 -0.1757507324 0.6538091898 -0.8078120947 -0.350241065 0.4732458889
-0.03567270562 -0.1888757199 0.6516180038 -0.7867651582 -0.3869602084 0.4802696109
-0.03968231007 -0.1824477762 0.6463163495 -0.8115997314 -0.364022851 0.455661267
-0.03259909153 -0.1038510948 0.6415094137 0.7282224894 -0.5098793507 0.4574399292
-0.03118928708 -0.1073402092 0.6361370087 0.7359790206 -0.4932842553 0.4635283649
-0.03781468049 -0.1170016378 0.6418277621 0.7580096722 -0.4854982197 0.4354157746
-0.03968168795 -0.1423721015 0.6268362999 0.5170481205 -0.4656252861 0.4571449161
-0.04067767411 -0.1556408107 0.6421058178 -0.1321842223 -0.398162663 0.4370222688
-0.04014354944 -0.1531910151 0.6365427375 0.03696948662 -0.418097645 0.449362874
-0.04072279856 -0.1459983587 0.6370333433 0.231412217 -0.4307676554 0.4327090681
-0.04086703435 -0.1407446414 0.6344433427 0.4248406589 -0.4476233721 0.4289405048
-0.04093796015 -0.1619418859 0.6442508101 -0.3557906747 -0.378082186 0.4395879507
-0.0408192277 -0.1702236384 0.6486878991 -0.6680797338 -0.3502624631 0.4438474178
-0.04180523753 -0.158467859 0.6333670616 -0.09857138246 -0.4121228158 0.4582747519
-0.04101352766 -0.1356542557 0.6307267547 0.6308355927 -0.4673255384 0.4288266301
-0.04131335393 -0.1409943402 0.6210448742 0.614649713 -0.4875445962 0.4722560346
-0.04207416624 -0.1686451733 0.642123878 -0.5376874208 -0.3631105721 0.4445271492
-0.04162672535 -0.1527982205 0.6310698986 0.1073238254 -0.4311217964 0.4567773342
-0.04106837884 -0.1353734434 0.6248839498 0.7269976139 -0.4867001176 0.4490748346
0.07232952118 -0.1421898156 0.5987867713 -0.1561638117 -0.6872181296 0.6122723818
0.07752371579 -0.1440807879 0.6019920111 -0.04261418432 -0.774727881 0.5696243048
0.07137168944 -0.14704597 0.6014004946 -0.2267557681 -0.7589437962 0.5456613302
0.08825856447 -0.1331717223 0.6180020571 0.3557221591 -0.7002229095 0.6026787162
0.08420688659 -0.1344168335 0.6219035387 0.3140587509 -0.696587801 0.6316191554
0.09911171347 -0.1244562119 0.6137567759 0.4376687109 -0.7082163692 0.5458889008
0.08126057684 -0.1312874705 0.6293941736 0.261521697 -0.6926367879 0.668211937
0.0948330462 -0.1234456226 0.6205589175 0.3808530271 -0.7036240101 0.5854117274
0.0864488557 -0.1299833804 0.6240634918 0.3164729774 -0.6973856688 0.6300342679
0.08600966632 -0.1200640127 0.6360827684 0.2565363944 -0.6937331557 0.6719149947
0.09166355431 -0.1210697442 0.6274745464 0.3297962248 -0.6996947527 0.6209594011
0.09138169885 -0.1169051453 0.6326492429 0.3034648001 -0.6980640888 0.6393544078
0.09106363356 -0.1268282086 0.6216232181 0.3543522656 -0.7009630203 0.6037650704
0.08705707639 -0.1230799705 0.6312243938 0.2857054174 -0.6957546473 0.651571393
0.09295159578 -0.1297280639 0.6157914996 0.3929484785 -0.7037847042 0.576869607
0.0956589058 -0.1161897108 0.6267485619 0.3739461303 -0.6866008043 0.6075347662
0.09911314398 -0.1198499948 0.617252171 0.4508885145 -0.6809465885 0.565356791
0.07832210511 -0.1387366951 0.6240360737 0.2674024403 -0.689283967 0.668459177
0.09289310127 -0.1319315881 0.6092656255 0.4044813514 -0.6863570213 0.5974336863
0.07458782196 -0.1426277161 0.6217242479 0.1124045327 -0.7118670344 0.6434002519
0.08034783602 -0.1424325556 0.6078294516 0.09552214295 -0.7713624239 0.5981343985
0.0768930614 -0.1426965743 0.6157410145 0.09788131714 -0.7374681234 0.6225213408
0.07403280586 -0.1462889463 0.6125951409 -0.07847012579 -0.7505069375 0.5792821646
0.07474474609 -0.1455189139 0.6293579936 0.3123203814 -0.6522645354 0.652215898
0.07311171293 -0.1600371003 0.6368790865 0.5191919804 -0.5468959808 0.5638045669
0.0721693188 -0.1686377376 0.6410877705 0.6399095654 -0.4853896201 0.5121552348
0.07181286067 -0.1747367382 0.6409953833 0.7026555538 -0.4531703293 0.4845763445
0.07242167741 -0.1800482869 0.6373034716 0.7422715425 -0.4327420592 0.4669117332
0.07387413085 -0.1545636803 0.6331919432 0.4361623824 -0.5891473889 0.5991743803
0.07339132577 -0.165797472 0.6340058446 0.5648795962 -0.5233169794 0.5433742404
0.07165908068 -0.1489448398 0.6174054742 0.03034244664 -0.7054025531 0.5821204782
0.07023207843 -0.1531109363 0.6140268445 -0.03685064986 -0.70571208 0.539375186
0.0732697621 -0.1547925174 0.6266667843 0.3162153959 -0.6199885011 0.5866162181
0.06924681365 -0.159183532 0.6133444905 -0.01961425878 -0.6801552176 0.4966074526
0.07275542617 -0.171851933 0.6334827542 0.601723671 -0.4946574271 0.5066902637
0.07337617874 -0.1489447057 0.6240594983 0.2109927833 -0.6646111608 0.6127666831
0.07169319689 -0.1594094187 0.6229413748 0.2422615886 -0.62021631 0.5393321514
0.0718690902 -0.1645483971 0.6262766123 0.3630746603 -0.5746020079 0.5211597681
0.07381972671 -0.1606033742 0.6316185594 0.4841609299 -0.5613777041 0.5714752674
0.07169760764 -0.1720503569 0.6247245073 0.3463175893 -0.5527663827 0.4642848074
0.07278969884 -0.1542856693 0.6192496419 0.09095983207 -0.6739336848 0.554902494
0.0721161291 -0.1773209721 0.6318046451 0.5803793669 -0.4804523885 0.4629457891
0.07127152383 -0.1638751775 0.6161821485 0.05571904778 -0.6481930017 0.4778536856
0.06866723299 -0.1552992314 0.6068851948 -0.2265678942 -0.7412750125 0.4918458462
0.07485704124 -0.1258692294 0.6359277964 -0.2067587674 -0.5332956314 0.7168980241
0.07480237633 -0.1170072332 0.6420379281 -0.4499397278 -0.4487077296 0.7394968867
0.08071048558 -0.1123059392 0.6438446641 -0.09053406864 -0.5132818222 0.7715415955
0.07581525296 -0.1318842918 0.632614851 0.05902996287 -0.6214094758 0.7066868544
0.08008110523 -0.1219490767 0.6373260617 0.1165542975 -0.5921546221 0.7445543408
0.08648443967 -0.1138663143 0.6401176453 0.243562758 -0.6335453391 0.7293419838
0.07683707029 -0.1229493394 0.60794276 -0.1030502915 -0.6139612198 0.5994072556
0.08250195533 -0.1241469681 0.6063448191 0.07747864723 -0.618689537 0.6492823362
0.07045214623 -0.1227875054 0.6088851094 -0.2962597013 -0.5883298516 0.5750437379
0.08964285254 -0.1237669066 0.6056964397 0.2887158394 -0.6569435 0.6614885926
0.06450532377 -0.2065304667 0.6412107348 0.7302058339 -0.441262126 0.5177981853
0.05990733206 -0.2097327113 0.645647645 0.7022176981 -0.4616867006 0.5398788452
0.07145696878 -0.200918287 0.6331187487 0.7738416195 -0.4139471948 0.4793142974
0.01372406818 -0.08564586937 0.6234685183 0.05576062202 -0.6885024905 0.7207878232
-0.02260255814 -0.1384436041 0.5909205079 0.5427794456 -0.5575655699 0.625071764
0.03159163147 -0.1236606538 0.5902421474 -0.2544027269 -0.6632503867 0.696999073
-0.007463559508 -0.1185859889 0.5982175469 0.3986527026 -0.6359037757 0.6571568847
0.05137791485 -0.09397819638 0.6294581294 -0.5353913903 -0.5795398951 0.6132426858
0.09330587089 -0.1045120135 0.6217641234 0.21376881 -0.8018081188 0.5552051663
0.09162941575 -0.1053471044 0.6274914145 0.2039346993 -0.7743679881 0.5898869038
0.08628484607 -0.1052535623 0.637236774 0.1180312037 -0.7405917645 0.649671495
0.07826279104 -0.1011900455 0.642940104 -0.1944831163 -0.6107214689 0.6913158894
0.08360687643 -0.105620794 0.6428616047 -0.005026629195 -0.6576626301 0.6795924902
0.0690664351 -0.1165170297 0.6338126063 -0.6026266217 -0.4216776788 0.6728540063
0.07517092675 -0.1130818278 0.6458382607 -0.4926491976 -0.4354787469 0.7526810765
0.07277365774 -0.1206606403 0.6351858377 -0.5755373836 -0.4023497701 0.7088652849
0.06169332936 -0.1076381207 0.6293498874 -0.6249423027 -0.4831258655 0.6122841835
0.06503579021 -0.1022206843 0.6379535198 -0.5397685766 -0.493355006 0.6805222631
0.06696909666 -0.109756507 0.6350398064 -0.5700345635 -0.4614691436 0.6781789064
0.0719851777 -0.1118617654 0.6415671706 -0.523421526 -0.4462975264 0.7227723598
0.06920549273 -0.1059778035 0.6411787868 -0.5112807751 -0.4726473093 0.7161473632
-0.01644665375 -0.1892031133 0.6763553619 -0.5861476064 -0.511503756 0.6254534721
-0.01955200545 -0.1901188493 0.6719738841 -0.630443275 -0.4907874763 0.5998236537
-0.008019517176 -0.1982875466 0.6755030155 -0.4269711673 -0.5862228274 0.6848011613
0.0210539382 -0.1869316101 0.6906039119 0.08752105385 -0.6475454569 0.7526990771
0.03051534481 -0.1806546152 0.69363451 0.2372226119 -0.6230161786 0.7416318655
0.03051490895 -0.2007832676 0.6756187677 0.2699454725 -0.643011868 0.7097170353
0.03539354354 -0.1977754682 0.6766248345 0.35819453 -0.6347736716 0.6844690442
0.03137609363 -0.1933221519 0.6828910112 0.2705626786 -0.6491205096 0.707550168
0.01783926226 -0.1978908777 0.6809304953 0.04407533258 -0.6594243646 0.7459381819
0.02625076659 -0.1996646821 0.6794292927 0.2196403444 -0.6554946303 0.7201672792
0.02438957989 -0.1949168295 0.6837561131 0.1580918431 -0.6588059664 0.734490335
0.0151054645 -0.1956126839 0.6851946712 0.00539353257 -0.6695829034 0.7415266633
-0.01212080661 -0.1681504995 0.6902438998 -0.4562890232 -0.5627616048 0.6524330974
-0.005565817468 -0.1675533354 0.6966380477 -0.3372828066 -0.5912746787 0.6941722035
-0.005784237757 -0.1749599874 0.6973495483 -0.3654799163 -0.5984824896 0.7123936415
-0.007629017346 -0.1784659624 0.6931672692 -0.4099858403 -0.6039620042 0.6815796494
-0.0116661014 -0.1739307046 0.6964713335 -0.428424865 -0.5942107439 0.6798809767
0.0004333476536 -0.1767212301 0.6979956031 -0.2413363606 -0.6234180331 0.7368484139
0.003878863063 -0.1739526391 0.7021795511 -0.1475676894 -0.6222182512 0.7660152316
0.06478099525 -0.1799146384 0.6641239524 0.7563695312 -0.4658268392 0.4585955441
0.06480923295 -0.1818110347 0.6584963202 0.7663406134 -0.4517007768 0.454977721
0.06177124381 -0.190995574 0.6576493979 0.7665496469 -0.4416029155 0.4643132687
0.06101460382 -0.1865965426 0.6638760567 0.7406616211 -0.4822438955 0.4668514431
0.06476692855 -0.1868233085 0.6549014449 0.792209506 -0.4141511917 0.4477833807
0.05692542717 -0.191887483 0.6632786989 0.7028903961 -0.494571656 0.5087701678
0.03945587575 -0.2199411988 0.6583189368 0.4104313552 -0.5903721452 0.691894412
0.01745626144 -0.2195930332 0.662881434 0.05944536626 -0.6620937586 0.7439712286
0.02411053888 -0.2209184766 0.6625901461 0.149339214 -0.6608399749 0.7342765927
0.03332939371 -0.2212412059 0.6602289081 0.3135035634 -0.6256961226 0.7112800479
0.009879793972 -0.2159075141 0.6667643785 -0.07960861921 -0.6614437699 0.7403391004
0.00180591864 -0.2082618177 0.6721401811 -0.2196473479 -0.6251141429 0.7433336973
-0.01595330983 -0.2006131709 0.6655540466 -0.5497566462 -0.5123941898 0.6552023292
-0.01554810535 -0.2078907788 0.6593416929 -0.5263979435 -0.5278221965 0.6587975621
-0.002733432222 -0.2111505419 0.6641020775 -0.2985775471 -0.6049259901 0.7229421735
-0.03131442517 -0.09842100739 0.6436144114 0.705000639 -0.5413728356 0.4579946697
-0.02676285803 -0.102007255 0.6333019137 0.7033930421 -0.5257952213 0.4773147106
-0.02624759451 -0.09051147103 0.6440483928 0.6595303416 -0.5761743784 0.4803532362
-0.0284175314 -0.09072779119 0.6500796676 0.6771464944 -0.57047683 0.4640888572
-0.02307035588 -0.08738672733 0.6468360424 0.6230895519 -0.5961461663 0.4993818402
-0.01813229732 -0.08520480245 0.6417888403 0.5769084096 -0.6160101891 0.5319023132
-0.015228495 -0.08705801517 0.6360681653 0.5436599255 -0.6250042915 0.557680428
-0.03943456337 -0.1232356057 0.6373752952 0.7630777359 -0.4818662703 0.4305792451
-0.04112625867 -0.125793457 0.6319176555 0.76767838 -0.4787570536 0.4259448051
-0.02176747844 -0.09733465314 0.6328909397 0.6141804457 -0.5727074742 0.5359685421
-0.02775666304 -0.100356549 0.6391658187 0.6939167976 -0.5312889218 0.4809075296
0.05247146636 -0.1999474466 0.6608577371 0.6317503452 -0.5137805939 0.5781102777
0.05012004822 -0.2048502415 0.6589267254 0.6037039757 -0.5262283087 0.5977396369
0.05279522017 -0.2089403123 0.6541233659 0.6349085569 -0.514970243 0.5752955079
0.04179567844 -0.1972361505 0.6729637384 0.4533346891 -0.6075929403 0.6442859173
0.03723413497 -0.2018623501 0.6723985672 0.3842440546 -0.6115366817 0.6887744069
0.04968112707 -0.1817938536 0.6802241802 0.5231688619 -0.5748389363 0.6258107424
0.03118091263 -0.1872172505 0.6878333092 0.2461699694 -0.6303009391 0.7310775518
0.07055443525 -0.2024939358 0.6383636594 0.7701940536 -0.4044490755 0.4930892587
0.07284110039 -0.1368355751 0.6259824038 -0.1267730594 -0.6319298744 0.6086866856
0.09001678973 -0.1316746473 0.6039901972 0.326671958 -0.6580821276 0.6681021452
0.0850629881 -0.1341799796 0.6023007035 0.1775452793 -0.7088142633 0.6780854464
0.08072693646 -0.138639316 0.6180015802 0.2637555897 -0.7016317844 0.6538777947
0.08608984202 -0.1358314902 0.6129620671 0.3388381302 -0.6815457344 0.6416389942
0.08515305072 -0.138955459 0.6060094237 0.2228062749 -0.7499977946 0.6089753509
0.05904928967 -0.1261737347 0.6101418734 -0.6273934841 -0.5473567843 0.5499618649
0.02719766088 -0.124998413 0.5867596865 -0.2121378034 -0.6601615548 0.716563344
0.06993313879 -0.1307887286 0.6001197696 -0.2207499295 -0.5375909805 0.6852695942
0.06526821107 -0.1327621192 0.5978600383 -0.3050622046 -0.5323846936 0.6784171462
0.07792612165 -0.134242475 0.6026943326 0.08038485795 -0.7427497506 0.6246441603
0.05916370079 -0.1387271732 0.5947469473 -0.4585830271 -0.5499914289 0.6515243649
0.06440042704 -0.1392547637 0.5966730714 -0.3010112345 -0.6321271658 0.6319363713
0.03102031164 -0.116688408 0.5956791043 -0.2530688345 -0.6615173817 0.7009698153
0.02696815319 -0.118834883 0.5928168297 -0.1811021864 -0.6771590114 0.7100086212
0.01194659062 -0.1320264786 0.5785345435 0.07159174979 -0.6456891298 0.7588521242
0.02100087143 -0.1268776357 0.5843500495 -0.1059992611 -0.66787076 0.7317732573
0.01817170717 -0.1296476424 0.5798598528 -0.05100332201 -0.6615576148 0.7403507233
0.01719631441 -0.1341508329 0.5756442547 -0.02298801579 -0.6353083849 0.7603583336
0.02160477079 -0.1210746095 0.5898441076 -0.09823671728 -0.6875646114 0.7131984234
0.01600604504 -0.123400569 0.5867087245 -0.01216529962 -0.6870546937 0.7246929407
0.020249255 -0.1159836873 0.5944694281 -0.06821984798 -0.6834695339 0.722317338
0.03685753793 -0.1159925237 0.5985043645 -0.3417924941 -0.6480421424 0.6790893078
0.03741602972 -0.1214403361 0.5939363241 -0.3623767197 -0.6370256543 0.6794889569
0.04257531092 -0.1165102422 0.6022282839 -0.4276778996 -0.6230160594 0.65213871
0.05983848497 -0.1972058117 0.6534210443 0.747849822 -0.4322864115 0.5017358661
0.06840085983 -0.1889186949 0.6440117359 0.7948951125 -0.4036822915 0.4525700808
0.06401865929 -0.1985911876 0.645142436 0.766204536 -0.4131131768 0.4913477302
0.06573166698 -0.1939941794 0.6497501731 0.7828979492 -0.4097289741 0.4675115347
0.0605645366 -0.14640598 0.5958607197 -0.4606538713 -0.6323214173 0.5891836286
0.03475866467 -0.1280785501 0.5877498984 -0.3038360178 -0.6344059706 0.7027128935
0.02275424078 -0.1340486258 0.5782377124 -0.1121812761 -0.6333084702 0.7505546212
0.02591457404 -0.1365769506 0.5720683932 -0.1851329356 -0.6231008768 0.7558720112
0.02481580898 -0.1298316419 0.5825750232 -0.1651606858 -0.6543112993 0.7363386154
0.03176216409 -0.1299765855 0.5818846226 -0.2970960438 -0.6224290133 0.720639348
0.03112908453 -0.1357045174 0.5758270025 -0.2625240684 -0.6159974337 0.7410690784
-0.03613612056 -0.1174359024 0.6318792105 0.7551478744 -0.4901955128 0.4348008931
-0.03328745812 -0.1176143214 0.6267709732 0.7381440401 -0.5047545433 0.447378546
-0.004048158415 -0.1075667739 0.6073735952 0.3482294381 -0.6646048427 0.6606782675
-0.007059591357 -0.1128479987 0.6033371091 0.3893927932 -0.6512562037 0.6489498615
0.07089351118 -0.1236797497 0.6305350661 -0.6219485402 -0.4058945477 0.6637105346
0.0623043552 -0.1125902385 0.6253900528 -0.6833728552 -0.4636023045 0.5603528023
0.06560195982 -0.1131707802 0.6307358146 -0.6182736754 -0.4483948648 0.6434500813
0.05125201121 -0.1042364165 0.619535327 -0.5321701169 -0.5806565285 0.6156560183
0.04510459304 -0.1050185561 0.6147771478 -0.458611697 -0.6206204295 0.6355741024
0.0568270348 -0.1051024571 0.6252722144 -0.6245620847 -0.5142428279 0.5874108076
0.05868807435 -0.09996558726 0.6306796074 -0.5761820674 -0.5345419049 0.6110396385
0.06485853344 -0.09815637767 0.6296886802 -0.3909115791 -0.6091211438 0.5983902216
0.06119593978 -0.0959244594 0.6338639855 -0.4616939723 -0.6060231924 0.6167072654
0.07916523516 -0.1010083705 0.6320735812 -0.1466682106 -0.7318080664 0.6068053246
0.08307623118 -0.1017167643 0.6270049214 -0.03118854761 -0.7485853434 0.5807536244
0.08708931506 -0.1025225148 0.6227308512 0.07801146805 -0.7679004669 0.5587559342
0.07065840811 -0.09845745564 0.6312270761 -0.2788182497 -0.6684226394 0.60284096
0.07817403972 -0.1017508358 0.6227903962 -0.08164168149 -0.7142429352 0.5690127015
0.07250123471 -0.1017241478 0.6233834624 -0.2040517926 -0.6725679636 0.5745691061
0.05421790108 -0.0992308706 0.6264064312 -0.5588933825 -0.5573067665 0.601421535
0.03884724155 -0.09133660793 0.6239255667 -0.3474693298 -0.6367373466 0.6857172847
0.04572112113 -0.0933989808 0.6259732842 -0.4571993351 -0.6113396287 0.6439256668
0.009033069015 -0.1911947429 0.6866745949 -0.09606475383 -0.6573544145 0.7435086966
0.0095222909 -0.1877066046 0.6909647584 -0.08674500883 -0.6525461674 0.7477217913
0.003889678977 -0.1961927116 0.6821761727 -0.182728827 -0.6499062777 0.7362225652
-0.003186669201 -0.1935208887 0.6825759411 -0.326587379 -0.6211074591 0.7104029059
0.00245572743 -0.202215597 0.6750219464 -0.215432927 -0.6475346684 0.7283164263
0.01000393368 -0.1995231211 0.6805175543 -0.07130097598 -0.6692528129 0.7334480286
-0.00184979965 -0.197554186 0.6785799265 -0.2995815575 -0.6309598684 0.710154295
0.01440981124 -0.2034574449 0.6777909398 0.01350668259 -0.6679121852 0.7434193492
0.008889533579 -0.2039398402 0.6762475967 -0.09847634286 -0.6443496943 0.7517293096
0.007968716323 -0.1768348515 0.6990151405 -0.1083750054 -0.6359957457 0.7605588436
0.02438062243 -0.1730209142 0.6993743777 0.1254386008 -0.6114323139 0.7740960121
0.01893345453 -0.1785452664 0.6974124908 0.05203863606 -0.6265563965 0.7723745108
0.01142431889 -0.1824123263 0.6956334114 -0.0430868566 -0.635844171 0.766068399
0.01397618558 -0.1774447411 0.7001657486 -0.01236721501 -0.6215635538 0.7818170786
0.005835148506 -0.1831949353 0.694273293 -0.1345643401 -0.6428147554 0.7525994182
0.0147437742 -0.1886392981 0.6911870837 -0.006184514612 -0.6544464827 0.7534816861
0.02580487542 -0.1790687442 0.6976773739 0.1659557819 -0.6122618318 0.7721193433
0.01811398007 -0.1828648597 0.6944169402 0.04356097057 -0.6390244961 0.7639505267
0.01853376813 -0.1748363227 0.7021346092 0.06048366427 -0.6162646413 0.780931592
0.02655170672 -0.2083959132 0.6689534187 0.2486807108 -0.6154958606 0.7345830202
0.02434759028 -0.2050502002 0.6736536026 0.1598834097 -0.6481955051 0.7416495681
0.01338985562 -0.2089696229 0.6682354808 -0.009407275356 -0.6312820315 0.7403055429
0.00694299629 -0.2092987895 0.6678164005 -0.1351846308 -0.6385937333 0.7430230379
0.0210594181 -0.2101251334 0.6674517393 0.14845635 -0.6214711666 0.7372880578
0.03311576322 -0.2136084735 0.6629471183 0.3500354588 -0.6033754349 0.714855969
0.03829810023 -0.2134699523 0.6603676677 0.4273203015 -0.5806170702 0.6860764623
0.04673024639 -0.2097360194 0.6576946378 0.5567558408 -0.5422914624 0.6258484721
0.04235559329 -0.2049545199 0.668507278 0.4552672505 -0.596002996 0.6609303355
0.03948357701 -0.2091020644 0.665553689 0.4229091704 -0.5862417221 0.6896846294
0.04410615191 -0.2140907049 0.6589727998 0.4943092465 -0.5556627512 0.6668002605
0.04477559775 -0.2064435631 0.6629632711 0.5184673071 -0.5582524538 0.6476056576
-0.0410958901 -0.1303224713 0.6286261082 0.7624697089 -0.4811641872 0.4318629503
-0.03534966335 -0.1271003038 0.6205651164 0.7367951274 -0.4965106547 0.4583466947
-0.03696590289 -0.1342781633 0.6165550947 0.7187745571 -0.5046139359 0.4781854153
-0.03917137533 -0.1303634644 0.6232268214 0.7398498654 -0.492472738 0.4577434957
-0.03747235239 -0.1248968393 0.6262314916 0.7551386952 -0.4876680076 0.4377367496
-0.03339985013 -0.1338463128 0.6120633483 0.7130129933 -0.5065600872 0.4846352935
-0.03744665906 -0.1400901079 0.6154469252 0.7192716599 -0.4964363575 0.4859054983
0.04314594343 -0.191059351 0.6770826578 0.4665324688 -0.6020020247 0.6408632398
0.03716803715 -0.1933036596 0.6795846224 0.3715519309 -0.6307253242 0.6756805182
0.04144898802 -0.1712808162 0.6946991682 0.3568862975 -0.589827776 0.7133607864
0.03230549768 -0.1740946025 0.6966621876 0.2514954507 -0.6068108082 0.7494977713
0.0467421338 -0.1771267354 0.6875243783 0.4797343612 -0.5800938606 0.6544356346
0.05164812133 -0.1766564846 0.6839918494 0.5220392942 -0.5654821992 0.6381548643
0.04267798364 -0.1812384576 0.6867335439 0.4245138466 -0.5966443419 0.6741332412
0.03786414117 -0.1849190742 0.6866927147 0.3575411737 -0.614438653 0.6989480853
0.0552293472 -0.1814223528 0.6755817533 0.6281363368 -0.5351527333 0.5629659891
0.05486074463 -0.1771917641 0.6797860861 0.5869332552 -0.5425233245 0.5958964825
0.06037414819 -0.1773716807 0.6737107635 0.6913682818 -0.4961460829 0.5232189894
0.05192590505 -0.1914048344 0.6694639325 0.6032543778 -0.5441474319 0.5783068538
0.0498284623 -0.1866718829 0.6759700179 0.5621277094 -0.5677737594 0.5990561843
0.05559624732 -0.1871601343 0.6712539196 0.6515119076 -0.5302463174 0.537618041
0.0596569404 -0.183016032 0.6708753109 0.6985294223 -0.5008403659 0.5082149506
0.05270409584 -0.1951691359 0.6654425263 0.6184124351 -0.5361701846 0.5721208453
0.04801102728 -0.1925023645 0.6739553809 0.5471369624 -0.5810226202 0.5969963074
0.04875953123 -0.1965034604 0.6690264344 0.5612848997 -0.5714765191 0.5962285995
0.06179893017 -0.1369339079 0.6022232175 -0.6021629572 -0.5660896897 0.5593001246
0.06819071621 -0.1965548247 0.6395322084 0.7734996676 -0.4093047082 0.4837582707
0.07148819417 -0.192611292 0.6363613009 0.7823396921 -0.4103149772 0.4680781066
0.04018709064 -0.1295442581 0.5886297226 -0.3782230318 -0.6157894731 0.6910443306
0.0557221286 -0.122755073 0.6069286466 -0.6090701818 -0.5491913557 0.5696579218
0.0617708005 -0.1211015359 0.6067208648 -0.3601802886 -0.5757128596 0.6308087111
0.06684522331 -0.124124527 0.604904592 -0.2660526633 -0.5668831468 0.6507968903
0.06857454032 -0.1282218695 0.6260007024 -0.6715898514 -0.4941523373 0.5386275649
0.01894397289 -0.107717447 0.6019757986 -0.04916128516 -0.6929142475 0.7160570621
0.0235667713 -0.106385842 0.6042504311 -0.1136414111 -0.6924590468 0.7110120058
0.02312510647 -0.1122108325 0.5983182192 -0.1169673577 -0.6882222295 0.7124233246
0.01598079316 -0.1109840497 0.5981227756 -0.01067784615 -0.6895388365 0.7225709558
0.005409558304 -0.1062771529 0.6051130891 0.1790056229 -0.6969484091 0.6938250065
-0.01454351284 -0.1351300478 0.5883308649 0.4511711299 -0.5649680495 0.6906918883
-0.02064277045 -0.1335019618 0.5935835242 0.5536817908 -0.5726007223 0.6007011533
-0.001973925391 -0.1323361397 0.5825456977 0.290229857 -0.5951920748 0.7438550591
0.004367111251 -0.09563609958 0.6159065962 0.2319443971 -0.6843596697 0.6903553009
-0.004503851291 -0.09330076724 0.6219195127 0.3711133599 -0.6456341147 0.6659042239
-0.00581294205 -0.1012850478 0.6149410605 0.3764929175 -0.6530269384 0.6559807062
-0.01346894633 -0.1026216596 0.6191809773 0.4901520908 -0.6211485863 0.605134666
-0.008879772387 -0.09899280965 0.6200281978 0.4256448746 -0.6371892095 0.6327171326
-0.01385672949 -0.09846833348 0.6229688525 0.5071489811 -0.6148880124 0.6027880907
0.0258199051 -0.1013682932 0.6095288992 -0.1555398703 -0.6885807514 0.7081807852
0.01517349016 -0.1042993292 0.6051707268 0.02131963521 -0.7042506337 0.7092722654
0.03522460535 -0.1003728732 0.613237679 -0.3010044396 -0.6541875601 0.6936241388
0.04061841592 -0.09921327233 0.6174512506 -0.3980409503 -0.6261795163 0.6677012444
0.002726354636 -0.1912851781 0.6854825616 -0.207021445 -0.6485008597 0.7288987041
0.0005614562542 -0.1869890243 0.688721776 -0.2557436824 -0.6375946999 0.7202059031
-0.004079672974 -0.1883703917 0.6864255667 -0.3523484468 -0.6183621287 0.7023252249
-0.01054222975 -0.1890949309 0.6817641258 -0.501468122 -0.559394896 0.6572798491
-0.009326693602 -0.1854907572 0.6859374642 -0.4572238624 -0.5888644457 0.6635119915
-0.005152432714 -0.1830453575 0.6903405786 -0.375728488 -0.6172229648 0.6899510622
-0.01235335786 -0.1798336506 0.6843299866 -0.4887326956 -0.5729616284 0.64863801
-0.01881091855 -0.1711431295 0.6830490828 -0.5840350389 -0.5360360146 0.6086722016
0.02784715407 -0.2154314667 0.6661919951 0.2228230834 -0.6351956129 0.7351024747
0.03222178668 -0.2059668452 0.6711538434 0.3037455976 -0.6195543408 0.7198028564
0.01921295933 -0.2065278143 0.6746938229 0.08795668185 -0.6577721834 0.7456448078
0.02223649248 -0.2160405517 0.6668149233 0.1163702533 -0.6571279168 0.7420546412
-0.03119651601 -0.1131816655 0.629386127 0.727902174 -0.509296298 0.4579797983
-0.028104458 -0.1128687337 0.62350595 0.7038080096 -0.5193904042 0.4841038585
-0.01462809462 -0.1239141822 0.5981340408 0.4966832101 -0.5961714387 0.6304696798
-0.01353636757 -0.1194929704 0.6017878056 0.4765078127 -0.6153302789 0.6237716079
0.04312309623 -0.1878201365 0.6825978756 0.4562380016 -0.6087360978 0.6488299966
0.03716573864 -0.1762453467 0.6963481307 0.3093909919 -0.6100158095 0.7286452651
0.04300704598 -0.1766138971 0.6928462982 0.4061045349 -0.5991567373 0.6894980073
0.03746706247 -0.1809308082 0.6913214326 0.3382078707 -0.616933167 0.7092244029
0.06634955108 -0.1382573247 0.6095964909 -0.5552440286 -0.6433377266 0.5066003799
0.06563659757 -0.1407243907 0.6045234799 -0.4973278344 -0.6822705269 0.5185097456
0.06763643771 -0.1435766667 0.6094242334 -0.474421978 -0.7063557506 0.4960712194
0.06788384914 -0.1484689415 0.6058475375 -0.3873448074 -0.7551758289 0.5006466508
0.06923482567 -0.1339682937 0.6232512593 -0.5992318392 -0.5807846785 0.4896834791
0.068531923 -0.1374779791 0.6184062362 -0.590236783 -0.6210563779 0.4816359878
0.06536496431 -0.1479530483 0.6010973454 -0.444745332 -0.7177169323 0.5186156631
0.06448528916 -0.131904304 0.6143592596 -0.6416695118 -0.5665627718 0.5131684542
0.06024886295 -0.130315721 0.6064555049 -0.6120955944 -0.5637927651 0.5517036915
0.04384402558 -0.1259631068 0.5934906602 -0.4276242554 -0.6069795489 0.6692925096
0.04770640284 -0.1400474161 0.5858824253 -0.5446916223 -0.5131081939 0.6632506251
0.04893666133 -0.1351744533 0.5901657939 -0.5257054567 -0.5249074697 0.6682686806
0.05385417864 -0.1348780543 0.5943421721 -0.5680767894 -0.494143784 0.6575478315
0.05361910164 -0.1416127831 0.5893629789 -0.5557926893 -0.4800841212 0.6784810424
0.06227676943 -0.1192907915 0.6201174855 -0.7113643885 -0.477609843 0.5136030912
0.06637751311 -0.1197104752 0.6273366809 -0.6733125448 -0.4126809537 0.6089738607
0.05314850435 -0.1176077276 0.6092708707 -0.5687000751 -0.5744977593 0.5884652138
0.08277007937 -0.1181620434 0.6098203659 0.0973822251 -0.697807312 0.5606960654
0.05845045671 -0.1193036735 0.6120029092 -0.6127573252 -0.5660806298 0.52686131
0.06450406462 -0.1175428554 0.6119037867 -0.400197804 -0.6055042744 0.5499486327
0.0754102394 -0.1176256761 0.6107461452 -0.09615164995 -0.6619049907 0.5592147708
0.06315446645 -0.1262503713 0.6169373989 -0.6683462858 -0.5572912693 0.4919710755
0.003588341177 -0.1126681939 0.5983694792 0.1975440234 -0.6889737844 0.6964788437
0.01134998631 -0.1070408598 0.6022917032 0.06949351728 -0.7011110187 0.7078081965
0.008748292923 -0.1134279892 0.5965617299 0.1102679521 -0.691862464 0.710734427
-0.005793400109 -0.1304540783 0.5862599015 0.35727036 -0.6017231941 0.7124333382
-0.009156626649 -0.1263870448 0.5919936895 0.4017646015 -0.6197380424 0.6703432798
-0.01557841618 -0.1304114163 0.592461884 0.4843978286 -0.5901104212 0.6443023682
0.005568540189 -0.1317500621 0.5796453357 0.1664389074 -0.6367063522 0.7521885037
0.001715700142 -0.1284565032 0.5843834281 0.2456286699 -0.6371608973 0.7272414565
0.01168478187 -0.1199384034 0.5902568698 0.07733590901 -0.6740797758 0.7288554311
0.01005023438 -0.124685891 0.5856207609 0.1046915352 -0.6674945354 0.7304658294
0.004873427097 -0.123175092 0.5878993869 0.2025387883 -0.6595620513 0.7234283686
0.00772719644 -0.1175702587 0.5930854082 0.1415788233 -0.6798682809 0.715708375
0.0142135825 -0.1152955517 0.5947591066 0.02801169083 -0.6875140667 0.7240439653
0.01143328566 -0.09601058811 0.6138539314 0.0937525928 -0.6945809126 0.7073130608
0.004427987617 -0.1000472531 0.611748755 0.2116565853 -0.6967535615 0.6838640571
0.002648022259 -0.09149700403 0.6210020185 0.2476021647 -0.6694127917 0.6994738579
0.01176002249 -0.09047575295 0.6197301149 0.1137814522 -0.6766743064 0.7179362774
0.01708262973 -0.09134349227 0.6173660755 0.02215914242 -0.6867356896 0.7264775634
0.0234810207 -0.09675115347 0.6135736704 -0.1064844653 -0.6900417805 0.7132714987
0.01755093224 -0.09991324693 0.6102754474 -0.0168357864 -0.7032334805 0.7065171003
-0.01915173419 -0.1004233509 0.6258730292 0.5823230743 -0.5855184793 0.563154161
-0.02381288074 -0.1046346426 0.6263951659 0.6340691447 -0.5598100424 0.5317551494
-0.02800520696 -0.1075736508 0.6305391788 0.6865729094 -0.526437223 0.495221138
-0.02118432522 -0.118633531 0.6085496545 0.5921475887 -0.5788068771 0.5584468842
0.06193373352 -0.1273905486 0.5997802615 -0.3385929763 -0.5506570339 0.6599830985
0.05737473816 -0.1299639493 0.5999675393 -0.5506132245 -0.5193042159 0.6292150021
0.05107121915 -0.1227389351 0.6020701528 -0.5495100021 -0.564902544 0.6137571335
0.04843315482 -0.1169112027 0.6061607599 -0.5058442354 -0.5967458487 0.6196482778
0.04410418868 -0.1217855588 0.5973240137 -0.436391294 -0.6123332381 0.6589335203
0.04384461045 -0.1351976991 0.5869236588 -0.4619203806 -0.5640439987 0.6772553921
0.03899209201 -0.1343516856 0.5835275054 -0.3999100327 -0.5865842104 0.6978034377
0.04153913632 -0.1387870908 0.5817787647 -0.436259836 -0.5553871989 0.6935067773
0.05392618477 -0.1128314957 0.6141887903 -0.5716738701 -0.5756283402 0.5835518241
0.05835844204 -0.1161015257 0.6174967289 -0.6670161486 -0.5057435632 0.5385574102
0.04947305098 -0.1086796597 0.6142776012 -0.5105863214 -0.5965098739 0.6181576848
0.07661305368 -0.1068601236 0.6181748509 -0.1145884395 -0.7113073468 0.5651342869
0.06494668126 -0.1094145477 0.6165599823 -0.3501584828 -0.6410741806 0.5756742358
0.06408773363 -0.1048643366 0.6222375035 -0.4147342741 -0.5982844234 0.577368021
0.05771015212 -0.1067077145 0.6185827851 -0.4672569335 -0.5990436673 0.5956064463
0.07018002868 -0.1057729572 0.6192795038 -0.2352269888 -0.6696930528 0.5774025321
0.07847144455 -0.1118356958 0.6148241162 -0.06611891836 -0.7010668516 0.5583915114
0.09290252626 -0.1144141704 0.6122285128 0.3000878692 -0.7649412155 0.5535309911
0.07014860213 -0.1144315526 0.6131837368 -0.2351574153 -0.6478890777 0.5646337867
0.08813904971 -0.1073503196 0.6178590655 0.1150505543 -0.7687199116 0.5499023199
0.08396618813 -0.1141647995 0.6128005385 0.08723085374 -0.7199956775 0.5576757193
-0.02127298713 -0.1085079834 0.6205207109 0.6061934829 -0.574457109 0.5493587255
-0.02008454315 -0.1230496019 0.6039033532 0.5745232105 -0.5745578408 0.5750153065
-0.02508862689 -0.1237111166 0.6079792976 0.660492003 -0.5384530425 0.5204784274
-0.03229672462 -0.122200869 0.6216013432 0.7229834795 -0.5086047053 0.4627430439
-0.02886117995 -0.1217630655 0.6163310409 0.7046856284 -0.5151451826 0.4847077429
-0.03228215873 -0.1265617609 0.6153818369 0.7216300368 -0.5035425425 0.4750132263
-0.02566510253 -0.1153547466 0.6178258657 0.6691278219 -0.5414904952 0.5076835155
-0.01067831367 -0.1113196909 0.6083679795 0.4377198219 -0.6361718178 0.6293527484
-0.01566886529 -0.1130262315 0.6103075147 0.5045830607 -0.6159815192 0.6047242284
-0.0141142318 -0.1071063578 0.6146434546 0.4806025028 -0.6261973977 0.6134276986
-0.008144308813 -0.1060643867 0.6115660071 0.4019751847 -0.6488747597 0.6425200105
-0.02189956419 -0.1158485413 0.6135393977 0.6063416004 -0.5716019869 0.5451552272
