# .PCD v0.7 - Point Cloud Data file format
VERSION 0.7
FIELDS x y z normal_x normal_y normal_z
SIZE 4 4 4 4 4 4
TYPE F F F F F F
COUNT 1 1 1 1 1 1
WIDTH 512
HEIGHT 1
VIEWPOINT 0 0 0 1 0 0 0
POINTS 512
DATA ascii
-0.02701508626 -0.06977641582 0.5156359076 -0.3096887171 -0.7312752008 0.6030173898
-0.07397786528 -0.113775149 0.4898716509 -0.03453469649 -0.5786198974 0.4951006174
-0.07967488468 -0.1151352897 0.4909536541 0.1931019872 -0.3905061185 0.4788656235
-0.0854671821 -0.1363715231 0.5107572079 -0.90009588 -0.3738304973 0.1741614193
-0.07194231451 -0.1064129844 0.483007133 0.3429184854 -0.5853662491 0.600718379
-0.07578540593 -0.1096325368 0.4859057367 0.342882812 -0.4787119031 0.5563495159
-0.08330287784 -0.1317195147 0.5064503551 -0.7106625438 -0.4089306295 0.2403585315
-0.07963947207 -0.1249636784 0.5004960895 -0.4716365039 -0.4771953523 0.3368061185
-0.08149770647 -0.1249591559 0.5132611394 -0.6858282685 -0.3672088683 0.3668779135
-0.0812375918 -0.1264689714 0.507574439 -0.6245430112 -0.4144052267 0.3287934661
-0.07955612987 -0.1215291172 0.5087991953 -0.5332711935 -0.4097538888 0.4125533402
-0.07748252898 -0.1185246632 0.5023313761 -0.3566752076 -0.4690742195 0.4465469122
-0.07710526139 -0.1198244914 0.4963833094 -0.2862477303 -0.5187737942 0.4112865627
-0.01830278523 -0.06925737113 0.5092049241 -0.1192480326 -0.6869736314 0.5627958775
-0.02135839127 -0.06966643035 0.5157026052 -0.2885372937 -0.707867682 0.5916116834
-0.01405768376 -0.0671723783 0.5064421296 0.03077636845 -0.6346864104 0.5682614446
-0.01758684963 -0.06591146439 0.5211060047 -0.262083143 -0.6322362423 0.653542161
-0.00358662568 -0.06347682327 0.4936493635 0.4821019471 -0.5279096365 0.5383243561
-0.01587522216 -0.06592377275 0.5164690018 -0.1536958367 -0.6242350936 0.6301574111
-0.01274740417 -0.06522176415 0.5109878182 0.003687333781 -0.5985029936 0.6091586351
0.0003698967339 -0.05881865323 0.4931063652 0.6106202006 -0.4702237248 0.5475124121
-0.005349446088 -0.06080821902 0.5025189519 0.3270351887 -0.5198947787 0.5841565132
0.002310269279 -0.05461283028 0.4923286438 0.6956152916 -0.4425364435 0.5384919643
-0.01232921146 -0.06208370626 0.5147943497 -0.02270691842 -0.576975286 0.6299898028
-0.008024642244 -0.06337946653 0.5057991743 0.1996009499 -0.548163116 0.5997113585
-0.001919214497 -0.05760078505 0.4982516468 0.4907202423 -0.483922869 0.5641250014
-0.002110273577 -0.06407707185 0.4876153469 0.6518008709 -0.5081003308 0.539917767
-0.009520282969 -0.06428854913 0.4847233891 0.6005010605 -0.5201318264 0.5873140693
-0.008580073714 -0.06683906913 0.4965483546 0.3258645535 -0.5933304429 0.5361662507
-0.01306056604 -0.06815924495 0.5013663769 0.133789584 -0.640124321 0.5407395959
-0.01250984799 -0.07220476121 0.4955936074 0.2832064331 -0.662966311 0.526972115
-0.01580544189 -0.08122618496 0.4892259836 0.3826244771 -0.7520908713 0.505071342
-0.02084465697 -0.07344716042 0.5060502291 -0.1103804633 -0.741768539 0.5392879248
-0.01544237882 -0.07235030085 0.4996316731 0.136008203 -0.6887107491 0.5322204232
-0.00778544182 -0.07190213352 0.4891720414 0.51831007 -0.6210280061 0.5187308192
-0.01227070577 -0.07699362934 0.4893537164 0.4387467802 -0.6934898496 0.511477828
-0.01863438077 -0.07780912519 0.4975012839 0.1342617273 -0.7527514696 0.5212987065
-0.02318123356 -0.07225836813 0.5108740926 -0.2666756809 -0.7534148097 0.5475643873
-0.03883292153 -0.1537248343 0.5435067415 0.1383292228 -0.6619707346 0.7285676599
-0.03164054081 -0.1617017984 0.535253644 0.2599911988 -0.6893068552 0.6714659929
-0.03488205373 -0.1570742428 0.5399526954 0.2160893828 -0.6713182926 0.7061090469
-0.04700927436 -0.160137713 0.5378139019 -0.07906823605 -0.7029649019 0.6999248862
-0.04105393961 -0.1578865796 0.5407149792 0.08189895004 -0.7060126662 0.6951659322
-0.04108566418 -0.1626102179 0.5353153944 0.04762637243 -0.71345824 0.6871100068
-0.08486956358 -0.1333387494 0.5152819157 -0.9035208821 -0.3437609375 0.2378448695
-0.05161166191 -0.1640099138 0.5321065784 -0.2004411072 -0.7168174386 0.6459701061
-0.05454226211 -0.1586741805 0.5328103304 -0.2842428684 -0.6486513019 0.647344172
-0.08198784292 -0.1458599716 0.517871201 -0.7405890226 -0.5037337542 0.4429288805
-0.07560268044 -0.1498614848 0.5228306055 -0.683182776 -0.5259176493 0.494610697
-0.08037767559 -0.151095897 0.5189060569 -0.7075401545 -0.5196123123 0.4737562537
-0.07935062051 -0.1414427608 0.5234244466 -0.7814192176 -0.4468016028 0.4137771428
-0.08245965838 -0.1348740906 0.52026546 -0.8550685048 -0.3670556247 0.3339316845
-0.08125911653 -0.1408712715 0.5189420581 -0.8197852969 -0.4333457649 0.3298960328
-0.01086670719 -0.1301832646 0.535569191 0.6576774716 -0.4517515004 0.6027278304
-0.01954689808 -0.1337329149 0.5446833968 0.5557864904 -0.5449529886 0.6141077876
-0.0125280302 -0.129058674 0.5401139259 0.647903502 -0.4699076414 0.5978220105
-0.000959977333 -0.04912104085 0.489980638 0.7257487178 -0.4405828416 0.5279353857
-0.01032337733 -0.04901767522 0.5261609554 0.2200966775 -0.3413832784 0.7358372808
-0.01577446051 -0.05210895836 0.5367329717 -0.03034991771 -0.3593392074 0.879525125
-0.01181951538 -0.0455850102 0.5300025344 0.1209068969 -0.3076307476 0.7982600927
-0.005791407079 -0.04563134164 0.5183781385 0.4470319748 -0.2976188362 0.6393732429
-0.01403761562 -0.04726888612 0.5340600014 0.01755707711 -0.3226986527 0.8510475159
-0.001679228735 -0.04249148071 0.5108582377 0.6384570599 -0.2695631087 0.5415700674
-0.002091553295 -0.05362409726 0.4877665937 0.691532433 -0.4495534003 0.5615400076
0.001549624605 -0.05889607593 0.4879681468 0.7155355215 -0.4592685401 0.5254915357
-0.004487558268 -0.05919772387 0.485468775 0.6745133996 -0.4649614692 0.5700193644
-0.04274743795 -0.09051989764 0.4819775224 0.05726928264 -0.7052704096 0.7040205002
-0.03650667146 -0.08892868459 0.4853309691 -0.01594049856 -0.7469118834 0.6590890884
-0.0370551236 -0.08529053628 0.4893803 -0.05500184745 -0.7526538372 0.6477140188
-0.03172919154 -0.08743274212 0.4882681668 -0.01437211409 -0.7822004557 0.6163918972
-0.02617151849 -0.07629946619 0.5041254163 -0.1180565655 -0.8055715561 0.5522423387
-0.02951455861 -0.07869236171 0.4990782142 -0.08497421443 -0.8002521992 0.5838463306
-0.006093246862 -0.04967765883 0.4904248118 0.7015467286 -0.4377270341 0.5597683191
-0.01543581113 -0.05354605243 0.4971734285 0.4201759994 -0.5361897945 0.5675004721
-0.008512166329 -0.05378204957 0.4897810519 0.6290184259 -0.467078805 0.5746436119
-0.01001567859 -0.05974915624 0.486748904 0.584112823 -0.489670217 0.5980192423
-0.02502334304 -0.06265577674 0.5001387 0.1316800117 -0.6437820792 0.5966930985
-0.01448706444 -0.05933877081 0.4917217791 0.4492203593 -0.5339779854 0.5923376083
-0.02050501853 -0.06006186828 0.4974319041 0.2677656412 -0.595218122 0.5899733901
0.000783214462 -0.0474788025 0.500653863 0.6854465008 -0.3602207005 0.4953651428
-0.008061896078 -0.05474039912 0.5121864676 0.2346430421 -0.470338881 0.5651186705
-0.009549241513 -0.05978093296 0.5111350417 0.1112041697 -0.5484817624 0.6132588387
-0.005276031327 -0.05162386596 0.5092035532 0.3869725466 -0.4227078855 0.5352422595
-0.003965373617 -0.05544794723 0.5036578774 0.3926607072 -0.4828866422 0.5716187358
0.002977046417 -0.04959233478 0.4941041172 0.7493630052 -0.4016902149 0.5192767382
-0.01346968859 -0.03144316003 0.5140895844 0.798284173 -0.2993811667 0.5042883158
-0.01146684587 -0.03120537475 0.5095136166 0.8192465901 -0.3237665594 0.4659083188
-0.01542984787 -0.02911965549 0.520168066 0.7680546641 -0.2220307589 0.5796710253
-0.01082367823 -0.0281546656 0.5181694627 0.8116649985 -0.1271497756 0.5430508852
-0.005659633782 -0.02847220004 0.5111202002 0.8852142096 -0.1389233917 0.4356539547
-0.01539131906 -0.02755128965 0.5265066028 0.744705081 -0.07730188221 0.653252244
-0.01052432973 -0.05567393079 0.5166664124 0.1202549413 -0.4851231575 0.580239892
-0.01509881578 -0.0591170378 0.5283474922 -0.1411976814 -0.5517979264 0.6929753423
-0.01298351865 -0.05720790476 0.524127543 -0.02183800563 -0.5185083747 0.6514061093
-0.01594044082 -0.06164415553 0.5234386921 -0.1801059991 -0.5787501931 0.6506289244
-0.005091082305 -0.04868892208 0.5135845542 0.4167308509 -0.3834767044 0.5428067446
-6.831135397e-05 -0.04366464168 0.5053944588 0.6977661252 -0.300622642 0.4604600072
-0.04761595652 -0.09146665037 0.4813914597 0.1040826589 -0.6874506474 0.7140980959
-0.05941921845 -0.09576581419 0.4810208082 0.2394972742 -0.6586040258 0.7042354345
-0.05227666348 -0.09404014796 0.4810786843 0.1607401818 -0.6853390932 0.6980292797
-0.02190361917 -0.07746955752 0.5021541715 -0.02289859392 -0.7736469507 0.5305945277
-0.01943267882 -0.08135119081 0.4937753975 0.2230308056 -0.7787293196 0.5137911439
-0.02462222613 -0.08005353063 0.4991099536 0.0912508592 -0.7786276937 0.5428913236
-0.03303388879 -0.08180616796 0.4942420721 -0.08988427371 -0.7853730321 0.6072424054
-0.02611927316 -0.08452614397 0.4920284152 0.2499382049 -0.787735343 0.5525597334
-0.05770596489 -0.1575129479 0.5370930433 -0.3526735008 -0.6578235626 0.6592559814
-0.0599623993 -0.1604586244 0.5331184864 -0.4035988748 -0.6658300757 0.6237171292
-0.05099277943 -0.1555279493 0.5418719053 -0.1656900793 -0.68128407 0.6971246004
-0.05130546913 -0.1575088501 0.5357890129 -0.2021226883 -0.6738749146 0.6676651239
-0.06011329591 -0.1639626622 0.5291137695 -0.3965390027 -0.7071340084 0.5819531679
-0.03102051467 -0.1567930728 0.5366426706 0.3105651736 -0.6449121237 0.6767064929
-0.02658472769 -0.1618169844 0.5341650248 0.350471437 -0.6371497512 0.6842657924
-0.08496963233 -0.1406463981 0.5130299926 -0.8323327303 -0.4360435903 0.2987352014
-0.004449552856 -0.03798142076 0.5157410502 0.5904273987 -0.2171633095 0.5688120127
-0.001386695192 -0.03778139129 0.510007143 0.7338139415 -0.2143018991 0.4972166121
-0.009813638404 -0.04274671152 0.5263974667 0.2163297683 -0.2824558616 0.748729229
-0.002916563768 -0.03299549222 0.5121912956 0.7982892394 -0.1490210593 0.4726326466
-0.006525864825 -0.0389483124 0.5197438002 0.4700699449 -0.2304533422 0.6276139021
-0.01403507777 -0.04226239026 0.5341945887 0.03987524286 -0.2760224938 0.8380197883
-0.01367895864 -0.05325824767 0.5296378136 0.006517286878 -0.4386606812 0.7547337413
-0.0171553418 -0.05744831637 0.5343365669 -0.1962417066 -0.5087399483 0.7961761355
-0.009550709277 -0.05229091272 0.5211991668 0.182881698 -0.438161552 0.6306537986
-0.02881004289 -0.1506595612 0.5388033986 0.4024076462 -0.5477325916 0.676751852
-0.03345154226 -0.1513723582 0.5405027866 0.278793782 -0.6061562896 0.6896163821
-0.02297030389 -0.1490335315 0.5375436544 0.5607152581 -0.4780239761 0.6636574268
-0.03466405347 -0.147925809 0.5461164117 0.2599258721 -0.6453201771 0.7175986767
-0.04561330006 -0.154992491 0.5404279828 -0.05034510791 -0.6936519742 0.6976115108
-0.04304700717 -0.1494190544 0.5445050597 0.03848828748 -0.6597889066 0.7032137513
-0.04087962583 -0.1207419261 0.5764715075 0.07590525597 -0.7864011526 0.605342567
-0.04647249728 -0.1203159094 0.5793858171 -0.01409770828 -0.7959077954 0.6018317342
-0.05923575535 -0.04216117784 0.5416540504 0.2172919363 -0.606816411 0.7119140029
-0.04855146259 -0.04300777242 0.5381144881 0.08061769605 -0.5894386172 0.7421384454
-0.03660865873 -0.04229809344 0.5420652628 -0.005187831819 -0.3225869238 0.9175786972
-0.0544305183 -0.04222782329 0.5416545868 0.169495061 -0.5485522151 0.7544718385
-0.05284097046 -0.03885895386 0.538489759 0.08894795179 -0.7566922903 0.6352291107
-0.07428692281 -0.05738231167 0.5293564796 0.4307563305 -0.6693860888 0.6052120328
-0.07850115746 -0.05708180368 0.5335983038 0.4366480112 -0.6706815362 0.5995505452
-0.06828985363 -0.06501165777 0.5152053237 0.4000285864 -0.663405478 0.6297072768
-0.0700969547 -0.06136324257 0.5213034153 0.4333966374 -0.6534638405 0.6203745008
-0.06348381937 -0.06312820315 0.5151851773 0.3260507286 -0.6910947561 0.6381619573
-0.0008765924722 -0.04467020184 0.4938741624 0.7563699484 -0.4010758996 0.5140910745
-0.00630500121 -0.03931952268 0.4978836477 0.7712959647 -0.3796497285 0.5054677129
-0.008692389354 -0.03742266446 0.5021868348 0.7873510122 -0.3773269951 0.481295675
0.001484529697 -0.03736713529 0.5020719171 0.8651789427 -0.2545302808 0.4299723804
0.002244962612 -0.04289634898 0.4980584681 0.8084863424 -0.3294304609 0.4732636213
-0.01480823755 -0.03277633339 0.5309111476 0.5776768923 0.1722773314 0.7554543018
-0.01172027178 -0.0325213559 0.5262274742 0.6448765993 0.1187227741 0.6813486218
-0.08461004496 -0.1174425259 0.5061895251 -0.2132478058 -0.4830987155 0.3715072274
-0.08527042717 -0.09445088357 0.5064791441 0.5625465512 -0.5896375179 0.5773664117
-0.08503545821 -0.1001287699 0.5061662793 0.3734148443 -0.5643510222 0.5279262066
-0.08281823248 -0.1031913534 0.498978436 0.3427701592 -0.5804839134 0.5419052243
-0.08106701821 -0.1038832515 0.4931564927 0.3785326481 -0.6019349694 0.5693734884
-0.08568951488 -0.1298900694 0.5108576417 -0.6823186278 -0.4049539268 0.2321159542
-0.08582933247 -0.1044172198 0.5091913939 0.1974034756 -0.53141886 0.4716982841
-0.08407851309 -0.1056950316 0.5034199357 0.2128078192 -0.5499096513 0.4935856164
-0.08616336435 -0.1016531587 0.5130767226 0.222131446 -0.5144177079 0.5005090237
-0.08418036997 -0.1294743419 0.5197534561 -0.8960095048 -0.3061930835 0.3075321317
-0.08566250652 -0.122126095 0.5126897097 -0.4632249773 -0.421995461 0.3142372072
-0.08429433405 -0.1242175549 0.5199338198 -0.7221319079 -0.328995347 0.3560367823
-0.08597636968 -0.1092949435 0.5129324794 -0.03369293734 -0.4799171686 0.4309826493
-0.08211361617 -0.1140327379 0.4963393211 0.06939060241 -0.4843873978 0.4591081142
-0.080764696 -0.1097116172 0.4875161052 0.5282543302 -0.3542474806 0.548479259
-0.08381967247 -0.1249162778 0.5037896633 -0.4208668172 -0.4404426515 0.3178728819
-0.08136814833 -0.109074682 0.4932224751 0.2802428901 -0.5113819838 0.5218750238
-0.08224476129 -0.1187253743 0.4942725599 0.09582100809 -0.3326000273 0.4281810224
-0.08308746666 -0.1215597913 0.4996923804 -0.1886024475 -0.4087111652 0.3716460764
-0.07428622246 -0.1118118614 0.4947076142 -0.06622186303 -0.5442221761 0.5346817374
-0.07642092556 -0.107479915 0.4927810133 0.1603155881 -0.5791503787 0.5657407641
-0.08053512871 -0.1084137261 0.4981422424 0.1199984476 -0.5415292978 0.5370100737
-0.07534085214 -0.1037472337 0.4879643321 0.3500797153 -0.6284522414 0.6065668464
-0.0407108292 -0.0862749964 0.4850212336 0.0001569710003 -0.7416682243 0.667137444
-0.0652923286 -0.1576464474 0.5321099162 -0.5231266618 -0.6125805974 0.5806109309
-0.08640824258 -0.09660623968 0.5124371648 0.4096442461 -0.5455194116 0.5404129028
-0.08443710208 -0.1129070967 0.5160016418 -0.274382174 -0.4188933671 0.4337651432
-0.08063360304 -0.09889470786 0.4932977259 0.5044324994 -0.61806494 0.6024847627
-0.08148474991 -0.09253805876 0.5020650029 0.5192244053 -0.6014294028 0.5846233368
-0.08214318752 -0.1076410785 0.5085939765 -0.06447890401 -0.4754503369 0.4827903807
-0.08080153167 -0.09817638993 0.4987188578 0.3886614442 -0.5803639293 0.5724090934
-0.08292362839 -0.1185575128 0.5140344501 -0.4816857576 -0.3863776624 0.4085843265
-0.08230189979 -0.1122129038 0.5098924041 -0.2252884805 -0.4422502518 0.4559367299
-0.08193641156 -0.1122639999 0.5039632916 -0.08878265321 -0.4848287404 0.4903017282
-0.01446958259 -0.06356025487 0.4859391451 0.5233253241 -0.5212416649 0.6114003658
-0.03532804921 -0.07478296757 0.4901894033 0.1454691738 -0.681564033 0.6375179887
-0.03441944346 -0.08070320636 0.4876251817 0.06664790958 -0.7223265767 0.6326646805
-0.01932011358 -0.06785205752 0.4859273732 0.4211499989 -0.5666838884 0.6169830561
-0.02431944013 -0.07055205107 0.4869169891 0.3311549425 -0.6048912406 0.6232696176
-0.03015510179 -0.07465314865 0.487811178 0.2093875557 -0.6576264501 0.6299396157
-0.0393817462 -0.07897124439 0.4898204505 0.05500289053 -0.7224427462 0.6420098543
-0.0436620675 -0.07954275608 0.4934283197 -0.0550333038 -0.7615734339 0.6444562674
-0.03717530519 -0.07861175388 0.4963762462 -0.1177722439 -0.7716295123 0.6236199737
-0.03937328979 -0.07450702041 0.4937857687 0.0562512055 -0.7159503102 0.6413731575
-0.03165126592 -0.0710741505 0.4914003611 0.2008902729 -0.6556493044 0.6319870949
-0.02664527111 -0.06801120937 0.4909265637 0.2911139727 -0.6183488369 0.6232239604
-0.03381258994 -0.06858887523 0.4964814782 0.1458317786 -0.679897368 0.6235933304
-0.04230555519 -0.07619930059 0.4974781871 -0.07901468128 -0.7662171721 0.6363648772
-0.04994395375 -0.06983356178 0.506770432 0.06837806106 -0.7389358282 0.6436482072
-0.04472542182 -0.07178354263 0.5057064891 -0.02459608577 -0.7500602007 0.6248856187
-0.07096192986 -0.1460956484 0.5355284214 -0.65015769 -0.5291261673 0.539144516
-0.07497856021 -0.1434037536 0.5298612118 -0.6998336911 -0.5113512874 0.4873906374
-0.06971346587 -0.1526910812 0.5275912881 -0.6229003668 -0.5488386154 0.5471037626
-0.06865155697 -0.1522322297 0.5347731709 -0.6048400402 -0.5563569665 0.5662106872
-0.07247458398 -0.1557628363 0.5248398781 -0.6317766905 -0.5645965934 0.5123201013
-0.06436094642 -0.1601675749 0.5281298161 -0.5146129131 -0.625107646 0.5832680464
-0.01338875014 -0.06893453002 0.4839235246 0.4979527891 -0.5545931458 0.6049158573
-0.03177225962 -0.09136357903 0.4830590189 0.02481357008 -0.7613707185 0.6403622031
-0.02478968538 -0.07982511818 0.4838942587 0.214622587 -0.6604006886 0.6304337978
-0.02811880037 -0.08532615006 0.4830765128 0.1260713339 -0.699283421 0.6413291097
-0.01676641591 -0.07560729235 0.4846286774 0.4028013349 -0.6347289085 0.588611424
-0.0248256512 -0.08851236105 0.4846954048 0.1821120828 -0.7681781054 0.5862366557
-0.02181067318 -0.08602114767 0.4879017472 0.2521390319 -0.7905510664 0.5377839804
-0.01031681988 -0.1339654177 0.5326859951 0.648005724 -0.4580264986 0.6079779863
-0.0135586597 -0.1440785229 0.5323699117 0.6183035374 -0.4716035426 0.628587842
-0.01204865705 -0.1385037303 0.5329116583 0.6347673535 -0.4635414779 0.6175544262
0.0002397277713 -0.03480605781 0.5063127279 0.8837189078 -0.1820209771 0.4258492887
-0.00372748659 -0.0359082222 0.5011098981 0.8381525874 -0.2874399424 0.4577499032
-0.005313462578 -0.03143268451 0.5061587691 0.8657495975 -0.2418943942 0.4372033477
-0.08041252196 -0.1332301795 0.528642118 -0.8106319904 -0.407661438 0.4015716016
-0.01719264872 -0.1376613826 0.5428304076 0.6240001321 -0.4869460464 0.6104462147
-0.0143668307 -0.1379451603 0.5376881957 0.6304212809 -0.4725559652 0.6153754592
-0.0199219659 -0.145004034 0.5376011729 0.5962204337 -0.4677644372 0.6512691379
-0.02946683764 -0.1460864842 0.5458514094 0.4016028047 -0.6133758426 0.6757663488
-0.0229276903 -0.1543316096 0.5375934839 0.4967689216 -0.5136021376 0.6967826486
-0.02528237738 -0.1477822959 0.5419974327 0.5026114583 -0.5259838104 0.6836890578
-0.02172670327 -0.1441838294 0.5419956446 0.5659517646 -0.4911797345 0.6602317691
-0.01599111408 -0.1332987696 0.5396380424 0.6053757668 -0.4905574918 0.6165724993
-0.04614787921 -0.1461631507 0.5482453108 -0.01982717216 -0.6831337214 0.6893006563
-0.05006099492 -0.1507493556 0.5434349775 -0.1462897211 -0.6702930331 0.6937766671
-0.05484241992 -0.1477399766 0.5463057756 -0.251308769 -0.6792737246 0.6816495657
-0.05826215073 -0.1427741051 0.5477805138 -0.3309701681 -0.6745360494 0.6139077544
-0.02924649604 -0.122818619 0.5677395463 0.2812885046 -0.732807219 0.6071815491
-0.02517512627 -0.1260474026 0.5624366403 0.3787051737 -0.6762620211 0.6170863509
-0.02008065023 -0.1270883083 0.5545140505 0.5261266828 -0.5874657631 0.5955744386
-0.04992832989 -0.1497461647 0.5493525863 -0.1177152097 -0.6964760423 0.6986784935
-0.05361047387 -0.1453993767 0.5514048338 -0.2098957896 -0.7009977102 0.6661731005
-0.06942181289 -0.04908225685 0.5339142084 0.3491632938 -0.7059226632 0.6160654426
-0.06455618143 -0.0423615016 0.5375046134 0.2758180797 -0.7516985536 0.5942105055
-0.02767425217 -0.07325010002 0.5089910626 -0.2564401031 -0.7716836333 0.579408586
-0.04070116952 -0.04307507351 0.538026154 -0.02155823447 -0.5210229754 0.8044369817
-0.03392504901 -0.04865378514 0.5348023772 -0.1867628396 -0.5150333643 0.8066381812
-0.03902751952 -0.04779426754 0.5329042673 -0.1501088887 -0.6573296785 0.7244904041
-0.03651091084 -0.04520663992 0.5373777747 -0.09623061866 -0.4796973467 0.8299958706
-0.01915351115 -0.03367038816 0.5345874429 0.4924595952 0.06593830138 0.8247795701
-0.06832122803 -0.05286684632 0.5295697451 0.359649539 -0.6993880272 0.6166470647
-0.07020501792 -0.0571776554 0.526794672 0.3929953277 -0.6814979315 0.6152733564
-0.07370136678 -0.06131386757 0.5248421431 0.4387331903 -0.6594061852 0.6103167534
-0.05690045655 -0.05611452088 0.5201816559 0.1991386265 -0.7238349915 0.6567821503
-0.06546190381 -0.05925384909 0.5198369622 0.3627146482 -0.6758270264 0.6391322017
-0.06081504747 -0.0594689846 0.5185202956 0.2607668042 -0.7044793963 0.6434782147
-0.02188820392 -0.05732129514 0.5008994341 0.2286825627 -0.6049483418 0.5777615309
-0.02779156715 -0.05767016113 0.501072228 0.2417896688 -0.6185968518 0.5989221334
-0.03188617155 -0.05122015625 0.5148307085 0.04445816576 -0.6274577379 0.5802348256
-0.03559107333 -0.05543684959 0.5126547217 0.004416832235 -0.6638700962 0.5987400413
-0.02302045748 -0.04425065592 0.5085538626 0.4777031541 -0.4951788485 0.5151648521
-0.01834635809 -0.03948467597 0.5092613101 0.5880943537 -0.4412302375 0.4881300628
-0.03676939383 -0.05800281838 0.5074555278 0.1241125762 -0.6577325463 0.5964669585
-0.03196746111 -0.05265072733 0.5098593831 0.188247323 -0.6089012027 0.5717284083
-0.01425714884 -0.03591445833 0.5079012513 0.7397049069 -0.3871614337 0.4616125822
-0.01328969002 -0.0488101393 0.4962505102 0.5687496066 -0.4872683883 0.5589723587
-0.02106336318 -0.04704071954 0.5038768053 0.4962168038 -0.5037487745 0.5348282456
-0.02680685185 -0.04909272864 0.5066751838 0.394926846 -0.5429995656 0.5419961214
-0.03399720043 -0.05990372971 0.5032199621 0.1510894746 -0.6585651636 0.6123228073
-0.02411443181 -0.05095236748 0.5029811859 0.4023451209 -0.5473401546 0.5596395135
-0.01080228016 -0.04411076009 0.4982558191 0.6667255759 -0.4395572543 0.5275017023
-0.01971705258 -0.05048038065 0.4999107122 0.4642893076 -0.5261467099 0.562333107
-0.03944019228 -0.06237571314 0.5054267645 0.04761122167 -0.7000124454 0.6230410933
-0.02879641578 -0.05353059247 0.5044979453 0.3069185019 -0.5866342783 0.5722228289
-0.006235725712 -0.04409269243 0.4946686625 0.7243497372 -0.4213531613 0.5338129997
-0.01304423064 -0.04060737789 0.5029822588 0.6883063316 -0.4201875329 0.4982582629
-0.08119050413 -0.06399191916 0.5283335447 0.4718104303 -0.6397855878 0.6062008142
-0.081458956 -0.0552350767 0.53810817 0.4321701825 -0.6744160652 0.5982115269
-0.008748210035 -0.03586600348 0.5231788158 0.5909668803 -0.1555848569 0.6348854899
-0.007346008439 -0.03279227763 0.5196864009 0.7486467361 -0.0338097401 0.5741816163
-0.01549061295 -0.03723625839 0.5343716145 0.5037936568 0.07293925434 0.8169827461
-0.01685774885 -0.04041180015 0.5377962589 0.4554812014 -0.06076408178 0.8697516918
-0.01218546182 -0.03737315163 0.5291785598 0.5973976254 -0.09146787971 0.7280455232
-0.02708189189 -0.0545043163 0.5327203274 -0.2700715959 -0.527459681 0.7998928428
-0.02123608813 -0.05413773656 0.5373545289 -0.2010603547 -0.445165813 0.8653118014
-0.02852140553 -0.05024840683 0.5360561609 -0.1954939663 -0.4220876992 0.8672760725
-0.0181910079 -0.0294906348 0.5312139392 0.6484132409 0.06348273158 0.7370340228
-0.06529871374 -0.08129420131 0.4968342781 0.3954562843 -0.6678931713 0.6301775575
-0.06911026686 -0.07999774814 0.4998759925 0.4379786849 -0.6532635689 0.6133241057
-0.07445511222 -0.08263371885 0.5021665096 0.4937607348 -0.6289064884 0.5985537767
-0.07504228503 -0.07941647619 0.5080167651 0.5074133873 -0.6137261987 0.6047899127
-0.07169054449 -0.06854205579 0.5136966109 0.4444064796 -0.6464084387 0.6194819808
-0.07488301396 -0.07428127527 0.5118134022 0.4978821576 -0.616337955 0.609277904
-0.0712011233 -0.07575547695 0.5077085495 0.4756074548 -0.6315367818 0.6102332473
-0.0837886855 -0.1096186191 0.5285882354 -0.05703635141 -0.5790943503 0.5057520866
-0.0809110254 -0.1229086518 0.5417765379 -0.5440121889 -0.5818356872 0.4577616155
-0.0823065415 -0.119720377 0.5387943387 -0.435669601 -0.577947557 0.4689208269
-0.08499926329 -0.09988191724 0.5186947584 0.3105361462 -0.5811984539 0.5413616896
-0.0811772123 -0.1159190685 0.5345190763 -0.2728950679 -0.5861077905 0.4836266637
-0.08016958088 -0.1264352202 0.5376290083 -0.6659029722 -0.5062971115 0.4317709804
-0.08078277856 -0.08823101968 0.5039365292 0.5303151608 -0.606369853 0.5923775434
-0.06030490249 -0.08601445705 0.4871922731 0.2879076898 -0.6687579155 0.6760873795
-0.06178294122 -0.08087014407 0.4929560423 0.3225107789 -0.6784140468 0.6513161659
-0.04595823959 -0.08502016217 0.4855277836 0.03093119524 -0.7202557325 0.6897485852
-0.04676836729 -0.0820427686 0.4899968505 -0.004382664338 -0.7445540428 0.6631975174
-0.05058021843 -0.08704791218 0.4853981435 0.1281832755 -0.6940880418 0.7059589624
-0.03333888575 -0.07138317078 0.509168148 -0.2353575379 -0.7673410773 0.5912338495
-0.03373128548 -0.07403130829 0.5039688945 -0.1975140721 -0.775442481 0.5966458321
-0.0390993841 -0.07373265177 0.5015342832 -0.12858814 -0.7776710391 0.61296767
-0.04235564172 -0.06677858531 0.5059255362 -0.08641293645 -0.7495251298 0.6381010413
-0.0232771337 -0.06371191144 0.4944156706 0.2879484594 -0.6027082205 0.616148293
-0.03692797944 -0.06735214591 0.5056795478 -0.118561931 -0.7429532409 0.619715035
-0.03216148913 -0.06689186394 0.5034445524 -0.05436254293 -0.7137182951 0.6116623282
-0.0190377105 -0.06351456791 0.489766866 0.4300406873 -0.5588608384 0.613275826
-0.0277591031 -0.06475653499 0.4951467216 0.2588666677 -0.6254416108 0.6237676144
-0.04193769023 -0.06955874711 0.5017030835 -0.01428490039 -0.7420130968 0.6331330538
-0.05767281353 -0.06140961125 0.5146797299 0.2066792697 -0.7215285897 0.6538414359
-0.05210437998 -0.07559084892 0.4984405041 0.1188862696 -0.7368433475 0.6548219919
-0.05467269942 -0.07014713436 0.5040450692 0.1394834667 -0.7374696732 0.6601977944
-0.05937357247 -0.07855323702 0.4973045886 0.2788464129 -0.7013552785 0.647569418
-0.05732036754 -0.07420119643 0.5006910563 0.23845312 -0.7198086381 0.6472944617
-0.04970375821 -0.07251884788 0.5019540191 0.05188605189 -0.7518244982 0.6420562863
-0.05600957945 -0.08024976403 0.491873771 0.1838097721 -0.7122353315 0.6699619889
-0.05059121177 -0.07824246585 0.4940455258 0.06748799235 -0.7503342032 0.651355803
-0.05380771682 -0.08402056992 0.4870041311 0.1341385394 -0.6952657104 0.7031602263
-0.06566999108 -0.1495285779 0.5389708281 -0.5390438437 -0.5821233392 0.60089463
-0.06106360629 -0.1524654329 0.5384408236 -0.4255234897 -0.6284851432 0.6403977871
-0.06081286073 -0.1551498175 0.534262538 -0.4311257005 -0.619135499 0.6334205866
-0.06254217029 -0.1443222761 0.5466954708 -0.4433932006 -0.6394665241 0.6246368885
-0.05831542984 -0.1508097202 0.5424493551 -0.3473579586 -0.6581296921 0.6619740725
-0.0689849332 -0.1427152306 0.5391152501 -0.5891917348 -0.5531891584 0.5704091787
-0.07380741835 -0.1405741274 0.5339449048 -0.6691185236 -0.5213212967 0.5070329309
-0.07655733079 -0.1363892406 0.5354083776 -0.7301669121 -0.4985734224 0.4578553736
-0.06724943966 -0.1408439726 0.5437857509 -0.5667238235 -0.5921060443 0.562761724
-0.07519853115 -0.1486267596 0.5312262774 -0.6649577022 -0.5289399624 0.5243927836
-0.07537955791 -0.1523254067 0.5270909667 -0.691814959 -0.5221620202 0.496104151
-0.08029710501 -0.1379440576 0.5307666659 -0.7446784377 -0.4941459 0.4434951544
-0.07915371656 -0.1449853331 0.5281926394 -0.714789331 -0.5104387403 0.4725784063
-0.08079893142 -0.1465442479 0.5230709314 -0.7405976057 -0.5049999952 0.4426649511
-0.01889734715 -0.15945822 0.5329981446 0.5257241726 -0.4818303585 0.7005190253
-0.01589255407 -0.1555110514 0.5308319926 0.5463476181 -0.500890255 0.6696851254
-0.01679152064 -0.1487275362 0.5348603129 0.5898350477 -0.4729633331 0.6524977684
-0.008020685986 -0.1377777308 0.5288536549 0.6438935399 -0.4585176706 0.6119180918
-0.01118874643 -0.1498132199 0.5272616148 0.5861506462 -0.5019643903 0.6345146298
-0.004883682355 -0.139370203 0.5230556726 0.6303505301 -0.4796850085 0.6103387475
-0.009558157995 -0.1443217099 0.5273008347 0.6205377579 -0.4740681052 0.6244993806
-0.02032738551 -0.1524834186 0.5333476663 0.5420922637 -0.5120468736 0.6626524925
-0.06176580489 -0.1332947314 0.5612534285 -0.35135746 -0.7266340852 0.5865628123
-0.06072603911 -0.1377367377 0.5560797453 -0.3546312451 -0.7054607868 0.608925879
-0.06286486238 -0.1402271986 0.5510054231 -0.4335013926 -0.6698288321 0.5968713164
-0.04008313268 -0.1477189809 0.5483528972 0.1478158683 -0.6795563102 0.7120602727
-0.03684709966 -0.1443610489 0.5497771502 0.2401562482 -0.6763017178 0.6877496243
-0.01613042317 -0.1294848323 0.5483877659 0.6210950613 -0.5132656097 0.5904157162
-0.02901905961 -0.1303505301 0.5628953576 0.3615332544 -0.6983536482 0.6168891788
-0.03467959911 -0.1248123497 0.5711457133 0.1910981983 -0.7555424571 0.6213353872
-0.03281842172 -0.1201480329 0.5716438293 0.20861049 -0.7696197033 0.5986297131
-0.03747365996 -0.1290677637 0.5699504614 0.1695270538 -0.7571565509 0.6269370914
-0.03375646845 -0.1311798692 0.5640685558 0.3002323806 -0.7116750479 0.6346150041
-0.03289107233 -0.1340864748 0.5590158701 0.335164696 -0.6915325522 0.6355699897
-0.02845091559 -0.1323743314 0.5571388602 0.4188637435 -0.6591243148 0.6125175953
-0.05853470415 -0.1216914654 0.5765725374 -0.1587982923 -0.7934331298 0.5832808614
-0.05346689001 -0.1212890074 0.5792780519 -0.09663235396 -0.7921207547 0.6011009216
-0.03650479391 -0.1182549 0.5743916631 0.1320251971 -0.7917400002 0.5895675421
-0.0592267476 -0.0393389985 0.5377694368 0.1960506886 -0.7831049562 0.5876763463
-0.05213770643 -0.04277261347 0.5337494016 0.07253268361 -0.7331317067 0.6715720296
-0.03990887851 -0.05812496692 0.5174398422 -0.246995613 -0.7320829034 0.6328352094
-0.03763530403 -0.06897518039 0.5112655759 -0.1766071618 -0.7534866929 0.609803617
-0.04634087905 -0.06513954699 0.5109239817 -0.07537128031 -0.7451652884 0.6448771954
-0.05288172886 -0.06275897473 0.5121801496 0.08982325345 -0.7334495187 0.6607890725
-0.02613892592 -0.0459985882 0.5417479277 -0.07374095172 -0.2925373912 0.9503225684
-0.0176130496 -0.04531303421 0.5401203036 -0.1553210765 -0.3128239512 0.936385572
-0.02754246257 -0.03768977895 0.5388700962 0.1956981122 -0.2093654722 0.9372307658
-0.03184009343 -0.04074923322 0.5416880846 0.02453527227 -0.2426629961 0.9583615661
-0.03572404385 -0.03835286945 0.5384373665 0.01877611876 -0.3113183379 0.928437531
-0.02907797135 -0.03355699778 0.5347461104 0.3735424578 -0.2686941326 0.7804815769
-0.04381260276 -0.04289043695 0.5340061784 0.007334817201 -0.6920428872 0.6891402602
-0.0442642197 -0.0388838686 0.5372923613 0.05812277645 -0.6543596983 0.7206296325
-0.03963625059 -0.03927657753 0.5343679786 0.1520291567 -0.5855266452 0.6950304508
-0.05321343988 -0.05307006463 0.5234950781 0.1210088506 -0.7346476912 0.6594298482
-0.04840542004 -0.05211239681 0.5238516927 -0.03248298541 -0.7445337176 0.659391582
-0.04857222736 -0.04570101202 0.5314279199 0.002284691902 -0.7331419587 0.6764013767
-0.04341559857 -0.04765082523 0.5306950808 -0.1017926857 -0.7195048928 0.6819821596
-0.02117905952 -0.06285206974 0.529163301 -0.3359461427 -0.604893744 0.7188492417
-0.02238655463 -0.0665268153 0.5226811171 -0.3492180705 -0.6706980467 0.6508595347
-0.02742900513 -0.06560575962 0.5203558803 -0.3347659111 -0.708294332 0.6179088354
-0.04094525427 -0.05847385898 0.5222206116 -0.1387107074 -0.7240368724 0.6288994551
-0.03143316135 -0.06145729125 0.5224782825 -0.33897084 -0.7164367437 0.6076631546
-0.04965567961 -0.05568494648 0.5200552344 0.003555984003 -0.7391302586 0.6579989195
-0.03152001649 -0.05637282506 0.5279078484 -0.3028355241 -0.647134006 0.6921935081
-0.02418330126 -0.05933564901 0.5313057303 -0.3092350364 -0.5870764852 0.7463394403
-0.04023146257 -0.0643086955 0.5136691928 -0.200075984 -0.7470343709 0.6284130812
-0.03594049439 -0.06194093823 0.5191039443 -0.2763810158 -0.726824224 0.6205268502
-0.03153391927 -0.06820705533 0.5146301985 -0.2887468338 -0.7496076822 0.5930842757
-0.04551982135 -0.06043773144 0.5145511627 -0.1411172301 -0.7444348335 0.6522182226
-0.08339110762 -0.09003330022 0.5082861185 0.5553306341 -0.5941076279 0.5810112357
-0.08222389221 -0.05138158426 0.5433455706 0.4104806185 -0.68230021 0.6043105125
-0.06986092776 -0.04402574897 0.5408360958 0.3203749061 -0.7095945477 0.6266784072
-0.0739454776 -0.04847735539 0.5389404297 0.3664214015 -0.6967939138 0.6152499914
-0.07950608432 -0.04737543315 0.5439860225 0.3766833842 -0.6990462542 0.6076477766
-0.02349019237 -0.03549804911 0.5369157195 0.341558218 -0.1754125506 0.9202266932
-0.07019938529 -0.08813624084 0.4933212698 0.4560127556 -0.6445791125 0.610208869
-0.07602655888 -0.08869978786 0.5004131794 0.4912411869 -0.6262943745 0.6004467607
-0.07226528972 -0.0842178911 0.4976182282 0.4899772406 -0.6329448819 0.5964543223
-0.07839930803 -0.09260389209 0.4967832267 0.5250051618 -0.6140750051 0.5891309381
-0.06484482437 -0.08532038331 0.4903312922 0.3866440058 -0.661380589 0.6402491927
-0.06817883253 -0.09029319137 0.4881459475 0.4134827554 -0.656412065 0.6264107227
-0.07339882106 -0.09959746897 0.485486865 0.4356896877 -0.6571311951 0.6127073765
-0.06971185654 -0.09624642879 0.485362947 0.4072454572 -0.6607344151 0.6259377599
-0.07249194384 -0.09409603477 0.4892237186 0.4615417123 -0.642154634 0.6067895293
-0.07642525434 -0.1046489403 0.4830422401 0.5434916615 -0.5481165051 0.5988496542
-0.07736116648 -0.06503972411 0.5241917968 0.463542968 -0.6444857121 0.6073729992
-0.08054696023 -0.06884168088 0.5224211812 0.5143200755 -0.6081205606 0.6040090919
-0.0754647702 -0.06793936342 0.5177383423 0.4760665894 -0.6291341782 0.6132825017
-0.08200839162 -0.1301653981 0.533954978 -0.7826393247 -0.4605129063 0.4108654559
-0.08521535248 -0.1057995409 0.5171119571 0.05066936091 -0.4971542954 0.4908724725
-0.08412339538 -0.1118636578 0.5214890242 -0.174127385 -0.4804782569 0.4651949406
-0.08233952522 -0.1215096638 0.5286556482 -0.5298062563 -0.4563378096 0.4254472554
-0.08215700835 -0.1282489449 0.5290317535 -0.8213495612 -0.3853874207 0.3728113174
-0.08318388462 -0.1256242692 0.5247245431 -0.7464798689 -0.3644265532 0.3709696829
-0.08430298418 -0.1184213012 0.5203000903 -0.4722664058 -0.3932802975 0.4056284428
-0.08322630078 -0.1237237304 0.5338699818 -0.6398673058 -0.4769510925 0.4169347286
-0.08529834449 -0.1032508686 0.5220708847 0.1738246232 -0.5748589039 0.5277718902
-0.08407781273 -0.1150357723 0.5292232037 -0.2928164601 -0.5223048329 0.4654228985
-0.06254548579 -0.06753596663 0.5090673566 0.3272699416 -0.6974418163 0.6374937892
-0.05489796773 -0.06639927626 0.5083753467 0.1381239891 -0.7344129086 0.663525939
-0.06373587251 -0.07586441189 0.4995093644 0.3653789759 -0.6855790615 0.6291649342
-0.06587790698 -0.07197541744 0.506313026 0.3776923418 -0.6798142195 0.6277300715
-0.06718235463 -0.06889750063 0.5111865997 0.3845959604 -0.6747284532 0.6279082298
-0.06071572751 -0.07134860009 0.5045355558 0.3007185161 -0.7047603726 0.6393452883
-0.07377336919 -0.1307433397 0.5467298031 -0.6265866756 -0.6131973863 0.4738683105
-0.06627312303 -0.1358923912 0.5517942905 -0.5193914771 -0.6633524895 0.5350547433
-0.06888712198 -0.1354825497 0.5475568771 -0.5787472725 -0.6344309449 0.5080317855
-0.05620023608 -0.1335552186 0.5632076859 -0.2318128347 -0.7492944598 0.614410162
-0.06276008487 -0.1207089573 0.573841095 -0.2096352279 -0.7874127626 0.5636216402
-0.06888467073 -0.1227381676 0.5667106509 -0.3692830801 -0.7274332643 0.551864624
-0.07053457201 -0.1302542239 0.556771636 -0.5528977513 -0.6478969455 0.5154141188
-0.06487998366 -0.1346704662 0.5562394261 -0.4667190611 -0.688773036 0.5534582138
-0.03802968562 -0.1339507997 0.5623264909 0.1995958239 -0.7304633856 0.644831419
-0.04534217343 -0.1368105412 0.5626205802 0.02562046424 -0.7464326024 0.6635742188
-0.0448051393 -0.1405982971 0.5590444803 0.02899777703 -0.7316285372 0.6738166809
-0.04244585708 -0.1445907652 0.5544791818 0.08062432706 -0.7093099952 0.6812825799
-0.03791394457 -0.1383248568 0.5589565635 0.2006032616 -0.7168804407 0.6541334987
-0.055434376 -0.1385595948 0.5505033731 -0.2393867671 -0.6738052368 0.5835540295
-0.03800341114 -0.1411708444 0.5532695651 0.243954137 -0.6998339295 0.6627013683
-0.04898284748 -0.1385813802 0.5546483994 -0.06122775748 -0.7152295709 0.6338244677
-0.04355177656 -0.1397673041 0.5542801619 0.08965916187 -0.7108101845 0.6502176523
-0.04652898014 -0.1408770084 0.5504199862 0.005366261583 -0.6780151725 0.6194788814
-0.04741954803 -0.1449535638 0.5551213026 -0.04033122212 -0.7208352089 0.6870317459
-0.05295054615 -0.142226398 0.555539012 -0.1661450863 -0.7255831361 0.6597514153
-0.05400083587 -0.1370776147 0.5564150214 -0.1884015203 -0.7152783871 0.6134967804
-0.05195748061 -0.1354518682 0.5611370802 -0.1285447478 -0.7472751737 0.6339306235
-0.02696543001 -0.1416459084 0.5477614403 0.4780071974 -0.5893698335 0.6473283172
-0.02151272073 -0.1387690753 0.5474560857 0.5485119224 -0.5611889958 0.6193320751
-0.04917511716 -0.1275239736 0.5730950832 -0.007782500703 -0.7817821503 0.61856848
-0.04325431213 -0.1302700192 0.5706196427 0.07403756678 -0.781178534 0.6195544004
-0.06327651441 -0.04888943955 0.5314719081 0.2757107913 -0.7251257896 0.6224254966
-0.0541947037 -0.04698214307 0.5310539603 0.1137424484 -0.743545711 0.6401996613
-0.05887208879 -0.04748909548 0.5294681191 0.2001735866 -0.7378944159 0.6374887228
-0.06149281934 -0.04396682233 0.5340080857 0.2636810541 -0.74616611 0.608943522
-0.05956243351 -0.05164775625 0.5251574516 0.2204899192 -0.7206279635 0.6486350894
-0.04968309402 -0.04952070117 0.5284714103 0.01295298059 -0.7313913703 0.6557607651
-0.06464125216 -0.05488090962 0.5254452229 0.3322272897 -0.7006186843 0.6302189231
-0.05518016219 -0.05080169067 0.5277886987 0.1340424716 -0.7214607 0.6463699937
-0.03527596593 -0.04221747816 0.5296891332 0.1396978945 -0.5351153016 0.675163269
-0.03251287341 -0.03672809899 0.5321438313 0.3434054852 -0.4414325953 0.6802107096
-0.02508085221 -0.04082622752 0.5177302361 0.3225720227 -0.5129856467 0.5606124401
-0.03655403107 -0.04744105041 0.5265496373 -0.1231705397 -0.6482766271 0.6655945182
-0.03212264925 -0.04501743987 0.5214483738 0.1079175472 -0.5950840712 0.6113075018
-0.04190789908 -0.05338612571 0.5209332108 -0.1013010293 -0.7217260003 0.6420050859
-0.02246556431 -0.03952812403 0.513042748 0.5171321034 -0.4806823134 0.5149877667
-0.03699954227 -0.05023380369 0.5188654065 0.03991646692 -0.6633704901 0.6103451848
-0.02590173483 -0.04475487024 0.5138294697 0.2882173657 -0.5433208942 0.5406974554
-0.03680268675 -0.0554295741 0.5255588889 -0.2303232104 -0.689802587 0.672644794
-0.03435880691 -0.05271566659 0.5298630595 -0.2518200278 -0.6265186667 0.731824398
-0.04379174858 -0.05084113032 0.5266394019 -0.1157376543 -0.7298068404 0.6706110239
-0.0211070478 -0.03634057567 0.5193222761 0.5037664175 -0.3992789984 0.5662391186
-0.01898384839 -0.03082334064 0.5252711773 0.7031642199 -0.238213554 0.616992712
-0.02807922103 -0.03777660057 0.5290486217 0.3116138279 -0.3989450634 0.6707229018
-0.02327083051 -0.0326827839 0.5295387506 0.557934463 -0.2689881325 0.6653646827
-0.02381801419 -0.03613528982 0.5244436264 0.4502307773 -0.3749214411 0.6192778945
-0.01877482608 -0.03678148985 0.5144527555 0.5424925685 -0.4286191165 0.5163140893
-0.02752524242 -0.04082233459 0.5227330327 0.23924914 -0.4992213249 0.6110596657
-0.01736270823 -0.03325211257 0.5181636214 0.6712251306 -0.325940311 0.5477929115
-0.05649090931 -0.0878880769 0.4836835861 0.1825127751 -0.6723144054 0.7130530477
-0.06194705889 -0.08973700553 0.484374404 0.3039669693 -0.6645761132 0.6759383678
-0.06497262418 -0.09549807757 0.4803938568 0.309507221 -0.6650677323 0.6762552857
-0.06805384159 -0.09931273758 0.4790406823 0.3451013863 -0.665438056 0.6604572535
-0.07874794304 -0.07806875557 0.5109678507 0.5250032544 -0.6068487763 0.5963952541
-0.080472067 -0.08253607154 0.5110360384 0.5303642154 -0.6013594866 0.5970600843
-0.07866473496 -0.08345776051 0.5058133602 0.5238934755 -0.6133896112 0.5905778408
-0.08201985806 -0.07400880009 0.5195177197 0.5397930741 -0.5932736993 0.5967794061
-0.08537600189 -0.08704783767 0.5136525035 0.5714794993 -0.5832041502 0.5766478777
-0.08336828649 -0.07906539738 0.51729846 0.5512125492 -0.5899778605 0.5892009139
-0.07800383866 -0.07222105563 0.5159518123 0.5083175302 -0.6121254563 0.6037840843
-0.07229614258 -0.1324675381 0.5518018603 -0.61295259 -0.61519593 0.4946506619
-0.07178120315 -0.1388103813 0.5434863567 -0.6409731507 -0.584256649 0.4965179861
-0.07984089851 -0.1300411075 0.5425742865 -0.7113929987 -0.5426151752 0.4442386925
-0.07742968202 -0.1286909431 0.5492340922 -0.6500421166 -0.5960433483 0.4680472314
-0.07289681584 -0.1343092322 0.5426726937 -0.6591313481 -0.5704730749 0.4744372964
-0.07705102116 -0.1355000734 0.5400865078 -0.6978982687 -0.5352903605 0.4706549644
-0.07706551254 -0.1263933182 0.554006815 -0.5931631327 -0.6257101297 0.4965595305
-0.08202210814 -0.1261702627 0.54582268 -0.6845257878 -0.575278461 0.446688205
-0.07463809848 -0.1247489601 0.5584615469 -0.5239354968 -0.6641152501 0.5251697898
-0.06748718023 -0.130176872 0.5608235002 -0.4518978 -0.6941611767 0.5511809587
-0.07101721317 -0.1253344119 0.5625253916 -0.4656789601 -0.6916449666 0.5498707891
-0.05745301396 -0.1292657107 0.567307055 -0.195817098 -0.7596742511 0.6125522852
-0.06254193187 -0.1292237043 0.5650734901 -0.3349897861 -0.7325114012 0.5823145509
-0.06327258795 -0.1255679578 0.5701670051 -0.285435766 -0.7687089443 0.5692364573
-0.04467903078 -0.12353874 0.5707070231 0.01170171052 -0.7789682746 0.6050519347
-0.05010214075 -0.1192378774 0.5751197338 -0.02445599809 -0.8011345267 0.5767143369
-0.05270188302 -0.1231637821 0.572393477 -0.078650482 -0.7886475921 0.5938017964
-0.05751099065 -0.1253869534 0.5714250207 -0.1478798091 -0.7850003242 0.5995977521
-0.05056596175 -0.1319965124 0.566914916 -0.08894141763 -0.7674833536 0.6219376326
-0.0449347049 -0.1332235187 0.5663252473 0.03977352008 -0.7617636919 0.6445901394
-0.03978002816 -0.1229283884 0.5708428621 0.08898243308 -0.7791569233 0.60689044
-0.02994525619 -0.1393802464 0.5517583489 0.4105080962 -0.6490131021 0.6374589801
-0.02030030638 -0.1344176382 0.5498414636 0.5720425248 -0.5593620539 0.5985885859
-0.02291059867 -0.1323307604 0.5544632077 0.5094245672 -0.6092867851 0.5968168974
-0.02450252138 -0.1298151314 0.5583581924 0.4669574201 -0.6494151354 0.5934011936
-0.02574853227 -0.1369395107 0.5509563088 0.4806060791 -0.6162093878 0.6206588745
