# .PCD v0.7 - Point Cloud Data file format
VERSION 0.7
FIELDS x y z normal_x normal_y normal_z
SIZE 4 4 4 4 4 4
TYPE F F F F F F
COUNT 1 1 1 1 1 1
WIDTH 512
HEIGHT 1
VIEWPOINT 0 0 0 1 0 0 0
POINTS 512
DATA ascii
-0.1016160548 -0.1796129346 0.5231824517 -0.5298694372 -0.5103917718 0.5034401417
-0.1005478352 -0.1564020514 0.4935745597 0.3389897048 -0.6351923347 0.6561211348
-0.09955249727 -0.175927043 0.5289229751 -0.5433071256 -0.5532355309 0.4638693631
-0.09981290251 -0.1708384901 0.5189772248 -0.3013433218 -0.5738899708 0.517729938
-0.09959203005 -0.1847769618 0.5310572386 -0.7218272686 -0.4985567927 0.4495964944
-0.09997066855 -0.17010957 0.5138428807 -0.2074044049 -0.5722597837 0.544870615
-0.1002611145 -0.1629995704 0.5022062659 0.09456608444 -0.6039150953 0.6082928777
-0.01353194378 -0.09919855744 0.5044818521 0.7757253051 -0.4175097048 0.4577884078
-0.02246490866 -0.07845965028 0.528865099 0.8112788796 -0.3094416857 0.4832956493
-0.01854752004 -0.07873701304 0.5245422125 0.8477458358 -0.2669290006 0.4533196986
-0.02625073679 -0.07766337693 0.5317523479 0.7794900537 -0.3575278819 0.504082799
-0.1012047306 -0.1895906776 0.5265192389 -0.7108436823 -0.481457293 0.4906452
-0.1010172144 -0.1767735332 0.5140616298 -0.3116551638 -0.5392773747 0.553450048
-0.10078118 -0.1818696558 0.5181633234 -0.451243192 -0.5199300647 0.5310573578
-0.1005842015 -0.1856339425 0.5227078795 -0.5873196125 -0.4989761412 0.5044087172
-0.1004885733 -0.160245195 0.4971093535 0.2229911536 -0.6176475286 0.6374823451
-0.1006397232 -0.1720348597 0.5086176991 -0.1452338398 -0.5642386675 0.5791849494
-0.01760735735 -0.1038606465 0.4992663264 0.6657710075 -0.4245359898 0.5813798904
-0.01558681391 -0.1084893346 0.5013114214 0.6087877154 -0.3292602003 0.6473988295
-0.01423150394 -0.09469743073 0.5073763132 0.809040308 -0.3909718394 0.4352239668
-0.1093567088 -0.1078332961 0.5574766397 0.4919441938 -0.728204906 0.4771819115
-0.03583105281 -0.1947431713 0.5413033962 0.6104834676 -0.5617379546 0.5583065152
-0.02194713615 -0.1677893847 0.5167392492 0.5607556701 -0.4437786341 0.4467961192
-0.02276747487 -0.1635659486 0.5145892501 0.4542653561 -0.4982638359 0.4939354658
-0.02550323308 -0.1572523415 0.5074757934 0.2046046257 -0.5433817506 0.6255250573
-0.02135468088 -0.1741809398 0.5183163285 0.6830141544 -0.3457022011 0.4017378688
-0.03180979565 -0.1518353671 0.494376719 -0.1402383447 -0.3866660297 0.8928172588
-0.02614210546 -0.1723627448 0.5124245882 0.3627502024 -0.4230982363 0.6493263841
-0.02531094477 -0.1669425666 0.5088186264 0.3763804734 -0.3485775292 0.5835331678
-0.02908224985 -0.1607340574 0.5034198165 0.06557690352 -0.4669143856 0.7875658274
-0.02942809276 -0.1562373489 0.5008127093 -0.01254110411 -0.4937295914 0.8036510944
-0.04227548093 -0.1905638427 0.5503968 0.4925048649 -0.6330279708 0.5857056975
-0.04599325359 -0.1894307137 0.5550317168 0.4479040205 -0.6713880897 0.5805434585
-0.05370667949 -0.1915959567 0.559890151 0.2715435028 -0.7381768227 0.6118173599
-0.09683470428 -0.1907283664 0.5378395915 -0.7305689454 -0.4964185059 0.4663731754
-0.1011058763 -0.1834290624 0.5366431475 -0.7514457107 -0.4939154088 0.4359731972
-0.02195126191 -0.1138334647 0.4941758811 0.4478965104 -0.2869811654 0.8137778044
-0.01888695732 -0.1096780002 0.4966021776 0.5384756327 -0.352371037 0.7252081633
-0.02323560417 -0.1049592644 0.4965863526 0.6580646634 -0.4623238742 0.5730981827
-0.03493889794 -0.1899363846 0.5417304039 0.6025483012 -0.5609778166 0.5637863874
-0.01535321027 -0.08291429281 0.5207352638 0.8477573991 -0.3020981848 0.4356311262
-0.0169053562 -0.08816409111 0.5120745897 0.8429685831 -0.319576025 0.4314093888
-0.01196900196 -0.09131788462 0.5123041868 0.8488391042 -0.3312146664 0.4103792608
-0.01992207766 -0.08332009614 0.5158905387 0.8341291547 -0.3288339674 0.4390854836
-0.07570352405 -0.1394435316 0.4874113798 0.2275078893 -0.6415935159 0.7290861011
-0.08054210246 -0.1402697116 0.4883249402 0.2976961434 -0.6411781311 0.7053297162
-0.09257349372 -0.2074275911 0.5281543732 -0.6244619489 -0.5055180192 0.5922054052
-0.09482879192 -0.2026991546 0.5292532444 -0.6794644594 -0.4850486517 0.5481156111
-0.02266833186 -0.09818594903 0.5274842978 0.289779067 -0.4699066579 0.5254904032
-0.02179850452 -0.1023959145 0.5252872705 0.2452815324 -0.4960897565 0.5230047107
-0.02674117684 -0.1033625901 0.5316562057 0.04598174989 -0.5350673199 0.5700195432
-0.026182428 -0.09837131202 0.5321357846 0.1572006643 -0.4938322604 0.5582533479
-0.01713112369 -0.09264317155 0.5214450955 0.5940713882 -0.3925966024 0.4669268727
-0.01713837497 -0.09848445654 0.5200195312 0.4876890481 -0.4367085397 0.4747129977
-0.0137826167 -0.08954916894 0.5177295804 0.773401022 -0.3477903306 0.4318526089
-0.02039562538 -0.09303362668 0.5257125497 0.4669446349 -0.4164693356 0.4976511896
-0.01313240826 -0.09704534709 0.5148813725 0.6647171974 -0.400021553 0.4355512559
-0.0166576542 -0.1015015319 0.5141839981 0.5668665171 -0.4515166283 0.4680767059
-0.02106251381 -0.1044650823 0.5193635821 0.3505396545 -0.5021325946 0.5127815604
-0.02543673106 -0.1900072396 0.528670907 0.6267408133 -0.555383265 0.5465271473
-0.03675423563 -0.2005422562 0.5386299491 0.567941308 -0.5639055967 0.5984874964
-0.02153822035 -0.1309394985 0.497101754 0.1564071923 -0.3242661357 0.8919686675
-0.02951689996 -0.1476711035 0.4960422814 -0.1050466523 -0.4701407254 0.855687499
-0.02653682791 -0.1429495364 0.4978634119 -0.02027886547 -0.4960971475 0.8309199214
-0.02152502164 -0.1874053925 0.5244490504 0.7809894681 -0.3709381819 0.422558248
-0.02791921236 -0.1909924299 0.5325462222 0.6370421052 -0.5532478094 0.5365364552
-0.086588718 -0.1424843967 0.4903590679 0.3369888961 -0.6413087845 0.6885344982
-0.06633655727 -0.176180765 0.5802142024 -0.02391735092 -0.7533931136 0.6552762985
-0.07825733721 -0.1755473614 0.5775126219 -0.2503522336 -0.7554228306 0.5936715007
-0.04047759995 -0.1183296517 0.5279342532 -0.4127608538 -0.7285000682 0.5458795428
-0.1000617445 -0.1637627035 0.5080876946 -0.01223017275 -0.6055940986 0.5775500536
-0.09928543121 -0.1781021804 0.5356343389 -0.6875893474 -0.5446572304 0.4293389916
-0.0987957418 -0.1538268924 0.5055382252 0.1657012105 -0.6216486096 0.6165980101
-0.09905279428 -0.1509166062 0.4990353286 0.318765372 -0.6354594231 0.6501887441
-0.09946036339 -0.1641649753 0.5141741037 -0.1243628711 -0.5954765081 0.552941978
-0.09824284911 -0.1546151936 0.5117300153 0.04654406756 -0.610897243 0.5904483795
-0.09939454496 -0.1587519944 0.5148720145 -0.08546394855 -0.5864111781 0.5625568032
-0.09835521877 -0.1487602293 0.5047265291 0.2413657606 -0.6246606112 0.6335301399
-0.1009887531 -0.1719746143 0.5254085064 -0.4648733139 -0.5420082808 0.4801653922
-0.09713849425 -0.1536242515 0.5244787335 -0.131445989 -0.6175489426 0.52105093
-0.09757013619 -0.1585221142 0.5266675353 -0.2421625406 -0.602876544 0.503008306
-0.09634204954 -0.1372001171 0.5082210302 0.3726111054 -0.6621320844 0.6328674555
-0.09531846642 -0.1328844577 0.5151045322 0.3389542997 -0.6796238422 0.5980606675
-0.0977704078 -0.1551745683 0.5183864832 -0.06546160579 -0.6093910336 0.5543808937
-0.0968458131 -0.1485159993 0.5200383067 0.01615331508 -0.631734252 0.5522835255
-0.09615713358 -0.1424097121 0.5193718076 0.1234778911 -0.6510947347 0.562910974
-0.09680373967 -0.142555818 0.5107554793 0.2494444549 -0.6461612582 0.6123265028
-0.09832113981 -0.1610497683 0.520560503 -0.1915468723 -0.5915569663 0.5353363752
-0.09622951597 -0.1384442002 0.5159202814 0.2308304608 -0.6571884155 0.5857896209
-0.1002935171 -0.1698211133 0.5309111476 -0.5262566805 -0.5411974192 0.4582554996
-0.09737338126 -0.1428733915 0.5048841834 0.3292991817 -0.6404086351 0.6452786326
-0.09987001121 -0.1652460396 0.5248255134 -0.3549792767 -0.5579895973 0.4998288155
-0.0977255702 -0.1479087472 0.5142098069 0.09976425022 -0.6220082641 0.5840402842
-0.09810175747 -0.1648592353 0.5302019119 -0.3964674175 -0.5838552713 0.4755085707
-0.09341318905 -0.1446295679 0.4957439601 0.3826240301 -0.6419965029 0.6643969417
-0.08926541358 -0.140765518 0.4960727692 0.3772829175 -0.6453449726 0.6641838551
-0.09330368042 -0.1404602677 0.4993979335 0.3837049901 -0.6413188577 0.6644400954
-0.09769582748 -0.145026058 0.4995223284 0.3807350695 -0.6413175464 0.6660650969
-0.0959635675 -0.1491080523 0.4937146902 0.3790287375 -0.6413167715 0.6669986844
-0.06052696332 -0.19408831 0.5579896569 0.09758181125 -0.7490186095 0.6420223713
-0.05977381766 -0.1973276734 0.55391258 0.1023242846 -0.7262685299 0.6708110571
-0.05451742932 -0.1994472891 0.548104167 0.2631837428 -0.6730897427 0.6728348136
-0.05413825065 -0.196481809 0.5528070927 0.2644154131 -0.7076957226 0.6528683305
-0.03608244285 -0.1183255985 0.532726109 -0.4130675197 -0.6985296607 0.5829410553
-0.0335476622 -0.1139451265 0.5339857936 -0.3088942766 -0.6523637772 0.6035739779
-0.02598815598 -0.1077837572 0.5257294774 0.08844975382 -0.5590137243 0.5545924306
-0.02931921184 -0.1098144054 0.5303999186 -0.09194938838 -0.5962971449 0.5850318074
-0.02414732613 -0.1098013073 0.5184121132 0.2125132382 -0.5560778379 0.4971392751
-0.01986134797 -0.1061822698 0.513920784 0.436817497 -0.5024439096 0.470995903
-0.0309961047 -0.115206331 0.5261592865 -0.1488477886 -0.6396549344 0.5438070893
-0.04270071164 -0.09006024897 0.5513373613 -0.1112307236 -0.4419733584 0.8829292059
-0.03825786337 -0.08899603039 0.5495140553 0.1655252576 -0.3743862212 0.860775888
-0.0307633467 -0.09524682909 0.5448752642 0.1851029992 -0.4290668666 0.7863220572
-0.03231237084 -0.1006408483 0.5475370288 -0.01259063836 -0.4980153739 0.7999661565
-0.02907248773 -0.1013505235 0.5371323228 0.01560144871 -0.5243809819 0.6291151643
-0.03092264757 -0.1025173739 0.5416110754 -0.05053830147 -0.5321997404 0.6971526146
-0.01847270876 -0.08540847152 0.5259739757 0.6858199239 -0.3412519395 0.4904156923
-0.02209321409 -0.09051693976 0.5303127766 0.4674945176 -0.3987697065 0.5469252467
-0.03227896243 -0.107214652 0.5388761163 -0.2199186981 -0.5953435302 0.6428192258
-0.02623442374 -0.09552380443 0.5365856886 0.2440858036 -0.452062279 0.6342465281
-0.02529012039 -0.0860337913 0.5354396701 0.5629489422 -0.3563146591 0.6314926744
-0.03433284163 -0.09402495623 0.5497598052 0.1717467606 -0.4025041759 0.8854545951
-0.02977111377 -0.08841083944 0.5417909026 0.4192402363 -0.3816118836 0.7279573083
-0.03265650198 -0.09061316401 0.5461966991 0.3054235876 -0.3968790472 0.8025414944
-0.0226249136 -0.08350196481 0.5311359167 0.6838431954 -0.342969656 0.5533639193
-0.02930978872 -0.08191174269 0.5381935835 0.6321773529 -0.3885247111 0.601926446
-0.03251565993 -0.08269613981 0.5423026681 0.5646756887 -0.3960890174 0.660127461
-0.03450571373 -0.2026452124 0.5349582434 0.5831275582 -0.5653195977 0.5828682184
-0.03000726923 -0.1996837854 0.5322499275 0.6065740585 -0.5590105653 0.5645174384
-0.02662746795 -0.1955370754 0.5300182104 0.6242523193 -0.5586237311 0.5460191965
-0.04867031053 -0.2014142871 0.5442498326 0.3894644976 -0.6229835749 0.6711329818
-0.0474912785 -0.1943812966 0.5516536832 0.4043927193 -0.6686094403 0.6227728724
-0.04467193037 -0.1960934401 0.5474457145 0.4836955369 -0.6089600325 0.6260007024
-0.03309965506 -0.1916311979 0.5365076065 0.5996826887 -0.5550963879 0.5653975606
-0.04182076082 -0.1980639696 0.5438812375 0.5259548426 -0.5820743442 0.6193682551
-0.04450907186 -0.2023793608 0.5420759916 0.4455410838 -0.6046693325 0.6579672098
-0.02375161834 -0.1380463541 0.5002407432 0.08858469874 -0.4827026725 0.8111839294
-0.02414530516 -0.1413176656 0.5041416883 0.09268113971 -0.6012150049 0.7349388003
-0.02807817608 -0.1474740505 0.5019801259 -0.07815091312 -0.6625660658 0.7397390604
-0.02748801 -0.1530856341 0.5049174428 0.01532637328 -0.6412655115 0.7190610766
-0.02609306015 -0.1612317413 0.5114917755 0.1827542037 -0.6389082074 0.6581878662
-0.07867901027 -0.1803583205 0.5734695792 -0.2670648098 -0.7530534267 0.5968914032
-0.08337177336 -0.1790628433 0.5728259087 -0.3474517465 -0.7597141266 0.5489782691
-0.0731465444 -0.1803493649 0.574958086 -0.1682320237 -0.7413909435 0.6471689939
-0.07238795608 -0.1764199436 0.5789686441 -0.1388999224 -0.7526886463 0.6404617429
-0.09015522152 -0.1913693398 0.539737165 -0.5994676948 -0.5505054593 0.5455005169
-0.09765461832 -0.1924460232 0.5300806761 -0.7257338762 -0.4767050147 0.492729485
-0.09214331955 -0.1989244074 0.534397006 -0.670920372 -0.4847402871 0.5600605011
-0.09604402632 -0.1970905811 0.5301700234 -0.6936972141 -0.4859291315 0.530777216
-0.0606389828 -0.2132358104 0.5375407934 0.05408332497 -0.6849063039 0.6894480586
-0.06959693134 -0.2140491009 0.5373780131 -0.1729458421 -0.6986117959 0.676312685
-0.09306527674 -0.1533458531 0.4885203838 0.3300854564 -0.6320034266 0.7010419369
-0.09159304202 -0.1486101598 0.491517812 0.3499199152 -0.6353071332 0.6876136661
-0.08692840487 -0.1483234316 0.4880752861 0.3159395456 -0.6375915408 0.6987999678
-0.08213199675 -0.1469684541 0.4873009324 0.2752806842 -0.6320819855 0.7203842402
-0.07693786919 -0.1448152959 0.4857640862 0.2368516177 -0.6341497302 0.7305898666
-0.0471774824 -0.1335188746 0.4914848208 -0.08309195936 -0.5202236176 0.8111855984
-0.07549233735 -0.1734523028 0.5736337304 -0.2172958851 -0.7272307873 0.5763939619
-0.09018775821 -0.1696819067 0.5672163367 -0.5165675879 -0.6862399578 0.5013638735
-0.05878473446 -0.1775677055 0.5770340562 0.1126031876 -0.7721598744 0.6186295748
-0.07286033779 -0.1872952431 0.5661208034 -0.1821183562 -0.7638030052 0.617510438
-0.03976502642 -0.1150834188 0.5001847744 0.273584038 -0.6580814719 0.5508506894
-0.03490172327 -0.1236427873 0.4960067868 0.1331427246 -0.3653126061 0.8478267193
-0.03563826159 -0.1162430495 0.4972809851 0.3248772621 -0.5356218219 0.6468569636
-0.04455108568 -0.1241412237 0.49772349 0.08898027986 -0.5977518559 0.6951176524
-0.03244498 -0.1111611351 0.4974686205 0.4684723318 -0.5595591664 0.572241962
-0.04800219461 -0.127598837 0.4978334308 -0.01283737179 -0.6136167049 0.7239701152
-0.03947580978 -0.1202599332 0.4973767996 0.2071442604 -0.5497329235 0.6833205223
-0.0262805596 -0.1094766334 0.4965818822 0.532519877 -0.4390888214 0.6350281239
-0.03239971027 -0.1790273935 0.5486360192 0.6400976777 -0.539270401 0.5471788049
-0.02972761914 -0.1795168519 0.5420223475 0.6386339664 -0.5456201434 0.5425886512
-0.03078638203 -0.1868841052 0.5379638076 0.6344576478 -0.5484784842 0.5446280837
-0.03197477013 -0.1847268939 0.54257375 0.6324840784 -0.5529184341 0.5424152017
-0.0239937827 -0.1488389969 0.5118720531 0.1854229271 -0.7340452075 0.5901309252
-0.02328896336 -0.1573171169 0.5150097609 0.3529471457 -0.6165325046 0.5291347504
-0.0244954396 -0.1723245829 0.5261195898 0.599167943 -0.4871738255 0.4777950346
-0.022582829 -0.1769206077 0.5243557096 0.7213662863 -0.3744157255 0.4094097614
-0.02575733699 -0.176278159 0.5311835408 0.6446753144 -0.4833528996 0.4860555232
-0.02312176675 -0.1697775722 0.5215878487 0.5813484788 -0.4716638029 0.4595338404
-0.02026602253 -0.1814424545 0.5216354728 0.850513041 -0.249533534 0.3320884407
-0.02806207165 -0.1828584224 0.5378227234 0.685413897 -0.4933137596 0.5060253143
-0.02502823807 -0.1848266423 0.5314644575 0.7674924731 -0.3939988315 0.4370321631
-0.02608464472 -0.1529707164 0.5156065822 0.1874828041 -0.7134569287 0.618637085
-0.02687900513 -0.1599096507 0.5218929052 0.3019878566 -0.6689065695 0.5999756455
-0.02865511738 -0.1762962341 0.5369222164 0.5781219602 -0.5656269193 0.5533477068
-0.02544100583 -0.180461213 0.5284474492 0.5621167421 -0.5674424767 0.5618310571
-0.02647525072 -0.1647092998 0.5186003447 0.2896297276 -0.6354203224 0.6190116405
-0.02734456956 -0.1481220275 0.5074346662 -0.003397289664 -0.7085529566 0.6807991862
-0.02795911022 -0.1662893444 0.5253410935 0.3609522283 -0.6174057722 0.6019014716
-0.08298575133 -0.1062762365 0.5309383869 0.2778296769 -0.7549686432 0.5906079412
-0.08302877098 -0.1024317965 0.5350523591 0.2751647234 -0.7606887817 0.5865659118
-0.02839499339 -0.1205412298 0.4942765534 0.2559967935 -0.2724650502 0.8834522367
-0.02250298858 -0.1209821627 0.4939830899 0.2449033558 -0.1678067148 0.9437304139
-0.02549630031 -0.1349514574 0.4945586622 0.04656131566 -0.2602948844 0.9334592223
-0.02531572618 -0.1282833666 0.4940050542 0.06201439723 -0.1644341648 0.9638183713
-0.01865263842 -0.1220713109 0.4977587461 0.2593465149 -0.2147416621 0.9224323034
-0.01765053719 -0.1080008522 0.5082917809 0.5023630261 -0.4176546335 0.5532984734
-0.01448949892 -0.10406176 0.5061202049 0.68509233 -0.3977968991 0.5009822845
-0.02770582587 -0.1143364534 0.5206210017 0.01052310877 -0.5818988681 0.5493865013
-0.02601114847 -0.1165055037 0.5157102346 0.04669043049 -0.501403451 0.639046371
-0.01783635095 -0.1119031385 0.5052068233 0.4386325777 -0.3589274883 0.6573053002
-0.0234291777 -0.1201543435 0.5079271793 0.09682652354 -0.3731473982 0.7851122618
-0.02070331015 -0.1202785969 0.5029729605 0.2035715878 -0.2985713482 0.8368141651
-0.02282355167 -0.1126369536 0.5134297609 0.2294589877 -0.4796879292 0.5891401768
-0.03151806071 -0.119243063 0.5231033564 -0.2121022493 -0.6033014655 0.6167706251
-0.01738147624 -0.1161155403 0.4976060092 0.433986783 -0.2441349179 0.8351209164
-0.03600196168 -0.1233138815 0.5258409381 -0.3868998885 -0.7468744516 0.5169047713
-0.02086391859 -0.1313122213 0.5027546287 0.2029133141 -0.4355607629 0.8032396436
-0.0274866093 -0.1214855015 0.5141385198 -0.08099221438 -0.4650183618 0.7438559532
-0.02381837927 -0.1417435408 0.5093809962 0.1240667626 -0.7029106021 0.6542850733
-0.02038761787 -0.1250689179 0.5012097359 0.2009045035 -0.314188689 0.864959836
-0.02392322198 -0.1267716587 0.5080131888 0.07176140696 -0.4491480589 0.7758175731
-0.02208584361 -0.1357574761 0.5055088997 0.1707261503 -0.5483807921 0.7405511737
-0.0275592152 -0.1370129287 0.5158969164 -0.03365149349 -0.7336202264 0.6139637828
-0.02506943047 -0.1352408379 0.5110459924 0.05544247106 -0.6287491322 0.6814746261
-0.03014921956 -0.127191335 0.5197243094 -0.1639736444 -0.6425562501 0.6401590705
-0.02661790699 -0.1309774071 0.5135023594 -0.0172821153 -0.6019058824 0.6838394403
-0.03697976097 -0.1261223704 0.5200072527 -0.3720290661 -0.7824963331 0.4695419073
-0.03214548901 -0.1324813217 0.517572999 -0.2019382864 -0.7821198106 0.5163996816
-0.05184749141 -0.2119938731 0.5378725529 0.2517800331 -0.6567217112 0.7059410214
-0.06499972194 -0.1980262548 0.5516332388 -0.02118744329 -0.7278932333 0.6709265113
-0.0221747607 -0.09874020517 0.4989092052 0.7107565999 -0.4537009001 0.5375440717
-0.01851676777 -0.09654722363 0.5021908283 0.7473223805 -0.4256000519 0.5045565963
-0.03867123649 -0.1125816926 0.5370399356 -0.3965569437 -0.6788065434 0.6167420745
-0.07321843505 -0.1042195335 0.5309533477 0.08862118423 -0.7748708725 0.6135735512
-0.06950955838 -0.1063882113 0.5280052423 -0.01268516295 -0.7850013375 0.6038234234
-0.07807213813 -0.1077698246 0.5266551971 0.1661701351 -0.7719082236 0.6048895121
-0.04445356876 -0.1073155403 0.5399209261 -0.3232835233 -0.6245830059 0.6972562671
-0.04722407833 -0.103031151 0.5426222682 -0.2736717463 -0.5915148258 0.7546609044
-0.06220366433 -0.1023526937 0.5364723206 -0.09254322946 -0.7009544373 0.6714684963
-0.06904369593 -0.1027043611 0.5342156291 0.03218933567 -0.7384083271 0.6444377303
-0.1058082879 -0.106771946 0.5537443161 0.4986266792 -0.7207485437 0.4812411666
-0.1029569209 -0.1088574976 0.5491520166 0.5187391639 -0.6978918314 0.4924631417
-0.09420212358 -0.1279290915 0.5131416917 0.3761044145 -0.6950161457 0.61224401
-0.04278890043 -0.2032689303 0.5372452736 0.4490686953 -0.5888825059 0.650601089
-0.04659149796 -0.2098568231 0.5381677747 0.3482318819 -0.6140555143 0.7064295411
-0.03572496399 -0.182766065 0.5475971103 0.5786118507 -0.5987001657 0.5473855138
-0.03543163091 -0.1793212742 0.5535168052 0.6194810867 -0.555116415 0.5513917804
-0.0378813073 -0.1786079705 0.5592035055 0.5440750718 -0.6243144274 0.5566469431
-0.03798007965 -0.1853070408 0.5522870421 0.575165987 -0.5947723985 0.558449924
-0.03936968371 -0.1927683055 0.5460841656 0.5615990162 -0.5915545821 0.5706886649
-0.03741167858 -0.1886371076 0.5483940244 0.592533648 -0.5802858472 0.5572206378
-0.08290133625 -0.1916855723 0.5510733128 -0.476303637 -0.6769157648 0.5148157477
-0.08118965477 -0.1915614158 0.5558232665 -0.4398228824 -0.7198145986 0.5340627432
-0.08900702 -0.1857096702 0.5504643917 -0.6053086519 -0.6282462478 0.462331593
-0.1001151055 -0.1787106097 0.5444766879 -0.7294690609 -0.5420170426 0.4167585075
-0.086482279 -0.187481463 0.5593596697 -0.4984082878 -0.6991121769 0.5121753216
-0.08301380277 -0.1848099083 0.563775301 -0.4595059156 -0.7083667517 0.5291344523
-0.07735323906 -0.1862902343 0.5638809204 -0.3272485733 -0.7450549006 0.575332284
-0.08322694153 -0.1788928062 0.5653779507 -0.4140518904 -0.7187573314 0.5431366563
-0.07930445671 -0.1883585155 0.5598812699 -0.403144151 -0.7358731031 0.5417916775
-0.07879786938 -0.1838544011 0.5684561133 -0.3003304601 -0.757461071 0.5786476135
-0.08765699714 -0.1788783967 0.5696444511 -0.441277951 -0.7264640331 0.5191758871
-0.08896031231 -0.1827769279 0.5649896264 -0.49804461 -0.7023234367 0.5050265789
-0.08723910898 -0.2075598091 0.5352389216 -0.5142820477 -0.5738499761 0.6317880154
-0.08461695164 -0.2025274336 0.5387917757 -0.5295497775 -0.5651984811 0.6217292547
-0.08034357429 -0.2043585926 0.5403968692 -0.416257143 -0.625572443 0.6456475258
-0.07940232009 -0.2117913812 0.5352822542 -0.3851330876 -0.635607481 0.6574498415
-0.07520227879 -0.2120202035 0.5377428532 -0.284864068 -0.6845286489 0.664619565
-0.07598178089 -0.2076629996 0.5408257842 -0.3011426628 -0.6807188392 0.6566404104
-0.0883981213 -0.211085543 0.5303858519 -0.5490710139 -0.5464259982 0.6303830147
-0.08912974596 -0.2027201355 0.5362771749 -0.6137796044 -0.5108041763 0.595898807
-0.06136930734 -0.1411231458 0.4852906764 -0.00260804384 -0.6533466578 0.7380079031
-0.05501165241 -0.1416493207 0.4850104749 -0.1598206609 -0.636222899 0.7429139018
-0.06340312213 -0.09864934534 0.5400635004 -0.06759636104 -0.7261651158 0.660351634
-0.06577897072 -0.09451373667 0.5436068177 -0.02433142439 -0.7652651668 0.6402225494
-0.1008408815 -0.1034329236 0.5506209135 0.4834007323 -0.7339023352 0.4765393138
-0.09021318704 -0.1243558079 0.5125666857 0.3407220244 -0.7092790008 0.6167421341
-0.08575959504 -0.1217401326 0.5149581432 0.2806556225 -0.731541276 0.6161316633
-0.04844290763 -0.1788276732 0.5719470978 0.2926894724 -0.7248141766 0.6227122545
-0.04707701877 -0.183845222 0.5638675094 0.3618058264 -0.7263429761 0.5769313574
-0.04239779338 -0.1835826933 0.5588067174 0.4917946458 -0.6655778289 0.5585752726
-0.05297859758 -0.1874125302 0.5654476285 0.256793201 -0.7440142632 0.6156205535
-0.05468789861 -0.1834576875 0.5703539252 0.2161506414 -0.7509204745 0.6231426001
-0.07118850946 -0.190950349 0.5613933802 -0.1548247337 -0.7829763293 0.598852396
-0.06511173397 -0.193042472 0.5595929623 -0.01130588818 -0.7739775181 0.6322909594
-0.05121512711 -0.1915651262 0.5551986098 0.3241614997 -0.6962132454 0.6066965461
-0.05906611308 -0.1904784888 0.5627219677 0.145215705 -0.7664903402 0.6150453687
-0.0505448617 -0.1869812906 0.5592188835 0.341040045 -0.697763443 0.5780746937
-0.06482779235 -0.187155515 0.566401124 -0.002080639126 -0.7789138556 0.6267212033
-0.06537385285 -0.1757706255 0.5734441876 -0.02315940894 -0.7574509382 0.5716477633
-0.07036506385 -0.1742627174 0.5721973181 -0.1225119978 -0.7414987683 0.5562760234
-0.07955099642 -0.1739591509 0.5698153973 -0.304533124 -0.7263802886 0.5383279324
-0.08509556949 -0.171634987 0.5684531927 -0.4151184857 -0.7049199343 0.518535912
-0.05894950405 -0.1873252988 0.5669520497 0.1422138065 -0.7705460191 0.6097640395
-0.0599221997 -0.1832134277 0.5718655586 0.1060738787 -0.7714040875 0.6164767742
-0.06625090539 -0.181952104 0.574090004 -0.03653393313 -0.7814688683 0.6187903285
-0.0703632161 -0.182780847 0.5677642226 -0.115690738 -0.7632065415 0.5958483219
-0.07504753768 -0.1790333092 0.5687852502 -0.2117205858 -0.7487642169 0.5696591735
-0.04036231339 -0.1285862476 0.4956307411 -0.00583322579 -0.4099538028 0.8683444262
-0.05447714776 -0.1296580732 0.4978786409 -0.07665643841 -0.745839417 0.6497817039
-0.07816755027 -0.1121132225 0.5209476352 0.1721392721 -0.7733981609 0.6083526015
-0.08243364096 -0.1165212244 0.5174241662 0.2277794182 -0.7555667758 0.6128548384
-0.08261426538 -0.1110308096 0.5244398713 0.241747871 -0.7592882514 0.6019369364
-0.05152660981 -0.2073704153 0.5402156115 0.291418761 -0.632642746 0.7141689062
-0.054014083 -0.2037232667 0.5448662639 0.2206801772 -0.6742685437 0.7001023293
-0.05955730006 -0.2018503398 0.5467802286 0.09547819942 -0.6934621334 0.6912224889
-0.07238148898 -0.1943029463 0.5571858883 -0.2016584128 -0.7557051778 0.6204772592
-0.07132092863 -0.1996684819 0.5508903861 -0.2057899982 -0.7103201151 0.6696428657
-0.0668258816 -0.1957647353 0.5555860996 -0.06635949016 -0.7486435771 0.6548532844
-0.0759170875 -0.1958126724 0.5533877611 -0.288494885 -0.7368681431 0.603435576
-0.07904604077 -0.200365141 0.5466836691 -0.374371767 -0.6657173038 0.6328073144
-0.04510733485 -0.1008666456 0.5472989678 -0.2111200541 -0.5264512897 0.8188208342
-0.04079059511 -0.1004551351 0.5504780412 -0.1494607478 -0.5104429722 0.8439548612
-0.04674368724 -0.09625282139 0.5520626307 -0.1291090995 -0.4734357297 0.8691697121
-0.03740349784 -0.08284822106 0.5456386209 0.4500949383 -0.2857396603 0.8062770963
-0.05059090629 -0.1034998149 0.5392061472 -0.2956390381 -0.6520170569 0.6934784055
-0.05857089162 -0.1057866439 0.5324516892 -0.1929390281 -0.7423610091 0.6264068484
-0.05565048754 -0.103684105 0.5361460447 -0.2292602956 -0.6941925883 0.669708252
-0.02592935413 -0.08845574409 0.5127071142 0.6709242463 -0.4432130158 0.4907486737
-0.0432715416 -0.09707590938 0.5210207105 0.2178301215 -0.6179982424 0.5378780365
-0.02188304998 -0.08572219312 0.511790812 0.7902354598 -0.3909009993 0.4651568532
-0.05770395696 -0.1371118426 0.4907392859 -0.06871507317 -0.6910225153 0.7053585052
-0.05670853704 -0.1346591711 0.4951683283 -0.06255954504 -0.732246995 0.6661689281
-0.08478724957 -0.1926120669 0.5436163545 -0.5050196052 -0.6185134053 0.5700628757
-0.09574237466 -0.1851667017 0.5376306176 -0.6813479662 -0.5326424241 0.478907764
-0.08940193057 -0.1883285642 0.5433134437 -0.5964679122 -0.6003779173 0.499979347
-0.09424186498 -0.1839443594 0.5433172584 -0.6920685172 -0.5767712593 0.4309596121
-0.09755261987 -0.1807243824 0.5398496985 -0.7164289951 -0.5532432199 0.4233645499
-0.09404403716 -0.1740424186 0.5586575866 -0.6111800671 -0.6421342492 0.4530875981
-0.09042359889 -0.1789438874 0.5574851036 -0.5676116347 -0.6615419984 0.469606936
-0.08621554822 -0.1804772764 0.5605862141 -0.4968687296 -0.6962570548 0.5040102601
-0.08796208352 -0.1834981591 0.5552682281 -0.5444973707 -0.6700148582 0.4767334759
-0.0918899551 -0.1813782156 0.5515707135 -0.6157470345 -0.6234121919 0.4521364272
-0.09568502754 -0.1767068058 0.555088222 -0.6477128267 -0.622056067 0.4341858029
-0.09260365367 -0.1755354255 0.5649325848 -0.5542388558 -0.6675950289 0.4966427088
-0.09793972224 -0.1780433804 0.5490247011 -0.7011325955 -0.5780615807 0.4158232808
-0.09283472598 -0.1322396547 0.5081507564 0.3988488913 -0.6717051268 0.6235154271
-0.08863423765 -0.1319202334 0.504586637 0.3703211248 -0.6730588675 0.6395534277
-0.07389173657 -0.1288193166 0.5007405281 0.1483549625 -0.7321771979 0.6457371116
-0.09086896479 -0.1367415339 0.5013920665 0.3711107969 -0.6562523246 0.6565847397
-0.0786146149 -0.1030809283 0.5319914222 0.181764096 -0.775899291 0.6006640196
-0.07795874029 -0.1002756134 0.5383237004 0.2100782692 -0.7591039538 0.587526083
-0.07093304396 -0.0963942036 0.5423112512 0.07636692375 -0.7617969513 0.6153841019
-0.0739909336 -0.09942954034 0.5348870754 0.09031941742 -0.7861706018 0.6090102196
-0.04110308364 -0.08374788612 0.5407982469 0.4280419648 -0.4792907834 0.6499060392
-0.03329843283 -0.0789847672 0.5392673612 0.6705312133 -0.4199280143 0.5744175911
-0.0297185909 -0.08434742689 0.5224983096 0.5961822271 -0.4308912456 0.4957329035
-0.02223891206 -0.07935379446 0.5200865865 0.8154473901 -0.3575365245 0.4461736381
-0.02591276914 -0.07903073728 0.5245876312 0.7142756581 -0.3849297762 0.4721833169
-0.03477407619 -0.08667581528 0.5253790617 0.4504430592 -0.4772143364 0.5298585296
-0.03994702548 -0.08926931769 0.5280745625 0.3008214533 -0.5252702832 0.5646503568
-0.04928375781 -0.09458246827 0.5321846008 0.0292811133 -0.6139739752 0.6270669103
-0.02601092309 -0.0856833905 0.5167492032 0.6959105134 -0.4063883126 0.4688772559
-0.04520233721 -0.09268974513 0.529874444 0.1469704658 -0.5765358806 0.5995242
-0.04887787625 -0.0916710794 0.5371291041 0.0936794579 -0.5972697735 0.6375786066
-0.04003822803 -0.08543578535 0.5360212922 0.3859832585 -0.5063853264 0.5873351097
-0.04458318651 -0.08917424828 0.5351393223 0.2147906274 -0.556684792 0.6079176664
-0.02964190766 -0.08068190515 0.5276875496 0.6285170913 -0.416790843 0.5028125644
-0.03447422013 -0.0820024386 0.5339846611 0.5506834388 -0.4524738491 0.5508654118
-0.03556192294 -0.08429328352 0.5299680233 0.4549134076 -0.4738725424 0.542026341
-0.04123024642 -0.09323389828 0.5243083835 0.2715172172 -0.5592260957 0.5476226211
-0.05402465537 -0.09936664999 0.5308871269 -0.08366447687 -0.6878586411 0.6123026609
-0.03296495602 -0.08952834457 0.5196592212 0.5034769773 -0.4792569578 0.5009703636
-0.05669972673 -0.09890390188 0.5349808335 -0.1750150174 -0.6934496164 0.6589775681
-0.03715710342 -0.09169645607 0.5215676427 0.3886539638 -0.5233412981 0.519148469
-0.06316740066 -0.1021692231 0.5317748785 -0.1344800293 -0.7667850256 0.6242098212
-0.05970430374 -0.1222353801 0.5083551407 -0.154107064 -0.7962807417 0.5838961005
-0.06067966297 -0.1066061035 0.526982069 -0.1866535395 -0.7857124805 0.5864693522
-0.06442254037 -0.1112554967 0.519692421 -0.07187771052 -0.7899758816 0.6066723466
-0.07404345274 -0.1091941595 0.5232266188 0.09831719846 -0.784244597 0.6095517278
-0.07304424793 -0.1150702015 0.515955925 0.09629998356 -0.7813643217 0.6127966642
-0.06679289043 -0.1153551862 0.5145295262 -0.009389777668 -0.792807281 0.6054546833
-0.0784092024 -0.11842715 0.5141362548 0.1936549842 -0.755095005 0.6241444349
-0.07769032568 -0.1238295808 0.5064398646 0.2131538987 -0.7457380295 0.6277564168
-0.07071655244 -0.1189970896 0.5119216442 0.07773730159 -0.7675488591 0.6207693219
-0.04255749658 -0.1044371426 0.544570446 -0.2340620756 -0.5636853576 0.7873857617
-0.04334511235 -0.1113780737 0.5358980298 -0.3756379485 -0.6860303879 0.6153889894
-0.0363480635 -0.1042054519 0.5486255884 -0.1607191265 -0.5435487628 0.8226568103
-0.03486130387 -0.1098874062 0.5422010422 -0.332313329 -0.6228501201 0.6951121688
-0.04195044562 -0.1802352071 0.5628018975 0.4538034201 -0.6856126189 0.564724803
-0.04533356056 -0.179873541 0.567933917 0.365765214 -0.7147115469 0.5923849344
-0.05095884204 -0.1808499843 0.5677318573 0.2628677189 -0.7422328591 0.587672472
-0.05303210393 -0.1782296896 0.5734204054 0.2211686969 -0.7671605945 0.5915811658
-0.03454877436 -0.1340499669 0.5126022696 -0.2342554331 -0.7308076024 0.5833599567
-0.02818879671 -0.1407125294 0.5119416118 -0.01838181913 -0.7690040469 0.5911791325
-0.06660261005 -0.2022578865 0.5473166108 -0.05898738652 -0.715138495 0.6919552684
-0.07341480255 -0.2041216493 0.5447360873 -0.2389033884 -0.7001771331 0.6677180529
-0.06268634647 -0.2058450133 0.5443855524 0.04722927138 -0.6963315606 0.7060186267
-0.0698896721 -0.2098698616 0.5418705344 -0.161766395 -0.7148423791 0.6737459302
-0.06304625422 -0.2102037668 0.5424772501 -2.312599099e-05 -0.7143847346 0.6959532499
-0.05651398376 -0.209821865 0.5416881442 0.1055752784 -0.6851323843 0.7201507092
-0.04132051021 -0.1311344355 0.5101650953 -0.2649299502 -0.7382165194 0.5810832977
-0.04093062878 -0.1373723298 0.5030024648 -0.1385408789 -0.6851152778 0.6953116059
-0.04607768357 -0.1328609437 0.5045222044 -0.1722753346 -0.7379670739 0.6269688606
-0.03546284139 -0.1376446038 0.5067908168 -0.1976399869 -0.6666103005 0.6843101382
-0.03756355494 -0.1295850724 0.5148437023 -0.3420072794 -0.7399612665 0.5414077044
-0.03901663795 -0.144423157 0.4906993508 -0.186190024 -0.289642632 0.9211683869
-0.03665670753 -0.1372406185 0.4906165004 -0.1233318001 -0.2550446391 0.9306621552
-0.03236468509 -0.1320685148 0.4917741716 -0.06033360958 -0.1754875332 0.9593800306
-0.03233641759 -0.1380453557 0.4927784503 -0.09901397675 -0.162293002 0.9682923555
-0.03931072354 -0.1425222307 0.4970341027 -0.1413713396 -0.4276429713 0.8374682069
-0.03541062772 -0.1456514448 0.4958591163 -0.1547204703 -0.314956069 0.9023856521
-0.04644572362 -0.1360351294 0.5003880262 -0.1068772227 -0.6997597218 0.689925015
-0.03547036648 -0.1424144953 0.5009151697 -0.1123810261 -0.5926100016 0.7810000777
-0.05146319419 -0.1349216998 0.4968862236 -0.1341086179 -0.6766430736 0.6924523115
-0.04828836396 -0.1380804032 0.4947707057 -0.1558289379 -0.5713080168 0.7571835518
-0.04353408515 -0.1422099024 0.4927535355 -0.1775172949 -0.4244529605 0.8431481719
-0.05170623586 -0.1390439868 0.4893657863 -0.184360534 -0.5986664295 0.765725255
-0.04862431809 -0.1421124488 0.4863891602 -0.2351869941 -0.5041707158 0.8289434314
-0.04512670636 -0.1382331252 0.4887317121 -0.2031793892 -0.4334915876 0.8610570431
-0.03835640103 -0.1319533437 0.4914939106 -0.09826942533 -0.3119822741 0.9141212702
-0.03066108935 -0.126139015 0.4925564229 -0.00822038576 -0.1561807841 0.9674453139
-0.06402476132 -0.1305847615 0.4961512089 -0.005318528507 -0.7510612607 0.6583057046
-0.06241532415 -0.1355401576 0.492528528 0.02692037262 -0.7233381867 0.6805791855
-0.06605299562 -0.1385827214 0.4880023599 0.0978282094 -0.6921066642 0.7108185887
-0.06718178093 -0.1336440295 0.4929944575 0.08391507715 -0.7225278616 0.6809768081
-0.07151451707 -0.1352732778 0.4909833968 0.1776286066 -0.6872862577 0.7023046017
-0.06915788352 -0.1414234638 0.4850635231 0.1588033736 -0.6512862444 0.7415368557
-0.06489118189 -0.1247576624 0.5033530593 -0.005388236605 -0.7903262973 0.6081054211
-0.07007022202 -0.1260983497 0.5034354329 0.1115040034 -0.7594909072 0.6298587322
-0.05792731047 -0.1284529269 0.5018023252 -0.07940645516 -0.7814072967 0.6170172691
-0.09410884976 -0.1905823052 0.5433140397 -0.700730145 -0.5334623456 0.4717005789
-0.09256804734 -0.1961430907 0.5397946835 -0.6782884598 -0.5239847302 0.5098249316
-0.08983383328 -0.1927619278 0.5466347337 -0.6359128356 -0.5799769163 0.4966133237
-0.08735118061 -0.1900530756 0.5546396971 -0.5309315324 -0.6702870727 0.5087869167
-0.08726087213 -0.1983845979 0.5424460173 -0.5696778297 -0.575483799 0.5690923929
-0.09303727001 -0.1799494773 0.5620151162 -0.5617344379 -0.6710926294 0.4776940048
-0.09205508977 -0.1866855025 0.5543579459 -0.6147901416 -0.6180026531 0.4784320295
-0.09380741417 -0.1825545281 0.5569915175 -0.6126316786 -0.6374093294 0.4556821287
-0.09811679274 -0.1836848855 0.5460452437 -0.7134523392 -0.551273644 0.430957675
-0.09305536002 -0.1879980564 0.5481539369 -0.6794469357 -0.5697957873 0.4596389234
-0.086805664 -0.127224192 0.5069441795 0.3325385153 -0.7050601244 0.6257249713
-0.08269233257 -0.1241526008 0.5083310604 0.2836244106 -0.7254970074 0.6239792705
-0.07593233883 -0.1213666797 0.5101559758 0.1929401457 -0.7451462746 0.6381571293
-0.08460881561 -0.1312729716 0.500931859 0.3294629157 -0.6828727722 0.6504305005
-0.08100030571 -0.1364007741 0.4913226366 0.2946504354 -0.6584784389 0.6896662116
-0.07950863242 -0.1304508001 0.4985582232 0.25842309 -0.7046074271 0.6554914117
-0.08054374903 -0.1273382902 0.5033063889 0.264025867 -0.7227349281 0.6347222924
-0.07434104383 -0.1349186301 0.4948714375 0.1879959404 -0.6962126493 0.6692113876
-0.07082145661 -0.1310747117 0.4973282814 0.1080701873 -0.7279182076 0.6555889249
-0.08611599356 -0.1358429641 0.4980579019 0.370254904 -0.6530720592 0.6604337692
-0.08812270314 -0.1009962335 0.541143775 0.4089919031 -0.7464031577 0.5239592195
-0.08608962595 -0.0961189568 0.5443108678 0.3532158434 -0.7709024549 0.5275022984
-0.09666141123 -0.1030307487 0.5460954309 0.4760590792 -0.7406906486 0.4738861024
-0.0498454608 -0.09844108671 0.5469149351 -0.2091252655 -0.5302732587 0.811419189
-0.05425075069 -0.09407405555 0.5498425961 -0.1400869191 -0.5142309666 0.8291879296
-0.059588328 -0.09468086064 0.5460277796 -0.105884254 -0.666700542 0.7130537629
-0.05448971316 -0.09918180108 0.5423372984 -0.2193574309 -0.6510354877 0.7134058475
-0.04924565926 -0.09101051092 0.5524254441 -0.1362682134 -0.4432862997 0.8856688142
-0.0320934765 -0.1064190045 0.5020247698 0.4404007196 -0.5645654798 0.5410273075
-0.04688718542 -0.1124526486 0.5101661086 0.00682476582 -0.7089077234 0.5460113287
-0.02818873338 -0.1039831117 0.5002576709 0.5555655956 -0.5217496157 0.5397381783
-0.05522936955 -0.1199122891 0.5105232596 -0.1992228478 -0.8085472584 0.5495963097
-0.05101978406 -0.1222060695 0.503374815 -0.02653103322 -0.78430897 0.5491868258
-0.03659040481 -0.1091917232 0.504044652 0.308321178 -0.6136369109 0.5425242186
-0.04822157323 -0.1168283969 0.5069458485 0.003260611091 -0.7392379642 0.5471758842
-0.05229347572 -0.1158886999 0.5123181939 -0.1480317414 -0.7680497766 0.5478941798
-0.04580850527 -0.1181109622 0.5028870702 0.1018552184 -0.7252083421 0.5469329953
-0.0232153926 -0.09059691429 0.5072315931 0.7039069533 -0.447070837 0.5205007792
-0.03785024583 -0.1036226824 0.5093960166 0.2731562853 -0.6072923541 0.535777688
-0.03068995662 -0.09870237857 0.5068800449 0.4839137197 -0.5304885507 0.5313924551
-0.04168268293 -0.1083945185 0.5085980296 0.160362035 -0.6507359147 0.5426719785
-0.02615944482 -0.09524869919 0.5056295991 0.6172640324 -0.4815208912 0.5278937817
-0.03328892589 -0.1024519652 0.505823791 0.4074247479 -0.5605107546 0.5371598601
-0.04140853509 -0.1230393276 0.5194488168 -0.3571474254 -0.8082115054 0.4649319649
-0.04403971136 -0.1237038225 0.5146796107 -0.3038627207 -0.8342896104 0.4550819993
-0.04776484147 -0.1249377429 0.5105830431 -0.2362231761 -0.8273242712 0.4977457523
-0.05289250612 -0.1275575608 0.5048906803 -0.1579603255 -0.7926264405 0.5810241699
-0.09363664687 -0.1185598075 0.5225448608 0.4130977988 -0.6970416307 0.5800327063
-0.09283047915 -0.1128692999 0.5291717052 0.4336631298 -0.7026031017 0.5583517551
-0.0947400704 -0.123880215 0.5200489759 0.4262495339 -0.6862773895 0.5858681798
-0.0913586393 -0.1216267273 0.5168659687 0.3408279717 -0.7177239656 0.6051982641
-0.08901604265 -0.1145808995 0.5240394473 0.334220469 -0.7359201312 0.5861703753
-0.08848624676 -0.1186114252 0.5203422308 0.3082402349 -0.7320851684 0.6038573384
-0.07117774338 -0.1210971922 0.5063726306 0.09268909693 -0.7686238885 0.6306997538
-0.06508321315 -0.1184491143 0.509333849 -0.04874930903 -0.7926769853 0.6002401114
-0.1004392728 -0.1101477593 0.5440674424 0.5277085304 -0.6784331799 0.5100203753
-0.09644493461 -0.1113062873 0.5356120467 0.5195140243 -0.669549644 0.5305777788
-0.09721719474 -0.1062392294 0.5422008634 0.4859124124 -0.7153882384 0.5010656714
-0.09195539355 -0.1068455875 0.539940238 0.4161299765 -0.718953073 0.5451725721
-0.09158520401 -0.0986302346 0.545191884 0.4501346052 -0.7476505041 0.4871368408
-0.08780021966 -0.1068689525 0.5328370333 0.3703421056 -0.731054008 0.5643531084
-0.08762074262 -0.1100303158 0.5286318064 0.3388554156 -0.7366718054 0.5792298913
-0.09236961603 -0.1078584567 0.5343437791 0.4538305104 -0.7046281099 0.5405300856
-0.06079935282 -0.09096685052 0.5416709185 0.03838646784 -0.7009872794 0.641256392
-0.05756248534 -0.09222774953 0.5386337042 0.0751124993 -0.6689150929 0.6407490969
-0.05326411501 -0.08520061523 0.5441126227 0.2511095703 -0.6091954112 0.6408804655
-0.05339037627 -0.08852764964 0.5405403376 0.2003125846 -0.6170928478 0.6405878663
-0.04697231203 -0.08662848175 0.5395277739 0.3299032152 -0.5451288223 0.6417289376
-0.05756833404 -0.08735533804 0.5471781492 0.05445338786 -0.5612165332 0.7497330904
-0.04596518353 -0.08438482881 0.5464907289 0.2381833941 -0.3700766563 0.8165175915
-0.05836351588 -0.09080483764 0.5506905317 -0.08206855506 -0.5589680672 0.7968293428
-0.04882698134 -0.08726717532 0.5491063595 0.07216773182 -0.3491093218 0.8905857205
-0.06460289657 -0.08943658322 0.5478159189 -0.04762002826 -0.705804944 0.684517622
-0.08173987269 -0.09081616253 0.5464713573 0.2317537814 -0.7972325087 0.5535436869
-0.07630470395 -0.09601104259 0.5436848998 0.178285718 -0.7628349066 0.5827471614
-0.07619997859 -0.08962587267 0.546908319 0.1218993291 -0.789255619 0.586895287
-0.08240117878 -0.0962157771 0.5413578749 0.2584705353 -0.7778062224 0.5708790421
-0.06751368195 -0.09717717022 0.5369513035 -0.06251501292 -0.7704834342 0.6235862374
-0.07026209682 -0.09034708887 0.5447970629 0.01813287102 -0.7977209091 0.5920065045
-0.05807540938 -0.1156698167 0.5155007839 -0.1966088712 -0.7967268229 0.5643913746
-0.05062407255 -0.1104361713 0.5319280028 -0.3065251708 -0.7316650152 0.5933636427
-0.0565585047 -0.1100037843 0.5273020864 -0.2410948873 -0.7632842064 0.5834566951
-0.05007022992 -0.1131454185 0.5265392661 -0.3407849967 -0.7408594489 0.5710420609
-0.04483012855 -0.1133829057 0.530987978 -0.3933489025 -0.7170979977 0.5739462972
-0.04938411713 -0.1046645269 0.5196198225 0.006464674603 -0.7034291029 0.5563060641
-0.03796460852 -0.09575915337 0.516754806 0.3340268731 -0.5821405053 0.5437601805
-0.02945968136 -0.0939970091 0.5102502704 0.5269447565 -0.5111929178 0.5250692368
-0.05577950552 -0.1036593467 0.526602149 -0.1141814515 -0.7475042939 0.5748331547
-0.04761210084 -0.1000930443 0.5220376253 0.09072096646 -0.6719130874 0.5604807138
-0.0335191302 -0.09386181086 0.5142310262 0.4450953305 -0.5411708951 0.5358641744
-0.04091036692 -0.1000341475 0.5157189369 0.2288022786 -0.6212998033 0.5432007313
-0.05503914505 -0.1095157266 0.5206426978 -0.1603702754 -0.7652481794 0.5616721511
-0.04622064531 -0.10769438 0.513893187 0.03960000724 -0.6917077303 0.5422810316
-0.05520285666 -0.1153327897 0.5201776624 -0.2672487795 -0.7588877082 0.5624922514
-0.06847251207 -0.11382965 0.519425571 -0.005421940237 -0.7709934711 0.5937832594
-0.05938094482 -0.1118976399 0.523324132 -0.1961625665 -0.7690403461 0.5755668879
-0.06912519038 -0.1096971706 0.5240359306 -0.008077048697 -0.7801665664 0.5995610356
-0.06125882268 -0.1179933771 0.5127567649 -0.142452091 -0.7934828997 0.5831635594
-0.05002791435 -0.1210380048 0.5147045851 -0.2591906488 -0.8127899766 0.5172513127
-0.04817055538 -0.1170951352 0.5213087797 -0.3514825702 -0.771892786 0.5277264714
