# .PCD v0.7 - Point Cloud Data file format
VERSION 0.7
FIELDS x y z normal_x normal_y normal_z
SIZE 4 4 4 4 4 4
TYPE F F F F F F
COUNT 1 1 1 1 1 1
WIDTH 512
HEIGHT 1
VIEWPOINT 0 0 0 1 0 0 0
POINTS 512
DATA ascii
0.1003048941 -0.1243964508 0.6885170341 0.01101354882 -0.3279925585 0.5715768933
0.1048562452 -0.1222791895 0.6812152863 0.3380737007 -0.3817805946 0.539706707
0.08960250765 -0.1766449213 0.6969749331 0.6707427502 -0.1685905457 0.2835857272
0.08769091964 -0.1651107073 0.6996958852 0.3042773306 -0.4686380625 0.3688350618
0.08646487445 -0.1574380547 0.6891428232 0.04775718972 -0.4164766669 0.3809994161
0.08958922327 -0.1767309606 0.704430759 0.681183219 -0.3185926378 0.3098863363
0.09087198228 -0.1844962686 0.7037380338 0.9290770292 -0.1397846937 0.2565972209
0.07803934813 -0.191539973 0.7282991409 0.7795680761 -0.4315421581 0.4493706822
0.09054488689 -0.1896467507 0.6878963709 0.9421914816 0.1856179833 0.2747310698
0.08707650006 -0.1873307824 0.7172619104 0.8587046862 -0.3586831689 0.3502454758
0.08308690786 -0.1914393157 0.7245004773 0.8041626811 -0.4165918529 0.419842571
0.08616151661 -0.1851603687 0.7387117147 0.7475870252 -0.4567742944 0.4787764847
0.0915170759 -0.194386974 0.6943831444 0.9143844843 -0.02786516957 0.298958689
0.07552436739 -0.1799493879 0.7460718751 0.6450443864 -0.4906253517 0.5816951394
0.07150153071 -0.1789873093 0.751224041 0.5935108662 -0.491099447 0.6355600953
0.03240031749 -0.2237193584 0.7372963428 0.1127610356 -0.5674384832 0.8025289774
0.04151334614 -0.2226132452 0.7370305061 0.2570097148 -0.5879411697 0.7541909218
0.0541735068 -0.2158665955 0.7373227477 0.4477703869 -0.5579432845 0.6977680326
0.05095153302 -0.2214908004 0.7337827086 0.3906932175 -0.5780545473 0.709202528
0.04910008982 -0.2136439234 0.7412181497 0.3597398102 -0.5704747438 0.7326523066
0.0945617184 -0.140766412 0.6714417934 0.4844284058 -0.6169973016 0.5455213785
0.09272957593 -0.1358540058 0.6831294298 0.01720379479 -0.4479746222 0.5932117701
0.09675668925 -0.1341976374 0.6762124896 0.2686749995 -0.4620158076 0.6096182466
0.08942677826 -0.1360550523 0.6900352836 -0.2621737123 -0.4179633558 0.587718308
0.005332065281 -0.08741772175 0.7033832073 0.4316678941 -0.6392698288 0.634947896
0.03966209292 -0.2160743326 0.7413628101 0.1978272945 -0.5725651979 0.7892665267
0.0699140057 -0.1983540952 0.7363122702 0.6700594425 -0.4804016352 0.5647646189
0.07947818935 -0.1918862313 0.7371775508 0.7205411792 -0.4589619935 0.5180920959
0.06573846191 -0.213271901 0.7276232839 0.6287979484 -0.4843256176 0.6001670957
0.07661022991 -0.197666958 0.7253405452 0.7717453241 -0.4397907853 0.4574888945
0.07316860557 -0.2027427256 0.7280967832 0.7309555411 -0.4408709705 0.5196470022
0.07783088088 -0.1964410394 0.7324626446 0.7339366674 -0.449180305 0.5083373189
0.078214176 -0.2043274194 0.719137609 0.7848011851 -0.4186959863 0.4560859203
0.08742584288 -0.2000423223 0.7014389038 0.8930277824 -0.2264591306 0.3127877414
0.08566514403 -0.2042937726 0.7076647878 0.8506805301 -0.3685804605 0.3629919887
0.0808544904 -0.2075437903 0.712952435 0.8132042885 -0.3930788338 0.4173862338
0.08731223643 -0.1836360991 0.7307488322 0.7928233743 -0.412984252 0.4243943393
0.08809160441 -0.1827592254 0.7211278677 0.8446204066 -0.3644375503 0.3631548285
0.08975700289 -0.1786459088 0.6898726821 0.731469214 -0.02551738545 0.2605537176
0.08485371619 -0.156745702 0.6812167168 0.04760342464 -0.6028869152 0.4754413962
0.09148531407 -0.1648585051 0.6786054969 0.6490194798 -0.3410763144 0.3910286725
0.09273079038 -0.180669114 0.6847426295 0.8964079022 -0.01047924533 0.2628450692
0.08992660791 -0.1574749053 0.6769022942 0.5002496243 -0.5018491149 0.4530426264
0.09179319441 -0.1707556993 0.6840423942 0.8032895923 -0.1552052945 0.3178267181
0.09290234745 -0.1521264762 0.6744275093 0.6149808168 -0.5132416487 0.4572519064
0.08795634657 -0.1838787645 0.6873363256 0.7584887743 0.01618601382 0.3185696602
0.08421579748 -0.1711907536 0.6813952327 0.3137286007 -0.323001653 0.4210751057
0.08229073882 -0.1646313965 0.678150773 0.08082423359 -0.4965254366 0.4757893682
0.08636321872 -0.1782307029 0.6832596064 0.5358921289 -0.1196925342 0.3784408867
0.08135205507 -0.1569070667 0.6739681959 -0.1055435538 -0.7157361507 0.5520597696
-0.0110794073 -0.2053839266 0.7314587831 -0.6926806569 -0.3983842134 0.5956217647
-0.01364931557 -0.1996129304 0.7313852906 -0.7237206697 -0.385776937 0.5650203824
-0.01927977614 -0.195801273 0.7297908664 -0.7581318021 -0.3855357766 0.5244342685
-0.01748354547 -0.2021442801 0.7254021764 -0.7665513754 -0.3803632259 0.5169148445
0.04651665688 -0.2190353572 0.7393788695 0.3292629123 -0.5803471804 0.7395699024
0.01912308484 -0.2295599431 0.7412198782 -0.1014734507 -0.5526099205 0.8211513162
0.02717149258 -0.2262829989 0.7409390211 0.03590892255 -0.5636702776 0.8102092743
0.04780951142 -0.1859317571 0.7639602423 0.2960627377 -0.5738589764 0.7577282786
0.06801251322 -0.1867779195 0.7476279736 0.6036393642 -0.4934471548 0.6260667443
0.06997207552 -0.1926161349 0.7437338829 0.6383722425 -0.4860013127 0.5921456218
0.06579506397 -0.1823106408 0.7545000911 0.5435943604 -0.4979118407 0.6717561483
0.06046231091 -0.183919698 0.7592182159 0.4837195873 -0.5078627467 0.7117123604
0.06377113611 -0.1924263388 0.7471723557 0.5697975159 -0.5080481172 0.6432508826
0.06245588139 -0.188482374 0.7528654933 0.544054687 -0.5054228902 0.6676467061
-0.02996852621 -0.1941655278 0.7128202319 -0.884216547 -0.2996519208 0.3545020521
-0.03118116595 -0.1968531609 0.7056927085 -0.8752489686 -0.3381256461 0.3440100551
0.01622767001 -0.1778249443 0.7678146362 -0.228212446 -0.506074667 0.8236405849
-0.01948609389 -0.1046469435 0.7152659893 0.7220799327 -0.4484278858 0.5260006189
0.08091603965 -0.1394176781 0.6629408598 0.2192813456 -0.5337326527 0.7450165153
0.06973131001 -0.1446696669 0.6565967202 -0.1395299882 -0.5358914137 0.7240239382
0.09884694219 -0.1357307732 0.6674536467 0.5581034422 -0.5296807289 0.6298098564
-0.01313165389 -0.0966142714 0.7144429088 0.6680195332 -0.4809039533 0.5675058365
-0.01882041991 -0.09840167314 0.7165539861 0.6800054908 -0.4614305794 0.5690305829
0.004580564331 -0.0924763754 0.699901104 0.4559388757 -0.6065940261 0.6490761638
0.01034172438 -0.09338957071 0.6954824924 0.347529918 -0.6299926043 0.6910458803
0.01193739381 -0.08768960088 0.6991909146 0.3258545399 -0.6572851539 0.6784899235
0.03295851871 -0.08787038177 0.6952233911 0.00149745727 -0.6562631726 0.7509248257
0.02643306181 -0.08695915341 0.6961392164 0.1284427047 -0.6827409863 0.7163783908
0.02882289514 -0.09160289168 0.6921755075 0.06097563356 -0.6584817767 0.7436801195
0.08030930161 -0.1849032938 0.7304056883 0.7775121927 -0.4338229299 0.4510998726
0.08059354126 -0.1809965223 0.7414275408 0.7023408413 -0.4760752916 0.5252074003
0.08307872713 -0.1378180981 0.6891479492 -0.5303644538 -0.6876028776 0.4887303412
0.07722321898 -0.1340573877 0.6843915582 -0.6201062799 -0.6110143065 0.4916774631
-0.008837193251 -0.2006101161 0.7371213436 -0.6631812453 -0.420927614 0.6168282628
0.06027381495 -0.2091998011 0.7369861007 0.5228581429 -0.5214380026 0.6689623594
0.04206211492 -0.183987096 0.7685620189 0.1999378502 -0.5818835497 0.7834348083
0.0276564844 -0.1828594804 0.7708696723 -0.03213284165 -0.5724838972 0.818569839
0.05659107864 -0.1919613034 0.7534527183 0.4674007297 -0.5490644574 0.6903709173
0.07606308907 -0.2118281573 0.718904376 0.7579513788 -0.4269513488 0.4921532273
0.07292097062 -0.208294794 0.723880291 0.7344088554 -0.4421393871 0.5133974552
0.06396318972 -0.2196311057 0.7266560197 0.5956860185 -0.5220684409 0.6032842398
0.0598907657 -0.2165538669 0.7319390178 0.5397666693 -0.5318549275 0.6493037343
0.05717984587 -0.2220494598 0.7306457758 0.4817503095 -0.5706579089 0.6619650126
0.08511814475 -0.193591848 0.7138053775 0.8796203732 -0.3450874686 0.3258853555
0.09062719345 -0.1843400002 0.7106645107 0.9053962827 -0.3096703887 0.2902056575
0.08754816651 -0.1981334835 0.7081742287 0.8784849048 -0.3507266343 0.3241125643
0.08230322599 -0.2013190091 0.715431273 0.8473820686 -0.3837805688 0.3656395078
0.08072366565 -0.1966893822 0.7190951705 0.8321000934 -0.3913404346 0.3840098381
0.07382790744 -0.1925964803 0.7361047268 0.6980310082 -0.4749595225 0.5349300504
0.07519277185 -0.1862597167 0.7398538589 0.6968628168 -0.4786526561 0.5306860805
0.08457203209 -0.1521830112 0.6904963255 -0.1473184228 -0.631354332 0.4431401193
0.08549915254 -0.1703982055 0.6915477514 0.4150893986 -0.5278830528 0.415465951
0.0840960741 -0.1455619633 0.6886779666 -0.3455101848 -0.685985446 0.4648890793
0.08456259966 -0.1647264808 0.6845242381 0.2690562308 -0.6394569874 0.4785851538
0.08539337665 -0.1631762534 0.6938367486 0.1803528666 -0.5368400216 0.4044141471
0.08684035391 -0.1830570996 0.6994810104 0.7746564746 -0.370616585 0.3376090527
0.08578324318 -0.1904272437 0.7071349025 0.8864705563 -0.3295889497 0.3214312792
0.09111324698 -0.1868177056 0.6944003105 0.9563009143 0.05903484672 0.2191001624
0.08759579062 -0.1914821565 0.7005708218 0.9133604765 -0.2042321414 0.2989611328
0.07094353437 -0.1060874239 0.6989099383 -0.4658372402 -0.4383787215 0.751716435
0.07460991293 -0.1126729622 0.6977356672 -0.5576304197 -0.326924324 0.756333828
0.08415988088 -0.1102721617 0.7111136317 -0.443626821 -0.2285382003 0.8419135809
-0.02605455555 -0.1897134334 0.7136808038 -0.8623803854 -0.1921352446 0.3857692182
-0.007788343355 -0.1944693774 0.7427077889 -0.6325084567 -0.4711940289 0.6132773161
0.03295824304 -0.2152335644 0.7449510098 0.0963261649 -0.5685963035 0.8119496703
0.04912561923 -0.1789672375 0.767306447 0.3044618964 -0.5574466586 0.7640203238
0.0544886291 -0.1837582886 0.7622910738 0.4373545051 -0.5197181106 0.7337694168
0.05145465583 -0.1888406575 0.7586731315 0.3882469833 -0.5645315647 0.7261887193
-0.02536802925 -0.1993783116 0.7128335238 -0.8568100333 -0.3537348211 0.3712127507
-0.006157495547 -0.2110273391 0.7335044742 -0.6044043303 -0.4404495955 0.6583835483
-0.007006612141 -0.2167758495 0.7292608023 -0.5972424746 -0.444434613 0.6627033353
0.04680448398 -0.09501996636 0.6907777786 -0.2518959939 -0.6136694551 0.7456644177
0.0388883464 -0.1784614474 0.7686832547 0.1700216979 -0.5818339586 0.7922939062
0.04039485008 -0.1888248324 0.7645134926 0.1851849854 -0.5990820527 0.7748997808
0.01743279211 -0.1858702153 0.7661705017 -0.2058931887 -0.5291877985 0.8195052743
-0.002437720541 -0.09192385525 0.7057210803 0.5542344451 -0.5692825317 0.6054103971
-0.003109112848 -0.09866933525 0.7021267414 0.5832642913 -0.5415199399 0.598424077
-0.009808064438 -0.1314672828 0.6782267094 0.6314518452 -0.5013659596 0.5861694813
-0.01798278838 -0.1326028407 0.6886723638 0.7425280809 -0.4567133784 0.4863632619
-0.01340396982 -0.1305191368 0.6843219995 0.684094727 -0.4847962558 0.5365920067
-0.007546173409 -0.1262290031 0.6815612316 0.604922235 -0.521468699 0.599206388
0.05303879455 -0.08518002927 0.7010197639 -0.2833794653 -0.6305142045 0.7216470242
0.06029163674 -0.08701919764 0.703817904 -0.3338118494 -0.5800559521 0.7400215268
0.06729467213 -0.08968956023 0.7064988017 -0.3794175386 -0.5292898417 0.7568428516
0.06594000757 -0.2095879763 0.7321795225 0.6185957789 -0.4971164167 0.6081656814
0.07186357677 -0.2141356617 0.7225422859 0.7153925896 -0.4503985643 0.5324929357
0.06432891637 -0.198172763 0.7433613539 0.5903577805 -0.4970261753 0.6348834634
0.06557305157 -0.2029328793 0.7380486727 0.605288744 -0.4969265461 0.6197413802
0.05095216632 -0.1940573901 0.7553529739 0.3787499666 -0.5828469992 0.7132421136
0.0401263088 -0.2099239379 0.7476336956 0.1803906113 -0.5908660293 0.7837641239
0.05464032665 -0.1986498982 0.74906075 0.4497478008 -0.5498275161 0.6963086128
0.03756218031 -0.1970439553 0.7572159171 0.1772613674 -0.6171768308 0.7651817799
0.08144515008 -0.1496530473 0.6772719622 -0.3249207437 -0.7544157505 0.5444348454
0.08613920957 -0.1719210744 0.7002785802 0.4565421641 -0.4441617727 0.3594913781
0.08726597577 -0.1628332883 0.7091705203 0.2366720736 -0.2859081328 0.4302908778
0.08562251925 -0.1597195864 0.7008353472 0.1185854524 -0.4931807518 0.4096595943
0.08796124905 -0.1452746391 0.7027829885 -0.294485569 -0.3064053953 0.5342896581
0.08890144527 -0.1571208388 0.7056843638 0.07842229307 -0.2964365482 0.4603213072
0.08590849489 -0.1416483074 0.695263803 -0.4321548939 -0.4997733831 0.5206567645
0.08640737087 -0.1506536752 0.6966584325 -0.151550144 -0.5154711008 0.4599901438
0.08283112943 -0.1707244068 0.7295901179 0.4834195375 -0.412593931 0.5089039207
0.08732691407 -0.1334845871 0.7040848136 -0.6569368243 -0.2427034974 0.6322143674
0.08179555833 -0.1764729619 0.7349354029 0.6598408222 -0.4484483004 0.499745518
0.08445863426 -0.1622480303 0.7212939262 0.2231674194 -0.3568921089 0.5195017457
0.08490678668 -0.1694636643 0.7207973599 0.4426212609 -0.3526206911 0.4574637413
0.08442837745 -0.1788558662 0.7279984951 0.7419064045 -0.4078943431 0.4361751676
0.08936538547 -0.1727382988 0.7112842798 0.566914916 -0.3042257428 0.37468189
0.0865637213 -0.1423794925 0.7093602419 -0.3832504451 -0.2786571085 0.5976245403
0.08467395604 -0.1539471298 0.7188693881 -0.03006422333 -0.3413554728 0.5698800087
0.08589261025 -0.1503234804 0.7140308619 -0.1388255805 -0.3104929924 0.5664492846
0.08716056496 -0.1655796319 0.7154131532 0.338239789 -0.3258482814 0.4571217895
0.08737410605 -0.1769238859 0.7186052203 0.6907947063 -0.3503255844 0.3899342418
0.08809751272 -0.1507699639 0.7076382041 -0.1183723286 -0.272123903 0.5213177204
0.08653324097 -0.1588532627 0.7150063515 0.1276990175 -0.3203010559 0.5066447854
0.08476997167 -0.130098924 0.6990889311 -0.6774551868 -0.3298854232 0.6324877143
0.07264617085 -0.1337843239 0.6792467237 -0.5688501596 -0.6010690331 0.5533863306
0.06824897975 -0.1260659993 0.6797680259 -0.583673656 -0.5519022942 0.5923767686
0.05329472944 -0.1062339321 0.68501544 -0.3676271737 -0.5844042301 0.7231939435
0.04799286276 -0.1086262688 0.6809973717 -0.3051626086 -0.6023826599 0.7366296649
0.07553421706 -0.1000519171 0.7065171599 -0.4281010032 -0.4018555284 0.7922349572
0.08056161553 -0.1036055535 0.7109261155 -0.3453993797 -0.2099909186 0.8896716237
0.07864950597 -0.1081799567 0.7049369812 -0.4810250103 -0.2624835074 0.8179222941
-0.02558581531 -0.1946362555 0.7192499638 -0.85333848 -0.3260057867 0.401712209
-0.02223457024 -0.2015575916 0.7202623487 -0.822040081 -0.3780113161 0.4229126275
0.0005535397213 -0.1880510747 0.7545220256 -0.4894404411 -0.5215495229 0.6924789548
0.009126913734 -0.1843152046 0.7609211206 -0.3491202891 -0.5316887498 0.7556529641
0.01044820249 -0.1783754379 0.7647328377 -0.3154487014 -0.5125663877 0.7854537368
0.0111818593 -0.1946267486 0.7568815351 -0.3201770782 -0.5680452585 0.7528111935
0.006355603691 -0.1914828122 0.7589522004 -0.4074107111 -0.5252388716 0.7418589592
0.0142234331 -0.1908930689 0.7620722055 -0.2572263181 -0.5524230599 0.7906493545
0.001154278638 -0.1854933798 0.7598515749 -0.4540323913 -0.5023430586 0.7326271534
-0.01224220637 -0.1912298501 0.7402426004 -0.6821517944 -0.4470543265 0.5775114894
-0.01499198936 -0.1937851161 0.7347486615 -0.7397729158 -0.3917581141 0.5451104641
-0.0155631965 -0.2089224905 0.7249266505 -0.7472440004 -0.3822031021 0.5425360799
0.04010405019 -0.08805736154 0.6954628825 -0.1297040135 -0.6486498117 0.7440569997
0.0460437797 -0.08426363766 0.6995482445 -0.2263366282 -0.6635910869 0.7122930884
0.02559902705 -0.176995486 0.7709881067 -0.0647502467 -0.5352341533 0.8405560255
0.04316520691 -0.1913845092 0.7596923113 0.2515069246 -0.5951229334 0.7532509565
0.03186066076 -0.1781100184 0.7689697742 0.03983547166 -0.5654572845 0.8128484488
0.03544463962 -0.1848880053 0.7657613158 0.1121344566 -0.5933515429 0.7947922945
-0.01137042698 -0.1004063711 0.708788693 0.6794629097 -0.4932161868 0.5428082347
-0.02319650352 -0.1552124321 0.6805461049 0.665666461 -0.3319033682 0.5001239777
-0.02994234115 -0.1735302955 0.6840270162 -0.366168797 0.04343042523 0.2958436012
-0.02966115437 -0.1861661077 0.6939432621 -0.7785666585 0.2253562659 0.3514854312
-0.02762988582 -0.1788926423 0.6902945042 -0.4069508612 0.08250902593 0.3991233706
0.005732895806 -0.1965291649 0.7528743148 -0.4259622693 -0.5550310612 0.7130710483
0.007531395648 -0.2011363059 0.7495697737 -0.3714461923 -0.5466101766 0.7365892529
-0.001696734689 -0.2226551622 0.7329855561 -0.4931441844 -0.4871369302 0.7197334766
0.005337713286 -0.2229712605 0.7353137136 -0.4076413214 -0.5210955739 0.7497034073
0.007778317202 -0.2139975429 0.7416249514 -0.3849743903 -0.5016011 0.7708251476
0.1038839519 -0.124053888 0.6743437648 0.4466096461 -0.4127535224 0.6524195671
0.09194424003 -0.1291792989 0.694514811 -0.4121321738 -0.2805761397 0.6528274417
0.09987060726 -0.127270475 0.6782251 0.2322885841 -0.389216423 0.6669034362
0.09473640472 -0.1281141043 0.6892582178 -0.1991089284 -0.3142469823 0.6610626578
0.1013619155 -0.1302652955 0.6709392667 0.4750752151 -0.4492734969 0.6442941427
0.09652276337 -0.1298940182 0.6828076243 0.02617303841 -0.3648302555 0.6475397348
-0.01724025421 -0.1246117428 0.6951831579 0.754280746 -0.45346421 0.4745716751
-0.009115710855 -0.1498457491 0.6634927988 0.5843971968 -0.4827476442 0.6509869099
-0.01379474159 -0.1438708603 0.6737319231 0.6686669588 -0.4858424664 0.5623313785
-0.01222094335 -0.1381123513 0.6756412387 0.6641626954 -0.4821355343 0.5710206032
0.03422361985 -0.09403954446 0.6891032457 -0.04721337557 -0.6456492543 0.7604819536
0.02558697388 -0.09615552425 0.6879590154 0.1135026962 -0.6414471269 0.7577983737
0.002578980522 -0.1230819598 0.6755399108 0.4487924278 -0.5779697299 0.6804689765
-0.01797084324 -0.1379401088 0.6828842163 0.7227723002 -0.4647448957 0.5112574697
0.0529236123 -0.0955683589 0.6926467419 -0.3448696136 -0.5949155688 0.7252918482
0.05656349659 -0.09094140679 0.6992301941 -0.3429225385 -0.596927166 0.7239716649
0.05001667887 -0.09009905905 0.6966269016 -0.2867841423 -0.6232444644 0.7238579988
0.04501272365 -0.1500557065 0.6421250105 -0.2308064103 -0.6102548838 0.7546821237
0.04700297862 -0.1426271498 0.6519160867 -0.2876553535 -0.6019918919 0.7417895794
0.053000357 -0.1485371888 0.6501685977 -0.352347523 -0.5673918724 0.7320219278
0.06052778661 -0.1485312879 0.6554151773 -0.4562962949 -0.5404224396 0.7055530548
0.06689212471 -0.1499695331 0.6609764695 -0.4077920318 -0.5305421352 0.742626071
0.05997828767 -0.2032211125 0.7418958545 0.5219947696 -0.5260358453 0.6617999077
0.05557331443 -0.2082532048 0.7418689728 0.4596693218 -0.5415452123 0.7031484842
0.04942632839 -0.2076501697 0.7448710203 0.3443271816 -0.5489632487 0.7538319826
0.04532531649 -0.2047540247 0.7498480678 0.2752861381 -0.5767198801 0.7672128677
0.04825672507 -0.1999083608 0.7524553537 0.3257535696 -0.5859544873 0.7351198196
0.08961670846 -0.1433559209 0.6759367585 0.1829769015 -0.6988027096 0.5114964247
0.08534127474 -0.1443269253 0.6811575294 -0.1908942014 -0.7371133566 0.5098090172
0.08679004014 -0.1504224092 0.6727757454 0.1920574754 -0.7628071904 0.5544384122
0.08236246556 -0.1181292832 0.7036678195 -0.63541013 -0.2327973396 0.7289301753
0.08688255399 -0.1160164624 0.7103715539 -0.5553600192 -0.2990733683 0.7746109962
0.08197833598 -0.1243921667 0.6999753714 -0.6890744567 -0.2777993679 0.6611565948
0.08648700267 -0.1259518266 0.7042401433 -0.7268961072 -0.1998343915 0.6568267345
0.09937956929 -0.1198818684 0.6924764514 0.2153873146 -0.2637169659 0.6071690917
0.09368485957 -0.1136511192 0.7038816214 0.49617365 -0.09637755901 0.6808388233
0.09253483266 -0.1211021915 0.7049561739 -0.1721436083 -0.1557020396 0.6666270494
0.09638367593 -0.1177305058 0.698317647 0.2693243921 -0.1877269596 0.6421629786
0.09528627247 -0.1244719997 0.6993950009 -0.3377247453 -0.2403955907 0.629832685
0.09253602475 -0.1182180122 0.7120111585 -0.2546553314 -0.1797168553 0.8563770056
0.07617902011 -0.119138971 0.6955544949 -0.6084707379 -0.3475554287 0.709659338
0.07867776603 -0.1264490932 0.6940262914 -0.6503251195 -0.4073289633 0.6268132925
0.08179008961 -0.1315653622 0.6934341192 -0.6157864332 -0.5578635335 0.5342487693
0.09991527349 -0.09965915233 0.6821111441 0.4905252755 -0.6152440906 0.615496397
0.06991101056 -0.09773218632 0.7031674981 -0.4062001705 -0.5284215808 0.7443871498
0.07270362973 -0.09268198162 0.705149889 -0.246815294 -0.3517132401 0.7797605395
0.08235070109 -0.09803076088 0.7041174769 0.09011666477 0.06981476396 0.9347321391
0.08340362459 -0.1005619839 0.7168156505 -0.1993872374 -0.1042662933 0.9662739038
0.07926372439 -0.09729925543 0.7143027186 -0.2652076483 -0.2344127297 0.9045188427
0.07476038486 -0.09412618726 0.7109180093 -0.3391506076 -0.3793818951 0.8302564621
-0.02932909876 -0.1892323345 0.7189383507 -0.8553643823 -0.3307678699 0.3933112621
-0.03254887834 -0.1909615099 0.7052997351 -0.9112198353 -0.1544458568 0.3355872035
-0.03357709944 -0.1926329285 0.6983863115 -0.9332612753 -0.06820562482 0.3139480054
-0.03500344604 -0.1829000562 0.6878021359 -0.9413866997 0.2246721983 0.1496226043
-0.008462800644 -0.1787739098 0.7557061315 -0.5609732866 -0.4774501622 0.6731334329
-0.003827067325 -0.1912883967 0.7505173087 -0.5697438717 -0.5112365484 0.6422864199
0.07036583126 -0.1414965987 0.6696971655 -0.5213287473 -0.5565400124 0.6445950866
0.07728458196 -0.1516634375 0.6707748175 -0.3592458069 -0.7076945901 0.5963210464
0.07339390367 -0.139458105 0.6752328277 -0.544490993 -0.590126574 0.5825814605
0.07573012263 -0.1453708857 0.6736801863 -0.4525465965 -0.6547744274 0.5812228918
0.07991997153 -0.1400910467 0.6830208898 -0.5175139904 -0.6790572405 0.5035846829
0.04871143401 -0.1468365043 0.646015048 -0.3124040365 -0.5844731331 0.7404288054
0.03649083897 -0.1444764137 0.6444460154 -0.1288394332 -0.6393873096 0.7566492558
0.04304454476 -0.1440142095 0.6463156343 -0.2269276232 -0.6117787957 0.7570025921
-0.02418957278 -0.1100895628 0.7199244499 0.7409189343 -0.4353803992 0.5111253858
-0.01334201824 -0.1230485961 0.6909107566 0.7038699389 -0.4819422364 0.5119752884
0.02888231166 -0.2108100951 0.7466293573 0.01434044633 -0.5481073856 0.8275870681
0.02639606968 -0.2165820748 0.7416400909 -0.01375715621 -0.5416772366 0.8343114257
0.02075723 -0.2120662183 0.7476626635 -0.1133621633 -0.5369200706 0.8357269168
0.01479393058 -0.2103354782 0.7459528446 -0.2022384703 -0.5439812541 0.8137946725
-0.004102864768 -0.1995495558 0.7441414595 -0.5677389503 -0.483335048 0.6644618511
0.0005504183355 -0.1968248785 0.7494034171 -0.519698143 -0.527782619 0.6714254022
-0.006266741082 -0.2058430612 0.7370061874 -0.6225264668 -0.4199387729 0.6583521366
-0.003052175278 -0.2174091041 0.7348277569 -0.5229708552 -0.4763689637 0.7063139677
0.002088228241 -0.2146793604 0.7388435006 -0.4631043673 -0.4876304269 0.7374818325
0.001673364663 -0.204972133 0.7430308461 -0.4962957501 -0.4870942533 0.710101068
0.007581473328 -0.2087020725 0.7453821301 -0.3916822076 -0.5274048448 0.7523316741
0.01761441678 -0.216267392 0.7419539094 -0.1551265121 -0.5285108089 0.8327462077
0.02088549733 -0.2225050032 0.7372477651 -0.08952431381 -0.5384575725 0.8265652061
0.01317259949 -0.2238305658 0.7364720702 -0.2482862324 -0.5342487097 0.791077435
0.017894499 -0.1448560059 0.6494279504 0.2337197363 -0.5874770284 0.7740425467
-0.01362584345 -0.1490305066 0.6693391204 0.6529683471 -0.4778139591 0.5859241486
-0.02706701308 -0.1684319526 0.6801893115 -0.1396242231 -0.06718415022 0.3506516814
-0.02000377513 -0.1535505354 0.6739892364 0.7306042314 -0.4018176794 0.536377728
-0.02472496778 -0.1627227068 0.6764711738 0.0754282102 -0.1947281957 0.3422536254
-0.01918202825 -0.1478419155 0.6774904132 0.7169757485 -0.4436589479 0.5364800096
0.02062372863 -0.09330572188 0.6912617683 0.2168637961 -0.6494091153 0.7262538075
0.01916401275 -0.0892604813 0.696056962 0.251608789 -0.6517001987 0.7106524706
0.03647146374 -0.09948258847 0.6848552823 -0.09839262068 -0.6308854222 0.7675626278
0.04314570129 -0.09952859581 0.6860070825 -0.2041196823 -0.6167166829 0.7581425309
0.01534528565 -0.09625188261 0.6907491088 0.278555721 -0.6280483603 0.7257212996
0.02349648066 -0.102189295 0.6838255525 0.1721279174 -0.631659627 0.754560411
-0.008539453149 -0.143690303 0.6685934067 0.6177290678 -0.4978666902 0.6070424914
0.04618861154 -0.1364923716 0.6579330564 -0.2598106861 -0.6336448789 0.7144545913
0.04106168821 -0.1392870843 0.6529818773 -0.1771286428 -0.6351745725 0.7488036752
-0.02644695528 -0.1531437486 0.7204598188 0.2128172219 -0.4162815809 0.4803127348
-0.02416459844 -0.1634290367 0.727570653 -0.1244583577 -0.4189002514 0.5040004849
-0.0228779912 -0.1692443043 0.7315334678 -0.3146166503 -0.4202607274 0.5171653628
-0.02162197419 -0.1774410158 0.7353941202 -0.5900931954 -0.4125386775 0.5216504335
-0.02349683642 -0.1750790477 0.7275892496 -0.5051190257 -0.386239022 0.4764044285
-0.02473867685 -0.1787701845 0.7208620906 -0.6164542437 -0.3481309414 0.424565196
-0.0251420252 -0.1676009446 0.7223423123 -0.2581548989 -0.38443923 0.4591945708
-0.02218357846 -0.1843275875 0.7338769436 -0.7597613335 -0.398331672 0.5054816604
-0.02612545714 -0.1883947551 0.7247200012 -0.8161171079 -0.3574841917 0.4419702888
-0.02005197667 -0.1815569997 0.7408127189 -0.7192450762 -0.4253724515 0.5491709709
-0.01805365458 -0.1876657605 0.737539351 -0.7220689654 -0.4204414487 0.5465877056
-0.01970842853 -0.1879995167 0.7290744185 -0.7772490382 -0.3820756376 0.4979605675
0.05991381407 -0.0972392261 0.6959706545 -0.3828397393 -0.5513481498 0.7404679656
0.06541869044 -0.1018089056 0.6967280507 -0.4145161211 -0.5302761793 0.7383203506
0.07347339392 -0.09853415191 0.696644187 -0.07002785057 -0.2326557338 0.7847920656
0.0803675577 -0.09881203622 0.6932101846 0.08479053527 -0.3098720312 0.7505943775
0.08813083172 -0.0991827473 0.6900942326 0.2708669901 -0.3319436908 0.7256246209
0.06442946196 -0.09654854238 0.6998298764 -0.3987058401 -0.5379506946 0.7425077558
0.08230533451 -0.1465938836 0.6671760082 0.0624759756 -0.6951790452 0.6245481372
0.08801925182 -0.1411252618 0.6671947837 0.3651971519 -0.6454455256 0.6566748619
0.07643250376 -0.1459127516 0.6626326442 0.005786193535 -0.6551306844 0.6398991942
0.07390148938 -0.151937753 0.6647855639 -0.3447513878 -0.639649272 0.6585992575
0.1022195145 -0.1055719629 0.6829848886 0.7054077983 -0.355335027 0.6042102575
0.1061652899 -0.1120736897 0.6777166128 0.725929141 -0.4084434807 0.5456728339
0.1002083942 -0.1117575914 0.6904999018 0.7236003876 -0.2433729768 0.6148243546
0.104209803 -0.114612624 0.6832903028 0.7282109261 -0.3254545331 0.5725144148
0.09878334403 -0.1149316505 0.671364665 0.5267826319 -0.4699190855 0.706728816
0.0953906551 -0.1076110229 0.6988403797 0.6924346685 -0.04870536551 0.6939111352
0.09235147387 -0.1084249318 0.7075487375 0.3421663642 0.005258067511 0.8232477307
0.08777219802 -0.1039568782 0.7122443914 0.09228469431 -0.03892361 0.8898681402
0.09227039665 -0.1120289043 0.7125622034 0.01005114429 -0.1126069203 0.9123071432
0.0970498547 -0.1282932162 0.6661621928 0.4925679862 -0.4769173861 0.7261410356
0.0634881407 -0.126330629 0.6746914387 -0.4948004484 -0.5765104294 0.6492094994
0.06652598083 -0.1330345422 0.6727317572 -0.4999837279 -0.5866363645 0.6367891431
0.05398803949 -0.127610743 0.6669843197 -0.3971204162 -0.5917268395 0.7014514804
0.04813715443 -0.114533335 0.6761863828 -0.2949201465 -0.6153723598 0.7282464504
0.05139229447 -0.1205300093 0.6721833944 -0.3331003189 -0.6094410419 0.7158585191
0.06969803572 -0.1218023449 0.685577929 -0.6014695168 -0.4941651821 0.6221084595
0.0710394606 -0.1168033183 0.691652298 -0.5891185403 -0.4589990973 0.6614739895
0.02313865349 -0.1870322376 0.7644529343 -0.1120060086 -0.5696119666 0.8118907809
0.0331656523 -0.1908350885 0.7627988458 0.06874626875 -0.5995098352 0.7938133478
0.0245339293 -0.1949103177 0.7599747777 -0.07783470303 -0.6061826944 0.7905492187
-0.01351171266 -0.1844899207 0.7433915734 -0.6780941486 -0.4463700354 0.5797718763
-0.01322712284 -0.1818141937 0.7499013543 -0.6431580186 -0.4717867076 0.6019690633
-0.01037858333 -0.1877398193 0.7470745444 -0.6330889463 -0.478410393 0.6074206829
-0.02646019496 -0.1426541507 0.7039498091 0.6963543892 -0.4280008376 0.4503395557
-0.02513409406 -0.1588588357 0.7227281332 0.04391888902 -0.4160301983 0.4884642959
-0.02531370893 -0.1524657607 0.7140321136 0.3211233914 -0.4230031669 0.4728422463
-0.02831068076 -0.1447901726 0.7140156031 0.4935994148 -0.4131573141 0.4587903619
-0.02287436463 -0.18326056 0.7264974117 -0.7543131113 -0.3638397455 0.455665499
-0.02436355315 -0.1634098291 0.7153264284 -0.03597725183 -0.398214668 0.4558216631
-0.02544151433 -0.147853896 0.7069585919 0.5269014835 -0.4268339872 0.458540827
-0.03025316633 -0.1401361078 0.7084320784 0.655172646 -0.4048064947 0.4334074855
-0.03060593829 -0.174157545 0.7143888474 -0.4148645699 -0.3474514782 0.3909736276
-0.03037829883 -0.1554318815 0.7115647793 0.1667544097 -0.3782452345 0.4150178134
-0.02901038155 -0.16748631 0.714923203 -0.2239738554 -0.3602754176 0.4096075892
-0.02431345917 -0.1733836979 0.7144827843 -0.3594872653 -0.3598655462 0.4345065057
-0.02411627397 -0.1675374657 0.7066494226 -0.06924433261 -0.3651843071 0.451230824
-0.02412374318 -0.1535130739 0.692384541 0.5557246804 -0.384090513 0.4790243506
-0.02528251521 -0.1532815695 0.7030636668 0.3941398859 -0.3992256522 0.4497604966
-0.02441819571 -0.1747850627 0.7048072219 -0.2992613912 -0.2644951046 0.4420359731
-0.02578899451 -0.175072819 0.6980347633 -0.286978215 -0.1249903962 0.4277931452
-0.02416075394 -0.1805614233 0.7141381502 -0.5858594179 -0.2993350029 0.4308177829
-0.02686106041 -0.1810135543 0.7006385922 -0.5560692549 -0.0243574474 0.4030345082
-0.02353551425 -0.1587212682 0.687220335 0.4670669436 -0.3307940364 0.489043504
-0.02364465781 -0.1628081203 0.6922984123 0.2698868513 -0.3257090449 0.4782256782
-0.02393971011 -0.1675504446 0.6973101497 0.04431382939 -0.3026179969 0.4640072882
-0.02705418691 -0.1867803186 0.7075994611 -0.8335503936 -0.01318894885 0.3873830438
-0.02617990971 -0.1701123863 0.6891335249 -0.03760267422 -0.07773468643 0.4357470572
-0.02857171372 -0.1873439252 0.7004407644 -0.8319010735 0.1408849955 0.3710317612
-0.02926001884 -0.1603497118 0.702236414 0.02154060267 -0.2960447073 0.3343193829
-0.030299481 -0.1829936355 0.7150858045 -0.6777746081 -0.3345829546 0.3805690706
-0.03161076084 -0.1733990163 0.7006776333 -0.5240656137 -0.166066438 0.2239886969
-0.03322283179 -0.1775604784 0.6957675219 -0.7682682276 -0.04969069362 0.1213637218
-0.02781806514 -0.147603333 0.6993879676 0.48494187 -0.3487922251 0.3752893806
-0.03158793226 -0.1633360237 0.6927204132 -0.2490357757 -0.1107909009 0.1690973043
-0.02859752439 -0.1632712632 0.7079705596 -0.00383597007 -0.3702252209 0.4025808871
-0.03257754445 -0.1705971211 0.6934824586 -0.5267085433 -0.06613048911 0.1326058507
-0.03446102515 -0.1758086532 0.688026011 -0.8215106726 0.0678499341 0.01467104815
-0.03051031008 -0.1735392064 0.7064212561 -0.4382863343 -0.262470156 0.3108332157
-0.0316478461 -0.1813978702 0.7069057822 -0.7442225218 -0.2083586603 0.2661399245
-0.02613192424 -0.1421505064 0.6967812181 0.7385483384 -0.4170164764 0.4414698184
-0.03262348473 -0.1673152745 0.6861182451 -0.462122947 -0.01250492781 0.0876140967
-0.02995135821 -0.1558283716 0.6925812364 0.07649829239 -0.1931093335 0.2421013862
-0.02674183808 -0.1464194208 0.692278862 0.5508132577 -0.3552184999 0.3933195174
-0.02954659052 -0.1617463976 0.6848909855 -0.05087220296 -0.1352043301 0.2255500108
-0.02709467337 -0.153378576 0.6869036555 0.3591803908 -0.2739313245 0.3505837321
-0.006394464057 -0.185925737 0.7528884411 -0.5748971105 -0.4967904091 0.6456772685
-0.004064086825 -0.1813012958 0.7586767077 -0.5045179129 -0.4884542525 0.7081068158
0.002535053529 -0.1783529967 0.7629905343 -0.4227477908 -0.4929144382 0.7596711516
-0.0215153154 -0.112354368 0.713768363 0.7512141466 -0.4267849922 0.503205657
0.02915075794 -0.1980597377 0.7568073869 0.01248917822 -0.6228548288 0.7755923867
0.03885623813 -0.2029732764 0.7521793842 0.1663707644 -0.5928190351 0.7817822099
0.03165829182 -0.2045823783 0.7522809505 0.04961792752 -0.5991811156 0.7966672182
0.01981348544 -0.2056878507 0.7512705922 -0.1394929439 -0.5731760859 0.8036334515
0.01834077388 -0.1982620656 0.7569935322 -0.1804818213 -0.5956643224 0.7787172794
0.01440022886 -0.2023563534 0.7532233 -0.2418721467 -0.5976071954 0.7621609569
0.01632752642 -0.2220952213 0.7439751625 -0.1642386615 -0.5552761555 0.8140012622
-0.02339596488 -0.1423588693 0.6878538728 0.7591798306 -0.4391713738 0.4800349176
0.004185231868 -0.09765524417 0.6959311962 0.4675211906 -0.5941330791 0.6529095173
0.00898506213 -0.1005943567 0.6913944483 0.4161814749 -0.593343854 0.6862923503
0.001052507549 -0.1449718177 0.6567658186 0.4830647111 -0.5197427273 0.7026406527
0.03459431976 -0.1353696734 0.6536114216 -0.04437348247 -0.6600638628 0.7496444583
0.02930830605 -0.1379178911 0.6508723497 0.0412081629 -0.6445481777 0.7609917521
0.02526511624 -0.1439482868 0.6472175717 0.08811716735 -0.6394347548 0.7607662082
0.04261376336 -0.1066050231 0.6808481812 -0.2166227251 -0.6173383594 0.7551270127
-0.0195426289 -0.119070515 0.7049131393 0.7643013597 -0.423155427 0.4860465527
-0.01449132059 -0.1166600809 0.6988072395 0.7276022434 -0.4621592164 0.5055498481
-0.01652962528 -0.1117519513 0.7064933181 0.7393109798 -0.4391747117 0.5100003481
-0.01588018425 -0.1050692499 0.7101138234 0.7112858891 -0.4524710476 0.5376270413
-0.007461177185 -0.1051957384 0.7010396719 0.6473984122 -0.5043997169 0.5708960891
-0.01150878519 -0.1110736355 0.7008056045 0.6949638128 -0.475128442 0.5349063277
0.04020306468 -0.1184335947 0.6702519655 -0.150988251 -0.6517427564 0.7364059687
0.01261856128 -0.1413655728 0.6548655629 0.3303487599 -0.577180624 0.7450491786
0.00865401607 -0.1382172704 0.6589174867 0.3778137863 -0.5790196061 0.7196765542
0.007296288386 -0.1441506147 0.6541711688 0.4051506519 -0.5507161021 0.7277521491
0.01370088011 -0.1175538227 0.6750813127 0.3139673769 -0.6087182164 0.7226734757
0.04492617026 -0.1262981743 0.6649507284 -0.2475565225 -0.6434974074 0.724026382
0.03985611722 -0.132721737 0.6566008329 -0.1473147869 -0.6558001637 0.736441493
0.08800683171 -0.1010497361 0.7059710026 0.1848416924 0.1815452278 0.8642345667
0.08864359558 -0.1002880782 0.6984701753 0.3904212117 0.3357143104 0.8432465792
0.09489820898 -0.09951281548 0.687034905 0.4274946451 -0.3811499774 0.6951174736
0.09402104467 -0.1021360904 0.6960343719 0.5360236764 0.2530709505 0.7236538529
0.09944659472 -0.1036097854 0.6879171729 0.6394222975 -0.2911905348 0.6443500519
0.1077674851 -0.1238275096 0.669896841 0.7050046921 -0.4607734084 0.5301682353
0.07428086549 -0.1276123375 0.6851468682 -0.6468766332 -0.5374774337 0.5386423469
0.0930114463 -0.1216483936 0.6674031615 0.3827747107 -0.4325442016 0.7555561066
0.0865541175 -0.1256358773 0.666996479 0.2243105322 -0.4851724803 0.7284288406
0.08076125383 -0.1336415261 0.6668983102 0.1732806861 -0.533898294 0.7344759107
0.08915542066 -0.1326118559 0.6664887667 0.3835242689 -0.5090349317 0.7437796593
0.07521778345 -0.1291363239 0.6672491431 -0.04542437941 -0.5346260071 0.7107507586
0.1008838341 -0.1200993136 0.6684550047 0.5618507266 -0.4160275757 0.6955455542
0.107592687 -0.117095843 0.6731844544 0.7279599309 -0.444544673 0.5212292075
0.06732799113 -0.1103750616 0.6920768023 -0.5350875854 -0.4993284047 0.6790341735
0.06887862831 -0.111488454 0.6850322485 -0.3703537285 -0.5518530011 0.6597680449
0.0620233044 -0.1090022177 0.6877316236 -0.4598509371 -0.5589213967 0.6809247136
0.07342723757 -0.1078718677 0.6854573488 -0.2073903829 -0.5722119212 0.6615843773
0.06005138904 -0.1028662696 0.6922011375 -0.4279562831 -0.5511005521 0.7151356339
0.074746795 -0.1017974839 0.6892590523 -0.114459075 -0.5761963129 0.6891676188
0.08118545264 -0.102103509 0.6866821647 0.03996637464 -0.5939981341 0.6685745716
0.06841325015 -0.1050060987 0.6887341738 -0.281560123 -0.5681310296 0.6867851615
0.05432266369 -0.1014319658 0.6893696785 -0.3918467164 -0.5707685947 0.7202299833
-0.02398847044 -0.1195729524 0.7125624418 0.7723428011 -0.4162114561 0.4794344306
-0.02489012666 -0.1251065582 0.7086111903 0.7820598483 -0.4150978625 0.4643501639
-0.02314464562 -0.1299966425 0.6984329224 0.763892889 -0.445538491 0.4653461576
-0.02993533947 -0.1343383789 0.7081640959 0.7975627184 -0.4114719629 0.4410195649
-0.02474102937 -0.1358595639 0.6963449121 0.7708461881 -0.4375525117 0.4618889391
-0.02011475153 -0.1258264035 0.7019093633 0.7678725719 -0.4325411618 0.4724437892
-0.02513417974 -0.1309504062 0.7059156299 0.7884832621 -0.4191563427 0.4499094188
0.06911993772 -0.1323595196 0.6673980355 -0.1716703624 -0.5597450137 0.7096819282
0.06426223367 -0.1368108541 0.6666589379 -0.4761220813 -0.5754591823 0.6642791033
0.06404075772 -0.1434804499 0.6620871425 -0.467843473 -0.5454077125 0.6948548555
-0.0039864555 -0.1281339228 0.6752972007 0.5492881536 -0.5384504199 0.6386448741
-0.001181666972 -0.1315245926 0.6703755856 0.5066353083 -0.5590650439 0.6555496454
0.001241405844 -0.1344023347 0.6659330726 0.4718227684 -0.5676417947 0.6724915504
9.494363621e-05 -0.1399894357 0.6611727476 0.4929492176 -0.5352059007 0.6832721233
-0.004269268829 -0.137100637 0.667673409 0.555021286 -0.5258099437 0.6433566213
-0.005877455696 -0.1445386559 0.662565887 0.5709144473 -0.4937592149 0.6554303765
0.001614604145 -0.1065835878 0.6888200045 0.4908717275 -0.5751644373 0.652908206
-0.002183058765 -0.1027050465 0.6960527897 0.5597064495 -0.550717473 0.6187634468
-0.005482617766 -0.1115201563 0.6900762916 0.5930957198 -0.5384989381 0.5946403742
-0.008510487154 -0.1175230965 0.6905199289 0.6346850395 -0.5163911581 0.5718103647
-0.004239182919 -0.1191147789 0.6853345633 0.5665971041 -0.5416070819 0.6164070368
-0.0007975183544 -0.1139099821 0.6865337491 0.5078404546 -0.5569472313 0.6459798813
-0.001374468906 -0.1219281256 0.6804759502 0.5157823563 -0.5581089854 0.6480839252
0.0373111628 -0.1093531996 0.6774077415 -0.1165005863 -0.631806612 0.7626821995
0.04198189825 -0.1132821739 0.6754478812 -0.196162492 -0.6342788339 0.7442804575
0.004209304694 -0.1265802085 0.6705983877 0.4197176695 -0.5908581018 0.6876174212
0.007477680221 -0.1299409568 0.6650161743 0.3734132946 -0.6059736013 0.7012828588
0.01244061906 -0.1338164955 0.6591566205 0.2963672876 -0.6205173731 0.7226907015
0.01775415614 -0.1024408713 0.683881104 0.253592521 -0.6229141951 0.7399893403
0.01666200534 -0.1229664013 0.6685183048 0.2613597512 -0.6377208233 0.7240662575
0.02337009087 -0.1183275804 0.670535326 0.1351542473 -0.6473296285 0.7475443482
0.02823229693 -0.1326339394 0.6590799093 0.05584079027 -0.6555796266 0.7367369533
0.02445243858 -0.1370244175 0.6553359628 0.1221319735 -0.6454339623 0.7471801043
0.01585778035 -0.1288878173 0.6642669439 0.2717336416 -0.6270295382 0.7290171981
0.06081245095 -0.1195628271 0.6776191592 -0.4811334312 -0.5759646893 0.6600050926
0.05799478665 -0.1248109415 0.6713649631 -0.427423656 -0.5807650089 0.6920282245
0.06259071827 -0.128340736 0.6684523225 -0.3887636065 -0.5637202859 0.6923757792
0.07851596177 -0.1234032512 0.6688959002 0.007510105614 -0.4895073771 0.7257752419
0.07467529178 -0.1198619902 0.6736944318 -0.1250678748 -0.5102182627 0.7001435757
0.07015535235 -0.1245397478 0.6701720357 -0.2119145393 -0.5293338299 0.7028339505
0.05795063451 -0.1132388785 0.6822614074 -0.4369499087 -0.5734934211 0.6900605559
0.08989269286 -0.1177065745 0.6713604927 0.2847364545 -0.464407444 0.7230551243
0.08268681169 -0.1174845174 0.6736990809 0.08697959781 -0.5012690425 0.6975521445
0.06421847641 -0.1159611121 0.6826848388 -0.4994136989 -0.547088027 0.6556410193
0.09265981615 -0.1119337976 0.6752161384 0.3488796055 -0.5240412951 0.6854071617
0.08524337411 -0.1086518243 0.679703176 0.134294048 -0.5837403536 0.656230092
0.09573429078 -0.1048849598 0.6796113253 0.4138920307 -0.5813362002 0.6605725884
0.07173175365 -0.1151856557 0.6785699725 -0.2210199386 -0.5704236031 0.6580253243
0.07846850902 -0.1114327013 0.6795033813 -0.04527408257 -0.5818949342 0.6549553275
0.08989325911 -0.1038958579 0.6819582582 0.2494324595 -0.612785995 0.6446009278
0.05944663286 -0.1341407448 0.6640246511 -0.4380705655 -0.5850269794 0.6818687916
0.04857886955 -0.1313210726 0.6616550684 -0.306920588 -0.6359285712 0.7061229348
0.07282166928 -0.1404867768 0.6616995931 -0.03244405612 -0.5508883595 0.7236956358
0.05921767652 -0.1411954463 0.6575340629 -0.3748381138 -0.5805412531 0.6950141788
0.05393646285 -0.137023747 0.6598950028 -0.3932403028 -0.5926727057 0.6998493671
0.05370979756 -0.1425632238 0.6521075964 -0.3918993771 -0.5863084793 0.7044765949
0.02611572109 -0.1125691459 0.6742169261 0.1028202847 -0.6471637487 0.7548701763
0.03080752492 -0.108724907 0.6775365472 0.01196562406 -0.6376803517 0.7649684548
0.03293360397 -0.1141375005 0.6733058691 -0.02610953711 -0.6509999037 0.7552530169
0.01959939115 -0.1129497364 0.675906539 0.2129736543 -0.6267880797 0.7441474199
0.03411860764 -0.1049854234 0.6806584597 -0.06252644211 -0.6320034862 0.7702374458
0.01037160773 -0.1057881266 0.6856623292 0.3810892701 -0.5994417071 0.7033504844
0.02190137841 -0.1076521575 0.6798046231 0.1828259528 -0.6322026253 0.7467121482
0.04082289338 -0.1278954595 0.6609841585 -0.1698409468 -0.658349514 0.7312570214
0.02285850421 -0.1242989525 0.6668412089 0.1789695472 -0.6434697509 0.7367575169
0.02921686135 -0.1250120699 0.6661564708 0.06748843193 -0.6525557041 0.732613802
0.03623817489 -0.1243127212 0.6644924879 -0.06971284002 -0.6653600335 0.74115628
0.03479326144 -0.1209485084 0.6701329947 -0.03032357246 -0.6363300681 0.7328625917
0.01930996962 -0.1328945756 0.6578199267 0.195319429 -0.6440026164 0.7367259264
0.02362136915 -0.1274842918 0.6613483429 0.1330748647 -0.6604204774 0.7353007793
0.03128360957 -0.126751259 0.6605436206 0.002132058842 -0.6716147065 0.7381306291
0.006582078524 -0.1095735505 0.6835514903 0.4113121927 -0.5908690691 0.6934586167
0.01021376438 -0.1232435703 0.6702089906 0.333914578 -0.6209373474 0.7076296806
0.003057025606 -0.1161198616 0.6814155579 0.4412815571 -0.5781977773 0.6851542592
0.01113004889 -0.1122020036 0.6796321273 0.3520519137 -0.6037415862 0.7141089439
