# .PCD v0.7 - Point Cloud Data file format
VERSION 0.7
FIELDS x y z normal_x normal_y normal_z
SIZE 4 4 4 4 4 4
TYPE F F F F F F
COUNT 1 1 1 1 1 1
WIDTH 512
HEIGHT 1
VIEWPOINT 0 0 0 1 0 0 0
POINTS 512
DATA ascii
0.003816056764 -0.1344910562 0.5534068346 0.6543047428 -0.5407864451 0.5281436443
0.03567434847 -0.04857637361 0.5160965323 0.1277339309 -0.6712119579 0.7298962474
0.04090215266 -0.0516153425 0.5214545131 0.1978763193 -0.6777047515 0.7077301741
0.0382444337 -0.04609058797 0.5201910734 0.179076463 -0.6972640753 0.6928808093
0.006474609952 -0.1295368075 0.5539289117 0.6857035756 -0.5102704763 0.5183253288
0.008965372108 -0.1302551031 0.5499074459 0.6787326336 -0.5223152041 0.5157279372
0.01225410029 -0.07369741052 0.5132268667 -0.2518487275 -0.5645692945 0.7815162539
0.03806527331 -0.05528314412 0.5186244845 0.1177317351 -0.6372426152 0.7512598634
0.03654366359 -0.06016605347 0.5192500949 0.07528013736 -0.6017645001 0.7743521333
0.02225701883 -0.04086561501 0.5527848601 -0.1639770865 -0.8598998189 0.4800336063
0.0390852429 -0.03826712817 0.5281752348 0.1684295833 -0.7263731956 0.6580950618
0.03623094037 -0.04297071323 0.5315304995 0.1085504293 -0.739682436 0.6352903843
0.03099189326 -0.04619115219 0.5387288332 0.003084902419 -0.7759697437 0.5840398073
0.03863248229 -0.04817668349 0.5269472003 0.1514112055 -0.708409667 0.670378387
0.04055622593 -0.04346110672 0.5243877769 0.2014081776 -0.707267344 0.6773418188
0.03159538284 -0.03889010474 0.5392754078 0.0184459351 -0.7880498767 0.5763341188
0.03216147423 -0.03363835067 0.5341951251 0.02309115604 -0.7978739142 0.5480011106
0.02416938916 -0.03112844191 0.5454987884 -0.1598698348 -0.8802287579 0.4319418073
0.0361007899 -0.0368344821 0.5323583484 0.1016587317 -0.757958889 0.6146563292
0.02854637243 -0.0355270505 0.5432729721 -0.06249642 -0.8302928209 0.5162771344
0.02565175667 -0.03596233949 0.5485088229 -0.1248136535 -0.8559451699 0.4856100976
-0.007177744061 -0.03481712937 0.528119266 -0.5485252738 -0.5716868639 0.608134985
-0.004578183871 -0.0321841836 0.5327893496 -0.5724084973 -0.5651988387 0.593141973
-0.03844802827 -0.05421237275 0.4928753972 -0.07916781306 -0.6688318849 0.7343301773
-0.004396211822 -0.04482191056 0.523195982 -0.5621626377 -0.57162112 0.5957589149
-0.001095485059 -0.05000791326 0.5221823454 -0.5852971077 -0.56405586 0.5818889737
0.004073076416 -0.07105368376 0.5066771507 -0.411446929 -0.6267151237 0.6588543653
-0.1006213725 -0.1076455712 0.5523534417 -0.8435196877 -0.3772541583 0.3822744191
-0.1008039266 -0.1069592014 0.5471837521 -0.838365376 -0.3810315728 0.3895192444
-0.1009114757 -0.1030051187 0.5545621514 -0.8406426311 -0.382171005 0.3835625052
-0.08229023218 -0.142228514 0.5577227473 -0.6131951809 -0.4953834713 0.6146167517
0.01967847534 -0.04108941555 0.5266394019 -0.2066310495 -0.6153000593 0.6531865597
0.03635730222 -0.04149846733 0.5229566097 0.1419318169 -0.6969921589 0.6864929795
0.03181509301 -0.04436986521 0.5207210779 0.04832371697 -0.6656622291 0.6977214813
0.02187762223 -0.04442697018 0.5225887299 -0.1592219174 -0.6160730124 0.6799242496
0.01007424947 -0.04065493494 0.5289761424 -0.4074330628 -0.5688647628 0.6326537728
0.00551044615 -0.04241940379 0.526982367 -0.4836211801 -0.551209271 0.6306729317
0.02557438798 -0.04701848328 0.5176237822 -0.05356643349 -0.64204216 0.6959459186
0.01643831842 -0.04432186484 0.5236117244 -0.2700772583 -0.5909363031 0.6683935523
0.01008957904 -0.04443396255 0.5220811367 -0.3523376286 -0.5875487924 0.6420949697
0.01598331705 -0.03746891022 0.5309416056 -0.2458397448 -0.633567214 0.6414841413
0.003585525556 -0.03816431761 0.5325613022 -0.50075984 -0.5722173452 0.6253870726
0.02145385742 -0.03737809137 0.53014642 -0.141568765 -0.6602460146 0.642518878
0.02784218453 -0.03208801523 0.5372690558 -0.06422372907 -0.8223341703 0.5016152859
0.0269875396 -0.03587448597 0.5315744281 -0.04976033792 -0.7236790061 0.6029949188
0.01401216444 -0.03260803223 0.5386869907 -0.3197682798 -0.7447478771 0.5136011243
0.02061332203 -0.0335580036 0.5361648202 -0.1881394833 -0.7518251538 0.5399985909
0.03253920376 -0.03776247054 0.5277759433 0.0697176531 -0.7024043202 0.6543886662
0.0085198218 -0.03488099948 0.5360674262 -0.4046002924 -0.662273407 0.5737544298
0.000439294352 -0.0415164791 0.5285867453 -0.5830616355 -0.532592535 0.6132442951
-0.005930332467 -0.04048772156 0.5251513124 -0.5482144952 -0.561091423 0.61886096
-0.07371120155 -0.08882090449 0.6105770469 -0.4313956797 -0.600042522 0.6708541512
-0.06557279825 -0.08895638585 0.6166167259 -0.3024064004 -0.6308971643 0.7108095884
-0.06927259266 -0.09158727527 0.6127821803 -0.3759794533 -0.6086296439 0.6946646571
0.008922677487 -0.03961477056 0.5449270606 -0.4875861406 -0.5834819078 0.633882463
0.0148422718 -0.02848704346 0.5424305797 -0.3133624792 -0.788618207 0.4664872587
0.002487370279 -0.03231168538 0.5351617932 -0.4890297949 -0.6369469762 0.5493599176
0.005031301174 -0.02942927741 0.5395755768 -0.4620123804 -0.6548958421 0.5527505279
0.009079992771 -0.0276212804 0.5427299142 -0.4068698585 -0.7010819912 0.5310089588
0.01976817846 -0.02921633795 0.5428527594 -0.237858966 -0.855034411 0.4245086908
-0.002504153643 -0.02986040898 0.5389668941 -0.5620233417 -0.5774766207 0.591190815
-0.07563469559 -0.1397158653 0.5606547594 -0.5679391623 -0.5123519897 0.6339511275
-0.04569841921 -0.06077411398 0.4880216122 0.04887032509 -0.6610978246 0.7486351728
-0.05310827121 -0.05432851613 0.4939523339 0.1927706897 -0.6602070332 0.7226557136
-0.04782874882 -0.05548779666 0.492035985 0.09726759791 -0.6596471071 0.7410544753
-0.08374877274 -0.06983143091 0.5017462969 0.5171632767 -0.5704100132 0.637796998
-0.04957428202 -0.05068143457 0.496747911 0.1340155452 -0.6704092026 0.7248871922
-0.03828114271 -0.05880992115 0.4888552725 -0.08129347861 -0.6376883388 0.7620521784
-0.003559856676 -0.06064451113 0.5075526237 -0.5343797207 -0.5906274915 0.6043363214
-0.00824348256 -0.0600267835 0.50426054 -0.5401940942 -0.573697865 0.6147950888
0.002868677955 -0.05667791143 0.5079423785 -0.4525338113 -0.533167541 0.666220963
-0.006416286808 -0.138437435 0.5607147217 0.5601766706 -0.5752230883 0.5799469352
-0.007001374848 -0.06310809404 0.5001559854 -0.5519680381 -0.5747359991 0.6029366255
-0.002308835508 -0.06636258215 0.5039456487 -0.4758049846 -0.6044362187 0.6373332739
-0.05052000657 -0.04564150795 0.5018013716 0.1584459096 -0.6716899276 0.7176678777
-0.05423622578 -0.04133639112 0.5062551498 0.2017987818 -0.6706907749 0.7127708793
-0.04777736589 -0.04142743349 0.5050365925 0.1113287136 -0.682852149 0.7202661633
-0.08218089491 -0.09563352913 0.5950431228 -0.6029384732 -0.560344398 0.5653497577
-0.07721333951 -0.09021108598 0.6073474288 -0.4804999828 -0.5853355527 0.6479430199
-0.0805933401 -0.09309649467 0.6000859737 -0.5521338582 -0.5694770217 0.6002414823
0.003101369366 -0.04815993831 0.526765883 -0.5528668761 -0.5817222595 0.5918419957
0.006027902476 -0.0454425402 0.5340892076 -0.5366060734 -0.5709887147 0.6178430319
0.03164503351 -0.04983341694 0.5334020853 0.02126335539 -0.7272081375 0.637057364
0.02339734137 -0.04537832364 0.5473103523 -0.1533289105 -0.8073215485 0.5362662077
0.0278939642 -0.05502158403 0.5329762697 -0.08516085893 -0.68425107 0.6721876264
0.03045147657 -0.05886522308 0.5263592601 -0.04024317861 -0.6323131323 0.7310758829
0.0335126631 -0.05261841044 0.5285904408 0.0541463159 -0.6895205975 0.6798155904
0.03464411199 -0.05642188713 0.5236950517 0.06614172459 -0.643399477 0.7294714451
0.02629504912 -0.04762658104 0.5417847037 -0.09454651922 -0.7716583014 0.5793436766
0.02926132269 -0.06420341134 0.5227690935 -0.08783745021 -0.5780529976 0.7836600542
0.01739059575 -0.04112154618 0.550809741 -0.2557174563 -0.7595312595 0.5562198758
0.0007479958585 -0.02009431832 0.5447390676 -0.4507576823 -0.6946159005 0.5289895535
0.004017216619 -0.02419623174 0.5424104929 -0.4088357985 -0.6926491857 0.5525448322
-0.0008807234117 -0.0243129991 0.5415989757 -0.4806610346 -0.6206102967 0.6081752777
0.01294117421 -0.02629871108 0.5479280353 -0.3677935898 -0.7939227223 0.450360775
0.004768718034 -0.02264987677 0.5488021374 -0.4440765679 -0.7034423351 0.5218033791
-0.002238973742 -0.01952484623 0.5495859385 -0.5096610188 -0.6255626082 0.5833190084
0.0018309562 -0.03170255199 0.5438565016 -0.5424679518 -0.578281939 0.6085278392
-0.0005789289717 -0.02542457916 0.548504293 -0.5366613865 -0.5882470608 0.6041439176
-0.005758065265 -0.02165353484 0.5409725308 -0.5303861499 -0.6063503623 0.5908628702
-0.02820726857 -0.1054241806 0.6070373058 0.2330118865 -0.6626337767 0.7108120918
-0.00774823688 -0.1040513813 0.5956551433 0.5008500814 -0.5870561004 0.6343839765
-0.002911888296 -0.1021383107 0.5913640857 0.5494038463 -0.5698651075 0.6046724319
0.001144306385 -0.1050589308 0.5841298699 0.6266562939 -0.5335988402 0.5672422647
-0.05183130875 -0.06045113131 0.4896364808 0.1658196747 -0.6414211392 0.7388803959
-0.06058717147 -0.06289219856 0.4903225601 0.3186272681 -0.6030920148 0.7298713326
-0.05716414377 -0.05846219137 0.4910761416 0.2548220456 -0.6354404092 0.7272368073
-0.092466712 -0.129729107 0.5482159853 -0.7968068123 -0.3854421973 0.4622576535
-0.09722732753 -0.1179457679 0.5487644076 -0.8319934011 -0.3814480007 0.4021296799
-0.09870052338 -0.1161675751 0.5439923406 -0.8362515569 -0.3755889535 0.3989635408
-0.09986747801 -0.1122106016 0.5490856767 -0.8412427306 -0.3772598505 0.38696751
-0.01102875732 -0.03712727502 0.5235382318 -0.5067668557 -0.585778892 0.6305734515
0.00374255795 -0.05386817455 0.5227544308 -0.4869224727 -0.6243460178 0.6074162722
0.006938469131 -0.05177567899 0.5139485598 -0.3874835372 -0.5106623769 0.716219306
0.01043555234 -0.05552800372 0.5122251511 -0.36696136 -0.4966623187 0.728255868
0.001997802639 -0.05348503217 0.513153851 -0.4839863479 -0.5327897668 0.6512718201
0.02518171445 -0.05376849324 0.5131036639 -0.1062463149 -0.5102526546 0.8126482368
0.01982835867 -0.05440086499 0.5127719045 -0.2024980336 -0.4784919322 0.8116412163
0.03198826686 -0.05218348652 0.5138962865 0.02481811494 -0.5691321492 0.7985793352
0.01740730554 -0.04996423051 0.5148640871 -0.1935107559 -0.575982511 0.7183666825
0.01076316182 -0.04718216881 0.5167155862 -0.2859155536 -0.6082158089 0.6535439491
-0.0003383113362 -0.04671024159 0.5170784593 -0.4702044129 -0.5799923539 0.6187467575
0.01662581787 -0.04605267197 0.5189080238 -0.21154055 -0.6168310046 0.6646497846
0.004154259805 -0.0446151495 0.5208846331 -0.4336752594 -0.5809851885 0.620773375
0.00540212635 -0.04736566916 0.5161794424 -0.3680635989 -0.5964630842 0.6389093995
-0.02191202529 -0.06279554963 0.4909957945 -0.3353703916 -0.5995351076 0.7172865868
-0.008045012131 -0.06761980802 0.4961618483 -0.5199280381 -0.5809268951 0.6235109568
-0.01337055489 -0.06697525829 0.493104279 -0.4285000265 -0.5878617764 0.6643061638
-0.02784752287 -0.06048914418 0.4881719351 -0.2403618097 -0.6100238562 0.7547181249
-0.04343603924 -0.04406835139 0.5023992658 0.04420178384 -0.6844416857 0.7217956185
-0.04387598485 -0.04770857468 0.49875772 0.03760416433 -0.6799954176 0.7305163145
-0.03872842714 -0.05015185475 0.4965386689 -0.07582017779 -0.6797648668 0.7263086438
-0.04414947703 -0.05243747309 0.4939430356 0.03608621284 -0.6641299129 0.7451195717
0.003986432683 -0.0661572814 0.5106130242 -0.4048543274 -0.6286418438 0.6628267169
0.0009945160709 -0.06226561964 0.5105652809 -0.4859654903 -0.6093761325 0.6213136911
0.009371154942 -0.1214872599 0.5517495871 0.704914093 -0.4890261889 0.5137326121
0.01235490944 -0.1240187213 0.5471704602 0.6872848868 -0.5152002573 0.5117365122
0.007421501447 -0.0700186491 0.5135263801 -0.33451581 -0.6352386475 0.6954245567
0.009445494972 -0.0669061169 0.5186772346 -0.2977059782 -0.6038604379 0.7330384254
0.01385957841 -0.06943578273 0.5169042945 -0.2392642647 -0.5666227937 0.7793228626
0.009736921638 -0.04511530325 0.5394935608 -0.4988063574 -0.5701389313 0.6481592059
0.007628491614 -0.05637938902 0.5278270245 -0.3948023319 -0.6190489531 0.6725953221
0.006665971596 -0.05007652193 0.5309196711 -0.4778943062 -0.6039742827 0.6337064505
0.0127560813 -0.05644660443 0.5307394266 -0.2730159163 -0.6947380304 0.6386844516
0.01796768978 -0.05806582049 0.5300716162 -0.2073451728 -0.6676563621 0.675183773
0.01934266835 -0.06183151156 0.5256063938 -0.1876895726 -0.621493578 0.7258040905
0.02009833232 -0.06574116647 0.5207884312 -0.1756030917 -0.5746176243 0.7762171626
0.009400286712 -0.06022484973 0.5249760747 -0.3119376302 -0.6558333039 0.6743739247
0.01922514103 -0.04980412871 0.5410262346 -0.1975381076 -0.7622446418 0.5777546763
0.01489421818 -0.06305900216 0.5228238702 -0.2419227809 -0.6141105294 0.72669065
0.0221026428 -0.0548986122 0.5352611542 -0.1583479196 -0.6982001066 0.6494812965
0.02355144545 -0.05182861909 0.539386332 -0.1468752176 -0.7319797873 0.6157489419
0.02524919994 -0.06754596531 0.5195540786 -0.1169304997 -0.5457090139 0.8138317466
0.02364997193 -0.05930835381 0.5299945474 -0.1365315914 -0.6442567706 0.708494544
0.01031983364 -0.05127094314 0.5344099402 -0.3940952122 -0.6381577253 0.6395167708
0.014366013 -0.05034667999 0.5386503339 -0.270967871 -0.7446318269 0.5801889896
-0.02403011173 -0.144586727 0.5678526163 0.3000513315 -0.6452982426 0.7004570365
-0.002735099522 -0.0703472048 0.4981238842 -0.5443356633 -0.5814709067 0.6030801535
0.009484055452 -0.06693321466 0.5048152208 -0.3602292836 -0.5572471619 0.7104852796
0.01527136099 -0.05825759843 0.5085895061 -0.2798447609 -0.4805070162 0.7816100121
0.01022308972 -0.05817876011 0.5076287985 -0.347854197 -0.5034658313 0.7351415157
0.003491320414 -0.06230643764 0.5050436854 -0.4583959877 -0.5489081144 0.6554608345
0.002549313242 -0.06886526942 0.5013747215 -0.4659777582 -0.5900248885 0.6374657154
0.02317716181 -0.05961964652 0.509503305 -0.1740143448 -0.4508633912 0.8517958522
-0.09375951439 -0.09950822592 0.5717369318 -0.7923844457 -0.4244285226 0.4375788271
-0.09533120692 -0.1023672819 0.5660057068 -0.8132038116 -0.4132853746 0.4085714221
-0.09956850857 -0.09909965098 0.5609750152 -0.8238554597 -0.4059246778 0.3943878412
-0.09195033461 -0.09754282236 0.5789183378 -0.766638577 -0.4409890473 0.4657875896
-0.09028445184 -0.102156803 0.5763155818 -0.7603626847 -0.4509320557 0.4640133381
-0.08712044358 -0.1022203416 0.5817622542 -0.7180169225 -0.4812299907 0.4991542995
-0.05985629559 -0.04602135718 0.5045421124 0.3060598671 -0.6532695293 0.6888219714
-0.06307147443 -0.04974533245 0.5031119585 0.3571691811 -0.6303619742 0.6848121881
-0.05544307828 -0.04755504429 0.5012435913 0.2346062809 -0.6586990952 0.7105205655
-0.08925070614 -0.064870134 0.5118424892 0.5611606836 -0.5506410003 0.6179525256
-0.08722937107 -0.05872098356 0.5174410939 0.5741786957 -0.5516164899 0.6047062874
-0.08620955795 -0.06731718779 0.5072461963 0.5409596562 -0.5592931509 0.6280055046
-0.08178116381 -0.05799980462 0.5087096691 0.556306541 -0.5541557074 0.6191384196
-0.0851977095 -0.06221842766 0.5097398162 0.5570607781 -0.5516917109 0.6207091212
-0.02205872536 -0.01144666411 0.5389590859 -0.3684889972 -0.6912757158 0.6169108152
-0.02765250951 -0.01286664139 0.53561759 -0.2535025477 -0.6983716488 0.6552163959
-0.03224415332 -0.01353935804 0.5333765745 -0.1567842811 -0.7090037465 0.6817640662
-0.03438286483 -0.008724953048 0.5370606184 -0.1254660487 -0.7376773953 0.6627328396
-0.08568931371 -0.04137022421 0.5298989415 0.5822828412 -0.5622450113 0.5869253874
-0.08201042563 -0.04129997268 0.5260228515 0.5603484511 -0.5692774653 0.6007782817
-0.08056350052 -0.03583720326 0.5286363363 0.5668612123 -0.570063889 0.5946850181
-0.07501651347 -0.04419064149 0.5157079101 0.5060770512 -0.588003397 0.630715251
-0.06843657792 -0.0425997898 0.5121343136 0.4087745845 -0.6183822155 0.6691222191
-0.05562098697 -0.02274242416 0.5245902538 0.2223848253 -0.6762059927 0.7014267445
-0.08368229121 -0.1041657925 0.586196661 -0.6761513352 -0.5143048167 0.5263863206
-0.08276446909 -0.09990326315 0.5915284157 -0.6332994699 -0.5449122787 0.5477768779
-0.0868735984 -0.09795010835 0.586196959 -0.7015839815 -0.4891007841 0.5161780715
0.01649134234 -0.03561127931 0.5528513789 -0.276304543 -0.7702759504 0.5623748899
0.003089070087 -0.02897075564 0.5498401523 -0.5265277028 -0.584273994 0.6174389124
0.003172284923 -0.02437960543 0.5546376705 -0.5241190791 -0.5893619061 0.6147369146
0.008021430112 -0.02556785196 0.5527445674 -0.4649665058 -0.6653758883 0.5536802411
0.01323821023 -0.0286976397 0.5524097085 -0.3642039597 -0.7184545994 0.5388045907
0.01973377354 -0.03028893284 0.5488603115 -0.244280681 -0.8269363642 0.4644116759
-0.01325087994 -0.02423815988 0.5327860117 -0.4851274192 -0.6101848483 0.6245064735
-0.01061888877 -0.02839020267 0.5310867429 -0.5182013512 -0.5942363143 0.6122608781
-0.01580809988 -0.02688499354 0.5286200047 -0.4447202086 -0.6120933294 0.6534183025
-0.0141411759 -0.03195111454 0.5253055692 -0.4602291286 -0.5997879505 0.6526786089
-0.02889093198 -0.1112791672 0.6009357572 0.2212323099 -0.6719839573 0.7056604624
-0.01272870973 -0.1454961747 0.5639774799 0.4467873871 -0.6465930939 0.6051377654
-0.01977202669 -0.1486302465 0.5640487075 0.3237202764 -0.6745983958 0.6501820683
-0.008569671772 -0.1362684816 0.5660792589 0.5389769673 -0.5810237527 0.6025165915
-0.01195541304 -0.09951880574 0.6034120917 0.4072744846 -0.6095046401 0.6796415448
-0.0119479727 -0.1036135629 0.5992961526 0.4330930114 -0.617554307 0.6551876068
-0.007893505506 -0.09918344021 0.59949857 0.4452188015 -0.6099464893 0.654917717
-0.06280770153 -0.05718168244 0.4959048033 0.3506470025 -0.6138810515 0.7050162554
-0.06438340992 -0.05386895686 0.499959439 0.3752604127 -0.6179463863 0.6877470613
-0.05589900911 -0.05150905624 0.4977870584 0.2379943281 -0.6544511914 0.7120360136
-0.006219484378 -0.04924038425 0.5178502202 -0.5578343272 -0.5756134987 0.5966920853
-0.009853598662 -0.04489881545 0.5186362267 -0.5323340893 -0.5828961134 0.6130892038
-0.003963756375 -0.05370029435 0.5139663219 -0.5902502537 -0.5613469481 0.5800346136
-0.007334143389 -0.05091878399 0.511313796 -0.5600827932 -0.5747412443 0.5964303017
-0.0064436174 -0.05483397096 0.5076115727 -0.5706530213 -0.5741458535 0.5869886279
-0.01569148526 -0.0494841598 0.5067591071 -0.4628960192 -0.6236635447 0.628439784
-0.01192392036 -0.05310044438 0.5053759813 -0.507834971 -0.6051010489 0.6091802716
-0.03868269175 -0.04092186317 0.5053468943 -0.07894355059 -0.6869108081 0.7164253592
-0.03715412319 -0.03635256737 0.5100699067 -0.1214146763 -0.685305357 0.7143234015
-0.04285093769 -0.03711409867 0.5091354251 0.003996760119 -0.6935916543 0.716638267
-0.08386605978 -0.1323107779 0.5551558733 -0.7096323371 -0.4448646903 0.5301756263
-0.08029579371 -0.1359617114 0.5584905148 -0.6468600035 -0.4741433263 0.5924723744
-0.0865772292 -0.1384471506 0.5540784001 -0.688367188 -0.4429686666 0.5643826127
-0.09026157856 -0.135073483 0.5514349937 -0.7602558732 -0.3967961371 0.5080108047
-0.05703115091 -0.144088015 0.5679892898 -0.2768788934 -0.6331130266 0.7212146521
0.002429486485 -0.05796030164 0.5191838145 -0.4794356823 -0.6044383049 0.6285076141
0.003170674201 -0.06127649546 0.5154201984 -0.4468480647 -0.6159328222 0.6444248557
0.005701804068 -0.06195653975 0.5198898315 -0.3713232577 -0.635588944 0.6743109822
0.03030513413 -0.0596283488 0.5127936602 -0.06875761598 -0.4794823527 0.8693267107
0.0290095862 -0.0683446452 0.5152635574 -0.08685599267 -0.504068017 0.8589711189
0.03248865157 -0.06428732723 0.5150110126 -0.0511807166 -0.5224938989 0.8502936363
0.01968981884 -0.06473156065 0.5100564361 -0.1995045841 -0.512424171 0.8086271286
0.01537918299 -0.06575278193 0.5081398487 -0.2658782601 -0.5341659188 0.7689189911
0.01691823639 -0.07020822167 0.5110372305 -0.2284123451 -0.550575912 0.7781148553
0.02399234846 -0.06788710505 0.5139427185 -0.1179693267 -0.5159451365 0.842069149
0.01124620065 -0.07095950842 0.5082966685 -0.3142593801 -0.5802685022 0.7247020006
0.001417621621 -0.1307384819 0.5602633357 0.6906055212 -0.4945916831 0.5274156928
-0.003214183496 -0.1352447569 0.563853085 0.6211904883 -0.5515516996 0.548468709
-0.001286027604 -0.1375033557 0.557945013 0.6274194717 -0.5578846931 0.5410246849
-0.02567686699 -0.1503565758 0.5654598475 0.2262949646 -0.6912226677 0.6807314157
-0.04286738858 -0.1495519578 0.5671393275 -0.03386598453 -0.6837151647 0.7258810401
-0.03617823124 -0.1511044353 0.5677373409 0.05951377004 -0.6923786998 0.718051672
-0.03815561906 -0.1461274326 0.5694005489 0.03874923289 -0.6780352592 0.7297795415
-0.03254701197 -0.146215409 0.5689017177 0.1262106448 -0.669852078 0.7290935516
-0.07867646962 -0.1292578727 0.5675970316 -0.6073477268 -0.4895291924 0.6252881289
-0.08053704351 -0.1319856346 0.5616346598 -0.6449030042 -0.4756329954 0.5971509218
-0.0417319648 -0.03188959137 0.5142533183 -0.02201870643 -0.6864355206 0.7193373442
-0.0366105251 -0.02977833897 0.5163170695 -0.1288892627 -0.6861945987 0.7136381865
-0.04738372192 -0.03236388788 0.5135729313 0.08717300743 -0.6804392338 0.7253320813
-0.04942157492 -0.02916973829 0.5180073977 0.1360551417 -0.6763672233 0.7106028199
-0.04911285639 -0.03726742789 0.5095704794 0.1121550724 -0.6852201223 0.7142538428
-0.05633502081 -0.03382743523 0.5144249797 0.236822322 -0.6628649235 0.7078184485
-0.06027180329 -0.03214875981 0.5184016228 0.3322219253 -0.6395531297 0.6921465993
-0.06365542859 -0.03659766167 0.5149440765 0.3547978699 -0.6275750399 0.6920648813
-0.05667607859 -0.03824569285 0.5102545023 0.2269801944 -0.6643666625 0.7078356147
-0.01127182879 -0.04776621237 0.5120326281 -0.5238516927 -0.5933103561 0.6100735664
-0.07297136635 -0.06562829763 0.4948381186 0.4599511325 -0.5763993859 0.6746458411
-0.08247604966 -0.03318414465 0.5339369178 0.5817457438 -0.5630131364 0.5866920352
-0.08406706154 -0.02585866861 0.5419964194 0.5566619039 -0.5964147449 0.5780231357
-0.09192980826 -0.02433693968 0.5546651483 0.553493917 -0.5928009748 0.5848881006
-0.08757698536 -0.02537167259 0.5478768349 0.5595656037 -0.59595716 0.5752490163
-0.06714910269 -0.02922699042 0.5243116617 0.4097259045 -0.6178153753 0.6685288548
-0.07939039171 -0.05261643976 0.5115041137 0.5523679852 -0.5637685657 0.6139186025
-0.08486153185 -0.05110636726 0.5219393373 0.5845481157 -0.5547577739 0.5920271277
-0.08364979178 -0.05305457488 0.516458869 0.5763400197 -0.5565001965 0.5983493328
-0.07448128611 -0.04807531834 0.5115202069 0.5082119703 -0.5857072473 0.6306968331
-0.08005388826 -0.04990053549 0.5179679394 0.5446643829 -0.5712572932 0.6115462184
-0.06414420903 -0.1069497019 0.5999920964 -0.3734257519 -0.6507142186 0.6575916409
-0.05770611018 -0.01462652162 0.533041358 0.2465827465 -0.699591279 0.6655260921
-0.05580749735 -0.01812705584 0.5291007161 0.2243548185 -0.6931790709 0.6821413636
-0.03386670724 -0.1033097729 0.6103086472 0.12483906 -0.6727939248 0.7271347046
-0.02485773899 -0.1080089137 0.6025002003 0.2770920396 -0.6571790576 0.7007373571
-0.02505492419 -0.1137055084 0.597515285 0.2669514418 -0.6625793576 0.6979504228
-0.01984104514 -0.1095807627 0.598786056 0.3415908515 -0.6434358954 0.6777470112
-0.07711259276 -0.1002761871 0.5967265964 -0.5699799061 -0.5795994401 0.5788377523
-0.07442218065 -0.1054494083 0.595220685 -0.5400575399 -0.5967145562 0.5909758806
0.01102353353 -0.03696171194 0.5506642461 -0.3498841822 -0.6725506783 0.6128060818
0.006111350842 -0.03489065915 0.5466704369 -0.5072944164 -0.5878630877 0.6214774251
0.01100982912 -0.03315646574 0.5545997024 -0.3297538459 -0.6946729422 0.6057617664
-0.007832142524 -0.01875494607 0.5468961 -0.4964157641 -0.6281260252 0.597510159
-0.01165881101 -0.01424692199 0.5431805253 -0.483386904 -0.6646445394 0.568387568
-0.0006231436273 -0.02096693963 0.5547165871 -0.522074461 -0.5968443155 0.6092086434
-0.01039558928 -0.01968012564 0.5420022607 -0.5004054904 -0.6282933354 0.5934612155
-0.006890818477 -0.02561770938 0.5374149084 -0.5704146624 -0.5852451921 0.5754877925
-0.01458172034 -0.01851545833 0.5372442603 -0.4863098562 -0.6449024081 0.5879268646
-0.02503752522 -0.05897059292 0.4930981994 -0.3053124249 -0.6213962436 0.7163659334
-0.0301600229 -0.05732002109 0.4925860465 -0.2199420035 -0.6403064132 0.7273040414
-0.03275962546 -0.06087479368 0.4886206985 -0.160659194 -0.6256036758 0.7596617341
-0.0165925771 -0.05424036831 0.5015109777 -0.4570232332 -0.6205852032 0.6346279979
-0.02108675241 -0.05709334835 0.4966194034 -0.3798944056 -0.6145656705 0.6883066297
-0.02219583467 -0.05231112614 0.4992681444 -0.3708973527 -0.6353035569 0.6765561104
-0.01621008851 -0.05938080326 0.4967007935 -0.453705579 -0.5996570587 0.6577802896
-0.01126207318 -0.05974468216 0.499699533 -0.5164407492 -0.5828083754 0.62398386
-0.03181418777 -0.04144447669 0.5069126487 -0.2124032378 -0.6802485585 0.6998476982
-0.03127395362 -0.03747203201 0.5108137727 -0.2271191776 -0.6761650443 0.6982819438
-0.02696196176 -0.04000232741 0.5102789998 -0.300398469 -0.6642616391 0.6805872321
-0.02547118999 -0.0358206667 0.5136777163 -0.3116960227 -0.6567696929 0.6863656044
-0.02568579279 -0.04453979433 0.5053841472 -0.3096577823 -0.6608413458 0.6831997037
-0.06438691169 -0.1340294927 0.5745716095 -0.3872441947 -0.6099256277 0.6901654601
-0.0573149994 -0.131767258 0.5801465511 -0.2653222382 -0.6598317027 0.6979591846
-0.05135591701 -0.1506952941 0.5658169389 -0.153421104 -0.6836919785 0.710406065
-0.0518132709 -0.1456235796 0.5697165728 -0.177529633 -0.6632964611 0.7224780917
-0.05803014711 -0.1507927477 0.5650137663 -0.2501936555 -0.6638484597 0.7006150484
-0.06947471201 -0.1383569092 0.5655365586 -0.4579392672 -0.5643950105 0.6738266349
-0.06785452366 -0.1355789155 0.5705974102 -0.435454309 -0.5842977762 0.6809976101
-0.07607322186 -0.1393547505 0.566434741 -0.5351309776 -0.5295601487 0.6560276747
-0.06688072532 -0.1429724097 0.5671759844 -0.389926374 -0.6036967039 0.6923512816
-0.0724677816 -0.1436738819 0.5649147034 -0.4679753184 -0.5691727996 0.6668397188
-0.07821266353 -0.1450800151 0.5623053908 -0.5462210178 -0.5348237753 0.6400206685
-0.06791017205 -0.1475662887 0.5639187098 -0.4061921239 -0.6036267877 0.6774681211
-0.005216570571 -0.1313674748 0.5684496164 0.6016097665 -0.5503284335 0.5734443069
-0.05278262123 -0.1077661216 0.6049461365 -0.1846389025 -0.685433507 0.7006754279
-0.04741845652 -0.1107015312 0.60294348 -0.09330102056 -0.6949666739 0.709663868
-0.05374680459 -0.1112567857 0.601344347 -0.2047809809 -0.692055583 0.6909729242
-0.04580653086 -0.1051405519 0.6092537642 -0.06445338577 -0.6883371472 0.7208666205
-0.05042549968 -0.1027015895 0.6114860773 -0.1344106942 -0.6672347188 0.7285798192
-0.04013077542 -0.1107794791 0.6030863523 0.02186385915 -0.6932545304 0.7159661055
-0.0348643586 -0.1096151844 0.6040385962 0.1140330583 -0.6873726249 0.717040956
-0.04006035626 -0.1049654782 0.6092659235 0.02175860852 -0.6850340962 0.7238521576
-0.06660118699 -0.1279214919 0.5806251168 -0.4190185666 -0.6278886795 0.6519706249
-0.07339687645 -0.1195382848 0.5836437941 -0.5216346383 -0.5889979601 0.6152489781
-0.07094251364 -0.1285894662 0.5764221549 -0.4936647415 -0.5700139403 0.6552811861
-0.09157351404 -0.1237292886 0.5533857346 -0.8079131842 -0.396862179 0.435542196
-0.09380812198 -0.1227435321 0.5467098951 -0.8243588805 -0.3875545263 0.4122802019
-0.09671837837 -0.1126900911 0.5533610582 -0.8342455029 -0.3828585744 0.3966612518
-0.08726524562 -0.1203458682 0.5647820234 -0.7466480732 -0.4389474392 0.4959903359
-0.08729721606 -0.1083698794 0.5771121383 -0.7444288731 -0.4692589641 0.4718590975
-0.08346010745 -0.1119355932 0.5783412457 -0.6860662103 -0.5085890889 0.512912333
-0.0909992978 -0.1070382744 0.5723124146 -0.7718495727 -0.4427320063 0.4562366307
-0.08866514266 -0.1154363826 0.5678855181 -0.7667806745 -0.4435441494 0.4627201557
-0.08082446456 -0.1166444495 0.575353682 -0.6459083557 -0.5318969488 0.5385011435
-0.0867716521 -0.1126400381 0.5722226501 -0.7266101837 -0.4755865633 0.484105438
-0.05435699224 -0.02600313723 0.5207204819 0.2028861493 -0.6725983024 0.7111465335
-0.04979555681 -0.01926307566 0.526674211 0.1242119968 -0.69938761 0.6994621158
-0.04602163285 -0.02291982248 0.5226035714 0.07766184211 -0.691418767 0.7171500325
-0.04464566335 -0.02714078501 0.5184581876 0.04499396682 -0.6927868128 0.7192077041
-0.03744985908 -0.02581689693 0.5203274488 -0.1089300737 -0.684304893 0.7154756188
-0.03661032021 -0.0193986278 0.5265370607 -0.1142472774 -0.7022596002 0.6987349391
-0.04080943391 -0.02249152027 0.5232568383 -0.02916901372 -0.6911575198 0.7136362195
-0.02073663846 -0.03367867321 0.5186647177 -0.3824903071 -0.6321638227 0.6704967022
-0.01400077529 -0.03969025612 0.5199863911 -0.4818834066 -0.5978992581 0.6359860897
-0.01602307707 -0.03436040133 0.5213112235 -0.4358075261 -0.6102772951 0.6606347561
-0.02084008977 -0.04151887447 0.5116873384 -0.3951807618 -0.6417601109 0.6565635204
-0.01770782657 -0.04514572024 0.5097999573 -0.4349441528 -0.6309404969 0.6410740018
-0.0139517542 -0.04230555892 0.5150355101 -0.4773340821 -0.6062234044 0.6334084868
-0.06664625555 -0.06521946937 0.4927327335 0.3772320151 -0.5925967097 0.7059255242
-0.06971334666 -0.05868915096 0.4981199801 0.4466287196 -0.578314364 0.6814422011
-0.07703875005 -0.05829821527 0.5047716498 0.527334094 -0.566663146 0.6329976916
-0.07531329244 -0.06080467254 0.500472784 0.4972036779 -0.5639458299 0.6587090492
-0.08098811656 -0.06526096165 0.5031809211 0.5221084356 -0.5629572272 0.6400004625
-0.07788337022 -0.06869068742 0.4965435565 0.4857212901 -0.5764168501 0.6569811702
-0.0918038711 -0.02887240425 0.5505342484 0.5730935335 -0.5752898455 0.5829700232
-0.09125070274 -0.03381575271 0.5438217521 0.5947334766 -0.5601983666 0.5764837265
-0.08790941536 -0.03840728104 0.5353569984 0.5925006866 -0.5585246682 0.5804810524
-0.08361878991 -0.0295534078 0.5371314883 0.5741830468 -0.5756680369 0.5819445252
-0.08825419098 -0.03402493149 0.5396866798 0.5924972892 -0.56072402 0.5782154202
-0.08936576545 -0.02879838645 0.5449633598 0.5852319002 -0.5680712461 0.578545332
-0.08189473301 -0.02008376084 0.5462248325 0.5366371274 -0.6103765965 0.5825651288
-0.07531112432 -0.01472700108 0.544029057 0.5039313436 -0.6390990019 0.5809898376
-0.07824567705 -0.02107334323 0.5420040488 0.5225417018 -0.6149970889 0.5901484489
-0.0689587146 -0.01287339628 0.5407271385 0.4450502396 -0.6509764791 0.6141539216
-0.07071135938 -0.0377144143 0.5182163119 0.4691472054 -0.5991873741 0.6478712559
-0.06767465919 -0.03313762322 0.5208799839 0.4128049314 -0.6127499938 0.672929585
-0.07594645023 -0.0403563939 0.5207375288 0.517074585 -0.583363831 0.6258761883
-0.07487167418 -0.0352826491 0.5235598087 0.5112362504 -0.5865437984 0.6281427145
-0.07610309869 -0.03280716762 0.5276408792 0.5262981653 -0.583099246 0.6165226698
-0.06278009713 -0.1040207595 0.6054561734 -0.3558652103 -0.6467683911 0.6739402413
-0.05829067156 -0.1071202159 0.6042711735 -0.2857048512 -0.6649181247 0.6877109408
-0.07216639817 -0.1008549854 0.6000416875 -0.4870356917 -0.606833756 0.6180921793
-0.06700379401 -0.09892585129 0.6069925427 -0.3933412433 -0.632143259 0.6674873233
-0.07663230598 -0.09322757274 0.603096962 -0.5228791237 -0.5831595659 0.6157672405
-0.07267001271 -0.09753282368 0.6049252152 -0.493121326 -0.5941146612 0.6333917975
-0.06600815803 -0.09545454383 0.61076653 -0.3660185337 -0.6183986068 0.6941224933
-0.06161087751 -0.09309267998 0.6155492663 -0.3006122708 -0.6187770963 0.7237520814
-0.06046986952 -0.08826708049 0.6197948456 -0.251204282 -0.632570684 0.7325553298
-0.06137755513 -0.09862844646 0.6115831137 -0.3225416243 -0.6307585835 0.7050174475
-0.05540299416 -0.1009044349 0.6110749841 -0.2295543849 -0.6592926383 0.715532124
-0.06006648391 -0.02106473409 0.528308332 0.2920406759 -0.6684480309 0.6762115955
-0.0649068132 -0.02371861413 0.5273066163 0.378387481 -0.6353167295 0.6719232798
-0.01878560148 -0.09668347985 0.6104273796 0.287825793 -0.6355803013 0.716299355
-0.02412810549 -0.09725555778 0.6124585271 0.2540420294 -0.6478987336 0.7177675366
-0.02801036835 -0.1008025855 0.6103193164 0.2094497234 -0.6584898233 0.7184433341
-0.0165563114 -0.09973061085 0.6061816216 0.3549729586 -0.6208246946 0.6968102455
-0.0193035882 -0.1044313461 0.6032573581 0.3492641747 -0.6377153993 0.6843438148
-0.05314906314 -0.08969774097 0.6202890277 -0.1682763398 -0.6431176066 0.7451710701
-0.04641133547 -0.09028434008 0.6214907765 -0.1004331782 -0.6593182087 0.7442982793
-0.04967789724 -0.0983132571 0.6149995923 -0.1288947016 -0.6646071672 0.7321597934
-0.05031383783 -0.09422381967 0.6185931563 -0.1488176435 -0.653985858 0.737264514
-0.05449782684 -0.09621364623 0.6167803407 -0.2120625377 -0.6432939172 0.7355129719
-0.03675189242 -0.1146870553 0.5991609693 0.07514968514 -0.6867303252 0.7197897434
-0.04190362245 -0.1150398925 0.5990694165 -0.01542890444 -0.6916617751 0.7179389596
-0.06485610455 -0.123183392 0.5856310129 -0.4034484029 -0.6331987381 0.6565967798
-0.07431936264 -0.1095997617 0.5910230875 -0.5404395461 -0.5885680318 0.5997573137
-0.07836259156 -0.1071515903 0.5887755752 -0.5977752209 -0.5558387637 0.5690227747
-0.07760498673 -0.1126178876 0.5857464075 -0.591617167 -0.5590262413 0.5786995292
0.005805627443 -0.03905463591 0.5398185253 -0.5265437365 -0.5656594634 0.6344006062
-0.01054175384 -0.1101984829 0.5931559801 0.4989378154 -0.5945461392 0.6284558177
-0.01576993428 -0.111380145 0.5950252414 0.4064273536 -0.6231018901 0.657690227
-0.03082992323 -0.04792280123 0.5009171963 -0.2249448895 -0.6697303653 0.69782269
-0.03429762274 -0.04510431364 0.5027820468 -0.1668542325 -0.6858600974 0.7065765858
-0.02495708317 -0.04807974026 0.5018982291 -0.3227077723 -0.6548017859 0.6824647188
-0.03343746066 -0.0508133918 0.4970295131 -0.1664859205 -0.6723229289 0.7153772116
-0.02914766222 -0.05296991393 0.4950523078 -0.2359528989 -0.6538291574 0.7160071731
-0.06314840913 -0.1320089549 0.5791278481 -0.3584756851 -0.6463052034 0.6734743714
-0.05888097733 -0.1361495852 0.5760636926 -0.2924218178 -0.643217802 0.7047538757
-0.06224342436 -0.1402515769 0.5704438686 -0.3531827927 -0.619798243 0.7006608248
-0.06205766276 -0.1478976458 0.5672709942 -0.3074077666 -0.6389991641 0.7043129206
-0.05655931681 -0.1410577446 0.5727818608 -0.2534172833 -0.6424049139 0.7225084901
-0.03898241743 -0.1187992468 0.5954300165 0.03689865768 -0.6860732436 0.721600771
0.007080574986 -0.1133094132 0.5668956637 0.7026363611 -0.4931201637 0.512822926
0.009033200331 -0.1143324226 0.5610393286 0.7075570226 -0.4895443618 0.5095383525
0.0102568334 -0.1165845022 0.5556461215 0.7087126374 -0.4901632369 0.5073894262
-0.07902185619 -0.1146307737 0.580739975 -0.6183298826 -0.5486962199 0.5562466979
-0.068216905 -0.1217544675 0.5821825862 -0.4510440826 -0.6157079935 0.6371121407
-0.08150845766 -0.109020412 0.5835275054 -0.6508927345 -0.5266860723 0.5388743281
-0.03315137699 -0.1178529039 0.5956448317 0.1392807961 -0.6773254275 0.7196689248
-0.08975864947 -0.1322081238 0.5553870201 -0.770452857 -0.4026953876 0.4864898324
-0.08695115149 -0.129122898 0.5523343086 -0.7637388706 -0.4196326435 0.4765642881
-0.08479384333 -0.1285636723 0.558050096 -0.718264401 -0.4411732256 0.5280807614
-0.08525124192 -0.1252246201 0.5623416901 -0.715939045 -0.4426389635 0.537515223
-0.09351737052 -0.1137142777 0.561785996 -0.8085550666 -0.4128234982 0.4182711542
-0.0976132974 -0.1063666269 0.5570107698 -0.8422211409 -0.3761282265 0.3857560158
-0.09334625304 -0.1078698784 0.5656114221 -0.8081504703 -0.4184138477 0.4132652879
-0.09339300543 -0.1197674274 0.557518363 -0.8132285476 -0.396301806 0.424726516
-0.09134481102 -0.1255444586 0.5579010248 -0.7960974574 -0.4013415873 0.4520395994
-0.08249676228 -0.124847278 0.5665261745 -0.6683216691 -0.4765110016 0.5640797615
-0.07671595365 -0.1235368401 0.5743002295 -0.5765631795 -0.553833127 0.5975183249
-0.08110075444 -0.1207170039 0.571531117 -0.6524496675 -0.511018157 0.5536943078
-0.07998140156 -0.1343067139 0.5662322044 -0.5989233851 -0.5135956407 0.6129496694
-0.0760223344 -0.1209666282 0.5795972943 -0.5556312203 -0.5743557811 0.5946699381
-0.07433708012 -0.1294153482 0.5723971128 -0.5332273245 -0.5394064188 0.6480467916
-0.07117074728 -0.02752201632 0.5292179585 0.463837266 -0.6055232882 0.639087677
-0.07964026928 -0.02474555187 0.5380085707 0.5460327864 -0.5976535678 0.5860720277
-0.07860099524 -0.03023169748 0.5326341987 0.5585212708 -0.576540947 0.5961886644
-0.07047070563 -0.01963964291 0.5345755816 0.447388649 -0.6411181688 0.6208150387
-0.06513752043 -0.01661194675 0.5339831114 0.3833594918 -0.6547992826 0.6508784294
-0.07512710243 -0.02530812845 0.5334461331 0.5123288631 -0.5974475741 0.6160615087
-0.05265375972 -0.01449448057 0.5317780972 0.1545579135 -0.7151317 0.677321732
-0.04522265121 -0.01325377636 0.5322598815 0.0482275188 -0.7228114009 0.6884615421
-0.04515763 -0.0171042569 0.5275553465 0.02795957215 -0.7081409097 0.7052699327
-0.0361828655 -0.01550486032 0.5305880904 -0.1043254361 -0.7150383592 0.6888076067
-0.04352822527 -0.101015538 0.6131602526 -0.03212406859 -0.6794295311 0.7320914865
-0.04085327312 -0.09670197964 0.6164774895 -0.006061107852 -0.6752087474 0.7351359725
-0.03702009842 -0.09977476299 0.6140674949 0.05265367031 -0.6728065014 0.7361798882
-0.04028221592 -0.09140818566 0.6199476719 -0.001636027242 -0.6725681424 0.7394679189
-0.03509883583 -0.09546022862 0.6172281504 0.06948658824 -0.6681739092 0.7384515405
-0.03016805835 -0.09335257113 0.61844033 0.1470395476 -0.6601534486 0.7327919006
-0.02962277271 -0.09812457114 0.6147316694 0.1797385216 -0.6596760154 0.7257348895
-0.01918101124 -0.1173405647 0.5925008059 0.3716229498 -0.6356079578 0.6737118363
-0.02456828766 -0.1180573851 0.5936765671 0.2641668916 -0.661860466 0.7006034851
-0.02321786992 -0.1215674281 0.5895503163 0.2823733389 -0.6552382708 0.6949338317
-0.05003977567 -0.1393122971 0.5753077269 -0.1530976743 -0.6628076434 0.7280349135
-0.04648688063 -0.1428197175 0.5728662014 -0.09540520608 -0.6697645783 0.7329019308
-0.04136589542 -0.1417976916 0.5740199089 -0.01680992544 -0.6761123538 0.7322410941
-0.04318076745 -0.1381290257 0.577078104 -0.06057571992 -0.6732199788 0.7329772711
-0.0358290039 -0.1420481354 0.5734406114 0.08198861778 -0.6773452163 0.7300176024
-0.04649512097 -0.1352139711 0.5802448392 -0.0968766287 -0.6817343235 0.7224167585
-0.05406419933 -0.1361409128 0.5773723125 -0.2168358564 -0.6568185687 0.7206065655
0.001150972792 -0.1227794513 0.5683338046 0.6863510013 -0.5046613216 0.523289144
-0.002608419862 -0.1264221519 0.5696251392 0.6468283534 -0.517092824 0.5587539673
0.004926638212 -0.1191935837 0.5652344227 0.6983047724 -0.4970465899 0.5150467753
0.003845987143 -0.12446931 0.5619183183 0.7022852898 -0.4901059568 0.5163245201
0.006411037873 -0.122286737 0.55864048 0.7041302919 -0.4882095754 0.5155968666
-0.0008769311244 -0.1286239475 0.5647106171 0.6625981331 -0.5173586011 0.5385197997
-0.07183365524 -0.1153452843 0.5884670615 -0.5028092861 -0.5961894393 0.6201675534
-0.0679300651 -0.1119108573 0.5923435688 -0.4436080456 -0.6272286773 0.6384276152
-0.06750161946 -0.1039643958 0.6024634838 -0.4265790582 -0.6329170465 0.6428835988
-0.06525146216 -0.1116808951 0.5974016786 -0.3963192403 -0.6449459195 0.6523760557
-0.06995911896 -0.1072385013 0.5979297757 -0.4690179527 -0.620423615 0.6240145564
-0.03165020049 -0.126317665 0.5869424939 0.1646945924 -0.6792471409 0.7111324668
-0.03351470456 -0.1229159161 0.590837419 0.1259622872 -0.6820923686 0.7174649835
-0.02876281552 -0.1219100505 0.5910208225 0.1921867728 -0.6719642282 0.7117400765
-0.03710331395 -0.1260967851 0.5882444382 0.07482486963 -0.6848709583 0.7215954661
-0.0419501923 -0.1247806177 0.5897818208 -0.009977274574 -0.6859481931 0.7239706516
-0.01253052242 -0.123657085 0.5802972913 0.4860282242 -0.5960776806 0.6302432418
-0.01621597633 -0.1205970496 0.5878211856 0.4240842164 -0.6217780709 0.6570670009
-0.01163861714 -0.1201318055 0.584297359 0.4955797493 -0.5959035158 0.6300973892
-0.03093034402 -0.1360648423 0.5776280761 0.1736601889 -0.6689322591 0.719453454
-0.04594964907 -0.1188301221 0.5954156518 -0.08148567379 -0.6923341751 0.7152370214
-0.05780074745 -0.1175879836 0.5928497314 -0.2769631147 -0.6649996638 0.682192266
-0.05268907174 -0.1164644137 0.5967012048 -0.1889322102 -0.6825833321 0.7017415166
-0.0477408804 -0.1150456518 0.5987900496 -0.1109886169 -0.6924362183 0.7094848156
-0.05739317089 -0.1132745445 0.5979095697 -0.2652251422 -0.6761028767 0.6829520464
-0.06290072203 -0.1164372489 0.5938186049 -0.3716293275 -0.6499011517 0.6621605158
-0.06260989606 -0.1185524762 0.5878251791 -0.3640488386 -0.6398276687 0.6580582261
-0.04740288854 -0.1230855584 0.5907062292 -0.1001286209 -0.6919800043 0.7110905051
-0.05962109193 -0.1229286492 0.5863945484 -0.3088308275 -0.655998826 0.6790998578
-0.04873015359 -0.1276660562 0.5863828063 -0.1208899841 -0.6788188815 0.7190128565
-0.04513445497 -0.1318264306 0.5839644074 -0.06182410568 -0.6922903657 0.7185946703
-0.05403650552 -0.1246742532 0.5886526108 -0.2146098465 -0.6743315458 0.7064077854
-0.0531847775 -0.1298657954 0.5838735104 -0.1968764067 -0.6781483293 0.7063312531
-0.05949388817 -0.1272891462 0.5830094218 -0.303527236 -0.656879127 0.6847829223
0.00195410382 -0.1165768206 0.5729337335 0.6795989275 -0.5116251111 0.5256840587
-0.001402368885 -0.1209869385 0.5730956197 0.6480336189 -0.5220816135 0.5518463254
-0.01392111462 -0.1152918786 0.5912199616 0.4506734014 -0.6107622385 0.6490160227
-0.008042665198 -0.1126030758 0.5882552266 0.5452170968 -0.578355968 0.6049072146
-0.04143382981 -0.1292006522 0.5857460499 -0.003848511493 -0.677972734 0.7316530943
-0.03737071529 -0.1317291558 0.5833632946 0.06100030243 -0.6797200441 0.7276357412
-0.01162112039 -0.1330704391 0.5717580914 0.4940064251 -0.5955322385 0.6301240325
-0.008261008188 -0.1426680684 0.5642266273 0.5214303732 -0.6273421645 0.5765700936
-0.01214433368 -0.1389204115 0.5687186122 0.4711710215 -0.6275628209 0.6160232425
-0.01657265052 -0.1413927227 0.5684750676 0.4106764197 -0.6342741251 0.6516136527
-0.02516162395 -0.1406740099 0.5722947717 0.2627084255 -0.638610363 0.7213874459
-0.02464578301 -0.1365522146 0.5754188895 0.2675828934 -0.6412895918 0.7185134888
-0.02039683983 -0.1379911005 0.571939528 0.3315525055 -0.6309463978 0.6938727498
-0.02608702146 -0.1330087185 0.5794757009 0.2503369451 -0.6578736901 0.7098208666
-0.02082400769 -0.1332930475 0.5773276091 0.3442411125 -0.6343659163 0.688836813
-0.01584220119 -0.1328786612 0.5751246214 0.4253506958 -0.6231495738 0.6555839181
-0.0254898537 -0.1278811991 0.5840100646 0.2613019943 -0.6655632257 0.6986993551
-0.01520642266 -0.1284953654 0.5779299736 0.4362140298 -0.6105906367 0.6539663076
-0.01890595444 -0.127845183 0.5822749734 0.3876485527 -0.630228281 0.6722072363
