# .PCD v0.7 - Point Cloud Data file format
VERSION 0.7
FIELDS x y z normal_x normal_y normal_z
SIZE 4 4 4 4 4 4
TYPE F F F F F F
COUNT 1 1 1 1 1 1
WIDTH 512
HEIGHT 1
VIEWPOINT 0 0 0 1 0 0 0
POINTS 512
DATA ascii
-0.009391786531 -0.121159412 0.6923464537 -0.6793319583 0.4897142351 -0.5269956589
-0.004031543154 -0.1215529069 0.6859901547 -0.5900761485 0.523191154 -0.5968378186
-0.01612881944 -0.1289155185 0.700422287 -0.7484958172 0.4653566182 -0.4522390366
-0.01088182069 -0.1264725775 0.6912835836 -0.6701901555 0.4932562411 -0.5340409875
0.04175752774 -0.08362902701 0.6998288035 0.1287499517 0.6726459861 -0.7255365252
0.03668357804 -0.08517104387 0.6980345249 0.05956928432 0.6673054695 -0.7409234643
0.09862193465 -0.1120881364 0.672169745 -0.5608901978 0.4926438034 -0.6629955173
0.07220111787 -0.2165500522 0.7232509255 0.6984835267 -0.4249326587 0.5517625213
0.0801082924 -0.2110157013 0.7186098099 0.8038154244 -0.3794836998 0.4556805491
-0.02316683345 -0.1308631599 0.7040870786 -0.794678688 0.4434147179 -0.4139794707
-0.02568880655 -0.1986790895 0.7102822065 -0.8494141698 -0.2863921523 0.4024104476
-0.0219739005 -0.1091780812 0.7173713446 -0.777408421 0.424510628 -0.4635316432
-0.002409714973 -0.0906008184 0.7082703114 -0.5457954407 0.5609834194 -0.6199032068
-0.01899198443 -0.1227979064 0.711874187 -0.7847526073 0.4392331839 -0.436432451
-0.01826824062 -0.1148163602 0.7180428505 -0.7786943316 0.4270133078 -0.4593989253
0.01534746028 -0.1779414266 0.7713438272 -0.195162043 -0.5665857196 0.7979134321
0.02219970152 -0.1773706079 0.7715598941 -0.08558245003 -0.5799928308 0.8075160384
0.03838315606 -0.1777699292 0.7710674405 0.09403758496 -0.5803443789 0.802033782
0.1020552143 -0.104952991 0.6871884465 -0.7717803121 0.3843759596 -0.5023259521
0.1015444919 -0.1040958837 0.6809407473 -0.6660227776 0.4457646608 -0.5903719068
0.1033410206 -0.1086168438 0.6764258146 -0.6925744414 0.4253538251 -0.5724972486
0.09699372202 -0.1191579551 0.6946195364 -0.1492777318 0.2876815796 -0.5281716585
0.1032861695 -0.1285542697 0.6789152622 -0.4505956173 0.37985605 -0.5979748368
0.09887845814 -0.1241552681 0.6892118454 -0.1857856214 0.3097704649 -0.5605149269
0.1031681895 -0.1212983653 0.6814926267 -0.6192514896 0.3960290849 -0.5595774055
0.10115771 -0.1259522438 0.6840415001 -0.3344831169 0.3472201526 -0.577382803
0.09836507589 -0.1107931063 0.6945546865 -0.4713091552 0.3340983987 -0.4888353944
0.1010084748 -0.1129912063 0.6885215044 -0.6409561038 0.3772429526 -0.5089954734
0.09506255388 -0.1254151613 0.6964915991 0.1682513505 0.2362798452 -0.5546357036
0.1040259078 -0.114711605 0.6782297492 -0.7223428488 0.4144094884 -0.5479614139
0.08613280207 -0.1792402565 0.6984722614 0.9697138667 -0.03965269774 0.129058376
0.0876802206 -0.1688391417 0.6921889186 0.9609649777 -0.02620303445 -0.07184203714
0.08690074086 -0.1738809645 0.6951454878 0.9653035998 -0.03211686015 0.02452843636
0.09021939337 -0.1786992699 0.7066323161 0.9557602406 -0.1179452837 0.2064374834
0.08944208175 -0.1750178933 0.7012350559 0.9571107626 -0.08670189977 0.1012663767
0.08639854193 -0.1841440499 0.7068607807 0.9503709674 -0.1203367785 0.2610733211
0.08942291886 -0.1529499292 0.7091382742 0.8682875037 -0.002195936395 -0.1907726675
0.08890587091 -0.137330547 0.7078627944 0.816793859 0.07359412313 -0.4676202238
0.08445431292 -0.1653978378 0.7241956592 0.8183767796 -0.1938393414 0.1396043152
0.08726731688 -0.1476815045 0.7138780355 0.817430675 -0.02495627105 -0.2437455356
0.08734411746 -0.1768726408 0.7185829878 0.8986318707 -0.1882975101 0.2917987704
0.0845701918 -0.1756156683 0.7256103158 0.8483039737 -0.2488432974 0.3252466917
0.08227954805 -0.1691149473 0.7304953337 0.7917916179 -0.2679227293 0.2523538768
0.08975866437 -0.1746683419 0.7119118571 0.9334109426 -0.1169275045 0.2019939125
0.08146286756 -0.175383836 0.7361184955 0.7793508172 -0.3461173177 0.403417021
0.08962529898 -0.1464506537 0.7075557709 0.8536738157 0.03917185217 -0.3141905069
0.08663603663 -0.1532342583 0.7176191807 0.814440906 -0.08263081312 -0.1196284816
0.08876515925 -0.1594700068 0.7123908997 0.8721631169 -0.05925919488 -0.05394608527
0.08513539284 -0.1576840132 0.7228541374 0.7975554466 -0.1497578472 -0.002682297491
0.08814570308 -0.1423850507 0.7112360001 0.8142814636 0.02139641717 -0.3548924625
0.08676862717 -0.1631074101 0.7189556956 0.8435555696 -0.1354950517 0.05951400474
0.08927834779 -0.1665377915 0.7121058702 0.9010487199 -0.08549535275 0.06458894908
0.08237021416 -0.1809865534 0.7314049006 0.8327609301 -0.3164603114 0.4280865192
0.08648855239 -0.1835262477 0.719710052 0.9206100106 -0.2035043687 0.3236566484
0.08459416032 -0.1825196743 0.7260885239 0.8744695783 -0.2647463381 0.3793883622
-0.00943956431 -0.1814712882 0.7517431378 -0.623871088 -0.4590493441 0.627199769
-0.0260604471 -0.1722464859 0.6938679814 -0.8146948814 0.176658541 -0.1660716236
-0.02830041945 -0.1912847161 0.7058044672 -0.9138718247 -0.1279723793 0.2384865284
-0.02829060704 -0.1814549565 0.7037659883 -0.8599357009 0.01454693172 0.1245054081
-0.02689358965 -0.1931540519 0.711019814 -0.8449940085 -0.2914616168 0.416179508
-0.01612650789 -0.1212996989 0.6981112957 -0.7625150084 0.4456253052 -0.4676333964
-0.01734612137 -0.1183889732 0.7040752769 -0.7850012183 0.4195911884 -0.4546023011
-0.0168541465 -0.1255228668 0.6935184002 -0.7446067929 0.4666205943 -0.4772134423
-0.02013067529 -0.1242160276 0.7008455396 -0.772975862 0.4348333776 -0.4590429068
-0.002219069982 -0.1240964234 0.6807588935 -0.5518341064 0.5333316326 -0.6377509832
-0.005670218263 -0.1300384402 0.6784511805 -0.5986030698 0.51213485 -0.6133785248
-0.02288671955 -0.1917820126 0.7224649787 -0.7926160097 -0.3255749643 0.5067046881
-0.02481720597 -0.1951101273 0.7182666659 -0.8198829293 -0.2733839452 0.4803200066
-0.02284536511 -0.201948151 0.714776814 -0.7551652193 -0.3809382319 0.5276266932
-0.02138358168 -0.1033264399 0.7208832502 -0.7483023405 0.4413934648 -0.4943938851
-0.01580461301 -0.09738148749 0.7164791226 -0.7188880444 0.4584263563 -0.5217759013
-0.009634192102 -0.09576769918 0.7112715244 -0.6708566546 0.5043464899 -0.5406342745
-0.02583086677 -0.1500501782 0.6950653195 -0.7774534822 0.356459409 -0.3660854995
-0.02600902319 -0.1571797132 0.6939451694 -0.774900198 0.3219200671 -0.3058490455
-0.02460066229 -0.1520567238 0.6863844395 -0.7314980626 0.4463392794 -0.4979012907
-0.02846156619 -0.1728477478 0.7049499154 -0.8421084285 0.08568469435 0.06600666046
-0.02747423016 -0.1662968248 0.7005975842 -0.8153539896 0.1814932972 -0.0850430429
-0.02988469228 -0.1834820807 0.7108412981 -0.8791925311 -0.05586945266 0.2903366685
-0.02670889348 -0.1882596463 0.7185476422 -0.8376197219 -0.2410275638 0.4627488554
-0.02544116974 -0.180785954 0.715542376 -0.8094656467 -0.1609564275 0.3235148191
-0.02263457142 -0.1834449321 0.7199662328 -0.7672936916 -0.2797727883 0.4176336825
-0.02343166061 -0.1697413325 0.7042244077 -0.7477642298 0.05149257556 -0.0008744961815
-0.0237713512 -0.1636559069 0.6955345869 -0.7344870567 0.2221141309 -0.2159587294
-0.02418146655 -0.1581540406 0.6999366879 -0.7557021379 0.206731692 -0.1995075196
-0.02353981324 -0.1689323932 0.7105668783 -0.7663167715 -0.0295834206 0.09953124076
-0.02325054631 -0.1736080348 0.7138788104 -0.7674002051 -0.1141149178 0.2068978995
-0.02508654073 -0.178987816 0.7076088786 -0.7581322789 -0.1336998045 0.2252750844
0.03163940832 -0.09507248551 0.6902314425 -0.02219771966 0.6619932055 -0.7435819507
0.002186513273 -0.08764787018 0.7064859867 -0.4805486202 0.6079646945 -0.6292936802
0.02577660605 -0.09255889058 0.6921038628 -0.1470986903 0.6641817093 -0.7316350341
0.02700049616 -0.08759453148 0.6964928508 -0.1306585521 0.6817387938 -0.7158104777
0.03372687474 -0.08974935859 0.6940023899 -0.0009635919705 0.6698228121 -0.7394300103
0.03114292212 -0.101220727 0.6856318116 -0.004838470835 0.6475013494 -0.7530687451
0.02952140011 -0.105836302 0.6803146601 -0.05690311268 0.6466816664 -0.7565225363
0.01171744801 -0.1145002991 0.678976953 -0.3461986184 0.6045570374 -0.7128198147
0.005544219632 -0.1182201207 0.6800551414 -0.4405935705 0.5748843551 -0.681843996
0.01389107946 -0.1367106587 0.6564288735 -0.3226435781 0.6021840572 -0.7281426787
-0.01765715331 -0.1041864678 0.712857008 -0.7501462698 0.4358632565 -0.4965987802
-0.01477016415 -0.1110983938 0.7137325406 -0.7442965508 0.4410579801 -0.4990873635
-0.01312925853 -0.1130158529 0.705473125 -0.7485817075 0.4388551116 -0.4939625859
-0.01065271255 -0.1138674021 0.6954503655 -0.7009792328 0.4757605791 -0.5302046537
-0.01826161332 -0.1113099977 0.7236360312 -0.7606672645 0.4354391694 -0.4762586057
-0.01289288234 -0.1070756614 0.7089938521 -0.7294114232 0.4471423924 -0.5143363476
-0.01493264455 -0.1079868674 0.7185844183 -0.7190713286 0.4613861144 -0.5050513148
-0.0103530623 -0.103001833 0.7140224576 -0.6486804485 0.5081595778 -0.547732532
-0.02081215382 -0.1150721163 0.7109706998 -0.7936371565 0.4095052779 -0.4492618144
0.09807761014 -0.1361560374 0.6666385531 -0.4501048923 0.3728918731 -0.7898733616
0.05004415661 -0.1279937029 0.6653955579 0.2961325645 0.6244360209 -0.7197420597
0.04479620233 -0.1243015081 0.6670216322 0.1910859346 0.6504951715 -0.734793365
-0.02241349034 -0.1166827157 0.7215543389 -0.7917689681 0.4146146774 -0.4471880794
-0.02354695648 -0.1199771464 0.7164362073 -0.8052541614 0.4048062563 -0.4320033193
-0.0241121985 -0.1129238605 0.7267018557 -0.775347054 0.4268904328 -0.4653630853
0.02842831053 -0.1822219193 0.771490097 0.01396293659 -0.5757386684 0.8168457747
0.04717112333 -0.08568070084 0.6993352771 0.2098733932 0.654297173 -0.7216323614
0.05649355799 -0.09030941874 0.6999200583 0.3739328384 0.6002180576 -0.7036004066
0.05215289444 -0.0843764618 0.7021064758 0.2521643639 0.6482746005 -0.7158288956
0.08373749256 -0.1317719966 0.695223093 0.6531731486 0.4973579943 -0.5293928385
0.08721981198 -0.1321216077 0.7014833689 0.7485647202 0.268363595 -0.5544048548
0.1029341668 -0.117805168 0.6702205539 -0.6129074693 0.4445006251 -0.6419709921
0.104749091 -0.1242590174 0.6699757576 -0.669611156 0.4579836726 -0.583114922
0.101783067 -0.1308475733 0.6669363976 -0.5809772611 0.4562609792 -0.6734486222
0.04106800631 -0.1206421927 0.6704107523 0.1254242063 0.6568558216 -0.7405785322
0.09453837574 -0.1161449999 0.7105635405 0.3088050783 0.2076810002 -0.5816463232
0.09276283532 -0.1198013201 0.7166666389 0.6690266132 0.1500593722 -0.6235592365
0.09593124688 -0.1144544557 0.7010673285 -0.08483670652 0.2682021558 -0.5215706229
0.09264531732 -0.123660326 0.7026107907 0.3518140018 0.1932880878 -0.5428135991
0.0853870213 -0.123171702 0.7034897804 0.7913598418 0.1001802012 -0.5945847034
0.08352693915 -0.116722174 0.704026103 0.6957644224 0.151147902 -0.6979032159
0.07805908471 -0.123856388 0.6935805678 0.6813930869 0.387802124 -0.6123694181
0.08321402967 -0.127297014 0.699149251 0.7441893816 0.2567707896 -0.5918500423
0.08885774016 -0.1281501651 0.7078366876 0.8020327687 0.09794496745 -0.5873891115
0.09041295201 -0.1246841848 0.7134228349 0.7773771286 0.1096605062 -0.6174713969
0.09081248939 -0.1903333664 0.6947900057 0.9710697532 -0.03870242834 0.193774417
0.08458440751 -0.1660155654 0.6810027957 0.7748424411 -0.09110754728 -0.505558908
0.0881068483 -0.1775261611 0.6869260669 0.8628874421 -0.06933377683 -0.1894353777
0.08636254072 -0.1718326062 0.6839982867 0.8193538785 -0.08009342104 -0.3457501531
0.08969473094 -0.1844825745 0.6910733581 0.9206522107 -0.05332012475 0.01564284414
0.0710503459 -0.1819984466 0.7506393194 0.6168749928 -0.4872674942 0.6167983413
0.06673388928 -0.1795404702 0.755120039 0.5661209226 -0.486753732 0.6585350037
0.05860899761 -0.1798802167 0.7633336782 0.4561763704 -0.5047280192 0.7256948352
0.08881554753 -0.1823139042 0.7134575248 0.9323949218 -0.1870780438 0.3016327322
0.02992377803 -0.1438762546 0.6442085505 -0.00409819046 0.6668723822 -0.7416321635
0.03939595073 -0.1460873634 0.6438421011 0.1732729375 0.6201553941 -0.7585591078
0.03518054262 -0.1466006637 0.6393145919 0.1072784737 0.6312895417 -0.7657905817
0.05425420776 -0.1318103224 0.6631962657 0.3790957332 0.5883743167 -0.7135027647
0.03846465796 -0.1232105717 0.6654862761 0.1069863588 0.6639228463 -0.7360556722
0.04726855829 -0.1781973094 0.7709166408 0.2071559876 -0.5676617026 0.7934795618
0.04739619792 -0.1837193668 0.7668014765 0.2500077188 -0.577272892 0.771302104
0.04524059221 -0.1884533465 0.7640538216 0.2352360636 -0.5975620151 0.7653485537
0.05316338316 -0.1834990233 0.7637037039 0.38260746 -0.5498431325 0.7391262054
0.04174463823 -0.1836588383 0.7690163851 0.1677247286 -0.5850983262 0.7920336127
0.03399672732 -0.1822075844 0.7658517361 0.07975243777 -0.5944730639 0.785130024
0.02871767059 -0.1777830422 0.7678477764 -0.00289726723 -0.5886898041 0.7993960381
-0.01082074828 -0.1264335513 0.6844629049 -0.6675806046 0.4996564388 -0.5488067865
-0.01247464959 -0.1320165992 0.6859536171 -0.6859407425 0.4726706743 -0.5460261106
-0.01530052908 -0.1312935352 0.6934893131 -0.7299348116 0.4630221426 -0.4913085103
-0.01924884692 -0.1971168965 0.7243008614 -0.7620817423 -0.3785600662 0.5251800418
-0.01946856454 -0.1903048307 0.7275231481 -0.7691413164 -0.3670206368 0.5231372714
-0.01833177544 -0.2055319995 0.7205623984 -0.7434999943 -0.4000593722 0.5357025862
-0.0141903488 -0.2099966705 0.7238788009 -0.7036529183 -0.4160556197 0.5723688006
0.04128971696 -0.1101261452 0.6785343885 0.1614294648 0.6315506101 -0.7563338876
0.03569678217 -0.1072126105 0.6798143983 0.06448277831 0.638561368 -0.76508075
0.01494314242 -0.08648044616 0.7010318637 -0.2948367894 0.6808931231 -0.6698524952
0.02249997854 -0.08564513922 0.6989326477 -0.1940178722 0.6903735995 -0.6949648857
0.02279599011 -0.1035131961 0.6844779849 -0.1927018762 0.6422874331 -0.7387091517
0.02408827469 -0.1104087979 0.6768974662 -0.1404504031 0.64941746 -0.7460876703
0.02321619727 -0.1147021875 0.672673285 -0.1453943253 0.6551607847 -0.7384565473
0.01846221089 -0.1121695191 0.6784700155 -0.240364641 0.6275099516 -0.7307335138
0.001938423607 -0.1251793802 0.6749940515 -0.4840172827 0.5704128742 -0.6601710916
0.07683973014 -0.1815302968 0.7410832644 0.734801352 -0.4159063697 0.5267699361
0.0685159862 -0.1512383819 0.6610733271 0.4583991468 0.4168274403 -0.7837007642
0.03199664131 -0.1870096177 0.7626428604 0.05973164737 -0.6088094711 0.7816404104
0.03782815859 -0.1899370849 0.761657536 0.148047924 -0.6102618575 0.7682436109
0.03661363199 -0.1876078099 0.7673979998 0.1072176993 -0.5985934734 0.7923861146
0.04521757364 -0.0898457244 0.694865942 0.2039108276 0.638433814 -0.7415777445
0.05086450651 -0.0911911428 0.6963213086 0.2904503942 0.621556282 -0.7215760946
0.07951928675 -0.1097900346 0.7050566673 0.5436588526 0.3002216816 -0.7623095512
0.0832964927 -0.1138524935 0.7095868587 0.6244235635 0.2150409669 -0.7196150422
0.08364656568 -0.09917497635 0.7013870478 -0.09552685916 -0.3381285965 -0.7225443125
0.07853063941 -0.0982343331 0.705260396 0.1728840023 0.08280330151 -0.7561103702
0.08032160997 -0.100955449 0.7115169168 0.1929782331 -0.06925783306 -0.8422532082
0.08655710518 -0.1089971513 0.7157140374 0.2777013183 -0.2687802017 -0.818571806
0.0871456787 -0.1159228384 0.7150136828 0.6081771255 0.02787867375 -0.7098282576
0.08204936981 -0.1075322777 0.7102231979 0.3686267734 0.0124182608 -0.8139186502
0.07659623772 -0.1279512644 0.6878601909 0.6476830244 0.5474990606 -0.5263860822
0.07965249568 -0.1346840709 0.6855237484 0.5657001138 0.6475266218 -0.5060641766
0.03015998192 -0.116387561 0.6728197336 -0.03577522188 0.6584089994 -0.7462435365
0.03668852895 -0.1171435267 0.6720338464 0.07178458571 0.6587895751 -0.7476790547
0.03443108872 -0.1115732566 0.6752663255 0.03284816816 0.6469216943 -0.7615644932
0.09410493076 -0.1078875065 0.6773144007 -0.4726238847 0.5144666433 -0.6102506518
0.07561452687 -0.1085619926 0.6833097339 0.09148514271 0.5334124565 -0.6512429714
0.09803292155 -0.1010721922 0.6851502061 -0.688937366 0.4159849286 -0.5800969601
0.08971618116 -0.1029146239 0.6857455373 -0.4129538834 0.4462951422 -0.6034816504
0.08739775419 -0.1078990996 0.6798073053 -0.2713701725 0.5180393457 -0.6243709922
0.07056868821 -0.1133552343 0.6827776432 0.3143391907 0.5305817127 -0.6587272286
0.08693118393 -0.119929336 0.7102683783 0.7482085228 0.0994721055 -0.6503011584
0.04592116922 -0.2227639407 0.7363060713 0.2697271407 -0.5916550159 0.7500010729
0.03861375526 -0.2215029597 0.737798214 0.162564829 -0.5806664228 0.7857484818
0.05228582025 -0.2217997313 0.734652698 0.3431531191 -0.5970275998 0.7197277546
0.05751901492 -0.1874923855 0.7588688135 0.4524949193 -0.5431514382 0.7040731311
0.06231430918 -0.182837531 0.758638382 0.5327295065 -0.4937849939 0.6852125525
0.05124099925 -0.1916372329 0.7577946782 0.352073878 -0.5760720968 0.7318195105
0.006549494341 -0.1808013916 0.7656042576 -0.3905510008 -0.509067893 0.765783608
0.02188897692 -0.1855372339 0.7678076625 -0.1403298378 -0.5678444505 0.8084231019
0.01283098385 -0.1846277714 0.766700089 -0.291593343 -0.5484181643 0.7792707086
0.009517673403 -0.1838153154 0.7611063719 -0.3335459828 -0.5527629256 0.7352705002
0.01443088334 -0.1783024073 0.7636993527 -0.2355062813 -0.5505040884 0.7619812489
0.006120863836 -0.1785638481 0.7600321174 -0.3772162497 -0.5112405419 0.7279832959
-0.001116609899 -0.1789283007 0.7568272948 -0.5010000467 -0.4776947498 0.6982046962
8.20999594e-06 -0.1830702126 0.7612270117 -0.4578305483 -0.490241468 0.741504252
0.08749449253 -0.1660723239 0.6860468984 0.960645318 -0.006876074709 -0.1819193959
0.09103149921 -0.1839480847 0.7032682896 0.9562594295 -0.1354253292 0.2114813328
0.09076181054 -0.1826860607 0.6966155171 0.9656003118 -0.06766278297 0.130485639
0.08823110908 -0.1886879355 0.7121191621 0.9273531437 -0.2000331283 0.3015234172
0.08540353179 -0.1976085007 0.711969316 0.8915735483 -0.3006379306 0.3369068801
0.03507973254 -0.1355878413 0.6525486112 0.05623741448 0.668772161 -0.7387025952
0.03077499755 -0.1296706349 0.6586011052 0.004268789664 0.6768667698 -0.731228292
0.03265066445 -0.1251454949 0.6625512838 0.03185331449 0.6744821668 -0.7352827191
0.03131307289 -0.1199795082 0.6669822931 -0.001173005905 0.6728610396 -0.737891078
0.01639677957 -0.1437979639 0.6509546041 -0.2982340157 0.6110466719 -0.7299938202
0.04804822057 -0.1410332471 0.6523089409 0.3096869588 0.5958283544 -0.7361883521
0.03858594969 -0.1411196589 0.6466731429 0.1541958302 0.6401966214 -0.7466706634
0.04686096311 -0.1302009821 0.6611021161 0.2500753403 0.639095366 -0.720960319
0.04796824232 -0.1354226917 0.6569389105 0.3001973033 0.6194599271 -0.721683681
0.06224649027 -0.220656231 0.729814291 0.5279761553 -0.5164747238 0.6618788242
0.05361219868 -0.2157679945 0.7385935187 0.3846402168 -0.5682094693 0.7250375152
0.08425864577 -0.1854057908 0.7006008029 0.9701631069 -0.04930570349 0.218861714
0.08098813146 -0.1999631673 0.7229670286 0.823079586 -0.3553322256 0.437510401
0.085125193 -0.191920951 0.717045486 0.8922653794 -0.2797293067 0.3514809608
0.05098904669 -0.2036298662 0.7483618259 0.3635810912 -0.571901381 0.7319547534
0.04599774256 -0.1929639727 0.7602806091 0.2710484266 -0.6000851989 0.7505649924
0.0376108326 -0.1960256547 0.7576848269 0.1508530527 -0.6253188252 0.7638021111
0.04348341003 -0.1973476708 0.7576050758 0.2213705629 -0.5995056629 0.7679022551
-0.01045859978 -0.1908008158 0.7423501015 -0.6817620993 -0.435192287 0.5869271755
-0.01106293686 -0.1343268156 0.6802651286 -0.6719022989 0.4646871388 -0.5750026703
-0.009148132987 -0.1376713216 0.6750344038 -0.6472733617 0.4728778899 -0.5957723856
-0.02489432693 -0.1744284779 0.7003848553 -0.7468907237 -0.01110046916 0.06487856805
-0.02521873079 -0.1784128398 0.6956896186 -0.8221885562 0.06125674024 -0.03446711972
-0.0232773535 -0.1673148721 0.6881852746 -0.7522605062 0.2338501215 -0.2547855973
-0.02676511742 -0.1859047115 0.7000463605 -0.8813410401 -0.03301535547 0.08718210459
-0.02292478457 -0.1630060673 0.6839771271 -0.7461490631 0.3404480219 -0.3886834681
-0.02207804099 -0.1577714533 0.68037045 -0.7155205011 0.425565213 -0.4968733191
-0.02294961922 -0.1363745332 0.6990196705 -0.7785587907 0.4430280924 -0.442676872
-0.02105398849 -0.1303733736 0.6959415674 -0.7543894053 0.4660537243 -0.460462749
-0.02429655381 -0.1400161535 0.694655478 -0.7645061016 0.4394271374 -0.4702455103
-0.01602395251 -0.1901315749 0.734885633 -0.7504854798 -0.3821414411 0.5391059518
0.04160078615 -0.093637079 0.6911103725 0.1464115232 0.6416282058 -0.747210145
0.0003728290321 -0.1167489886 0.6828483939 -0.5121991634 0.5609924793 -0.6437500119
0.003243781626 -0.09550274163 0.6995174289 -0.4865533113 0.5939847231 -0.639449358
0.007953944616 -0.09267968684 0.6992455125 -0.4087557197 0.6277785897 -0.6598832607
0.01691381261 -0.09209688753 0.6964058876 -0.2682020962 0.6540926099 -0.7010931969
0.01863561757 -0.1070623249 0.6828808784 -0.255671829 0.6263977289 -0.7297804356
-0.004923373926 -0.1152073443 0.6875424981 -0.5927425027 0.5390018821 -0.595717907
0.08046298474 -0.1846826077 0.7359410524 0.7740496993 -0.3894308507 0.4966715276
0.08042993397 -0.1423508078 0.6646044254 0.0301173497 0.428720206 -0.8514156342
0.08465271443 -0.1362285465 0.6666560769 -0.1996182799 0.4895276129 -0.8090234399
0.07778087258 -0.1363873929 0.6665427089 -0.0008780810167 0.5198647976 -0.7754486799
0.09477003664 -0.1301571429 0.6661797762 -0.4587733746 0.4549310505 -0.7498369217
0.08973091841 -0.1339915693 0.6665892005 -0.3426794708 0.4754426777 -0.7946179509
0.08389724046 -0.1412768215 0.6856948733 0.7082740664 0.539028585 -0.4442127943
0.07688352466 -0.1374064237 0.6790321469 0.5395246148 0.6216539145 -0.5619770885
0.07844962925 -0.1504626423 0.6727323532 0.5196762085 0.555006206 -0.6460134983
0.07978925854 -0.143011719 0.6794915199 0.5334193707 0.6218836308 -0.5617343783
0.08355189115 -0.1544983536 0.6793494225 0.7580153346 0.3130411804 -0.4419696629
0.08150539547 -0.1483731717 0.6781346798 0.6192651987 0.5238413811 -0.5545957685
0.08407034725 -0.1360780895 0.6909549832 0.6581472158 0.5762075186 -0.4718606174
0.09600771964 -0.1343158931 0.6846480966 0.1173881888 0.3727932274 -0.5572472215
0.09592154622 -0.1324220002 0.6915245056 0.2417804003 0.2539668977 -0.587638855
0.09208697081 -0.1327802688 0.698236227 0.5511085987 0.2003677636 -0.5710018873
0.09928460419 -0.1345088184 0.6771476865 -0.1777692288 0.4494621158 -0.5633913279
0.09059443325 -0.135898903 0.6903136969 0.4875504076 0.3637468219 -0.5163354874
0.08662806451 -0.1477866024 0.6955037713 0.7986214161 0.3092648387 -0.2930734456
0.08697506785 -0.1405961066 0.6965377927 0.7861058712 0.3034386635 -0.4223644733
0.08561290801 -0.1515568346 0.684846282 0.8489498496 0.2731898427 -0.3396967053
0.08644881845 -0.1554077417 0.6913664341 0.8480588794 0.2382797152 -0.2178289443
0.08641385287 -0.14746508 0.6888780594 0.843693614 0.2355564982 -0.394272536
0.08979018033 -0.1719692498 0.7065545917 0.9420343041 -0.08148477972 0.110686779
0.0889095515 -0.1612271369 0.6999354959 0.9205774665 -0.01355385315 -0.1294849515
0.08894115686 -0.1453885883 0.7009188533 0.8657913804 0.0618628934 -0.3898572922
0.08961294591 -0.1580068171 0.7057648897 0.8973075151 -0.0111858407 -0.1332997978
0.08893693984 -0.1383225769 0.7012096047 0.8416686058 0.09584908187 -0.5073074102
0.08963041753 -0.1659073234 0.7055428028 0.924057126 -0.04942321777 -0.001079311362
0.08880079538 -0.1693882346 0.6986819506 0.9504163861 -0.05069360137 -0.001840451383
0.08721767366 -0.15994443 0.6863290668 0.9456323385 0.0240757037 -0.2700003088
0.08900307119 -0.1530756652 0.7010655999 0.8910366297 0.02382293157 -0.2580429912
0.08697354048 -0.1439027935 0.6675745845 0.02152855694 0.3057119846 -0.9058230519
0.07261634618 -0.1048379317 0.7004663348 0.4937469363 0.4514833391 -0.7355695367
0.09591521323 -0.1096600667 0.7035927773 -0.08127495646 0.008299909532 -0.5463311076
0.09062937647 -0.1095196828 0.7098125815 0.1546314955 -0.5123788118 -0.7125152946
0.09025636315 -0.1032628119 0.7002622485 -0.2899421155 -0.6644206643 -0.6874525547
0.08741209656 -0.103349492 0.7073792815 -0.1183730736 -0.5515812635 -0.7912534475
0.07691000402 -0.1147514358 0.6977738738 0.5740299225 0.3433374465 -0.7362347841
0.07572432607 -0.1039376408 0.6902394891 0.06581272185 0.4824053943 -0.6607071757
0.07186251134 -0.1091383547 0.69611305 0.4988077879 0.453414619 -0.7364248037
0.07989732921 -0.1120745912 0.6798506379 0.009968207218 0.5264590979 -0.6394312978
0.06688652933 -0.1169288531 0.6778634191 0.3277105689 0.5460635424 -0.6597152352
0.08117985725 -0.1156677753 0.6745980382 -0.06248528883 0.5158054233 -0.6761371493
0.08996398002 -0.1117295548 0.6749997139 -0.3371369243 0.5185751915 -0.6347290874
0.04348313808 -0.2123896331 0.7444564104 0.2297828943 -0.5687496066 0.7788147926
0.0478933081 -0.2087990791 0.7463725209 0.295054853 -0.5703412294 0.7645215392
0.0378271006 -0.2102741301 0.7473456264 0.1222861633 -0.5855971575 0.7974814177
0.06750148535 -0.1876794845 0.7485554814 0.605527997 -0.4910797775 0.6252626777
0.06627555937 -0.184941709 0.7539173961 0.5879887342 -0.4838019311 0.6476009488
0.02900665067 -0.1968771964 0.7576124668 -0.003791056108 -0.6230788231 0.7755466104
0.03289280832 -0.1932113618 0.7622815967 0.05294869095 -0.6137072444 0.7857634425
0.02771803178 -0.1866495013 0.7676340342 -0.04199653491 -0.5806155801 0.8081073165
0.02260304056 -0.1901608706 0.7617598772 -0.1107395589 -0.6033679843 0.7867892385
0.01981878467 -0.1793788671 0.7659311295 -0.1461553574 -0.5807018876 0.7833737135
0.0137707917 -0.189661324 0.7615088224 -0.2602341771 -0.5761842728 0.7641131282
0.00619683601 -0.2218152434 0.735019803 -0.3883085549 -0.5266214609 0.7548828721
0.08781257272 -0.1922206581 0.6989791989 0.9507940412 -0.1180188507 0.2426412404
0.0904366374 -0.1901622713 0.7057296634 0.9379446507 -0.1917103827 0.2800434232
0.02602948435 -0.1420832276 0.6498072743 -0.1091129258 0.6520738602 -0.7409383059
0.03273596615 -0.1418627799 0.6500647068 0.03852732852 0.6462048888 -0.7471762896
0.04223595187 -0.1406658888 0.653986156 0.2092427462 0.622425735 -0.7418733239
0.04158955067 -0.1351334602 0.658426702 0.1781975925 0.6350056529 -0.7364766598
0.03495403379 -0.1337530315 0.658983171 0.06397032738 0.647821784 -0.7387337685
0.0382254459 -0.1291375756 0.6625702381 0.1137868688 0.6558916569 -0.7333911061
0.02477538958 -0.1324785799 0.6595958471 -0.1273270398 0.6555777192 -0.737272501
0.02146405727 -0.1368006766 0.6564728022 -0.2039089054 0.6343877316 -0.7336352468
0.02911567688 -0.1363961101 0.6555091143 -0.04086939245 0.6513215899 -0.7456023693
0.01625039801 -0.1178490669 0.6736428142 -0.2519609928 0.6348096728 -0.7272090912
0.01594101638 -0.1244891435 0.6678241491 -0.2668704093 0.6451275349 -0.7138643265
0.0226481203 -0.1205579937 0.6683947444 -0.1576120853 0.6626757979 -0.7254316807
0.0100897532 -0.1203383133 0.6750497818 -0.3567765653 0.6067720056 -0.7008681893
0.006367576774 -0.1300456673 0.6677194834 -0.4410759807 0.5914542675 -0.6693297029
0.008601272479 -0.125492841 0.6708679199 -0.3904311657 0.6019607186 -0.6853607297
0.01199250855 -0.1315216273 0.6618762612 -0.3487114608 0.6151632667 -0.7009074092
0.04527661204 -0.1462426782 0.6473248601 0.2677412331 0.5986955166 -0.7517396212
0.05705379695 -0.1500874162 0.6521772742 0.4228937626 0.5548382401 -0.7152013183
0.05137773603 -0.1474140584 0.6510977745 0.3477697968 0.5798242092 -0.7307782769
0.06148073822 -0.1493246853 0.6566289663 0.4280372262 0.5015973449 -0.7480914593
0.0617759414 -0.1366717219 0.66492939 0.4076891541 0.5788462758 -0.7060847282
0.05801308528 -0.142029956 0.6586642265 0.4205901623 0.5667471886 -0.70827806
0.05554196611 -0.1370131373 0.6605695486 0.4044937491 0.5649400353 -0.7189000249
0.05320354924 -0.1430349201 0.6554479003 0.3884910047 0.5742180943 -0.7165669203
0.06276699901 -0.2150396854 0.7335466146 0.557300806 -0.4993696213 0.6612817645
0.0574898012 -0.2186938822 0.7345385551 0.4493642151 -0.5547015667 0.6963879466
0.08253710717 -0.2080900669 0.7134688497 0.8432177901 -0.3514768481 0.4023032188
0.08487965167 -0.1950533688 0.7043369412 0.9251702428 -0.1940056831 0.2770752609
0.08744449168 -0.2006823421 0.7058057189 0.8876077533 -0.32426247 0.3269998133
0.08357795328 -0.189190194 0.7244408131 0.8844175339 -0.2736262679 0.3745778799
0.08042694628 -0.1936339438 0.7092747688 0.891014874 -0.17961815 0.3266967237
0.07932444662 -0.1959640682 0.7147160769 0.8541000485 -0.2498398125 0.380461961
0.08227772266 -0.188834846 0.704918623 0.9309313893 -0.1104556024 0.270897001
0.08029848337 -0.2032751143 0.7167951465 0.8477528095 -0.3274481297 0.3906638026
0.07481689751 -0.2101379186 0.7223837972 0.7405440211 -0.4103043675 0.5190052986
0.06541372836 -0.2083932608 0.7346749306 0.5859212875 -0.4839912951 0.644313395
0.06725555658 -0.2155514359 0.7286266685 0.6225081086 -0.4718201458 0.6236966252
0.0005830373266 -0.1907760799 0.7545773983 -0.51056391 -0.5237887502 0.6786634326
0.007643438876 -0.1912808418 0.7601443529 -0.3992114365 -0.5337139964 0.7441491485
-0.004463875666 -0.1869197488 0.7527695894 -0.5878404379 -0.4842861593 0.6468912363
-0.0103464229 -0.1855142117 0.7473291159 -0.664296329 -0.4461590648 0.5950132012
-0.004377307836 -0.136188224 0.6716187 -0.594609797 0.5122976899 -0.6169515252
0.001250846079 -0.1318475455 0.6696683764 -0.5306492448 0.5535724759 -0.6414443851
-0.02309204265 -0.1445327848 0.6875910759 -0.7427011728 0.4384245276 -0.5054591298
-0.02080875821 -0.1359304786 0.6894613504 -0.7358599305 0.4605617821 -0.4957413971
0.03112908453 -0.2141568959 0.7441015244 0.02790107019 -0.5780028105 0.8138310909
-0.00931643974 -0.1025852039 0.7056180239 -0.6839489937 0.4905901551 -0.5364833474
-0.003818775527 -0.0980925113 0.7033042312 -0.5780746341 0.555465281 -0.5924998522
0.004941791762 -0.1000913903 0.6941406727 -0.4559901655 0.5899496078 -0.666010201
-0.005598123185 -0.1044499278 0.6999323368 -0.6082513928 0.5241295099 -0.5932495594
0.000846717041 -0.1049837545 0.6938034296 -0.5223092437 0.5534240007 -0.6371425986
-0.006490085274 -0.1091778949 0.6949907541 -0.6190296412 0.5229024291 -0.5815096498
0.01461202372 -0.09654937685 0.6920527816 -0.302239567 0.6314287782 -0.7136038542
0.01656059176 -0.1012364551 0.6863887906 -0.2693296373 0.6269842982 -0.7306094766
0.02379212342 -0.09833671153 0.6872755289 -0.164894402 0.6378031373 -0.7507617474
0.0102604134 -0.1027313024 0.6889922023 -0.3625705838 0.6102579832 -0.7031139731
0.01122963987 -0.1085604057 0.6834619641 -0.3558784723 0.6038113832 -0.7109581232
0.004045672249 -0.108145304 0.6880466342 -0.465839535 0.577876389 -0.663366735
0.000558650936 -0.1126991436 0.6873307824 -0.5099181533 0.5617880225 -0.641041398
0.07788798213 -0.1918330789 0.7321702242 0.7737804055 -0.3753511608 0.4935283959
0.08107173443 -0.187763378 0.7303266525 0.8225124478 -0.3302182853 0.4449787736
0.07756149769 -0.1966356784 0.7283511162 0.7744170427 -0.3926772177 0.494407922
0.07260602713 -0.1507467628 0.6660131216 0.4655744135 0.5001474619 -0.7251846194
0.06841031462 -0.144604519 0.6646689177 0.441770643 0.5316442251 -0.7214480042
0.07298406214 -0.139878571 0.6733503342 0.5112354159 0.5768806934 -0.635235846
0.07446759194 -0.1427817345 0.6617028713 0.09474364668 0.4785312712 -0.8020856977
0.06343183666 -0.1445163935 0.6605543494 0.4292498827 0.5360686183 -0.72662884
0.09590313584 -0.1420410872 0.6704455614 -0.5433331728 0.4962134063 -0.6695426702
0.09129931033 -0.1500215083 0.6740723252 -0.05492351949 0.3638390601 -0.5434789062
0.1032241136 -0.1369820535 0.6729791164 -0.3784858286 0.3642435074 -0.5671604872
0.08950573951 -0.1560536176 0.6807143688 0.7061005235 0.1194691956 -0.3356271684
0.09409721941 -0.1471993476 0.6784870028 0.3032653928 0.2557661235 -0.4319246113
0.1061463803 -0.1323753893 0.6714417338 -0.6154788136 0.427682966 -0.6198676229
0.0972885713 -0.1413048208 0.6769018173 0.02754405886 0.3447651565 -0.4968573749
0.09238513559 -0.1376136243 0.6811562181 0.2414507866 0.4895366728 -0.4952400029
0.08967700601 -0.1438750774 0.6823217273 0.4961440563 0.386200875 -0.4304422736
0.0808666572 -0.1497709155 0.6672557592 0.1757510751 0.4245837033 -0.7402238846
0.08137602359 -0.1559162587 0.6731909513 0.4492081106 0.4454195499 -0.7080828547
0.08595766127 -0.1507332176 0.6716522574 0.01212578733 0.546556592 -0.698421061
0.08483501524 -0.1607314497 0.6776881218 0.7398650646 -0.074674353 -0.6144195795
0.07284653932 -0.09621525556 0.7059790492 0.4052899778 0.5200570822 -0.7494262457
0.09820590168 -0.1047291681 0.6956682801 -0.6515339017 0.08734351397 -0.5216673017
0.0952687487 -0.1000356302 0.6911486983 -0.5356504321 0.5768302083 -0.4584937096
0.06739836931 -0.1100621074 0.6914657354 0.5371313095 0.5064284205 -0.6723927259
0.04852705821 -0.09656855464 0.6910808682 0.265421629 0.6147056818 -0.7360079885
0.05516401306 -0.09715733677 0.6934642196 0.3662635386 0.601461947 -0.7087897062
0.05751705542 -0.1023612916 0.6911592484 0.4115193486 0.5774871111 -0.704657793
0.08665168285 -0.1238342226 0.6696679592 -0.1853427589 0.5059730411 -0.6935271621
0.09741444141 -0.1182415187 0.6682753563 -0.4280804396 0.4697991014 -0.7322920561
0.0797848925 -0.1207790077 0.6729182601 0.02556120791 0.5306726694 -0.6798356175
0.09104826301 -0.118013218 0.6705386043 -0.2700587511 0.4938813448 -0.7085775733
0.07759335637 -0.1300524771 0.6681383252 0.02666328475 0.5372066498 -0.6888519526
0.06767413765 -0.1347694099 0.6667110324 0.2969040871 0.5700101256 -0.6989730597
0.06500836462 -0.128658548 0.6726290584 0.4280703962 0.5743709803 -0.6716196537
0.07226662338 -0.1271532923 0.6720111966 0.2148838192 0.5515426397 -0.6721463799
0.08528047055 -0.1289093941 0.667098701 -0.2026986331 0.5133018494 -0.6912484765
0.05572517589 -0.1276851445 0.6678593159 0.3788132966 0.6044769287 -0.6989116073
0.04299525544 -0.2202896774 0.741785109 0.219045952 -0.5855562687 0.7803564072
0.04872757196 -0.2155888081 0.7419800758 0.3134580851 -0.5673959851 0.7562468052
-0.002747166203 -0.1993816942 0.7440168262 -0.5603560209 -0.5022223592 0.6502970457
0.0151703665 -0.2215119749 0.73646456 -0.2278366536 -0.536116004 0.7923540473
0.008529845625 -0.1954590529 0.7553143501 -0.3911547363 -0.5698006749 0.7141078115
0.01356244087 -0.1951291412 0.7587214112 -0.2688362896 -0.5867657065 0.7609617114
0.01981090009 -0.1955724657 0.7596271038 -0.1529681534 -0.6082895398 0.7735492587
0.02242960781 -0.1997883022 0.7564367056 -0.1183387265 -0.621340394 0.7723180056
0.01934204437 -0.1293058097 0.6598522067 -0.2322415113 0.6515201926 -0.7214570642
0.02592234313 -0.1253674179 0.6624225378 -0.09566859156 0.6758723855 -0.7305959463
-0.006303029135 -0.1419589669 0.6684052944 -0.6190000176 0.4932616651 -0.6092690825
0.001225958113 -0.1363946646 0.6654972434 -0.5094994307 0.5561661124 -0.6534913182
-0.002780707087 -0.1468827277 0.6599165201 -0.5574426055 0.4961006641 -0.6644327044
-0.006721219979 -0.1470368803 0.6642557383 -0.5995906591 0.4877582788 -0.6335321665
0.009143193252 -0.1379030794 0.6598205566 -0.3993322253 0.5860468149 -0.6989060044
0.008787276223 -0.1435300112 0.6542205811 -0.4152667224 0.566393137 -0.7103567123
-0.01867066883 -0.1427741647 0.6813071966 -0.7144894004 0.4493722618 -0.5361718535
-0.02120315656 -0.1495586336 0.6809697151 -0.7147277594 0.4486745894 -0.534822464
-0.01912085153 -0.1532035619 0.6760713458 -0.6884415746 0.4581237137 -0.5611019731
-0.01518097706 -0.1466903687 0.6754440665 -0.6772050858 0.4608043432 -0.5734558105
0.02487452514 -0.2163470089 0.7418438792 -0.0619536899 -0.5531139374 0.8296932578
0.02025796659 -0.2117883116 0.7451895475 -0.1342569292 -0.5507208705 0.8189975023
0.01548785716 -0.2104491442 0.7494584322 -0.2104351968 -0.5956425667 0.7736970782
0.03539594635 -0.2063958198 0.7507851124 0.07470216602 -0.6046367884 0.7925477624
0.04707460478 -0.2002303749 0.7516303658 0.3060754538 -0.593716979 0.7335146666
0.0381196551 -0.2014489323 0.7533683777 0.1434016824 -0.6123654246 0.7682406306
0.07394521683 -0.1934265941 0.7369235158 0.7051268816 -0.4352586269 0.55679667
0.07356835902 -0.1875347793 0.7430276275 0.6628252268 -0.4778862894 0.5763783455
0.07034148276 -0.192684561 0.7423536777 0.6464400291 -0.47777161 0.5940217972
0.06908286363 -0.1981679201 0.739346981 0.6417489052 -0.4724522829 0.6040167212
0.06372595578 -0.1009536386 0.6958159804 0.414313823 0.5322720408 -0.7369385958
0.06734070927 -0.09913849831 0.7001394033 0.4263566434 0.5225462317 -0.7377792597
0.07491782308 -0.09697947651 0.7003059387 0.1080716401 0.02581007779 -0.7083509564
0.08770678192 -0.09964295477 0.6964191198 -0.3122490644 -0.3195773661 -0.6441376805
0.06848345697 -0.1036062986 0.6933972239 0.3205211461 0.5090014935 -0.7061140537
0.07727108151 -0.09893162549 0.6930889487 -0.06199915707 0.4793781638 -0.6772125363
0.08343636245 -0.09892944992 0.6922169328 -0.2281574905 0.557723999 -0.5963757634
0.04979402572 -0.1002110615 0.6871281862 0.3069861829 0.6010707617 -0.7363123298
0.03965384886 -0.1037811413 0.6836144328 0.145623222 0.6274601817 -0.7619429827
0.04268773273 -0.09838806093 0.6869175434 0.1630850583 0.6233570576 -0.7631531954
0.03650451824 -0.09886805713 0.6855120659 0.06503005326 0.6382415295 -0.7649657726
0.05355463549 -0.1132573187 0.6791679263 0.3400346041 0.585780859 -0.7330551744
0.04647873715 -0.1147583425 0.675649941 0.2294398993 0.6187130809 -0.7488983274
0.07294759899 -0.118815355 0.6753978133 0.1837758869 0.5357913971 -0.674285531
0.06732371449 -0.1229329929 0.6753911972 0.3673897684 0.5595265031 -0.6657363176
0.07210762054 -0.1238234937 0.6860483289 0.6286649108 0.4886524081 -0.601339519
0.06068263948 -0.113587521 0.6829485893 0.4492212236 0.553581059 -0.6965441704
0.06783423573 -0.1179477572 0.6857174039 0.5607385039 0.5064342022 -0.6494325399
0.07266169786 -0.1193668023 0.6904059649 0.6141939163 0.459294796 -0.6357850432
0.0546509102 -0.118794933 0.6749637127 0.3583511412 0.5892395377 -0.7239527106
0.05066852644 -0.1228159815 0.6700826883 0.294914782 0.6171677709 -0.7246946096
0.06104953215 -0.1205686107 0.6784040332 0.4771836698 0.5600727201 -0.6628606319
0.05817325041 -0.1242544129 0.6729573607 0.3993388712 0.5950204134 -0.6952582598
-0.006005349569 -0.2113699764 0.7327575088 -0.6340631247 -0.4531187713 0.6246691942
-0.01105456706 -0.2058444321 0.7301299572 -0.6828185916 -0.4243943989 0.5884408951
-0.005932287313 -0.2175630182 0.7293741107 -0.5971729159 -0.4589315951 0.6465401053
-0.001636370667 -0.2222275734 0.7325850129 -0.504542768 -0.513230741 0.6907733083
-0.01086124033 -0.213742733 0.7285979986 -0.6753198504 -0.4519541264 0.5765817761
-0.0009350520559 -0.2137920707 0.7374722958 -0.5059719682 -0.5037565827 0.6968253255
-0.003787372261 -0.2082791924 0.7390448451 -0.563005507 -0.4803988039 0.671302855
0.03749652579 -0.2159348726 0.7448337078 0.1169101894 -0.5796523094 0.8049426079
0.0589601472 -0.190393731 0.7542136312 0.471198976 -0.5468484759 0.6864930391
0.05880079046 -0.1965979487 0.7499647737 0.4820251763 -0.5484249592 0.6819494963
0.05367786065 -0.196098417 0.7531322837 0.3989103436 -0.5747812986 0.712600112
0.05393169448 -0.209287554 0.7434127927 0.4125819802 -0.5515252352 0.7242531776
0.05969670787 -0.208185032 0.7407855392 0.5067458749 -0.5176740289 0.6829119921
0.06378758699 -0.2022479624 0.7421744466 0.5751160979 -0.4988063872 0.6472715735
0.06522795558 -0.1965298802 0.7446051836 0.6022328734 -0.5008536577 0.617872715
0.05733247474 -0.2026890367 0.7460255623 0.4693925083 -0.5428618193 0.6947586536
0.06387127191 -0.1935213953 0.7491315603 0.5755926967 -0.5132822394 0.6350703835
-0.01186919771 -0.1481276155 0.6700190902 -0.6532981396 0.4650210738 -0.5962626338
0.00924545154 -0.2190101594 0.7400334477 -0.3374029994 -0.5311465859 0.7692985535
0.01374632213 -0.2251447588 0.7409402728 -0.2493975013 -0.5461791158 0.7926524282
0.01206806023 -0.2115019113 0.7438545823 -0.2753288448 -0.5313785076 0.7957034111
0.01479724329 -0.2191604525 0.7437477112 -0.2191295177 -0.5468186736 0.8060513735
0.004761535209 -0.2120147496 0.7399311662 -0.4291899204 -0.5082804561 0.7423050404
0.003017972223 -0.2065905333 0.7434762716 -0.4547005892 -0.514799118 0.7206451893
-0.008996362798 -0.1979017109 0.7393687367 -0.6744698286 -0.4320569634 0.5965643525
-0.00941170007 -0.2022094876 0.735627532 -0.679176569 -0.4279487729 0.592692256
-0.01322676055 -0.1961054653 0.7345184088 -0.734467864 -0.3980410993 0.5475026965
0.009143620729 -0.2009511739 0.7522888184 -0.3986498713 -0.5852004886 0.7047641873
0.01664977521 -0.2015106827 0.7532494664 -0.2378385663 -0.5930733085 0.7531884313
0.03110486642 -0.2023282796 0.7540051937 0.03372291848 -0.6206281781 0.7792844176
0.01977238245 -0.2067106068 0.7499853969 -0.1399093121 -0.5790606737 0.7976616621
0.02907795832 -0.2084403485 0.7495476007 -0.01577369869 -0.5900337696 0.8045665622
0.0003969057288 -0.1953739375 0.7505248189 -0.5466760993 -0.5195317268 0.6556949615
-0.005338251125 -0.1934743822 0.7456328869 -0.6169951558 -0.4924562275 0.6127071977
0.01151503436 -0.205491364 0.7487877607 -0.3084973991 -0.5562138557 0.7629626989
0.003087183461 -0.2007360309 0.7482723594 -0.4996349216 -0.5306500196 0.6798408628
0.07453545183 -0.2044702619 0.7287463546 0.7186425328 -0.4168684483 0.552290976
0.0712948069 -0.2102911174 0.7284507751 0.6799580455 -0.4377456903 0.5831413269
0.07048032433 -0.2036719322 0.7331108451 0.6667511463 -0.4366093874 0.6021975279
0.05991657451 -0.1074051708 0.687739253 0.450622052 0.5573820472 -0.6942754984
0.0483699739 -0.1054296494 0.683790803 0.2625048459 0.6012589931 -0.7515265346
0.05504496023 -0.1086460352 0.6836346984 0.359171629 0.5836253166 -0.7278177738
0.04743155092 -0.1092511639 0.6800244451 0.2509958148 0.6083061695 -0.7479367852
0.07188598812 -0.1345428526 0.6758534908 0.5141169429 0.6003473997 -0.6097940207
0.07229416817 -0.1305235624 0.6802250147 0.5467454195 0.5958531499 -0.5832908154
0.0681854412 -0.123487711 0.6816060543 0.598551333 0.5337337852 -0.5971439481
0.03225252405 -0.222973004 0.73846668 0.03446628153 -0.5645592213 0.8232507706
0.02586787567 -0.2271456122 0.7407551408 -0.04718858376 -0.5610430241 0.8134845495
0.02082797699 -0.2246459723 0.7419029474 -0.1313812733 -0.5515133142 0.8217990994
0.01895489171 -0.2177453339 0.7400923371 -0.157055825 -0.5444210172 0.8185388446
