# .PCD v0.7 - Point Cloud Data file format
VERSION 0.7
FIELDS x y z normal_x normal_y normal_z
SIZE 4 4 4 4 4 4
TYPE F F F F F F
COUNT 1 1 1 1 1 1
WIDTH 512
HEIGHT 1
VIEWPOINT 0 0 0 1 0 0 0
POINTS 512
DATA ascii
0.07069396228 -0.06763061136 0.6337382197 0.3932559192 -0.595702529 0.6938450933
0.06862781197 -0.07416754216 0.629575491 0.3414268792 -0.5711571574 0.7427964211
0.0732915923 -0.07826566696 0.6281913519 0.3770763576 -0.5582739115 0.7371265888
0.05613375828 -0.1025893167 0.6259048581 -0.03262546659 -0.5338383913 0.8404330015
0.06200292706 -0.1002394632 0.6263446212 0.10282965 -0.5645800233 0.8163715601
0.06772040576 -0.09477067739 0.6251912713 0.1830860972 -0.492374897 0.8470753431
0.0605430603 -0.09542925656 0.6298633814 0.03592870012 -0.5508992076 0.8023082614
-0.008736706339 -0.09141043574 0.5971096754 -0.04062202945 -0.588101387 0.7991595268
-0.00115900801 -0.0943787992 0.5941058993 -0.1696416587 -0.5199590325 0.8258770704
-0.02175595425 -0.09089484066 0.5973808169 0.1561828703 -0.6128165126 0.7729319334
0.03485818952 -0.09024700522 0.6227304935 -0.5941412449 -0.4716425836 0.6470322609
0.03907315433 -0.08957714587 0.629610002 -0.5257231593 -0.5297080278 0.6461622715
0.06564524025 -0.05839874223 0.6439641714 0.2407587916 -0.7159003615 0.6094432473
0.06019576639 -0.06010961905 0.6401081681 0.0960470736 -0.6369228363 0.6356070042
0.04801228642 -0.0618846342 0.6374281645 -0.1721274555 -0.5379696488 0.6592770815
0.0532190688 -0.06014326215 0.6392951608 -0.06938262284 -0.5899009109 0.6424674392
0.07441129535 -0.07238584757 0.6326963305 0.4417954683 -0.5559910536 0.7028110027
0.07049091905 -0.08209677041 0.6325858831 0.3059141934 -0.531704545 0.7696208954
0.06950904429 -0.0718786642 0.6412998438 0.3750003576 -0.6152222753 0.6761051416
0.07069611549 -0.08961480111 0.6270419955 0.2473193705 -0.4762327969 0.8360854983
0.06679975241 -0.07644037902 0.642688334 0.2969084084 -0.614309907 0.7036123872
0.06777327508 -0.06901291013 0.6461929083 0.3724540472 -0.6555212736 0.6432703137
0.06957636029 -0.07741647214 0.6373567581 0.3305809498 -0.5753302574 0.7246839404
0.04360793531 -0.08342046291 0.6240019798 -0.3250878155 -0.4364995956 0.7542096376
0.03609383106 -0.08517633379 0.6207461953 -0.4219535589 -0.4532164037 0.7250370383
0.04074119776 -0.08911709487 0.6197484136 -0.3861930966 -0.4370515049 0.7357753515
-0.04764988646 -0.1653730571 0.6782781482 -0.5634993315 -0.4315441251 0.6960960627
0.03711450472 -0.1324337125 0.6889701486 0.6984655857 -0.4799438119 0.5260304809
0.03471151739 -0.13004978 0.6941279173 0.6649791598 -0.4980526268 0.5532455444
0.04546557739 -0.1257649064 0.6507330537 0.3184339106 -0.5101870894 0.5764275789
0.04625525698 -0.1037940085 0.6455433965 -0.03479519114 -0.58998245 0.6610945463
0.04556922615 -0.1087095812 0.632542789 -0.2423590124 -0.6430025101 0.6791420579
0.04590691999 -0.1022435501 0.6339429021 -0.2870709896 -0.6518357396 0.6964130402
0.0457823649 -0.1122351885 0.6428246498 0.00554445805 -0.5829098225 0.6408749819
0.04529393092 -0.1141589582 0.6316214204 -0.1994428337 -0.6342637539 0.663910985
0.05061176047 -0.09619030356 0.637114048 -0.1396314651 -0.6196773648 0.7341695428
0.04661296308 -0.1290960908 0.6605283022 0.5873867273 -0.4462153614 0.5458321571
0.05721350014 -0.1090652719 0.6353071928 0.2232581079 -0.5450586081 0.7415158749
0.05165480822 -0.1136477962 0.6452857852 0.2764658034 -0.5250354409 0.6656534076
0.05003711581 -0.1226378009 0.6523880363 0.4700462222 -0.4780789018 0.608987093
0.05181671306 -0.1033347845 0.6394132972 0.03812922537 -0.5803021193 0.7138504386
0.05421226472 -0.1099541485 0.6398255229 0.2151099741 -0.5427638888 0.7077182531
0.05452872068 -0.09936897457 0.6335961819 -0.0280730892 -0.5993648767 0.7586784363
0.04760362208 -0.1170647219 0.6526005268 0.3170388937 -0.5100280046 0.610016048
0.04692157358 -0.1114990264 0.650464654 0.1810244471 -0.5404899716 0.6283916831
0.04671436176 -0.09480131418 0.6415869594 -0.2093720436 -0.6303597093 0.70176965
0.05279660597 -0.1196007803 0.6470164657 0.4259045422 -0.492113024 0.6500903964
0.04940484464 -0.108223252 0.6453331709 0.1286761463 -0.5560349822 0.6678325534
0.05210864544 -0.1098404303 0.6312086582 -0.02367166616 -0.5991169214 0.7195858359
0.04586007074 -0.1349893808 0.6633219123 0.6897428036 -0.4220562875 0.5158413053
0.04595776275 -0.1212144792 0.6426817775 0.1244287193 -0.5574547052 0.6157320738
0.04949431866 -0.1168061346 0.6392925978 0.1275393367 -0.560284555 0.6600419283
0.04832966626 -0.1277868003 0.6547487378 0.5211244226 -0.4649085999 0.5765874386
0.05676683784 -0.1061357111 0.6299074888 0.06746312976 -0.5820130706 0.7627599835
0.0503667891 -0.1132333651 0.6347164512 0.02538910322 -0.5856145024 0.6889331341
0.04401501268 -0.1409399658 0.6664645672 0.7647083998 -0.3960009515 0.5081533194
0.05986465141 -0.09391204268 0.6229653358 0.0772684291 -0.4849996269 0.8677521944
0.04164972156 -0.107901983 0.6222828031 -0.3768220842 -0.5859404206 0.7010585666
0.04863065109 -0.1082013324 0.6266642809 -0.2242074013 -0.6032981277 0.7481063008
0.0704633072 -0.08423974365 0.6249684691 0.302074194 -0.5337101817 0.7885042429
0.06547812372 -0.08975864947 0.6230705976 0.1714558303 -0.4564605057 0.8675656319
-0.06833130866 -0.1388154477 0.6608067155 -0.8792894483 -0.2176040262 0.3759821355
-0.05893480405 -0.1546235085 0.6723865271 -0.7625763416 -0.3535954356 0.5279388428
-0.05092079565 -0.1607110053 0.6757442355 -0.6334149241 -0.400842458 0.6568729281
-0.06626606733 -0.1344687045 0.6686692238 -0.8242271543 -0.3106208444 0.4733935893
-0.04596341029 -0.1593654156 0.6791756749 -0.5827956796 -0.4245877266 0.6859343052
-0.02999665402 -0.09427295625 0.5974668264 0.2940700352 -0.5841237903 0.7549184561
-0.02659992129 -0.09071610123 0.6018071175 0.2762399912 -0.587770164 0.7458758354
-0.03289956227 -0.08829215914 0.6054174304 0.3768417239 -0.5737022758 0.721860826
0.0446314849 -0.08391982317 0.6407379508 -0.5357378721 -0.5832824707 0.6059142351
0.0566220507 -0.08209181577 0.6435604692 0.03040711954 -0.6475547552 0.6898414493
0.0633591339 -0.07426486909 0.6468650699 0.2461247742 -0.6582278013 0.6647982001
0.06512411684 -0.08067189902 0.6397106647 0.2213571668 -0.5934358239 0.728962779
0.05430563167 -0.08919131011 0.6382439137 -0.08612986654 -0.6086559296 0.7353164554
0.06454343349 -0.0918154642 0.6294983029 0.102151975 -0.5088537335 0.8186668158
0.06417442113 -0.0680667609 0.6522443891 0.3226940334 -0.701481998 0.6178572178
0.05837744102 -0.09105680138 0.6339862943 -0.01914389059 -0.5623948574 0.7753391266
0.05892122909 -0.08656856418 0.637910068 0.0353307873 -0.5940752625 0.7410683036
0.04990481213 -0.08836260438 0.6417194605 -0.1699411571 -0.6491649747 0.7019904256
0.00476060994 -0.07050739974 0.6158201098 -0.2317346036 -0.5898128748 0.7729104161
0.008484359831 -0.07426967472 0.6139709353 -0.295037508 -0.5705381036 0.7632939219
0.01051933505 -0.06973974407 0.6183934808 -0.3426024914 -0.5721459985 0.7435289025
-0.01313288789 -0.08829607815 0.6018668413 0.03590759262 -0.6301915646 0.7712920904
-0.01573627442 -0.08402184397 0.6047058702 0.07912515849 -0.6362115145 0.7674039602
-0.004299114458 -0.08837863803 0.6000005603 -0.1036731526 -0.5838356614 0.8003370762
0.03293260559 -0.06006294861 0.6419460773 -0.6532444358 -0.4290327132 0.6120296121
0.05915604904 -0.05780260637 0.6544147134 0.1569539458 -0.5819349885 0.7676889896
0.04698046297 -0.06337652355 0.6621952057 -0.4228057563 -0.4084841013 0.8071285486
0.05175290629 -0.06561373919 0.6617259979 0.05674936995 -0.5824006796 0.7952042222
0.07326380163 -0.05973862857 0.6386481524 0.442605108 -0.628038764 0.6368404627
0.0696567446 -0.06434501708 0.6379198432 0.3739075959 -0.6541027427 0.6562096477
0.02794427238 -0.0850623101 0.6195939183 -0.5877601504 -0.461386621 0.6633149981
0.02227950655 -0.08805841953 0.6134163737 -0.5214670897 -0.4675382376 0.7116570473
0.01754953898 -0.08394914865 0.6118807793 -0.4415886998 -0.5035154223 0.7416754365
0.03039839678 -0.08229264617 0.6242915392 -0.6016632915 -0.4686616063 0.6453728676
0.04298018292 -0.08753858507 0.6357989907 -0.4733216465 -0.6096065044 0.6326600313
0.03551583737 -0.0854382515 0.6272052526 -0.6434801221 -0.4521854222 0.6125338674
0.03915352002 -0.08147101104 0.63425982 -0.6665663719 -0.4779387116 0.5685914755
0.04754789546 -0.07877724618 0.626381278 -0.2201509178 -0.4793641567 0.706473887
0.03787622228 -0.07951679826 0.6262281537 -0.475084424 -0.4483882189 0.6780229211
0.06232090667 -0.08352483809 0.6238772869 0.1502164304 -0.4788512886 0.8310318589
0.05452332273 -0.08551778644 0.6231031418 -0.05984110758 -0.4425116181 0.8273671269
0.05658105761 -0.07875401527 0.6262133718 0.01579076238 -0.5028632283 0.7422573566
0.0657202825 -0.07925654948 0.6257984042 0.2527994514 -0.5223574638 0.7857199907
0.03291247413 -0.1415636986 0.6872299314 0.6934562922 -0.4906178117 0.5254793167
0.0334640108 -0.136022985 0.6921887994 0.6625092626 -0.5125367641 0.5442918539
0.0368250683 -0.1369603425 0.6858900189 0.7105625272 -0.4787356853 0.5121948719
-0.05093633011 -0.04198610783 0.6632538438 0.6573123336 -0.5309094787 0.5346576571
-0.05522259325 -0.04642523453 0.6673311591 0.6695178747 -0.5248805285 0.5252552629
-0.04142186791 -0.1181319952 0.7137381434 -0.473536253 -0.5302318335 0.7024541497
0.02672068775 -0.1007355079 0.6096093059 -0.5443621278 -0.4417218268 0.7116853595
0.03396879882 -0.09597700834 0.6187263727 -0.5476095676 -0.4845083356 0.6805804968
0.03918678686 -0.09971433133 0.6150493622 -0.4080868065 -0.4632533789 0.7485496402
0.04726949707 -0.09752393514 0.6186468601 -0.2015441209 -0.4666113555 0.8121029735
0.05416650325 -0.09406782687 0.6207851171 -0.0435808748 -0.4525623024 0.8655152321
0.03019892983 -0.1465803087 0.6857081056 0.6728693247 -0.4802862704 0.5604979992
0.0424342677 -0.09936531633 0.6287231445 -0.4130819142 -0.6161161065 0.6675992608
0.04397866875 -0.10537339 0.6284121871 -0.3593898416 -0.63973248 0.675825119
0.04311821982 -0.0940528363 0.632582128 -0.4135397375 -0.6155139804 0.6699740887
0.03858016804 -0.09683872759 0.6235756874 -0.4978601635 -0.5509098768 0.6670331359
0.03493797034 -0.1054108143 0.6171082258 -0.4662170112 -0.5222661495 0.696290791
0.04475370795 -0.1026751846 0.6196892858 -0.2886605859 -0.4936678708 0.7862734795
0.051088579 -0.09953057766 0.622156322 -0.1157450601 -0.4911204875 0.8370094299
-0.06481359899 -0.1438951194 0.666641891 -0.8154813647 -0.3343201876 0.4724448323
-0.04922422767 -0.0609379746 0.6435344815 0.6482952833 -0.5145084262 0.5609152913
-0.06057055295 -0.1415380985 0.6715452671 -0.7988404036 -0.3357924521 0.4980512261
-0.05272660777 -0.1536432952 0.6750856638 -0.6764899492 -0.3880972862 0.6159448624
-0.06048622355 -0.1485654563 0.6693792343 -0.7615442872 -0.3546575904 0.5314801335
-0.02350811101 -0.08471220732 0.606269002 0.2134640664 -0.6210052967 0.7395396233
-0.007260059938 -0.08432745188 0.6035146713 -0.05395537987 -0.6166241169 0.7822883129
-0.01180714928 -0.0802263245 0.6065943837 0.01697968692 -0.6259531379 0.7756999135
-0.01862969249 -0.07939793169 0.6076545119 0.1320163459 -0.635997951 0.7568921447
-0.0200440567 -0.087012887 0.601015687 0.1492725611 -0.613984704 0.7721915245
-0.06012975425 -0.131879881 0.6806658506 -0.8259925246 -0.3084121943 0.4716279805
-0.0573823154 -0.1365823746 0.6826546788 -0.7678670287 -0.3661105633 0.5237267613
-0.0605546385 -0.08898040652 0.6348108649 0.7126360536 -0.4403609633 0.5458490849
-0.05934141949 -0.08375179023 0.637789309 0.7204121947 -0.4453214109 0.531382978
0.04778484628 -0.07948704064 0.650842905 -0.3938460052 -0.5049983859 0.7587379217
0.05590071157 -0.0730959028 0.6523382664 -0.009442579001 -0.6257270575 0.6733446717
0.05437719822 -0.0780081898 0.6487199664 -0.02597140707 -0.653924346 0.6698905826
0.04766283557 -0.08422065526 0.6467551589 -0.3275002241 -0.5651476979 0.7392642498
0.03025556915 -0.06307017058 0.6373739243 -0.6091771126 -0.4416764379 0.6463688016
0.02690026164 -0.05305719003 0.6396499872 -0.5250922441 -0.4894755781 0.6917242408
0.02477516048 -0.07708467543 0.6219658256 -0.529461205 -0.495708555 0.688241899
-0.005010758992 -0.0783925578 0.6081047654 -0.09699855745 -0.6097948551 0.7864022255
0.01222408935 -0.08467157185 0.6087168455 -0.3862406611 -0.523588717 0.7568358183
0.01215089858 -0.07836454362 0.6128667593 -0.3634113967 -0.5546405315 0.7477839589
0.0006792874774 -0.07398318499 0.6122162938 -0.1762379557 -0.5905131698 0.7836453319
0.005889970809 -0.0794788599 0.6094766855 -0.2631869912 -0.5782873631 0.7697523236
0.001064559212 -0.08177078515 0.6068732142 -0.1924301982 -0.581030786 0.7856590748
0.05581276491 -0.05801482499 0.6439593434 0.008479652926 -0.6554499269 0.6151954532
0.03873676434 -0.05717200786 0.6428360939 -0.4551646113 -0.4992569983 0.6415609717
0.0452513583 -0.05860467255 0.6600534916 -0.4573186338 -0.4145664573 0.7841435075
0.04402820021 -0.05252688378 0.6610787511 -0.4538396597 -0.4101122916 0.7832686901
0.03772751614 -0.04735813662 0.6562717557 -0.5637248755 -0.4350988567 0.6944346428
0.04887886345 -0.05349663273 0.6559958458 -0.1713131368 -0.6675558686 0.6284828782
0.0507026799 -0.05599696189 0.6608005166 -0.2026233524 -0.5474515557 0.7474743724
0.02811135724 -0.0432632491 0.6482637525 -0.5222704411 -0.5144405961 0.6780540943
0.0336785689 -0.04539461806 0.6525364518 -0.588956058 -0.4643320739 0.6597929597
0.06171110272 -0.06440623105 0.6566368341 0.2798273563 -0.6934734583 0.6343704462
0.05453664437 -0.05998336524 0.6617509127 0.006059514359 -0.4881352484 0.8245903254
0.05684413761 -0.06744256616 0.6584307551 0.2156194299 -0.6608534455 0.698759675
0.05190886185 -0.0720147267 0.656134665 -0.1718092263 -0.5323154926 0.7462484241
0.06932476908 -0.06246151775 0.6446235776 0.3857788742 -0.6886808872 0.6127263904
0.06331826746 -0.06091856584 0.6526407003 0.296905905 -0.6363366842 0.6955228448
-0.02870664559 -0.1358565092 0.7085160613 -0.3548488915 -0.5569543839 0.7478173375
-0.03302212432 -0.1384798437 0.7055835128 -0.4282565713 -0.5456607938 0.7196939588
-0.04120430723 -0.1371953934 0.6984812021 -0.5487572551 -0.4947374463 0.6612061262
-0.03796272725 -0.1190848798 0.7183839083 -0.4328348041 -0.5316321254 0.7273002863
-0.03768811002 -0.1232115701 0.7140697241 -0.4643203914 -0.5328978896 0.7067318559
-0.03900214657 -0.1271131784 0.7097226977 -0.4816879928 -0.5276401639 0.6995409131
-0.04289143533 -0.1223932579 0.7082072496 -0.5374464989 -0.503952086 0.6724452376
0.01924478076 -0.09558614343 0.6046817899 -0.478471905 -0.4724230766 0.7366482615
0.01236221194 -0.09749699384 0.5989431143 -0.3727688789 -0.4529684782 0.7901420593
0.02319237776 -0.09947326779 0.6058857441 -0.5383950472 -0.4190172851 0.7282634974
0.01479507051 -0.08927343786 0.6065222025 -0.4283309877 -0.4954227805 0.7546142936
0.03063207492 -0.1680423021 0.6755287051 0.595456183 -0.4413942397 0.6517031193
0.03402300179 -0.1579265743 0.6741688848 0.7081320286 -0.3960015476 0.5832156539
0.0366836004 -0.1615222096 0.6700347662 0.7198444605 -0.3779815733 0.5810773373
0.04459536821 -0.1460186839 0.6611176133 0.7569964528 -0.3880373538 0.5254527926
0.02945697308 -0.09078726172 0.6165187955 -0.5971967578 -0.4504155219 0.6622509956
0.02564596571 -0.09332413971 0.6112062931 -0.5427234769 -0.4629763961 0.7006406188
0.04540261254 -0.09225318581 0.6176109314 -0.2322918475 -0.4431532621 0.8036334515
0.03748711944 -0.09231936187 0.6150634289 -0.3524451554 -0.4471537769 0.7646322846
0.04981067032 -0.09014668316 0.6194891334 -0.1523753256 -0.4298782647 0.829624474
0.03182851523 -0.1020670459 0.6115692854 -0.5298702717 -0.455237329 0.7146337628
0.03034519218 -0.09672154486 0.6133757234 -0.5436291695 -0.4691718519 0.6956194043
0.03634620458 -0.1473719031 0.6750335693 0.7319988608 -0.4130850732 0.540997982
0.03353626281 -0.147154361 0.6802451611 0.7171725631 -0.4387087822 0.5399429202
0.03989763558 -0.1425737441 0.6723268032 0.7561275959 -0.4003416598 0.5171728134
0.03699797019 -0.1523313969 0.6736649871 0.72908777 -0.4063622057 0.5497600436
0.02902105451 -0.1402231604 0.691606462 0.6340537667 -0.5262323618 0.5607535839
0.02543599159 -0.1442951411 0.6926651597 0.597206831 -0.545853436 0.5853549242
0.02525284514 -0.1483665258 0.6880888343 0.6054183245 -0.5246027112 0.5928000808
-0.06969173998 -0.1318753213 0.658003509 -0.9512529373 -0.08334754407 0.2805036604
-0.0610640198 -0.1265076697 0.6834645271 -0.7962898016 -0.3249610364 0.5078648329
-0.06359767169 -0.1277891994 0.6785612702 -0.8258442879 -0.2989888191 0.4779457152
-0.060686443 -0.06335292757 0.6577730775 0.7120099068 -0.4868691564 0.5059612989
-0.05277331546 -0.06034789979 0.647683382 0.672226429 -0.5063333511 0.5396051407
-0.05339273438 -0.05666908622 0.6523159146 0.6784277558 -0.5068141222 0.5314698219
-0.05639762059 -0.06011529267 0.6546447277 0.7012468576 -0.4949766397 0.5126957297
-0.05505403504 -0.06569087505 0.6463919282 0.6958816051 -0.4928683639 0.5218528509
-0.05152435973 -0.1349074841 0.6907273531 -0.6949161887 -0.4195742011 0.5799633265
-0.03280655667 -0.06336218119 0.6259159446 0.4110532701 -0.5886811018 0.6942387223
-0.02484048903 -0.06757241488 0.6183049679 0.2469902933 -0.6108999252 0.7516002059
-0.02793761902 -0.06532419473 0.6218521595 0.3156761825 -0.6018812656 0.7281546593
-0.01483132411 -0.09117984772 0.5970022678 0.04618870839 -0.6266958714 0.7767511606
-0.05402565002 -0.07390586287 0.6372020841 0.6826017499 -0.493341893 0.537948072
-0.04841321707 -0.09358678758 0.6141499877 0.6347776055 -0.427868396 0.6424267888
-0.04880181327 -0.1226951033 0.7018173933 -0.6281101704 -0.4647147059 0.6226580143
-0.06081775948 -0.0943037048 0.6286258698 0.716357708 -0.4081681967 0.5569635034
0.04484534636 -0.07635392994 0.6468864083 -0.6101386547 -0.4146336615 0.6601487398
0.04183496907 -0.07705385238 0.6421829462 -0.6606853008 -0.4635815918 0.5716651082
-0.05009073392 -0.08455190808 0.622205615 0.6652110815 -0.4541478157 0.5915631652
-0.04514971748 -0.08744351566 0.6160432696 0.6097798944 -0.4604415894 0.6443269849
-0.02093645558 -0.06238525733 0.6223300695 0.2026529312 -0.6122378111 0.7584463358
-0.02638950013 -0.06084327772 0.6252413392 0.3079891205 -0.6054334641 0.7250099778
-0.02166621573 -0.07566719502 0.6112256646 0.1884206533 -0.6236813068 0.7531685829
-0.006381508429 -0.0740012005 0.6115176678 -0.06798750162 -0.6107549667 0.7862818837
-0.02004715055 -0.07013119012 0.6150817871 0.1619903296 -0.6203476787 0.7629565597
0.02875644527 -0.06656326354 0.6329010129 -0.5769840479 -0.4557460546 0.6759422421
0.03643085063 -0.06757853925 0.6412085891 -0.7123973966 -0.4014039636 0.5692731142
0.03720293939 -0.07283238322 0.6389399171 -0.7166486979 -0.4005175531 0.5661059618
0.03173528612 -0.07175575942 0.6331537962 -0.6333919764 -0.4395716786 0.6311465502
0.04018040374 -0.06450041384 0.6365451217 -0.4090212286 -0.4804967642 0.6527819633
0.05007356405 -0.07432970405 0.628646493 -0.1080536917 -0.5010378361 0.7209324837
0.03596865758 -0.06705312431 0.6351154447 -0.5404825211 -0.4419698715 0.6585939527
0.04211850464 -0.06922770292 0.6333252192 -0.3730064332 -0.4616449177 0.6814361215
0.03747101501 -0.07267415524 0.6295306683 -0.3994324207 -0.4760582447 0.6841130257
0.04425007105 -0.07395230234 0.6287742257 -0.2426758409 -0.4899323285 0.7031606436
0.03166848421 -0.07511299103 0.6284562349 -0.5907292962 -0.4546596408 0.6437460184
0.05032576993 -0.06692193449 0.6355457306 -0.1464468539 -0.524574399 0.6657716632
0.05664502829 -0.06616075337 0.636346221 0.0291010458 -0.5669158697 0.662343502
0.06041081622 -0.07506755739 0.6286368966 0.1136360317 -0.5174040198 0.7462820411
0.06301368773 -0.06728184223 0.6355016232 0.2019710839 -0.5945106149 0.6762331128
0.05636099726 -0.07243824005 0.6308500171 0.007818966173 -0.5151593685 0.719846189
0.009565616027 -0.06552056223 0.6215418577 -0.3186644912 -0.5787168145 0.7487350702
0.01194119547 -0.05866148323 0.6280516982 -0.331282407 -0.5730175376 0.7494771481
0.0249677524 -0.04752478376 0.6423849463 -0.4870474041 -0.5210312009 0.6988763809
0.02212882601 -0.04121668637 0.6448768973 -0.4106527269 -0.5663000345 0.7138787508
0.01646516845 -0.04330826923 0.6413215399 -0.3470772207 -0.5926009417 0.7261567116
0.01623006165 -0.03649582341 0.6457187533 -0.320610851 -0.6140617728 0.7196121812
0.01379391178 -0.09381778538 0.6027111411 -0.4144453108 -0.4872875512 0.7648264766
0.004046737216 -0.0945417583 0.5946449637 -0.2507091165 -0.489623487 0.8329462409
0.005446372088 -0.09053491801 0.5995482206 -0.269995302 -0.5132690668 0.8106004
0.007067199331 -0.08621298522 0.6049852371 -0.2922539711 -0.5397093892 0.7851833701
-0.006076440215 -0.03612418845 0.6423855424 -0.0135488743 -0.6566873789 0.7496547103
0.004337952938 -0.03610410169 0.6430456638 -0.1826493293 -0.6478226185 0.7387279868
-0.001115552965 -0.04496585205 0.6349201202 -0.09699077159 -0.6234433651 0.7716297507
-3.390654456e-05 -0.03812902793 0.6404326558 -0.1095720232 -0.6496315002 0.7459733486
-0.006054888014 -0.06470604241 0.6191298366 -0.06375673413 -0.6203168631 0.7797308564
-0.01178305224 -0.06486268342 0.6194154024 0.03356673196 -0.620572567 0.7792147994
-0.006869090255 -0.06940736622 0.6153762937 -0.05173374712 -0.6164283752 0.7826967239
-0.01480312552 -0.07210726291 0.6124190688 0.07461918145 -0.6295595169 0.7731845379
0.002349843504 -0.06352722645 0.6214692593 -0.1900761127 -0.6045607924 0.7707846165
-0.03725114465 -0.04982668906 0.6412881613 0.5229002237 -0.5612756014 0.6382651925
-0.03255767748 -0.04410303384 0.6429284811 0.4255126715 -0.5945013762 0.6766825914
-0.02922280133 -0.04724164307 0.6371431947 0.3755976856 -0.5985122919 0.704335928
-0.01482499018 -0.04381036386 0.6366419792 0.1011607945 -0.6347000599 0.7564416528
-0.01075270027 -0.04069695249 0.6406523585 0.04994358122 -0.6416885853 0.7432866096
-0.04375635833 -0.1321741343 0.6998467445 -0.5843468308 -0.4759206474 0.6473290324
-0.04011502489 -0.1315558702 0.7043328881 -0.5166442394 -0.5043597817 0.6842206717
-0.03844574466 -0.1373939365 0.703340888 -0.5040750504 -0.5239438415 0.6825847626
-0.03568633646 -0.131991446 0.7087532282 -0.474322468 -0.5301992893 0.7000473738
0.03054508381 -0.1330264956 0.6986814141 0.6278049946 -0.5231664777 0.5759617686
-0.03254416212 -0.1225912943 0.716427505 -0.3830325305 -0.5397040844 0.7467923164
-0.02721907757 -0.1319063753 0.7125029564 -0.3447523117 -0.5434840322 0.7621840239
-0.03245805949 -0.1277379245 0.7134436369 -0.4204133749 -0.5419266224 0.7250067592
-0.02625845931 -0.1256869137 0.718444705 -0.3086254001 -0.5539386868 0.7706788182
-0.02512601763 -0.1211394519 0.7256003618 -0.2724519968 -0.5635965466 0.7729426026
-0.02930955216 -0.1174162999 0.726410985 -0.3016766608 -0.5547782779 0.7681171894
-0.03455518559 -0.1168006584 0.7232593298 -0.3663285673 -0.5406825542 0.7518594265
-0.06071811542 -0.05927028134 0.6617681384 0.7058948278 -0.4917219579 0.5096180439
-0.06025609002 -0.04920496047 0.6709928513 0.6821422577 -0.5167748332 0.517219305
-0.05315448344 -0.04703868553 0.6605600119 0.6691022515 -0.5193648338 0.5313894153
-0.05518189818 -0.05376538634 0.6575933695 0.6862491965 -0.507070601 0.5214104056
0.03179947659 -0.164656505 0.6710034013 0.6548187137 -0.4014954269 0.6248958111
0.02477161586 -0.1664096266 0.6758358479 0.5794669986 -0.4398966134 0.6716333628
0.02304765768 -0.1720634997 0.6809814572 0.4994288981 -0.476210624 0.7225322723
0.04049589112 -0.1586945206 0.6648392081 0.7384318709 -0.372539103 0.5618832111
0.04152446985 -0.1470084339 0.6683179736 0.7545639873 -0.3907123208 0.5266743302
-0.02948416397 -0.1710551083 0.6850767136 -0.281927824 -0.5577443242 0.7708639503
-0.03776315972 -0.1640133858 0.6829648614 -0.4465340376 -0.4806973934 0.7399594188
-0.04161321372 -0.1685637236 0.6809626222 -0.4866327643 -0.4627690911 0.737164259
-0.03343714401 -0.1637385488 0.6865113974 -0.3832275569 -0.5078984499 0.7672023177
0.03539168835 -0.1417294443 0.6803044081 0.7313045263 -0.4342048168 0.5197259188
0.04005830735 -0.1370929182 0.680382669 0.7448988557 -0.442948401 0.498352021
-0.002634872682 -0.1460153461 0.7055698633 0.1042655781 -0.6349589825 0.7626845241
0.004064677749 -0.1470993608 0.7044166327 0.2222198695 -0.6278820038 0.7455458641
0.0001628681493 -0.1423461437 0.7092048526 0.1458160132 -0.6255947351 0.7613025308
-0.05951985717 -0.09998463839 0.626419425 0.6873676777 -0.4287827015 0.5861461163
-0.06439848989 -0.09832219034 0.6333305836 0.7455196381 -0.3745971024 0.5328481793
-0.05851901695 -0.05364604667 0.6636129022 0.6895573139 -0.5090200901 0.5150968432
-0.06364631653 -0.09304735065 0.6366363764 0.7534826398 -0.3964941204 0.5093242526
-0.03002625518 -0.05526874587 0.6308375001 0.3777163327 -0.6034710407 0.6988430619
-0.03393641859 -0.05373518169 0.6349599957 0.4539693892 -0.5849322677 0.6710149646
-0.02699251659 -0.05100421235 0.6323127747 0.3236519396 -0.6135716438 0.7186130285
-0.01743841544 -0.1396935433 0.7100871801 -0.1790600866 -0.5983849168 0.7761529088
-0.006137138698 -0.1423993409 0.7094780207 0.02644605376 -0.629353106 0.7751813531
-0.02806025371 -0.1427036226 0.7041348219 -0.3291945755 -0.569553256 0.7486090064
-0.02152400091 -0.1450025737 0.7047169209 -0.2154196203 -0.5966384411 0.7705811262
-0.02308274433 -0.1394150555 0.7080494165 -0.2618546784 -0.5807380676 0.7664491534
-0.01551936381 -0.1451970488 0.7064706087 -0.1350304484 -0.611427784 0.7786559463
-0.04525588453 -0.06280808896 0.6374897361 0.6019412875 -0.5295761824 0.5963966846
-0.04487108439 -0.05581735447 0.6426994205 0.6105268598 -0.5284653902 0.5895819664
-0.04852913693 -0.06788487732 0.6360934973 0.6273933053 -0.5262064934 0.5727703571
-0.05176032707 -0.1295729876 0.6937198043 -0.6921662092 -0.4171899259 0.5859017372
-0.05622319505 -0.1320480406 0.687097013 -0.7484903336 -0.374645263 0.5458452702
-0.05883838236 -0.1252121478 0.6888107061 -0.7660781145 -0.346087873 0.5293059945
-0.05565293506 -0.1250490248 0.6937491298 -0.7069855928 -0.4056573212 0.5723272562
-0.05333349481 -0.1222344562 0.6982445121 -0.6690865159 -0.4448304176 0.592695117
-0.05757754669 -0.09157809615 0.6245244145 0.6913051009 -0.4283053577 0.581590116
-0.0508303158 -0.09052629024 0.6202197671 0.6436086893 -0.4483966529 0.6175448895
-0.0544657968 -0.09673064947 0.6203768253 0.6729157567 -0.4256702662 0.6041523218
0.03995880857 -0.07127141207 0.6448262334 -0.6928082705 -0.3946971297 0.5862232447
0.0453383401 -0.07331155241 0.6531689167 -0.5611595511 -0.3948835433 0.7136600614
-0.02222769521 -0.05205887184 0.6303668022 0.2286325395 -0.6209600568 0.7423588037
-0.01995771006 -0.04688386247 0.6342923045 0.1919417083 -0.6189450622 0.7556270361
0.008598446846 -0.06134459004 0.6250430346 -0.2818618715 -0.5847671628 0.7577912807
0.01980127208 -0.06265038997 0.6298667192 -0.4517230392 -0.520470798 0.7223608494
0.02354134247 -0.06610844284 0.629029274 -0.5076218247 -0.491265893 0.7073591352
0.01946902461 -0.04835528135 0.6397873163 -0.4001912475 -0.5498660803 0.722258091
0.01355661079 -0.04748866707 0.6373857856 -0.2967785895 -0.5861273408 0.7535281777
0.007688054349 -0.04324369133 0.6389767528 -0.2369164675 -0.6049893498 0.7590501308
0.04647090659 -0.05051178858 0.6496375799 -0.2476765364 -0.5800093412 0.6326771379
0.05708434805 -0.05406174809 0.6483338475 0.02197225206 -0.6612486243 0.6152076125
0.05245292187 -0.05263420939 0.6513100266 -0.08455038071 -0.5572641492 0.6894745231
0.03381573409 -0.05484230444 0.6457636356 -0.6180461049 -0.4464526176 0.6466474533
0.04056155309 -0.05057442561 0.6474092007 -0.3534353971 -0.5651777387 0.6359758973
0.04781342298 -0.0550923869 0.6461934447 -0.2150929868 -0.5880277753 0.6251530647
0.0348742567 -0.04855135828 0.6478458643 -0.4857949317 -0.5301534534 0.6444731355
0.03866550699 -0.05338221416 0.6528233886 -0.6132041216 -0.397598505 0.6803932786
0.03854539245 -0.059762422 0.6512699127 -0.5734723806 -0.4254279137 0.6924394369
0.04582961649 -0.06969875097 0.6597265005 -0.4678764939 -0.4192558825 0.7752674818
0.04189949483 -0.06370770931 0.6552869081 -0.5310887694 -0.41813761 0.7285045385
0.04036563635 -0.06625211984 0.6498927474 -0.6214057803 -0.4068715274 0.6475602388
0.03750696406 -0.06289577484 0.6463537812 -0.6622733474 -0.4112188816 0.6135222316
0.01873039827 -0.07032374293 0.6223294735 -0.4560318589 -0.5242000222 0.7186183333
0.01632234454 -0.06541532278 0.6250442863 -0.3952062726 -0.5422219634 0.739248991
0.01888171397 -0.07642610371 0.618806541 -0.4620987773 -0.530313313 0.7082573771
-0.02457024902 -0.04366373643 0.6379615068 0.2875360548 -0.6121838093 0.7364163399
-0.02520392463 -0.03940316662 0.6420388818 0.3035462499 -0.61912328 0.7240784764
-0.01612279937 -0.03907249868 0.639341116 0.1347010881 -0.6319852471 0.7549895048
-0.0167751573 -0.03426866606 0.6441522241 0.1904235184 -0.6412706375 0.7404719591
-0.02456401102 -0.03012667596 0.6491707563 0.3064409196 -0.6392111778 0.7024665475
-0.02249153331 -0.03340621293 0.6458207369 0.270939678 -0.6329218745 0.7234054804
-0.02808291651 -0.03472895548 0.6471238732 0.3626073003 -0.6183654666 0.6948302984
-0.03147007525 -0.03228429705 0.6515370607 0.4338404536 -0.6105305552 0.6588333845
-0.0474004522 -0.1279269457 0.6994873285 -0.6315611005 -0.4576437771 0.6216330528
-0.04498090968 -0.1275620013 0.70413661 -0.585066855 -0.4884947836 0.646564424
-0.0470726639 -0.119116202 0.7063153386 -0.5845379233 -0.4850378931 0.6496617794
0.001601416268 -0.1373713464 0.7136825323 0.1696327031 -0.6070841551 0.7716196179
-0.004318834282 -0.1375399828 0.7125320435 0.05300559849 -0.5976704359 0.7879005075
-0.01197183505 -0.1357103437 0.7143861651 -0.09083234519 -0.5789020061 0.8069589734
-0.01136444975 -0.1406711787 0.7108057141 -0.07618720084 -0.6159160733 0.7801085114
-0.01457822789 -0.1173599735 0.7265735865 -0.1313145459 -0.5750695467 0.8046605587
-0.01926606148 -0.1178019643 0.7302670479 -0.1773158163 -0.5748969316 0.7967423797
-0.009440598078 -0.1173700467 0.7252207994 -0.0587278232 -0.5750721693 0.8128570914
-0.02729880437 -0.1184829399 0.7203894854 -0.3024769127 -0.5530354977 0.767547369
-0.01986175403 -0.1180019975 0.721965909 -0.2114524692 -0.5650612116 0.7883933783
-0.008246073499 -0.128651619 0.7210840583 -0.01492370572 -0.5875262022 0.8034150004
0.04324860126 -0.1521687359 0.6605951786 0.7472168207 -0.3695275784 0.5523197651
0.0377795808 -0.1542078704 0.6684541106 0.7480704188 -0.3746294975 0.5476412177
-0.02408716269 -0.1629665047 0.6902611256 -0.2152290344 -0.5540724993 0.8029879332
-0.01562792063 -0.1712344587 0.6864095926 -0.0604615882 -0.6016706824 0.7952076793
-0.0005446708528 -0.1711544991 0.6855780482 0.1649239808 -0.5934535265 0.7717880607
0.01211204659 -0.1701380163 0.6810739636 0.3778598905 -0.5285040736 0.7396561503
0.002361653605 -0.1654666364 0.6877940297 0.2143661976 -0.5748108029 0.7813845277
0.006133318879 -0.1712846309 0.685755074 0.260772258 -0.5619960427 0.7814266682
0.008162898943 -0.1663565189 0.6889388561 0.2920384705 -0.5662787557 0.7683686614
0.004728479777 -0.1618560255 0.6924796104 0.2541592419 -0.5934946537 0.7628045082
0.001804178348 -0.1569144726 0.6961719394 0.1982902288 -0.6079054475 0.7613847852
0.03107366525 -0.1548897326 0.6784427762 0.690502584 -0.4156325161 0.589713335
0.02707248926 -0.1610307097 0.677202642 0.6404987574 -0.4067201018 0.6444171667
0.0200359486 -0.1685086638 0.6780185103 0.5087900162 -0.4808610976 0.7080435157
0.0157311745 -0.1593257487 0.6849820614 0.4739846289 -0.4858840108 0.7202070355
0.02212485112 -0.1587699652 0.6823900938 0.5811530352 -0.4536626339 0.6705048084
0.02353527956 -0.1532954872 0.6846638918 0.6034890413 -0.4768636823 0.6289086342
0.02065359429 -0.1562903523 0.6896492243 0.4939622879 -0.5388071537 0.6807070374
0.02278118581 -0.1638052464 0.6857914925 0.5032007694 -0.512137115 0.6937090755
0.01287899166 -0.1533993334 0.6927378774 0.3967760801 -0.5682650805 0.7160339952
0.01884504035 -0.146948114 0.6974458098 0.4766677022 -0.5757331252 0.6618067026
0.02031838149 -0.1509653926 0.6917166114 0.5049539208 -0.5492984056 0.6649743915
0.007579272147 -0.1533559263 0.6972719431 0.2972288728 -0.6095780134 0.7291372418
-0.06707023084 -0.128633976 0.6693971753 -0.8689336181 -0.2451531887 0.4127296507
-0.0687918216 -0.1311641186 0.6636399031 -0.8890981078 -0.2156532854 0.383815527
-0.06285329163 -0.1322598904 0.672718823 -0.8212187886 -0.3098116815 0.4789756835
-0.06825358421 -0.1207751706 0.6550385356 -0.4351438582 -0.1861769557 0.3782595098
-0.06763068587 -0.1074137315 0.6474076509 0.2840602994 -0.232691735 0.3914040923
-0.06703905016 -0.1256935894 0.6603821516 -0.62570858 -0.2871940732 0.4665303826
-0.06612467021 -0.1074284688 0.6412283182 0.4815911949 -0.2037962377 0.4399602711
-0.06596657634 -0.1125320047 0.6440498829 0.2380205393 -0.2048562169 0.4561410546
-0.06945677847 -0.1267383546 0.654417634 -0.7707701921 -0.04833850265 0.2995125949
-0.06876579672 -0.1175504401 0.6469783783 -0.2264013737 -0.05612161756 0.3108934164
-0.06727144122 -0.0997658819 0.6401134729 0.7359850407 -0.2090534121 0.3829765022
-0.06952362508 -0.1226766035 0.6502614021 -0.5463181734 -0.01763091236 0.2793570459
-0.06583029032 -0.1056498662 0.6346666813 0.669192493 -0.1253797114 0.4227936864
-0.06104655564 -0.07531202585 0.6452073455 0.7381811142 -0.4486814737 0.4995351434
-0.06327680498 -0.0770155713 0.6495912075 0.7793831229 -0.3966251016 0.4595901966
-0.06574884057 -0.09063691646 0.6416022778 0.850276649 -0.2996943891 0.4142606854
-0.06449145824 -0.0845721364 0.6447201371 0.8160738349 -0.3461098969 0.4372396171
-0.06181733683 -0.07114732265 0.6521099806 0.7412987947 -0.4473472536 0.4869491458
-0.05479424447 -0.0693327412 0.6419816017 0.6985394359 -0.487662822 0.5230748057
-0.05853854492 -0.06525494903 0.6518704295 0.7034268975 -0.4909893274 0.5135104656
-0.05836520344 -0.08546056598 0.630528748 0.7041335702 -0.4389059246 0.557941258
-0.05856348202 -0.0703933388 0.6472575068 0.714857161 -0.4789465964 0.5093570948
-0.05776883289 -0.07853748649 0.6375004053 0.7136185169 -0.4580012262 0.5284699798
-0.02079041861 -0.1521929801 0.7000331283 -0.2135238498 -0.5890572667 0.7778333426
-0.02426564135 -0.1546020508 0.696670413 -0.2441827953 -0.5598065257 0.7913933396
-0.02045830898 -0.05773194507 0.6263174415 0.2050254345 -0.6114022732 0.7502428293
-0.01611903496 -0.05220075697 0.6294233799 0.1131388173 -0.6226990819 0.7718549371
-0.01026104018 -0.05580798164 0.6259689331 0.01811817288 -0.6173034906 0.7808152437
-0.01442629844 -0.0606219843 0.6228830218 0.08828757703 -0.6151504517 0.7827502489
-0.004849187564 -0.05918326601 0.6232970357 -0.08496186137 -0.6174934506 0.7817278504
-0.03306177258 -0.06809803843 0.6214911342 0.4220026433 -0.5802745223 0.6953493953
-0.0558613427 -0.08102460206 0.6327959299 0.6942974925 -0.459035486 0.5535529256
-0.0543532446 -0.085974738 0.6250197887 0.6912685037 -0.4378900528 0.5746431351
0.01792252064 -0.05328898504 0.6341735721 -0.3805916309 -0.5518841743 0.7410812378
0.02123892121 -0.05765651539 0.6337251067 -0.4650836587 -0.5111142397 0.7204953432
-0.00280017755 -0.05476281792 0.6270154715 -0.1041843221 -0.6127023101 0.7823085785
0.005346283317 -0.05189083889 0.6309076548 -0.1838293225 -0.6014969945 0.7770599723
0.002549186116 -0.05584762245 0.6271371841 -0.1772895604 -0.6099375486 0.770602107
-0.000753746659 -0.05103145167 0.6306679249 -0.1027053371 -0.6123481989 0.7803111672
0.00502299238 -0.04668145254 0.6349192858 -0.1920730472 -0.6062170863 0.7716784477
-0.005063431337 -0.04786166549 0.6330291629 -0.04916401953 -0.6288997531 0.7751740217
-0.0114955958 -0.04829430953 0.6329079866 0.03910577297 -0.6309030056 0.7708443999
-0.005252495874 -0.04256757721 0.6383345723 -0.05137982219 -0.6447972655 0.7591622472
0.0009585753432 -0.1194509119 0.7223796844 0.104844667 -0.5489616394 0.8142006397
0.008952931501 -0.124483034 0.7192504406 0.2517431974 -0.5339560509 0.8039717674
0.01387610566 -0.1260567755 0.7166733742 0.359562397 -0.5434722304 0.7562463284
0.005787469447 -0.1288139075 0.7175350189 0.2038876116 -0.562793076 0.8006640077
-0.003243395127 -0.1243021935 0.7226499319 0.07158784568 -0.5750162601 0.8126597404
-0.001275476068 -0.1296179742 0.7197822332 0.1019556522 -0.578119278 0.8061845303
0.003295898438 -0.1251001358 0.7220147252 0.1527119279 -0.5490073562 0.8205196857
-0.01430053636 -0.1307432204 0.7176115513 -0.1328105032 -0.5764222145 0.8049960732
-0.006710120942 -0.1340381205 0.7168551683 0.00283706747 -0.5809403062 0.8113680482
-0.009926841594 -0.1225161478 0.7209464312 -0.07208780944 -0.5792402625 0.8076918721
-0.01756168343 -0.1342683136 0.7139288187 -0.1842668504 -0.5646370649 0.8009269238
-0.02198961005 -0.1294353455 0.7164240479 -0.245702967 -0.559672296 0.7873473167
-0.0175271444 -0.1257308275 0.7231501937 -0.1670374274 -0.5754746795 0.7999800444
-0.04848064482 -0.1548006684 0.6795279384 -0.6322104931 -0.4070277512 0.6592026949
-0.05831554532 -0.137828812 0.6768110991 -0.8063161969 -0.3219186068 0.4939059615
-0.05229187757 -0.1391167641 0.6846378446 -0.7162234187 -0.3876649737 0.5650732517
-0.04636408761 -0.1517553329 0.6847715378 -0.610180676 -0.4135289192 0.674672246
0.01815609261 -0.1639812738 0.6815337539 0.5018422008 -0.4754298329 0.7162497044
0.01104486641 -0.1633351743 0.6852127314 0.3796286583 -0.5198876858 0.7611711025
0.01785026491 -0.1715622395 0.6831088066 0.4180749953 -0.5124063492 0.7463880777
0.01476143207 -0.1589388549 0.6911583543 0.4098205566 -0.5591138601 0.7188665271
0.01401599403 -0.1681656092 0.6862893105 0.3696145713 -0.5346559882 0.7578312159
0.02112559229 -0.1413654387 0.6984288692 0.5123969316 -0.5830483437 0.6199953556
0.01008202881 -0.1410514265 0.7090685964 0.3417637646 -0.6063591242 0.7170174122
0.01311089005 -0.1491520256 0.6982616186 0.3939832151 -0.5986973047 0.6941309571
-0.01200417802 -0.1633532792 0.6925170422 -0.02253867872 -0.5980373025 0.7992363572
-0.0006311290199 -0.1595265269 0.6908596754 0.1787091643 -0.5497847199 0.7854230404
-0.008528221399 -0.1570383012 0.6956487298 0.005558047444 -0.5829888582 0.79406178
0.007186180912 -0.1596225947 0.6885797381 0.3262042403 -0.5276010036 0.7775814533
-0.006811257917 -0.1639843732 0.6889961362 0.0828877762 -0.5704225302 0.7909630537
-0.01716497354 -0.1643904448 0.6908548474 -0.09861174971 -0.5854370594 0.80150491
-0.02164604142 -0.1709806025 0.6866441369 -0.1545120478 -0.5948485136 0.7849932909
-0.006123817991 -0.1716735363 0.6871795058 0.07578416914 -0.6125014424 0.7852247953
-0.01160851773 -0.1680720896 0.689285934 -0.006943475921 -0.6029797196 0.7946310043
-0.0296839904 -0.0748513937 0.614436388 0.3317033052 -0.6012273431 0.7221745253
-0.03604528308 -0.07240729779 0.6200383306 0.4710144699 -0.56698668 0.6740768552
-0.03411253169 -0.0782591626 0.6137802005 0.4078181386 -0.5834801793 0.7021845579
-0.03148717061 -0.08266256005 0.6089259982 0.3525277376 -0.5896645188 0.7238884568
-0.02614558674 -0.07906386256 0.6098518372 0.2617853284 -0.6232089996 0.7308351398
-0.04903105646 -0.07283426076 0.6306490302 0.6193169355 -0.5182359815 0.5894480348
-0.04625008255 -0.07547299564 0.6262893081 0.595410049 -0.5231525302 0.6080669761
-0.05169053748 -0.078001827 0.6300778389 0.661775291 -0.4815537333 0.5743092895
0.02655780502 -0.1371084303 0.699216485 0.5767812729 -0.550468564 0.5997232795
0.009466845542 -0.1438193321 0.7036527991 0.3194271326 -0.6228971481 0.7083166838
0.01870405488 -0.1359364539 0.7072098255 0.4295367301 -0.5835080743 0.6855825782
0.02161270007 -0.1383642554 0.7031313181 0.4867738783 -0.578105092 0.6526160836
0.01557006314 -0.1409721375 0.7053686976 0.4240703583 -0.5943914056 0.6775401235
-0.05267023295 -0.1455871761 0.680990696 -0.7136160135 -0.3767989278 0.5802332759
-0.05709546432 -0.1447426975 0.6757642031 -0.7863727808 -0.3437202871 0.5126723647
-0.05729363486 -0.141718328 0.6806463003 -0.7644173503 -0.3658135235 0.527228117
-0.05656036362 -0.1504205018 0.6764674783 -0.7417601347 -0.3644815981 0.5562970638
-0.05236264691 -0.1510078162 0.6810776591 -0.6694716215 -0.3949020207 0.6280073524
-0.04690869525 -0.1389483809 0.6947768927 -0.6235300899 -0.4594905972 0.6290227175
-0.02839738317 -0.157873705 0.6927925944 -0.3092719615 -0.5387518406 0.781111598
-0.02589665912 -0.148853749 0.7009148598 -0.3002930582 -0.5735429525 0.7557807565
-0.03278598562 -0.1469413936 0.6993507743 -0.4082314968 -0.5361608267 0.7357274294
-0.03295686468 -0.1537773311 0.6937578917 -0.3919820487 -0.5070615411 0.764295578
-0.03364890814 -0.1595791429 0.6905782819 -0.3847666383 -0.5144955516 0.7651432157
-0.007060578093 -0.1518691182 0.7005136609 0.01317462418 -0.6286494136 0.7745115757
-0.01251099817 -0.1494788527 0.7032461762 -0.07663876563 -0.6185118556 0.7785458565
-0.008057231084 -0.1465979815 0.705181241 0.006331802811 -0.6299738884 0.7710796595
-0.01536147017 -0.1548544616 0.6976631284 -0.1173640937 -0.5936951041 0.7903572917
0.001857799944 -0.1517268419 0.7000454664 0.1833280921 -0.6329293251 0.7483257651
-0.002969411435 -0.1542096734 0.6977078319 0.09324398637 -0.610409081 0.7787437439
-0.04181056097 -0.07260473818 0.6242909431 0.5469791889 -0.5446047783 0.6343852282
-0.03776569292 -0.06881278008 0.6242896914 0.4928825796 -0.56431216 0.6603648663
-0.04293836653 -0.06519167125 0.6324570775 0.5637016892 -0.540076673 0.6212685108
-0.03819272295 -0.06319393963 0.6294019222 0.524341464 -0.5593002439 0.640149653
-0.04404621944 -0.06987569481 0.628675282 0.5755130053 -0.5363771319 0.6169794202
0.02854216099 -0.1299500912 0.7033172846 0.5729700327 -0.5327694416 0.6185703278
0.02354349196 -0.1334397346 0.70485425 0.5015809536 -0.5652997494 0.6527004838
0.01830640994 -0.1279301196 0.7130860686 0.4011808038 -0.5609183908 0.723633945
0.02262852527 -0.1292633265 0.7092570662 0.4442889392 -0.5679464936 0.6911038756
0.01078218967 -0.1323806196 0.7128785253 0.3287553787 -0.576798141 0.7413182855
0.005871428642 -0.1337627023 0.7143017054 0.2280965447 -0.5785905123 0.7812582254
0.01316096447 -0.1360420585 0.7085869908 0.3615034819 -0.5811536312 0.7220763564
-0.04339643195 -0.1433128864 0.6940622926 -0.5702775717 -0.4789245129 0.6657391191
-0.03881789744 -0.1440936178 0.6965143085 -0.490218848 -0.503978312 0.7045047879
-0.03738149628 -0.1492394805 0.694552362 -0.4637438059 -0.4959428608 0.7319332361
-0.04348190501 -0.1491416544 0.6900210381 -0.5709187984 -0.4471093416 0.6855340004
-0.04775143787 -0.1447729021 0.6891495585 -0.6330732107 -0.4314675927 0.6392563581
-0.04258305579 -0.1559631377 0.6865087152 -0.537737906 -0.4580490589 0.706482172
-0.03800201416 -0.1534215659 0.690890789 -0.4758589268 -0.4718112648 0.7379330993
-0.04256809503 -0.1620710939 0.6834908724 -0.5026293993 -0.4890316129 0.71248734
-0.03895481303 -0.1602755487 0.6880949736 -0.459491998 -0.4959512949 0.7290863991
