# .PCD v0.7 - Point Cloud Data file format
VERSION 0.7
FIELDS x y z normal_x normal_y normal_z
SIZE 4 4 4 4 4 4
TYPE F F F F F F
COUNT 1 1 1 1 1 1
WIDTH 512
HEIGHT 1
VIEWPOINT 0 0 0 1 0 0 0
POINTS 512
DATA ascii
-0.05781368539 -0.1840448529 0.6862939596 -0.8023009896 -0.3202478588 0.5026115775
0.02340153046 -0.206646353 0.7065901756 0.4280260503 -0.4930645823 0.743614614
0.01661833189 -0.2110488266 0.7092485428 0.3036620021 -0.5123420358 0.8024962544
0.01925325394 -0.1309992075 0.6157876253 -0.3110040128 -0.6614587903 0.6756018996
0.0290912129 -0.1314700842 0.626370132 -0.4660193026 -0.6194549799 0.6316540837
0.0192717351 -0.1651820838 0.7364386916 0.3508549631 -0.5591922998 0.7450153828
0.05247591436 -0.1895739883 0.6839740276 0.7415904999 -0.5334262252 0.4058214426
0.05331739783 -0.1832765341 0.6916975975 0.7138002515 -0.539409101 0.440823406
0.03482671827 -0.1773760915 0.7120045424 0.570843935 -0.5335685015 0.6227006316
-0.01349344756 -0.2044574916 0.7075673342 -0.1600429565 -0.5404710174 0.8108615279
-0.02073757537 -0.2021620274 0.7072148919 -0.2876961231 -0.522166729 0.7866457701
-0.02615627088 -0.206314683 0.7070479989 -0.3609220088 -0.5120275021 0.7676481009
-0.03191135079 -0.2040220797 0.704890132 -0.4535598457 -0.4899304509 0.7388767004
-0.0272447411 -0.2006821334 0.706656754 -0.3988721073 -0.5053783655 0.7639323473
0.02568430454 -0.132962808 0.6187086701 -0.4244399667 -0.6320236325 0.6482300162
0.02329136804 -0.1242451742 0.624884963 -0.4128742516 -0.6362257004 0.6489347219
-0.03510026261 -0.1756871045 0.7193643451 -0.5610186458 -0.5016397834 0.6570704579
-0.03628168628 -0.193533361 0.7048739791 -0.561337769 -0.4499237537 0.6903645396
-0.0541771464 -0.1875867099 0.6911373138 -0.7875095606 -0.3205064237 0.5253018737
-0.05712463707 -0.1786309183 0.6870613694 -0.8073513508 -0.3253765702 0.4912799001
0.0126434043 -0.1695584208 0.7349846959 0.2682745159 -0.5879843235 0.7598722577
-0.0035122931 -0.1674224436 0.7394018769 -0.0159246996 -0.5527317524 0.8281624317
0.0030948075 -0.166568771 0.7410843372 0.1000019759 -0.554574132 0.8220803142
-0.02985085733 -0.1578215957 0.7404665351 -0.4075036049 -0.5194684863 0.7500603795
-0.0292811878 -0.1639642417 0.7358551025 -0.4283731878 -0.5299734473 0.7294672132
0.02458897419 -0.1626390219 0.732242763 0.3986376822 -0.5639388561 0.7146205306
0.03078072146 -0.1633220315 0.7290818095 0.4764987826 -0.5494669676 0.6828737259
0.04823129624 -0.1870948672 0.6967334747 0.7161659598 -0.4920079708 0.489767909
0.05303616077 -0.1774268001 0.7041964531 0.6776741743 -0.534145534 0.5010176897
0.04731786251 -0.1922530234 0.6906093359 0.7419213057 -0.4879276454 0.4564890563
0.04662165046 -0.1819792688 0.7023671269 0.6909790635 -0.5123200417 0.5070179701
0.05148437992 -0.1881866902 0.6904595494 0.7288983464 -0.5251963735 0.4347424209
0.05331231654 -0.1803357005 0.699434638 0.6926802993 -0.5382223129 0.4741894901
0.01878408156 -0.2032776773 0.7068896294 0.3956282139 -0.4749540687 0.7840411067
0.01327356324 -0.2058065236 0.7077142596 0.2929105759 -0.4895907044 0.8180097938
0.00664869044 -0.2056317776 0.7082327604 0.1639179885 -0.5045471787 0.8435401917
0.01566744223 -0.198961556 0.7095876932 0.3492833674 -0.4804678559 0.7997760773
0.02511890419 -0.199089244 0.7052708268 0.495973736 -0.4593521655 0.7293015122
-0.04945497587 -0.1925670952 0.6954960823 -0.7289491296 -0.3482925594 0.5765855312
-0.0372874774 -0.2024355978 0.703671813 -0.5398674011 -0.4571882188 0.7018655539
-0.04235586524 -0.1985985339 0.7003595829 -0.6186879277 -0.411218524 0.6497396827
-0.0489449054 -0.1850441843 0.6971858144 -0.753636837 -0.3676019013 0.5447234511
-0.01573390886 -0.1967654675 0.713494122 -0.2271802276 -0.5445018411 0.8022316098
-0.02203123271 -0.1969644725 0.7104266286 -0.3301588297 -0.5221737623 0.7780024409
-0.03240252659 -0.1971800476 0.7083596587 -0.4867832363 -0.4816249311 0.7277056575
-0.02164520323 -0.1937387437 0.7152431607 -0.3518788815 -0.5299306512 0.7699987292
0.01330992766 -0.1742669195 0.7318094969 0.2908595204 -0.6064316034 0.7383622527
0.02123194002 -0.179609701 0.7203508615 0.4313566983 -0.5693127513 0.6837269068
0.0299758669 -0.180738464 0.7135523558 0.5583895445 -0.5220938921 0.6441975832
0.03298324347 -0.1946473569 0.7052677274 0.5861260891 -0.484388411 0.6489393711
0.02461805381 -0.1843521446 0.7170408964 0.4557829797 -0.5556727052 0.6942914724
-0.02623819187 -0.06686045974 0.6768658161 0.4103679657 -0.6555197239 0.6287444234
-0.03738975152 -0.07306046784 0.6797921658 0.5790968537 -0.567199707 0.5843614936
-0.0605734922 -0.1681872606 0.6804545522 -0.883592844 -0.1384720951 0.412409544
-0.05893164128 -0.1731057018 0.6829993129 -0.8153713942 -0.3134311736 0.4867275655
-0.0298619438 -0.1790498793 0.7201841474 -0.4763175845 -0.5343850255 0.6925743222
-0.03171484545 -0.1864773482 0.7125315666 -0.503066659 -0.4968495369 0.6991275549
-0.01988651045 -0.1884073913 0.7193865776 -0.3449561 -0.5606943965 0.7520200014
-0.02802455612 -0.1924598217 0.7107056379 -0.4333529174 -0.5137557387 0.7372463942
-0.02498798072 -0.1831949502 0.7209765315 -0.396404773 -0.5729628205 0.7146998644
-0.02539702319 -0.1895618737 0.7163894773 -0.3997237682 -0.5343382359 0.741771102
0.004878506996 -0.1590701193 0.7457489967 0.09561273456 -0.5421241522 0.8346375823
0.01673282683 -0.1600269377 0.7391457558 0.2822737992 -0.5650855899 0.77333951
0.008575848304 -0.1668937951 0.7393550873 0.1896151602 -0.5667975545 0.8012649417
0.06091405451 -0.09036947042 0.6799253225 0.4630572498 -0.5270265341 0.6808299422
0.05767393857 -0.08944132924 0.6846830249 0.3370705247 -0.5301552415 0.7428555489
0.05598366633 -0.0832079947 0.6848207116 0.1948875189 -0.5059621334 0.7980824709
0.05205807835 -0.08410870284 0.6801396012 -0.09340495616 -0.5861383677 0.7018378377
0.05953126773 -0.08477719128 0.6747694016 0.2759041786 -0.5770136714 0.6624465585
0.05059338361 -0.08590530604 0.6861630082 -0.08712499589 -0.5381076336 0.7909463644
0.05331630632 -0.08333598822 0.6902835369 0.113268353 -0.4736323953 0.8687726259
0.02929386497 -0.1705387384 0.7248543501 0.5129473805 -0.549656868 0.658708334
0.02721616812 -0.1777950078 0.7184240222 0.5279393792 -0.5496562719 0.6435245275
0.02329654247 -0.1758645326 0.7243204713 0.4454419911 -0.5863824487 0.6733614206
-0.05271462351 -0.07918816805 0.6921566129 0.6759868264 -0.4912255406 0.5491995215
-0.03169359267 -0.1712633967 0.7253895998 -0.5050718188 -0.5285784006 0.6763088703
-0.06288139522 -0.174380362 0.6791119576 -0.8726321459 -0.1704289168 0.4227522612
-0.001464934787 -0.171711877 0.7357930541 0.03119667433 -0.579552412 0.8052517772
0.005395096727 -0.1711586565 0.7363956571 0.1675487757 -0.583558023 0.7941317558
0.006464284379 -0.1767480373 0.7319509387 0.1872090101 -0.614053607 0.7636756301
-0.0310506504 -0.165670529 0.73002702 -0.4951051176 -0.5218979716 0.6875517964
-0.02613427117 -0.167341426 0.7319580317 -0.4253049791 -0.5473514795 0.7182934284
0.02349438891 -0.1718717515 0.7282825112 0.4381770194 -0.5820698142 0.6841924787
0.01894492283 -0.1701315343 0.7319755554 0.3628047705 -0.5892835259 0.7191330194
0.01665033586 -0.1775505543 0.7263627052 0.3516801894 -0.6074296236 0.7121785879
0.04182279855 -0.1761776358 0.7051520348 0.6255866885 -0.5491658449 0.546320498
0.04562415928 -0.175139457 0.698451817 0.6852270365 -0.5447095633 0.4724471867
0.04519381374 -0.1756899059 0.7090781331 0.6144862771 -0.5498521924 0.5636712313
0.05303808674 -0.1757818907 0.6937963367 0.7039915919 -0.5418397188 0.4542659223
0.05388219655 -0.1730758101 0.7002251744 0.6825048923 -0.5464013219 0.4811095297
0.06680078059 -0.08618076891 0.6655799747 0.5652388334 -0.5939047337 0.5707783103
0.03710326925 -0.1688785702 0.7173045874 0.5326751471 -0.5719974637 0.6231545806
0.0439000465 -0.1692955941 0.7157562375 0.5743210316 -0.5629481077 0.5886129737
0.03343124688 -0.1721339673 0.7209343314 0.5382615328 -0.546205461 0.6412236094
0.03948016092 -0.1739727259 0.7147271633 0.5535642505 -0.5576008558 0.6142982841
0.03890222684 -0.1085436866 0.6555012465 -0.6435595155 -0.4691443145 0.6038458943
-0.003327158978 -0.2101688981 0.7109318376 -0.01083824132 -0.5347524881 0.8404297233
-0.009543929249 -0.2102051526 0.7106131911 -0.09847155958 -0.543900907 0.8255296946
0.03598964214 -0.194342643 0.6993964314 0.6763955355 -0.4284971356 0.5938568115
0.03148012981 -0.1987883598 0.7011777759 0.5971472859 -0.4370596409 0.6500745416
0.04329778999 -0.1886582822 0.6896480322 0.7393850088 -0.4617720246 0.4817824364
0.04631380737 -0.1864933819 0.683894515 0.7429039478 -0.4948631823 0.4423457086
0.03928066418 -0.1987583786 0.6963851452 0.658911705 -0.4826777279 0.561753273
0.04145549983 -0.1932541132 0.693341732 0.7410200834 -0.4313037694 0.5091361403
0.002871170407 -0.2010788023 0.7111471891 0.1182663664 -0.5329598188 0.8263867497
-0.004674061667 -0.2045689821 0.7087871432 -0.009665106423 -0.5501291752 0.8290467858
0.006114752032 -0.1946882308 0.7162358761 0.178117767 -0.54417485 0.8191282153
0.01093675103 -0.196760729 0.7130504251 0.2548830509 -0.5173742175 0.8149034381
0.007894142531 -0.2020102143 0.7140318155 0.1911537349 -0.5346897244 0.8201458454
0.003279916244 -0.207749635 0.7124047279 0.1146192551 -0.5356706381 0.8349152207
0.009289701469 -0.2104780376 0.7112436891 0.196364969 -0.5301809907 0.8184992075
0.0132945152 -0.1883368343 0.7205693126 0.3106811941 -0.5884251595 0.7414847612
0.01361332182 -0.2032092512 0.7139638662 0.2757489383 -0.5427943468 0.7895612121
-0.01543577947 -0.2034871578 0.714712441 -0.1948950738 -0.5620498657 0.8026066422
0.001210680697 -0.1869253814 0.7246891856 0.0967407003 -0.6067236662 0.7865749598
-0.00912328437 -0.1884907484 0.7230573893 -0.1016801521 -0.6090551615 0.7840636969
-0.04996132106 -0.08560147882 0.6824856997 0.6951440573 -0.4797016978 0.5341742039
0.05399050936 -0.1076341346 0.6759881377 -0.2592103779 -0.4060842991 0.7831584215
0.05949845165 -0.09651648253 0.6815525889 0.4489871264 -0.5753831863 0.6744560599
0.05550361797 -0.1017080694 0.6839531064 0.2454663664 -0.5112236738 0.8089544177
0.05462574586 -0.1108294204 0.6716507673 -0.4324909747 -0.361898154 0.7354342341
0.01711115427 -0.1844403148 0.7213961482 0.3686395288 -0.5974012017 0.7109856009
0.02140803449 -0.1886793971 0.7130854726 0.4184173048 -0.5413170457 0.7187025547
0.01274189819 -0.1918026656 0.7150898576 0.2872549593 -0.5239722729 0.7930600047
0.02855327912 -0.1883139163 0.7087398171 0.520262301 -0.5105599761 0.6832005382
0.01247955766 -0.1816281974 0.7242200971 0.2839218378 -0.6040537357 0.7391939163
0.007374524605 -0.1849011183 0.7237793803 0.2010152936 -0.6116920114 0.7616559267
0.005662692245 -0.1905241758 0.7203110456 0.1734509021 -0.5785815716 0.7943040133
0.02639845014 -0.1945376843 0.7096789479 0.5017649531 -0.4829803407 0.7132527828
0.0191497542 -0.1959170401 0.7136119604 0.3848342299 -0.5193299055 0.7583803535
-0.05305298418 -0.1105514839 0.6692302227 0.7683979869 -0.4464542866 0.4579391778
-0.05398151278 -0.09039511532 0.6902137399 0.7236565948 -0.4619407058 0.5124598742
-0.05075676367 -0.09200763702 0.6845987439 0.7316269875 -0.4557181597 0.5067999363
-0.0471367836 -0.07863668352 0.6866674423 0.6647501588 -0.4932306409 0.5605765581
-0.05140819401 -0.08452759683 0.6882844567 0.6910313368 -0.4906490147 0.5307224989
-0.04501063749 -0.08727665246 0.6752433181 0.691732645 -0.4825960994 0.5364243388
0.02388330363 -0.1205758899 0.6310710311 -0.4510272145 -0.6158872247 0.6426929235
-0.03768501803 -0.1790062934 0.7139862776 -0.6000422835 -0.4710796773 0.6448205709
-0.04455014318 -0.1733223647 0.7110551596 -0.7017146349 -0.4154267311 0.5748191476
-0.0006525401841 -0.1890460402 0.719002068 0.03711286187 -0.5770001411 0.7816309929
-0.01354721189 -0.1888313293 0.7198014855 -0.2266255766 -0.568153739 0.7672966719
-0.01981307007 -0.1838237196 0.7231453657 -0.3086588979 -0.5924462676 0.7398861051
-0.0136777889 -0.1843003035 0.7264513373 -0.1864657998 -0.6079983711 0.7709682584
0.04019328579 -0.07775358111 0.6744489074 -0.2974328399 -0.6037359238 0.6468599439
0.04935417697 -0.08188027889 0.6749050021 -0.08422188461 -0.6035178304 0.6474429369
0.04364869744 -0.08139880002 0.6805360913 -0.3677401841 -0.6002824903 0.6975224018
0.05407590047 -0.08273029327 0.6715236902 0.1178242937 -0.6054665446 0.6169038415
-0.0537317507 -0.1591351479 0.7065781951 -0.7857792377 -0.3631084859 0.4989340603
-0.05093776062 -0.160594821 0.7116647363 -0.7416346669 -0.393631041 0.5399519205
-0.04160078987 -0.1614957154 0.7233954072 -0.6356163025 -0.4610765278 0.6166960597
-0.03757988289 -0.1606866568 0.7280710936 -0.5679599643 -0.4875995815 0.657755971
-0.04542676732 -0.1585371643 0.7208835483 -0.6782886386 -0.4330402315 0.5927633047
-0.06081726775 -0.1252410561 0.6680989861 0.7834558487 -0.4304150641 0.4478466213
-0.0564267002 -0.1187884584 0.667167902 0.7822526693 -0.4338114262 0.4468998611
-0.05963559449 -0.1626951545 0.6835343242 -0.6641986966 -0.3139694333 0.4797519743
-0.05939566717 -0.156714648 0.6791704893 -0.3815023899 -0.3412176669 0.4795595706
-0.06123867258 -0.1510715932 0.6775978208 -0.2689973712 -0.2349921614 0.4239403307
-0.0612822026 -0.1398562044 0.6786267757 0.1289604008 -0.3688052893 0.4524454772
-0.06102874503 -0.1510888785 0.6836240292 -0.3228825331 -0.3311670721 0.4673396945
-0.05937336758 -0.1447628587 0.6829482317 -0.06094452366 -0.3706892729 0.4704540074
-0.05622947961 -0.1579930782 0.7000967264 -0.7308142781 -0.3428834081 0.4811497331
-0.05709249899 -0.1459721476 0.6892641187 -0.1590056568 -0.3847002685 0.4766248763
-0.05967817828 -0.1577256173 0.6916867495 -0.6547273993 -0.3153378665 0.4721149504
-0.06077404693 -0.1279382855 0.6735028625 0.6257511377 -0.417840004 0.4439853132
-0.05727311596 -0.1539326012 0.6957846284 -0.5453724861 -0.3489611745 0.4740422666
-0.05947217718 -0.1345185637 0.6800943017 0.322350651 -0.4039166868 0.4528009593
-0.05988365039 -0.1527007967 0.6891353726 -0.4490660429 -0.3315632045 0.4655192196
-0.05849449337 -0.1384308934 0.6843749881 0.1405418962 -0.3975248933 0.4589651227
-0.01873143204 -0.1752493978 0.7289534807 -0.2962780595 -0.5758375525 0.7416110039
-0.02503729612 -0.1737885922 0.7281583548 -0.4058375955 -0.5665718913 0.716612339
-0.008650783449 -0.174472779 0.733234942 -0.1214538217 -0.5916859508 0.7864336371
-0.01429223921 -0.178850159 0.7312002182 -0.1959022433 -0.6109814048 0.7651911974
-0.01816719957 -0.1681414396 0.7347705364 -0.2828562558 -0.5583204031 0.7631393075
-0.01179362554 -0.1695659906 0.7371179461 -0.1653425545 -0.5667929053 0.8028197289
-0.02378116176 -0.1792016327 0.7250809669 -0.3792687654 -0.5812717676 0.7196904421
0.03703992441 -0.1825819463 0.7062432766 0.613758266 -0.5062656999 0.6042729616
0.04117515683 -0.1813460588 0.6992411017 0.6760914922 -0.5036589503 0.5253167152
0.04501320049 -0.1797591448 0.6949255466 0.7236008644 -0.5100101233 0.4581978321
0.03879930079 -0.1864065081 0.7030199766 0.6606730223 -0.5040881634 0.5507203341
0.03370051086 -0.1884973645 0.706392467 0.596011281 -0.4855512083 0.6385766864
0.04724401236 -0.1709280908 0.7027319074 0.6514954567 -0.5737397075 0.4901624024
0.05262467638 -0.1689428836 0.7082304955 0.6445665359 -0.5716868043 0.5072609186
0.04580779374 -0.1678406298 0.7092962861 0.605392158 -0.5946320891 0.5283420086
0.05280477554 -0.1817111522 0.6771733761 0.7590619922 -0.5106084943 0.403668046
0.04721080884 -0.1798162311 0.6891948581 0.7441352606 -0.5077303648 0.4304653108
0.04140530527 -0.186332196 0.6964200139 0.7329861522 -0.4522749186 0.504791975
0.0491239205 -0.1804752797 0.6827174425 0.7602456212 -0.5027255416 0.4101987183
0.0699531436 -0.09582711011 0.6499426961 0.5904624462 -0.5366361737 0.6008625627
0.07304187119 -0.09166491777 0.6560337543 0.644993782 -0.4977806807 0.5787916183
0.02933765016 -0.1138538644 0.6412683129 -0.5479717851 -0.5314412117 0.6456083655
-0.006397261284 -0.1841664761 0.7268884182 -0.06003756076 -0.6301991343 0.772241056
-0.004568031058 -0.1793549359 0.7311223745 -0.04208659008 -0.6240389943 0.7780103087
0.001279290649 -0.1813462228 0.7289945483 0.0789128691 -0.6269388199 0.7702047229
-0.01058663148 -0.1998342127 0.7123202682 -0.1263327003 -0.5537070036 0.8180221915
-0.01510295924 -0.2087960094 0.7121016383 -0.180109784 -0.5506908894 0.8124633431
-0.009408527985 -0.196739763 0.718415916 -0.1010068208 -0.5764155984 0.8068019152
0.0009798976826 -0.1992156357 0.7168563008 0.08084437996 -0.5660361648 0.8189770579
-0.006945022848 -0.1910075098 0.7177509665 -0.08538427204 -0.5647300482 0.7847281694
0.03386881948 -0.0767499283 0.6737006307 -0.4617525041 -0.5945741534 0.6574504972
0.03138372675 -0.0806607157 0.6695637107 -0.4676897526 -0.5508342385 0.687784493
0.02785871923 -0.07387059182 0.6723141074 -0.4280955493 -0.6276690364 0.6496026516
0.03253632784 -0.08576564491 0.6663660407 -0.4939627051 -0.5388740301 0.6814007163
0.04485245422 -0.08275714517 0.6705518365 -0.1996635795 -0.5597077608 0.642003417
0.04315503687 -0.1059933305 0.6624364257 -0.6659308672 -0.4225576818 0.6139268875
0.04948071018 -0.08533001691 0.6677852869 -0.02513501421 -0.5643268228 0.6263265014
0.04918512702 -0.1055596024 0.6700568795 -0.5408639908 -0.3995646834 0.7252378464
0.04968673363 -0.1110487431 0.6672381163 -0.5960963368 -0.4429262578 0.6502266526
-0.0423075594 -0.07828210294 0.6809370518 0.6404858828 -0.5017156005 0.5812010169
0.01125471387 -0.1307252795 0.6141648293 -0.1967233866 -0.685392797 0.7002853155
0.01805749536 -0.1290923953 0.6215522885 -0.3131774962 -0.6531324983 0.6719301939
0.01041686535 -0.1262595654 0.6226197481 -0.2047465891 -0.6686818004 0.7005006671
-0.05235808715 -0.1753449291 0.6976763606 -0.7979627848 -0.3292483389 0.502073586
-0.05299543589 -0.1810531169 0.6953020692 -0.7974408865 -0.3260057569 0.5076482892
-0.04979948699 -0.1795874089 0.7013034225 -0.7680132985 -0.3542104065 0.5321959257
-0.05218020082 -0.1664901078 0.7055009007 -0.7955027223 -0.3451840878 0.4952968359
-0.04926885664 -0.1712997556 0.7071954608 -0.7590932846 -0.3799067438 0.5276700258
-0.04252635688 -0.1798031777 0.710062325 -0.6589454412 -0.4264520705 0.6171791553
-0.03726975247 -0.1870382279 0.7107072473 -0.575979948 -0.453263253 0.6751235723
-0.04128541797 -0.1916775554 0.7058915496 -0.62547791 -0.4333143234 0.6478158832
-0.04507679865 -0.1912792176 0.7004935741 -0.6770838499 -0.4019571543 0.615034759
-0.0457168296 -0.1831999421 0.7042663693 -0.6988630891 -0.3966088295 0.5917405486
-0.04689892009 -0.1767649353 0.7059625387 -0.7377104759 -0.3873629272 0.5507850051
0.03421647474 -0.118543379 0.642850697 -0.5078597069 -0.5811111331 0.6310326457
0.02951173857 -0.1207448915 0.6366705298 -0.4578511715 -0.605640173 0.6496101618
0.04686043784 -0.1316581815 0.6451804638 -0.1659855843 -0.8414381742 0.5128003359
0.05250959843 -0.1665066183 0.6702675223 0.5585287213 -0.5837463737 0.432635963
0.0528870225 -0.1736223698 0.672996521 0.6765176654 -0.5417221785 0.4140514135
0.05104952306 -0.1387254596 0.6625748277 0.1125749201 -0.7296915054 0.5111972094
0.05171179026 -0.1514161825 0.6650514603 0.3111435473 -0.6693707705 0.4732067585
0.05258193612 -0.1615909487 0.6679157615 0.4715815187 -0.6222032905 0.4385927022
0.05149330571 -0.1479941905 0.6544244289 0.2081344426 -0.7466834784 0.4631701708
0.05205026269 -0.1320995688 0.658528626 -0.01742467284 -0.8046765924 0.5013826489
0.05101656169 -0.1358129978 0.6477536559 -0.005428762641 -0.834354043 0.4877725542
0.05149120092 -0.1309007108 0.6523084044 -0.06151228771 -0.8378053308 0.5011498928
0.05188125744 -0.1424643993 0.6579618454 0.1384084821 -0.7575698495 0.4774707556
0.05156960338 -0.1372745186 0.653940618 0.04252959415 -0.8001147509 0.4873902798
0.05285361409 -0.1548867226 0.6700462699 0.3780984581 -0.644905746 0.4549008906
0.05202376842 -0.1553261578 0.66108495 0.3476483524 -0.6822647452 0.4496237338
0.05196442083 -0.1517269015 0.6764090657 0.3501431048 -0.6622123122 0.4677505493
0.05152313784 -0.1339945495 0.6670917869 0.05079961941 -0.757003963 0.5141841769
0.05198840424 -0.1457618624 0.6737596989 0.2502018213 -0.6946586967 0.481262207
0.05236855149 -0.1239267662 0.6648836732 -0.1143532768 -0.8143771887 0.5271471739
0.05031621456 -0.1263226569 0.6598642468 -0.08403766155 -0.7943847179 0.546967268
0.05123198777 -0.1458576769 0.6669563651 0.2363436371 -0.687009573 0.4940581918
0.05179594085 -0.1676500738 0.681414187 0.6119048595 -0.5735034943 0.4343757331
0.05216364563 -0.1624684334 0.6779857874 0.521197319 -0.6007305384 0.4435505569
0.05252043903 -0.1400426775 0.6704013944 0.1508197188 -0.7251897454 0.4897893369
0.05153508857 -0.1738113314 0.6844545603 0.7165901065 -0.5401830077 0.4225334227
0.04986853525 -0.1172038466 0.6637586951 -0.4664196074 -0.6225178242 0.5650208592
0.05544834211 -0.09538047016 0.6858239174 0.2506881058 -0.5105776787 0.811735332
-0.05553600565 -0.09450474381 0.6851147413 0.7381432056 -0.4490872622 0.5007647872
-0.05388849601 -0.09830833226 0.6801657677 0.7522829771 -0.4359166324 0.4929311872
-0.05422900617 -0.1041575298 0.6757449508 0.7711266279 -0.4274995029 0.471771121
-0.03838738054 -0.1698928326 0.7208120823 -0.5998652577 -0.4838479459 0.6318833828
-0.04439784959 -0.166836828 0.7179136276 -0.6726318598 -0.4468186498 0.5889225602
-0.03596995398 -0.1677366942 0.7259349823 -0.5648232102 -0.5011277795 0.6528280973
-0.04183806479 -0.1733264923 0.7166899443 -0.658470273 -0.4465285242 0.6055839062
-0.04887917265 -0.1667701453 0.7123026252 -0.7374790311 -0.40376091 0.5392560959
-0.0554067567 -0.1728584468 0.6933100224 -0.8178259134 -0.3084178269 0.4857919216
-0.06258373708 -0.1794175357 0.6828669906 -0.8151353002 -0.3180838525 0.4840764999
-0.0599414371 -0.1637328565 0.692546308 -0.8325068355 -0.2903791964 0.4716736078
-0.06025053933 -0.1698414981 0.6898377538 -0.8242767453 -0.3039578795 0.4774027467
-0.05528331175 -0.1657310575 0.6993851662 -0.8219971061 -0.3109191358 0.4769222736
0.06621825695 -0.08974000812 0.6594748497 0.4979103208 -0.501839757 0.605329752
0.04828570783 -0.08869258314 0.6629471183 -0.07372696698 -0.5151184797 0.6422884464
0.04112856835 -0.08692851663 0.6654558778 -0.2744887471 -0.5348107815 0.6574039459
0.05412935466 -0.08681135625 0.6650672555 0.1509853452 -0.5619015694 0.6142068505
0.06015811488 -0.08732956648 0.6637738347 0.3397250772 -0.5559054613 0.6015883088
0.05670478567 -0.09120298922 0.6600803137 0.1588534713 -0.4965239763 0.6151687503
0.07631575316 -0.09736973792 0.6508806944 0.6763830781 -0.4912540019 0.5484205484
0.06998441368 -0.09463638067 0.6616247892 0.6321768761 -0.4985275567 0.5897155404
0.06672613323 -0.09331492335 0.6687493324 0.6000055671 -0.5167294145 0.6076379418
0.07293535024 -0.09756509215 0.6567052603 0.6577344537 -0.4919162989 0.5671548247
0.06425756961 -0.09241020679 0.6742324829 0.5754323602 -0.5310695171 0.6208640337
0.06432312727 -0.1004785672 0.6679270267 0.2918896973 -0.4677110612 0.6348778605
0.06540067494 -0.1070652381 0.6608246565 0.08452113718 -0.4132423997 0.6400550008
0.05806695297 -0.1043882519 0.6725124121 -0.08141400665 -0.4181137383 0.6945034862
0.0616906248 -0.1065949425 0.6659687757 -0.0325005427 -0.4080347419 0.6694806218
0.06990075111 -0.1035760567 0.6581149697 0.3783697188 -0.4547931254 0.595725894
0.06176883727 -0.0973790735 0.6738820672 0.3151870668 -0.4882164896 0.6492311358
0.07878110558 -0.1022701412 0.6475665569 0.6824653745 -0.4890969098 0.5422878861
0.03458839282 -0.1338396072 0.6305391788 -0.3918488324 -0.6788913608 0.6064544916
0.03917553648 -0.1354462951 0.6334686875 -0.3083254099 -0.7441409826 0.5797559619
0.05384386331 -0.1221118793 0.6343231201 0.1854246557 -0.7032911777 0.5987765193
0.03889084235 -0.1312218755 0.6271976233 -0.2676921189 -0.6821788549 0.605581522
0.05024211109 -0.1270887852 0.6359529495 0.04445235059 -0.7368724942 0.5842719078
0.04492030665 -0.1307653189 0.6339392066 -0.1217801645 -0.7353931665 0.584174335
0.03930793703 -0.1145044789 0.6418491006 -0.3173356056 -0.5856510401 0.6212244034
0.03260180727 -0.1107193753 0.6451924443 -0.5440104604 -0.5347667933 0.6351118684
0.05294558033 -0.1182024479 0.6387205124 0.1336746365 -0.6774750352 0.600687325
0.06874376535 -0.1060708463 0.6439647079 0.5975210667 -0.5258583426 0.5994693041
0.05646802112 -0.1127560511 0.6416295171 0.222335577 -0.6497527361 0.6050170064
0.05908569321 -0.1021770686 0.6463534236 0.2530482411 -0.5579736829 0.6165262461
0.0499898158 -0.1146108806 0.6417503953 0.02782741934 -0.6462712884 0.6102522612
0.0478431657 -0.1038499102 0.6473139524 -0.09204015136 -0.5372744799 0.6277547479
0.0473687835 -0.108792752 0.6449887156 -0.08286689222 -0.582591176 0.6214751005
0.05992591381 -0.107556507 0.6436089277 0.3056529164 -0.6117041707 0.6080573797
0.05344499648 -0.1078112945 0.6445071697 0.1032652259 -0.5930451751 0.6155136824
0.04076614603 -0.1060633734 0.6473551393 -0.3036158979 -0.5352457166 0.6332144737
0.00917690713 -0.160163343 0.7416860461 0.1707400978 -0.5535982251 0.8105809093
-0.001249082852 -0.1588336378 0.7448683977 -0.01474092994 -0.5401357412 0.8364636898
0.04095727205 -0.08343151212 0.6759968996 -0.4834244549 -0.5148990154 0.7049443722
0.03226441517 -0.09987317026 0.65617764 -0.5557476282 -0.5111324787 0.6508556604
0.0432687439 -0.09535102546 0.6572968364 -0.3006156683 -0.5111391544 0.6428157687
0.06438606232 -0.09805209935 0.6479623914 0.4117599726 -0.5487452745 0.6166974902
0.03824204952 -0.09817740321 0.6539365649 -0.341714412 -0.5264191628 0.6523749232
0.04423201457 -0.0983126834 0.652316153 -0.1632249951 -0.5328506827 0.6441361904
0.05342290923 -0.0996741727 0.6483861208 0.1343629211 -0.548679173 0.63033849
0.05900518596 -0.09632756561 0.6520023346 0.2047134191 -0.5318388939 0.620868206
0.0523782745 -0.09559828788 0.6547694802 -0.02355840802 -0.5212621689 0.6297395825
0.06254601479 -0.09373384714 0.6550327539 0.3615796864 -0.5125457048 0.6010076404
0.04903168976 -0.0932136178 0.6592143774 -0.115248628 -0.4990617335 0.6240001917
-0.03351862729 -0.1259806454 0.6298869252 0.4812794626 -0.5152054429 0.7065657973
-0.03852144629 -0.1278235763 0.6327022314 0.5555486679 -0.4997888207 0.6576030254
0.03419929743 -0.1089293733 0.650812149 -0.5885563493 -0.5033351779 0.6239140034
0.02561630867 -0.1073607355 0.6442021728 -0.4780972302 -0.5635290146 0.671925962
-0.04488810152 -0.1070198268 0.6575720906 0.6838063598 -0.4942354262 0.5338203311
-0.04901209846 -0.1035426185 0.6712102294 0.7430395484 -0.4581380486 0.4874172509
-0.04275146499 -0.1014414653 0.6584929228 0.6573082805 -0.5116707683 0.5523774028
-0.04553594068 -0.103249982 0.6639909148 0.692278862 -0.4894400537 0.5270041227
-0.05034630746 -0.09890300035 0.6745210886 0.7449308634 -0.4462439716 0.494564712
0.04004011676 -0.1189614981 0.6485551 -0.5634613037 -0.5933020115 0.5740619302
-0.02477205172 -0.1598144472 0.7379996777 -0.3930197358 -0.5402045846 0.7366656661
-0.03331644461 -0.1593961418 0.7335519195 -0.4932708144 -0.5106540322 0.7034676075
0.04615414143 -0.1176407337 0.6583797336 -0.4424186349 -0.6654651165 0.5432497263
0.04316816479 -0.1123934463 0.658193469 -0.5891109109 -0.5326900482 0.5723216534
0.04335711524 -0.1187487319 0.6535156965 -0.4878436625 -0.6433565617 0.5557759404
0.03995019943 -0.1136851385 0.6525530815 -0.6432004571 -0.4920145273 0.5842968822
0.04708466679 -0.1191636845 0.6376428604 -0.05279616639 -0.6458619833 0.6050624251
0.03359755501 -0.1305283755 0.621655345 -0.3961243629 -0.6259158254 0.6264720559
0.04112547264 -0.1224096864 0.6330243349 -0.2189776897 -0.627700448 0.6133132577
0.03579646349 -0.1194392219 0.6369839311 -0.4155002832 -0.5805341005 0.616692543
0.04203535244 -0.1259884983 0.6281173825 -0.1603643 -0.651927352 0.6148277521
0.03566337749 -0.1266896725 0.6269938946 -0.3606523871 -0.6179240942 0.6217642426
0.02892975882 -0.1251371056 0.6324880719 -0.4698885679 -0.6183427572 0.627938807
-0.009745958261 -0.1573785245 0.744132936 -0.137683928 -0.545150876 0.8258920908
-0.009770760313 -0.1650538594 0.7395148873 -0.1170789972 -0.5559738278 0.8184984326
-0.01729315706 -0.1586807966 0.741620183 -0.2350547314 -0.5594500303 0.788361609
-0.0169966612 -0.1644988805 0.7399718165 -0.25283131 -0.555404067 0.7906315923
0.03780239448 -0.09276776016 0.6669495106 -0.518506825 -0.4746733606 0.7071019411
0.03876276687 -0.1009208038 0.6613317728 -0.6333272457 -0.4557227194 0.6242313981
0.0434441492 -0.09789860994 0.6680997014 -0.5861477852 -0.4244877994 0.6846306324
0.04118497297 -0.0882756561 0.6727102399 -0.5064938068 -0.480746001 0.71380198
0.03714691475 -0.08525531739 0.6706961989 -0.5081627965 -0.5173252821 0.6879407763
0.05175094679 -0.1018567458 0.6766650677 -0.2766324878 -0.4289446175 0.7942011356
0.0480905883 -0.09951192886 0.6722307801 -0.5393369794 -0.3927687109 0.7419169545
0.04662203789 -0.09442198277 0.6741159558 -0.4761995375 -0.4195469022 0.7451347709
0.05203884095 -0.09816261381 0.6811238527 0.005450651515 -0.4885894954 0.7885155082
0.04889762029 -0.09058328718 0.6817082167 -0.1823686212 -0.5367651582 0.7533674836
0.04506754875 -0.0881107226 0.677618742 -0.4026535451 -0.488797456 0.7351269126
0.06378257275 -0.08548545837 0.6706689596 0.4753234684 -0.5868976116 0.6203223467
-0.03607928008 -0.0774834305 0.6749966741 0.5687606931 -0.5724823475 0.5882932544
-0.04176618531 -0.08225049824 0.6761342883 0.6541250944 -0.5011672974 0.5648967624
-0.02076625265 -0.06857195497 0.6733026505 0.337395668 -0.6666156054 0.6628860831
-0.03233771026 -0.07232665271 0.6757357717 0.5036733747 -0.6160928011 0.6030325294
-0.02599070035 -0.07111944258 0.672924757 0.4020348191 -0.6444595456 0.649636507
-0.02460991591 -0.07607679069 0.6670982242 0.3732905984 -0.6285476089 0.680954814
0.01374512445 -0.121685788 0.6235964894 -0.2494986951 -0.6737343073 0.6950539351
0.01404977683 -0.1267331988 0.6168174148 -0.2311023474 -0.6802533269 0.6949269772
0.007647422142 -0.1266546547 0.615847826 -0.1696402878 -0.687161088 0.705809772
0.004959980026 -0.1229817867 0.6238184571 -0.1230477467 -0.6813361049 0.7215164304
0.009090017527 -0.1185936183 0.6272121668 -0.1872322112 -0.6759821177 0.7088003159
0.02403201535 -0.1131313369 0.6388742924 -0.4657911658 -0.5556992888 0.6773025393
0.0200206656 -0.115512833 0.6338894367 -0.3725169897 -0.6059533358 0.6975231767
0.01552353986 -0.1186965555 0.6290146112 -0.2962123454 -0.6581323147 0.6871107221
-0.04789362848 -0.1184731871 0.6513624787 0.7221681476 -0.4540941119 0.5204295516
0.03880225495 -0.1226832643 0.6441877484 -0.4751825333 -0.6302916408 0.6106716394
0.04264667258 -0.1294883788 0.6426094174 -0.2948289216 -0.7586454749 0.5534867048
0.04583529755 -0.1248258948 0.6504995823 -0.3526543975 -0.7572690845 0.5374680161
0.03540381417 -0.1294562221 0.6352555156 -0.4543814361 -0.6430084109 0.6113694906
0.0649683699 -0.1121050119 0.641236186 0.4925492108 -0.6119378805 0.5959153771
-0.05763056502 -0.1255924255 0.6637500525 0.7647953629 -0.4377605617 0.4723850489
-0.05986528844 -0.1314014643 0.658007443 0.7517923117 -0.4460051358 0.4856435061
-0.06048393995 -0.1463332176 0.665738821 0.0889249742 -0.2768636346 0.4389233589
-0.06115516275 -0.1551837772 0.6713597775 -0.3394788802 -0.164554745 0.4036199152
-0.06106024608 -0.1396049857 0.6663096547 0.342227757 -0.3353755772 0.4468285739
-0.05805012584 -0.1372360885 0.6598699093 0.5345757008 -0.4301884472 0.4975855052
-0.05993384495 -0.1326573938 0.667809248 0.5846928954 -0.4209571183 0.4714717865
-0.05856213719 -0.1500269175 0.670625031 -0.03438710421 -0.3776039779 0.4897910953
-0.05942270905 -0.1431279629 0.6713075042 0.1880478561 -0.3905377984 0.4780997038
-0.06143214554 -0.163763538 0.6765350699 -0.7541594505 -0.05908772349 0.3725265861
0.02135804296 -0.07175368071 0.670234561 -0.3444879055 -0.6428000927 0.6757775545
0.01495533716 -0.07276654989 0.6658425331 -0.24429515 -0.6373112202 0.7288761139
0.01732176542 -0.07808087021 0.6648572683 -0.3050638735 -0.6138955355 0.7183665037
0.01034806482 -0.06836182624 0.6678627133 -0.1538711488 -0.6553996205 0.7354311943
0.006126360968 -0.06418216974 0.670989573 -0.06786801666 -0.6645013094 0.7419118285
0.01378480624 -0.06536637247 0.6716223955 -0.2021269649 -0.6608495116 0.7208107114
-0.03727983683 -0.0841941312 0.6698406935 0.5932751298 -0.5493751764 0.5868164301
-0.03986164555 -0.09095338732 0.6698818207 0.6295482516 -0.5323665142 0.5534322262
-0.04706623778 -0.09230940044 0.6791518927 0.7136800289 -0.4692183137 0.5140293837
-0.04471823201 -0.09416056424 0.6743079424 0.6878486276 -0.4918787181 0.5223889947
-0.03430505469 -0.08658885956 0.6651582718 0.5640171766 -0.5773853064 0.5897720456
-0.04363159463 -0.09329205006 0.6669994593 0.6857007146 -0.5029512644 0.5257617235
-0.05274493992 -0.1190868765 0.6586560607 0.7555584311 -0.4449571967 0.4807078242
-0.05278487504 -0.1154886782 0.6630519032 0.7714170814 -0.4418037534 0.4577594995
-0.05596351624 -0.1266126931 0.6563863158 0.7554249763 -0.4382812679 0.4869954586
-0.04996553063 -0.110713765 0.6622414589 0.7559781075 -0.4505138695 0.4746875763
-0.02886436321 -0.08109824359 0.6657637358 0.430683881 -0.6042479873 0.6606108546
-0.03030700423 -0.07610297948 0.6712735891 0.4739467204 -0.6099443436 0.6263886094
-0.01828104816 -0.07659911364 0.6651781797 0.2920163274 -0.6459572911 0.7048844099
-0.01144010853 -0.07705881447 0.6621067524 0.1703280658 -0.6508983374 0.7354284525
-0.009226902388 -0.08065235615 0.6581031084 0.1312901825 -0.6448779702 0.748532176
-0.01587451808 -0.08140713722 0.6594293118 0.2329293787 -0.6393018365 0.7319440842
-0.01947270706 -0.1189390942 0.6288790107 0.2788067162 -0.5943500996 0.7470627427
-0.01064189617 -0.1079605073 0.6355936527 0.1207638234 -0.6278886795 0.7651091218
-0.005209777039 -0.1074536145 0.6351431608 0.04031278193 -0.6302668452 0.7748171687
-0.01692244597 -0.1239026487 0.6239110827 0.2273196429 -0.6110767722 0.755307734
-0.02586441487 -0.1228019223 0.6277291775 0.361854285 -0.5449509621 0.7553444505
-0.03110699356 -0.1213410422 0.6329012513 0.456348002 -0.5362938046 0.7033488154
-0.02024765126 -0.1141712144 0.6319926977 0.2662290335 -0.6037290692 0.7498185039
-0.0245798938 -0.1184133664 0.6313515902 0.3451496959 -0.5705513954 0.7395092249
-0.02334523015 -0.111195609 0.6365686655 0.3372734487 -0.5927201509 0.7214446068
-0.02883373946 -0.1105030701 0.6394470334 0.4495075941 -0.5695413351 0.6859466434
-0.01651940122 -0.1101083234 0.6349020004 0.2126609087 -0.6206284761 0.7518686652
0.001762925065 -0.1079671755 0.6345523596 -0.05928294361 -0.6291956306 0.7720999122
-0.009785077535 -0.103532806 0.6399359703 0.1082475781 -0.6336795092 0.7628300786
-0.005541319028 -0.1257074773 0.61780864 0.02866106667 -0.6531292796 0.7555941343
-0.0003560218029 -0.1216182038 0.621329844 -0.03893686831 -0.6720535159 0.7313460708
-0.001149093499 -0.1135196313 0.6300145984 -0.01418715995 -0.6496024728 0.7565888762
0.004171439912 -0.1129243374 0.6312909722 -0.09546004981 -0.6470897794 0.7553002238
-0.00874091126 -0.1149958596 0.6288521886 0.1109974533 -0.6367963552 0.7587838173
-0.0480501242 -0.130273059 0.6415733695 0.6805514097 -0.4802915156 0.5528870821
-0.04478066787 -0.1304094195 0.6362349391 0.636760354 -0.4789454341 0.6034968495
-0.04357882217 -0.1229340509 0.6411300898 0.6313699484 -0.4868083894 0.6025604606
-0.04711068422 -0.1228585467 0.6460934877 0.6975989342 -0.4586618543 0.548317492
0.04277916253 -0.1361561269 0.6376729608 -0.2341531664 -0.7881484628 0.5594351888
0.05743497983 -0.1266853809 0.6400193572 0.2207502574 -0.7548273206 0.5366517305
0.04965771362 -0.1321268231 0.638941586 -0.02226876654 -0.7736563087 0.5442740917
0.05486084148 -0.1222420409 0.6588071585 -0.04345570877 -0.8183549047 0.5224828124
0.05594173819 -0.1278119832 0.6461635232 0.09549596906 -0.8195269108 0.5024374127
0.06272093952 -0.1245220006 0.643355608 0.3563489914 -0.7631471753 0.5046300888
0.0543718785 -0.1254222393 0.6531205177 -0.01525692549 -0.8273280859 0.512476325
-0.05542103201 -0.1316530555 0.6515869498 0.7345839143 -0.4462865591 0.5104942918
0.004181534052 -0.08089009672 0.6563414931 -0.09941399843 -0.6284108758 0.770940125
0.01207246259 -0.08202119917 0.6576210856 -0.2348768711 -0.612960577 0.748809576
0.02413102798 -0.0803046599 0.664752543 -0.4057837129 -0.5819659829 0.7039774656
0.01899342984 -0.08347620815 0.6598497629 -0.3255880475 -0.5940032005 0.734274447
-0.004095769953 -0.06498395652 0.670719564 0.06355909258 -0.6775630116 0.731896162
0.02425671928 -0.09035776556 0.6568204165 -0.4136995673 -0.5699900985 0.7095753551
0.02892559581 -0.09504392743 0.6558945775 -0.4856317341 -0.5389197469 0.6840175986
0.03286962956 -0.09261655807 0.6610456109 -0.5372238159 -0.5149587989 0.6652932167
0.01597729698 -0.110221006 0.6356170774 -0.307202816 -0.6101618409 0.7277894616
0.01588819548 -0.1042092964 0.6413785219 -0.292486459 -0.6096394062 0.7350638509
-0.02914920636 -0.08626644313 0.6618642807 0.4557437897 -0.6005310416 0.6465584636
-0.02191511728 -0.1025997251 0.6422858238 0.292671293 -0.6195330024 0.7262347341
-0.02300617285 -0.09826916456 0.6466835737 0.3066571653 -0.6254719496 0.7154978514
-0.01716333069 -0.1054687053 0.6392771602 0.216216892 -0.6253240705 0.7467532754
-0.03295760229 -0.1175827757 0.6368445754 0.506108582 -0.5367366672 0.6746160984
-0.03703005984 -0.1225657761 0.6363441348 0.5663255453 -0.5115989447 0.6451793909
-0.04042276368 -0.11683698 0.6448959112 0.6172129512 -0.5014551878 0.6000688076
-0.01327730529 -0.1190573722 0.6265159249 0.1902576685 -0.6269953847 0.7543439865
-0.01098325197 -0.1245233193 0.6214507818 0.130276531 -0.6397001147 0.7531485558
-0.005948293954 -0.1215986907 0.6239296198 0.07133699208 -0.6565436721 0.7483568192
0.001939727692 -0.1274456084 0.6175239086 -0.06391404569 -0.6746792197 0.726778686
0.001695868676 -0.1187956482 0.6260796189 -0.06532771885 -0.6760678291 0.7297950983
0.07512225211 -0.1102820784 0.6457549334 0.6513704062 -0.5248410106 0.546944499
0.05734089762 -0.1179541722 0.6615902185 -0.08084175736 -0.6656233668 0.5793117881
0.07070057839 -0.1148190051 0.6482324004 0.4828903973 -0.538672924 0.5636085272
0.05827608332 -0.1130359694 0.6649261713 -0.3000093102 -0.3753953576 0.7033756971
0.06938189268 -0.1099005863 0.6536984444 0.3278127313 -0.4655317664 0.5970022082
0.07414168864 -0.1050352678 0.6515950561 0.5564357638 -0.4784782827 0.5577319264
0.0643093437 -0.1120676622 0.6582613587 0.04949970171 -0.4297229648 0.6442689896
0.008492321707 -0.07285290211 0.6647536159 -0.1291520894 -0.6522666812 0.7437532544
0.00753280241 -0.07690871507 0.6603487134 -0.1374443173 -0.6359175444 0.7550248504
-0.003356081201 -0.08362691849 0.6560710073 0.03178454936 -0.6402224302 0.7627407908
-0.001028843806 -0.07958589494 0.6598748565 -0.004481436219 -0.6428377032 0.7563749552
0.001818264369 -0.07575144619 0.6628172398 -0.03385539353 -0.6492269039 0.7519285083
-0.001586467144 -0.07003637403 0.6661306024 0.037279699 -0.6579689384 0.7491127849
-0.0146786375 -0.07092612237 0.6678565145 0.2080848664 -0.6596218944 0.7171061039
-0.01284437999 -0.06640341133 0.6713162065 0.189476952 -0.6750165224 0.7109862566
-0.006318389904 -0.07396587729 0.6639345884 0.1000792161 -0.6582893133 0.7439847589
-0.008416832425 -0.07017694414 0.6679161787 0.1474620551 -0.6623905301 0.7271549106
0.02941824496 -0.1054853871 0.6477617025 -0.5207430124 -0.5400168896 0.6577134132
0.02267995477 -0.1021173447 0.6456646323 -0.4326933324 -0.5741093159 0.6949463487
0.02784033678 -0.1009750813 0.651301682 -0.5021771193 -0.5465481281 0.6682679057
0.02430526912 -0.09550489485 0.6526196003 -0.4193498492 -0.5697180033 0.7036311626
0.01919354685 -0.09798882157 0.6477283239 -0.3612020016 -0.5929908752 0.7147629261
-0.03675499931 -0.09362661839 0.6606348157 0.6022683978 -0.5484843254 0.576457262
-0.04044932127 -0.09787578881 0.6641646028 0.6175530553 -0.5207905769 0.5726060867
-0.01034492068 -0.08889896423 0.6518537402 0.128256321 -0.6388216019 0.7563980222
-0.004696100485 -0.08697550744 0.6520583034 0.06095823646 -0.6382747293 0.7663343549
-0.0238762293 -0.08184702694 0.6620141864 0.3440446258 -0.6282768846 0.6965085268
-0.02904204652 -0.1032597944 0.6453541517 0.4270326793 -0.5889262557 0.6842856407
-0.03479566425 -0.1113839671 0.6431851983 0.5236517191 -0.5485218763 0.6510907412
-0.04448880628 -0.111796014 0.6524317265 0.6703379154 -0.4900737107 0.555000782
-0.03899068758 -0.1111458242 0.6478458047 0.5876231194 -0.5197821259 0.6086081862
0.0664774552 -0.1179598495 0.650731504 0.3608447313 -0.657454133 0.5373916626
0.06852195412 -0.1224011928 0.6431778669 0.4785571992 -0.6914138794 0.5216456652
0.06138431281 -0.122785598 0.6491148472 0.2533951104 -0.7673360109 0.5142700076
0.06309095025 -0.1182966307 0.6392386556 0.4073351324 -0.686465323 0.5962931514
-0.03918283805 -0.1058471352 0.652231276 0.5967550874 -0.5192515254 0.6048898697
-0.03421085328 -0.1025436819 0.649790287 0.51203233 -0.5594305992 0.6489440203
-0.03720593825 -0.09888136387 0.6557721496 0.5723426342 -0.5432847142 0.6110039949
-0.003197497223 -0.1024099439 0.6394276619 0.01480697561 -0.6287807822 0.7754814029
-0.01049725898 -0.09658493102 0.6456401944 0.1290622205 -0.6372382641 0.7560498714
-0.01491844561 -0.1000292003 0.6435831785 0.1865417212 -0.6334728599 0.750232935
0.004520116374 -0.1041809395 0.6385293007 -0.09571418911 -0.6287862062 0.7706004977
-0.001698829816 -0.09655250609 0.6443414092 -0.002976486227 -0.6308624744 0.7724745274
0.00341504789 -0.1003141999 0.6421223879 -0.07761756331 -0.6339435577 0.7668023109
-0.00523745548 -0.0922235027 0.6477905512 0.05704880506 -0.6357123852 0.7695248127
0.005808181129 -0.08643636107 0.6527737379 -0.1331649274 -0.6156086922 0.7766038775
0.001097702887 -0.08999399096 0.6486244202 -0.0584061332 -0.6361359954 0.7691124082
0.01180875674 -0.08769327402 0.6532757878 -0.2346085608 -0.6049104929 0.7574712634
0.01425966155 -0.09317523241 0.6492748857 -0.2698290944 -0.6180192232 0.7352531552
0.009007575922 -0.09511588514 0.6466501951 -0.177834481 -0.6260125637 0.7540587783
0.01769869216 -0.08805879205 0.6551235318 -0.3283303976 -0.5942633748 0.7326958776
-0.01676174067 -0.08677849174 0.6547662616 0.232841447 -0.633595407 0.7354164124
-0.02412089333 -0.08793509007 0.6565011144 0.3484351933 -0.6248066425 0.6943217516
-0.03091750666 -0.09426404536 0.6549002528 0.4611037374 -0.5890746117 0.6574267149
-0.02157661691 -0.09270766377 0.6524447799 0.3021349609 -0.6126946211 0.7131711245
-0.01657282934 -0.0945610702 0.6483929157 0.2145519555 -0.6346227527 0.7411100864
-0.0268177744 -0.09540266544 0.6503776908 0.3756476641 -0.6151991487 0.69139117
