# .PCD v0.7 - Point Cloud Data file format
VERSION 0.7
FIELDS x y z normal_x normal_y normal_z
SIZE 4 4 4 4 4 4
TYPE F F F F F F
COUNT 1 1 1 1 1 1
WIDTH 512
HEIGHT 1
VIEWPOINT 0 0 0 1 0 0 0
POINTS 512
DATA ascii
0.03073709644 -0.06514782459 0.6084417105 0.4914781749 -0.6737651825 0.549046278
0.02747135982 -0.06923121959 0.6187509894 0.3638259768 -0.7161023617 0.5829837918
0.03053718805 -0.07058513165 0.6108723283 0.4331198633 -0.6928403974 0.5648533702
0.03313462436 -0.06957469881 0.6042708755 0.5329422355 -0.6606381536 0.5270383358
-0.09279191494 -0.1587353051 0.6316120625 -0.7131226063 -0.4023890495 0.5657719374
-0.09719296545 -0.1614008248 0.626270175 -0.7685236335 -0.3704152405 0.5187761188
-0.09876038134 -0.1578277051 0.630774796 -0.7706370354 -0.3855140805 0.4988896251
-0.02566916682 -0.09081161022 0.5648682117 -0.3952732086 -0.7154832482 0.5561459661
-0.02157038637 -0.1650281399 0.6431744695 0.4826142788 -0.6254404187 0.6080124378
-0.01639259607 -0.1652178764 0.638604641 0.5729003549 -0.5804885626 0.5760917664
0.003991089761 -0.1558097005 0.6153312325 0.8354843259 -0.4157556593 0.3435343802
-0.08720225841 -0.1627273262 0.634411037 -0.6207929254 -0.4685099423 0.620824337
-0.07828360051 -0.1158983037 0.6923787594 -0.4753614068 -0.6285230517 0.6088893414
0.02301572636 -0.06934279948 0.627962172 0.253975749 -0.768270731 0.5858498216
0.02974319644 -0.0608166866 0.6142954826 0.3993724883 -0.7102745771 0.5717478991
0.025232777 -0.06487806886 0.6227211952 0.3031329811 -0.7397860885 0.5940017104
-0.06612338126 -0.1814507693 0.6361319423 -0.2303353995 -0.6415547729 0.7277317047
-0.09303627163 -0.1463538259 0.6449867487 -0.7021516562 -0.5152000785 0.490624696
-0.08448714763 -0.1691830009 0.6337816715 -0.5397007465 -0.5165508389 0.6582482457
-0.0007145063137 -0.09952224046 0.5900646448 -0.4061649144 -0.3824107647 0.7206347585
-0.0003530620597 -0.1035267711 0.5851684213 -0.4110756516 -0.4914042652 0.7036693692
-0.0938346982 -0.1480463445 0.6397960782 -0.7235838175 -0.4640197158 0.5041517615
-0.09253222495 -0.1533462852 0.6352782845 -0.7061206102 -0.4252875745 0.5610985756
-0.02474960312 -0.08518145978 0.5736874342 -0.4326659143 -0.6785737872 0.5921002626
-0.1019205824 -0.1644292474 0.623238802 -0.8030098081 -0.3139223158 0.5019301176
-0.1044657975 -0.1594354659 0.6188546419 -0.8490512371 -0.2669380903 0.4530672133
-0.1072483435 -0.1559189707 0.6133255959 -0.8634457588 -0.2727199495 0.4202533364
-0.08178006858 -0.1760887355 0.6334268451 -0.4703291059 -0.5377064347 0.6909733415
0.02950975858 -0.09228625894 0.5930015445 0.2474609315 -0.560877502 0.7826538682
0.02581173368 -0.08639861643 0.5909240246 0.2105647177 -0.570774138 0.7888941169
-0.01078195963 -0.1621121615 0.634878099 0.6628829837 -0.5347083211 0.522206068
0.005072730593 -0.1457068473 0.6204766035 0.8225676417 -0.4405557215 0.3526345491
-0.02140842751 -0.1723725498 0.6354458928 0.5013670325 -0.6076555848 0.6033650041
-0.05716938898 -0.1510599554 0.668964982 -0.1370200962 -0.7388044 0.6540678144
0.01080069132 -0.1039181054 0.5916036963 -0.04504343867 -0.4490108192 0.8228436708
0.005163715687 -0.1077546701 0.5908731222 -0.2449258864 -0.05286872759 0.8467292786
-0.07814272493 -0.1663531363 0.6414605975 -0.4549708068 -0.5809267759 0.6716552973
-0.1109251007 -0.1449690014 0.6075498462 -0.888909936 -0.2822534442 0.360758692
-0.09424766898 -0.08217063546 0.5960211158 0.6329101324 -0.5774691105 0.5155921578
-0.09153329581 -0.08544486016 0.5902168155 0.6252121925 -0.5608525872 0.5423888564
0.002334161662 -0.0968747437 0.5847157836 -0.3471490443 -0.5072215199 0.7382735014
0.01340819988 -0.09522148967 0.5887104273 -0.06714024395 -0.4314362705 0.8809491396
0.005475742742 -0.1017516926 0.5874519944 -0.2380754054 -0.5945671797 0.7372511625
-0.05595105886 -0.1823674738 0.6375814676 -0.08485560119 -0.6685687304 0.738298595
-0.02707692422 -0.1715949327 0.641065836 0.388620168 -0.6369284391 0.6641136408
-0.03370783851 -0.1783260852 0.63801229 0.2518028319 -0.6832903624 0.6822109818
-0.02701026574 -0.1806822866 0.635792315 0.3375526667 -0.6777219176 0.6502954364
-0.02802807279 -0.1672215909 0.6447330713 0.3609237671 -0.6547756791 0.6571430564
-0.09139105678 -0.1718915552 0.6296594739 -0.5969583988 -0.4662528932 0.6477116346
-0.09708121419 -0.1694600731 0.6252642274 -0.742500782 -0.377990514 0.5441763997
0.01210855972 -0.08506622165 0.5892155766 -0.09948197752 -0.5242301226 0.7618611455
0.01963551342 -0.08830736578 0.5886702538 0.0474264361 -0.46753335 0.8775602579
-0.1011453271 -0.1481811553 0.6243960857 -0.8265026808 -0.3367851079 0.4312593043
-0.1030636802 -0.1485970616 0.6162080765 -0.8547885418 -0.3050746322 0.4048326313
-0.1095157117 -0.1500918269 0.6115633845 -0.8809566498 -0.284591347 0.3776598871
-0.1097620502 -0.1427600235 0.617028594 -0.8821958899 -0.300912708 0.3608351648
-0.1103081703 -0.1352693439 0.6217215061 -0.8842662573 -0.31588763 0.3431382775
-0.103619203 -0.1532047242 0.6209786534 -0.8706371188 -0.2732665837 0.4078911543
-0.1112793386 -0.1385754496 0.6103488803 -0.8978226185 -0.2832686901 0.3364986777
0.02573806792 -0.05880239978 0.6176168919 0.2754852772 -0.7588765025 0.5478060246
0.02020596713 -0.0602308102 0.6156689525 0.1497671753 -0.7066227198 0.5497435331
-0.09629679471 -0.07535440475 0.6077809334 0.6440616846 -0.5808944106 0.4974097013
-0.09998144954 -0.08346705139 0.6011691093 0.6532332897 -0.5693293214 0.4991180897
-0.09295637161 -0.07719462365 0.6000221372 0.6258965731 -0.5868997574 0.5135371685
-0.0380865261 -0.09033809602 0.5556272268 -0.1574296206 -0.7837665081 0.5996765494
-0.03244055063 -0.08954285085 0.5602225661 -0.275080204 -0.7743622661 0.5644699335
-0.005364297889 -0.1005186662 0.5810999274 -0.5019578338 -0.5857462287 0.6345364451
-0.009275136515 -0.09689896554 0.5784535408 -0.5383816957 -0.5750396252 0.6134735346
0.001074376982 -0.09160144627 0.5824022293 -0.3534268737 -0.5343829989 0.6932483315
0.00761358859 -0.09340311587 0.5858929157 -0.2084278613 -0.4425704777 0.816019237
-0.08685986698 -0.04298032075 0.6339401007 0.5639904737 -0.6634787917 0.4913394749
-0.09294620156 -0.04803678021 0.6357133985 0.5986766219 -0.6276080012 0.4975655079
-0.01249696687 -0.04378927127 0.6275585294 -0.5417455435 -0.616097033 0.5689420104
0.007840123028 -0.06309675425 0.6322492957 -0.2601382434 -0.5566481352 0.7456153035
0.0119107021 -0.06985733658 0.6329961419 -0.09266978502 -0.5691449046 0.7926501632
0.0006554857246 -0.1585344523 0.6232095361 0.7805185318 -0.486158818 0.3898564577
-0.01134060044 -0.1723229885 0.6285524368 0.6170864105 -0.5628761649 0.5429640412
-0.01432331651 -0.1690335274 0.6343976259 0.5932559967 -0.5649141669 0.5684507489
-0.01703679189 -0.1780127287 0.6344181895 0.5081402659 -0.6023923755 0.6075018048
-0.05753253028 -0.1651532352 0.6510810852 -0.1553148031 -0.6853902936 0.7069678307
-0.06395456195 -0.150432229 0.6659608483 -0.2682426274 -0.7190351486 0.6357718706
-0.05315001681 -0.1580769271 0.6598359942 -0.0812420994 -0.7419134378 0.6608341932
-0.05129187182 -0.1648960859 0.6531071067 -0.04152794555 -0.7075377703 0.6996877789
-0.0465734005 -0.1560447067 0.6629021168 0.03015405871 -0.7470232248 0.6617805362
-0.04686527327 -0.1602891684 0.6583127379 0.03591030836 -0.734603107 0.6742800474
0.02338911965 -0.08351325244 0.6070477962 0.04191090167 -0.6086508632 0.6310638189
0.02210570686 -0.07474599034 0.6227326989 0.1546252668 -0.7055673599 0.6089895964
0.01888875104 -0.08342407644 0.6110352278 -0.1109520495 -0.5835703611 0.6428166628
0.02337659337 -0.07950468361 0.6137293577 0.1131558642 -0.6562988758 0.6194381714
0.01581444964 -0.07983190566 0.6196357608 -0.152235657 -0.6084759235 0.6405745745
0.02742560767 -0.07519290596 0.6170890927 0.3274179399 -0.7280032039 0.5948511362
0.03185489774 -0.07729506493 0.6057383418 0.4215640724 -0.6932672858 0.575191319
0.01348215993 -0.08679353446 0.6117912531 -0.3034531474 -0.5195823908 0.7137879133
0.01693777926 -0.08852500468 0.6067547798 -0.1773118228 -0.523425281 0.7409958839
0.02542729862 -0.09141450375 0.5971922278 0.1111517474 -0.5472134352 0.7739292979
0.009288189933 -0.08527622372 0.6167004704 -0.4473705888 -0.5087754726 0.6952850223
0.02934863977 -0.08686225861 0.5994423628 0.2301929295 -0.6131863594 0.6712508798
0.02351633646 -0.0879875496 0.6035517454 0.02429331467 -0.569139421 0.7053824663
0.02940953709 -0.07431002706 0.5982481241 0.4329616427 -0.6683104038 0.5967036486
0.02882412449 -0.08148878068 0.5942356586 0.3239308298 -0.6359788775 0.6894980669
0.03397296369 -0.08243591338 0.5969754457 0.4276671112 -0.671511054 0.6031847596
0.001685999101 -0.07895445824 0.5922597051 -0.3076508641 -0.6038894057 0.5774195194
-0.004602983594 -0.07941693813 0.5915157199 -0.4668423831 -0.5894685984 0.555309236
0.0190568734 -0.07729438692 0.5953238606 0.1192125082 -0.6400821805 0.6349883676
0.02190970257 -0.08167273551 0.5924102068 0.1616978943 -0.5831418037 0.7408980131
0.01131742261 -0.07914820313 0.5930318832 -0.07534252852 -0.6102023125 0.6317867041
0.006978608202 -0.08314698189 0.5898296237 -0.2073174268 -0.5503282547 0.6929318905
-0.08957913518 -0.1559893042 0.641810596 -0.6311554313 -0.5210241675 0.5692002773
-0.0910911262 -0.1668547243 0.6319652796 -0.6191430688 -0.4622339904 0.6295139194
-0.08432177454 -0.1610756218 0.642272532 -0.5590147376 -0.5581867695 0.6109133959
-0.08358463645 -0.1554887146 0.6447654963 -0.5890345573 -0.5447385907 0.5853460431
-0.08288085461 -0.1521025449 0.6510758996 -0.5852523446 -0.5857743621 0.5588456392
-0.08852962404 -0.1505687386 0.646912694 -0.6503655314 -0.5448393822 0.5275532007
-0.09033115953 -0.09314575046 0.5780104995 0.6035558581 -0.5421919823 0.5844441056
-0.08638962358 -0.0847717002 0.5843268633 0.595916152 -0.5786086321 0.5566083789
-0.09811544418 -0.05287828669 0.6383577585 0.6142506003 -0.6166203022 0.4917904437
-0.1022451073 -0.05863194913 0.6385689974 0.6279528737 -0.6100415587 0.4830641448
-0.09787937254 -0.05737741292 0.6318372488 0.6224862337 -0.6160803437 0.4823581278
-0.1004965827 -0.09104960412 0.5940037966 0.6377068758 -0.5608276725 0.5274548531
-0.09415196627 -0.09144910425 0.5860768557 0.6196852922 -0.5439819098 0.5655206442
-0.09907496721 -0.09645630419 0.5898144841 0.6928937435 -0.4611985981 0.5419219732
-0.1063462794 -0.1207147539 0.6012143493 -0.1436056346 -0.3181488216 0.4188661277
-0.1087178737 -0.1256660819 0.6059975028 -0.5499405861 -0.1644584835 0.2891038954
-0.0638056919 -0.1783833653 0.6399873495 -0.2316465825 -0.6355113387 0.7322533131
-0.06498064101 -0.1662015915 0.6477707624 -0.2755741775 -0.6562211514 0.7015900612
-0.04653350264 -0.1760724932 0.6415162086 0.05983890593 -0.6744717956 0.7321244478
-0.04061289877 -0.1775567085 0.6385560036 0.1685414314 -0.6838125587 0.6956092715
-0.0441431962 -0.1819667816 0.638769567 0.06918618828 -0.6692939997 0.7371257544
-0.03626544401 -0.1735265255 0.6415253878 0.2287510186 -0.6706843972 0.7047079802
-0.09204089642 -0.1312583536 0.6600206494 -0.7105906606 -0.5139560103 0.4792539477
-0.01882219501 -0.1700057685 0.6405268908 0.5027934909 -0.6127660871 0.6041893959
-0.01858336478 -0.1591600925 0.6470804811 0.5090036988 -0.6289144754 0.5736689568
-0.03497723117 -0.1389592737 0.6797700524 0.2168526649 -0.7191048265 0.65920645
-0.03027774207 -0.1256530136 0.6926574111 0.2266564965 -0.7191892266 0.6544855833
-0.04441273212 -0.1487677097 0.6717407703 0.04278475046 -0.7497161627 0.6598958373
0.003231073031 -0.1013260707 0.5955095291 -0.2774266005 -0.1788471788 0.7874142528
0.006389821414 -0.1203544512 0.6207928061 0.3544321954 -0.4794513583 0.4706020057
0.004201126751 -0.09139338881 0.608024478 -0.2719941139 -0.651555717 0.6382870078
0.00653476594 -0.1029211283 0.6200469136 -0.06999635696 -0.4976543188 0.5698296428
0.005339880474 -0.09573204815 0.6137852669 -0.2044007927 -0.5784239173 0.6122170687
0.00515255006 -0.1072784364 0.6138458848 0.07966215909 -0.5717009306 0.5466038585
0.003939986695 -0.101974234 0.6044526696 -0.05407451466 -0.545126617 0.6292019486
0.005040249787 -0.1203932092 0.6140762568 0.3945992589 -0.5478118062 0.4769752324
0.006217862945 -0.1310118288 0.6141628027 0.5219906569 -0.2528160214 0.5164461136
0.004620175343 -0.111373201 0.6081698537 0.1461888403 -0.4816877544 0.579328537
0.003411241807 -0.09562768042 0.6026408672 -0.1725192517 -0.6258721352 0.6466138363
0.004875330254 -0.1073173508 0.6010504961 -0.07279553264 -0.2095919549 0.7293360233
0.00606280379 -0.1352217644 0.6204490662 0.7227682471 -0.4753250182 0.386449635
0.01472292375 -0.09330900759 0.6016793251 -0.1350509971 -0.5304567218 0.7783204317
0.01185486 -0.09840108454 0.5978969932 -0.09353350103 -0.5608022809 0.7868667245
0.02090973966 -0.09619223326 0.5925603509 0.08302268386 -0.5294056535 0.8347491622
0.01540579647 -0.09981607646 0.5929619074 0.02630979382 -0.5590850711 0.8179593086
-0.01350225601 -0.1543884724 0.6475282311 0.6011096835 -0.6003408432 0.5233796835
-0.007883852348 -0.08546244353 0.5874531865 -0.6007860303 -0.5418032408 0.5656096935
-0.005357286427 -0.09280119836 0.5863124132 -0.5337373614 -0.5671107173 0.621760428
-0.007216356695 -0.09103737026 0.5811814666 -0.5450021625 -0.5729827881 0.585567832
0.004783239216 -0.08848802745 0.5869277716 -0.3117079437 -0.4946378469 0.7245838642
-0.1006652713 -0.1506273001 0.6303177476 -0.8256987333 -0.3402899802 0.4489915967
-0.02526093088 -0.04607921839 0.614384532 -0.3981443048 -0.6786652207 0.6169223189
-0.0193246305 -0.04757259786 0.6183912158 -0.4769852757 -0.6487892866 0.5865005851
-0.01345979609 -0.04923903942 0.6206827164 -0.5580709577 -0.6078968644 0.5628201365
-0.01961978897 -0.03955042735 0.6259214282 -0.4492411017 -0.6810885072 0.5777727365
-0.03700688854 -0.1262864023 0.6951301098 0.1362736374 -0.7244862318 0.673915565
-0.0426970534 -0.124895975 0.697132647 0.05138994381 -0.71330446 0.6974644065
-0.03703020886 -0.1206351742 0.6994091272 0.1011143029 -0.7176023126 0.6870865226
-0.1018209532 -0.09184543043 0.6047247052 0.3997838199 -0.5291377902 0.4725348651
-0.1048848554 -0.1119762585 0.6152644753 -0.1703721136 -0.4521682858 0.4147138
-0.1036100909 -0.104788579 0.6139900684 -0.01416435465 -0.4790431559 0.4264379144
-0.1026329398 -0.09949158132 0.6024878621 0.3802925646 -0.5283527374 0.4807877243
-0.1028359607 -0.1000096947 0.6092607379 0.1838630736 -0.5048350096 0.4501807988
-0.106265679 -0.1212940961 0.6293709278 -0.6714728475 -0.3931180239 0.3487032354
-0.1053163931 -0.1157021895 0.6215529442 -0.3759195507 -0.4308582246 0.3867135048
-0.1019877568 -0.09566882998 0.5973414183 0.5768023729 -0.5534970164 0.5058852434
-0.1039475128 -0.1057431847 0.6038575172 0.2376353592 -0.4424271286 0.4664291143
-0.1024582312 -0.1006966829 0.593796432 0.6875930429 -0.3870561421 0.5175694823
-0.1076241508 -0.1217728034 0.6184040904 -0.5693045855 -0.3448969424 0.3559787869
-0.1051395759 -0.1103026271 0.6095856428 -0.06397082657 -0.443588376 0.4264612198
-0.1089461818 -0.126340434 0.6116893888 -0.6949358582 -0.219734475 0.2860994041
-0.1084831581 -0.1261482984 0.624497354 -0.7822504044 -0.330165267 0.3402513862
-0.1065054312 -0.1295930743 0.6345945001 -0.8555425406 -0.3745860457 0.3519451022
-0.0986712873 -0.148312822 0.635633409 -0.7891857624 -0.3956045806 0.4604069591
-0.1010041013 -0.1444068402 0.6297295094 -0.8341568112 -0.3659124076 0.4045794308
-0.09686619043 -0.139214471 0.6441015601 -0.7672684789 -0.4665865898 0.4359222651
-0.09741982818 -0.1431730986 0.6378661394 -0.7797945738 -0.4394360781 0.4407364428
-0.09826534986 -0.129632473 0.6528120041 -0.7579448819 -0.4757634699 0.4445142746
-0.09573764354 -0.1353794634 0.649846971 -0.7545537949 -0.4770660698 0.4489483535
-0.09910258651 -0.1327245086 0.6458632946 -0.7930530906 -0.4489402473 0.4111070633
-0.09688261151 -0.06508044153 0.6213541031 0.6440965533 -0.5961300135 0.4792396724
-0.09401424974 -0.06664932519 0.6156461239 0.6396097541 -0.6000791788 0.4803566337
-0.099429667 -0.06329165399 0.6263434887 0.6383315921 -0.602562964 0.4789224863
-0.09171622247 -0.05168840662 0.6291282177 0.6019740105 -0.6255654693 0.4961476922
-0.08606724441 -0.04870467633 0.6247494221 0.5941286683 -0.6287086606 0.5014582872
-0.09304376692 -0.05667727068 0.6257810593 0.6169579625 -0.6186275482 0.486389935
-0.08768308908 -0.0536268279 0.6202868223 0.597039938 -0.624145329 0.503862381
-0.08860036731 -0.05868978426 0.6166306734 0.6107616425 -0.6155282855 0.4978080988
-0.09644973278 -0.07183536887 0.6131650209 0.6510558724 -0.5824736357 0.4865960181
-0.08621697873 -0.07300474495 0.5963038802 0.5763449669 -0.6137872338 0.5385785699
-0.09110739082 -0.07205846906 0.6038176417 0.6070815921 -0.6014627218 0.5182384849
-0.08819721639 -0.06317575276 0.6118456125 0.6175408959 -0.6094443202 0.4971716702
-0.09269300103 -0.06872891635 0.6101750731 0.6282040477 -0.6002754569 0.4944744706
-0.03118682466 -0.08060454577 0.5747321248 -0.3507222235 -0.707370162 0.609829843
-0.02128047496 -0.06995530427 0.5927042365 -0.4881952405 -0.6355666518 0.5974002481
-0.003368619829 -0.07911779732 0.6036772132 -0.6602159142 -0.5756183267 0.4741359353
-0.003399054753 -0.08330872655 0.5993567705 -0.6222035885 -0.6173903346 0.4787577987
-0.0758600384 -0.03808665276 0.6275225878 0.4317546487 -0.7209748626 0.5373515487
-0.07729440182 -0.04218047485 0.6232303977 0.492931664 -0.6814731956 0.5401985645
-0.08242449164 -0.04340434819 0.6272852421 0.5412896276 -0.662476778 0.5106777549
-0.06558613479 -0.04301607981 0.6145572066 0.302108556 -0.7295379639 0.6117001176
-0.07386886328 -0.04615922645 0.6154424548 0.4442166686 -0.6880709529 0.5729746819
-0.07064032555 -0.04070143774 0.6201005578 0.3956927955 -0.7128576636 0.5685559511
-0.03045012988 -0.03553398699 0.6232141256 -0.3050511181 -0.7510959506 0.5820202827
-0.0493851006 -0.0334370546 0.6212985516 -0.01746973209 -0.7803680897 0.6181983948
-0.05388524756 -0.03532614931 0.6189885139 0.08145965636 -0.765132308 0.6354674697
0.001952428021 -0.147157982 0.6280007362 0.7879087925 -0.479470402 0.3844131529
-0.001845446881 -0.1546757966 0.6278145909 0.780936718 -0.4862125516 0.3914749622
0.002736943075 -0.1410167664 0.6333549619 0.7834761739 -0.4817465842 0.3904057145
0.001106271287 -0.140832603 0.6397274137 0.7676718235 -0.4970257282 0.404066503
-0.003462811233 -0.1464865953 0.6427624226 0.7346580625 -0.5247156024 0.4293838739
-0.006350335665 -0.1519356668 0.6417347789 0.6878377199 -0.550537169 0.4698041379
0.0005022343248 -0.1468450874 0.6360616088 0.7691984773 -0.4930306971 0.4064302444
0.008900718763 -0.1518545896 0.6098430753 0.8659823537 -0.3718835413 0.3204416633
-0.007599147968 -0.1619748473 0.629584372 0.7086353302 -0.5115948319 0.4797927737
-0.007290879264 -0.1669960171 0.6265217066 0.6955842376 -0.52709198 0.4865334928
-0.0592575781 -0.1545237154 0.6636368036 -0.1795273721 -0.7360372543 0.6464739442
-0.0649716109 -0.1552489996 0.6611343622 -0.2846572399 -0.7122631669 0.6413584352
-0.06480858475 -0.1602573842 0.65501827 -0.281441927 -0.6952962279 0.660359025
-0.05803551525 -0.1603671461 0.6564646363 -0.1723767668 -0.7195879817 0.6685250998
-0.0768635273 -0.1582046151 0.649063766 -0.4903042614 -0.615480721 0.6166785955
-0.07501469553 -0.1553871483 0.6540416479 -0.4590098858 -0.6459409595 0.6089349985
-0.07288407534 -0.1642353535 0.6455031037 -0.3933447301 -0.6180667877 0.6752378345
-0.06941752136 -0.1611353904 0.6506299376 -0.36302194 -0.655323267 0.6521615982
-0.002544105286 -0.1312062293 0.6589570045 0.6541985273 -0.5773584843 0.4806717336
0.001354571665 -0.1365469843 0.6453931928 0.7555957437 -0.5073117614 0.4131985009
0.0003194917226 -0.1329422742 0.6526063681 0.7181864381 -0.5349963903 0.4442615211
0.0009970926913 -0.07883901149 0.6110470295 -0.6530917287 -0.5271735787 0.5341892838
0.004260156304 -0.08617279679 0.6108819842 -0.4730717242 -0.6318172812 0.5890069008
0.009949690662 -0.09717417508 0.6067305803 -0.1573979557 -0.5215595961 0.7092241645
0.01197494939 -0.1059023589 0.597884357 0.0940785259 -0.5313489437 0.7296960354
0.008936991915 -0.1013452783 0.6152130961 -0.06544660032 -0.4566771984 0.5918225646
0.0111794332 -0.1244657189 0.6118174791 0.5562006235 -0.3729455471 0.4455429316
0.01056344714 -0.1097005233 0.6087488532 0.1708343774 -0.4550808072 0.5913667083
0.01031268947 -0.1030102149 0.6071764231 -0.003376082052 -0.4932931662 0.6592621207
0.007950470783 -0.09679668397 0.6193808913 -0.1955184191 -0.4539961517 0.5855796337
0.01037206035 -0.1163090393 0.613119781 0.3366574049 -0.4019142389 0.4961048663
0.01197037287 -0.1191260219 0.6042023301 0.4312837422 -0.4382522702 0.5633758903
0.008730026893 -0.1242049783 0.6048731804 0.335737437 0.01443872415 0.6121888757
0.009913273156 -0.1129059196 0.5974076986 0.1080837697 -0.1805300713 0.7517691255
0.006474275142 -0.1278697401 0.6217879057 0.5328790545 -0.4631233215 0.4275873601
0.0107495822 -0.1332048774 0.6177810431 0.7710914016 -0.3085917532 0.3224505782
0.006769280881 -0.1114127859 0.6210423112 0.135047853 -0.4743777215 0.5188398957
0.0069765714 -0.09046608955 0.6202568412 -0.3755221963 -0.4945086241 0.6378950477
0.007427311968 -0.1334843487 0.6057653427 0.5020468831 -0.1292820722 0.5264686346
0.006457548123 -0.1189333647 0.5984581709 0.04361894727 0.1493383497 0.7818672657
0.006264011376 -0.1269760877 0.6091947556 0.3592659831 -0.1083252132 0.6108995676
0.00728841871 -0.1371486336 0.6111225486 0.6501847506 -0.2538807094 0.44650352
0.00981829688 -0.140565753 0.6228333116 0.8305128217 -0.4234597683 0.3466182947
0.007116391324 -0.1379965693 0.6283248067 0.8506426811 -0.3793266416 0.3348663747
0.01006341912 -0.1390924305 0.6031235456 0.6510045528 -0.1690544188 0.439363718
0.00764048053 -0.1285902262 0.5996813178 0.315556556 0.01839276031 0.6278179288
0.01091607846 -0.1461634487 0.6046491861 0.8497843742 -0.2836337388 0.328507781
0.01133135706 -0.1423296481 0.6128415465 0.9044340849 -0.3050808609 0.2930578887
-0.07748065144 -0.08787547797 0.5711975694 0.461866051 -0.6263813376 0.6214957237
-0.08485320956 -0.08987553418 0.5752367377 0.5698032975 -0.5757279396 0.585128665
-0.04799654707 -0.1723495126 0.6465329528 0.04190160707 -0.6835435629 0.724860847
-0.04542376474 -0.1669474542 0.6509147882 0.07483589649 -0.7043962479 0.7046806812
-0.04102297127 -0.1714931279 0.6458381414 0.1341977715 -0.6759172082 0.7203661799
-0.0528344214 -0.1793536097 0.6421608925 -0.0303677097 -0.6672864556 0.74131459
-0.06284774095 -0.1727835387 0.6429866552 -0.2410574853 -0.6334931254 0.7319546342
-0.0585722141 -0.1695834249 0.6460431218 -0.1643870473 -0.66001302 0.7280839086
-0.05758589879 -0.1753227413 0.641759932 -0.1444428861 -0.659104228 0.7337182164
-0.06438777596 -0.1448221356 0.6726152897 -0.2621527016 -0.7260028124 0.634057641
-0.05787983537 -0.1460085809 0.6743754745 -0.1600435227 -0.7375537753 0.6513273716
-0.04811259732 -0.1515155137 0.6677309275 0.004030758981 -0.7514982224 0.6565437317
-0.04793023318 -0.1442554593 0.6752641201 0.01566581242 -0.7481971383 0.6556998491
-0.05206720904 -0.1489571333 0.6719716787 -0.05041522905 -0.7470563054 0.6604534388
-0.05326519161 -0.1541282535 0.6653466821 -0.07363253832 -0.7501469254 0.654687345
-0.1006617248 -0.1186598986 0.6595721245 -0.757409215 -0.4754616022 0.4459520876
-0.09284999967 -0.1220268682 0.670009017 -0.6922928095 -0.5242701769 0.4957103431
-0.0966380164 -0.1187636107 0.6662498713 -0.7118505836 -0.5100624561 0.4826022089
-0.006494296715 -0.1451044083 0.6490835547 0.6805840135 -0.5629015565 0.4631824493
-0.0119128013 -0.1492331028 0.6514988542 0.6110018492 -0.6013575196 0.5061844587
-0.004960348364 -0.1401963532 0.6523893476 0.6618667841 -0.5767789483 0.4759320617
-0.0389716588 -0.1489242315 0.6687479019 0.1480100155 -0.7387157679 0.6489135027
-0.02345913835 -0.152226463 0.6607772708 0.3929598331 -0.6926199198 0.6000078917
-0.02405251004 -0.1591829956 0.6523197293 0.3859469891 -0.6825387478 0.6149849892
-0.01914283447 -0.1547241062 0.6531410813 0.4904132783 -0.654722631 0.5654246807
-0.02868554369 -0.1635170579 0.6499171257 0.3252694309 -0.6893154979 0.6406812072
-0.03471808136 -0.1645339876 0.651358664 0.2228333205 -0.7126379609 0.6628297567
-0.04142601416 -0.1306183934 0.6914112568 0.08855260164 -0.7328878045 0.672493577
-0.04486389086 -0.1345611066 0.6872366667 0.0516715385 -0.7377610803 0.6729434729
-0.03504285961 -0.1302329153 0.6900331378 0.1905594021 -0.7205669284 0.6654467583
-0.03717931733 -0.1345092803 0.6854217649 0.1803543121 -0.7220329046 0.6635668874
3.512084731e-05 -0.09122130275 0.59732759 -0.3946868479 -0.652061224 0.6377565265
-0.00356176612 -0.08945866674 0.5929858685 -0.530837059 -0.5850709081 0.601190865
0.001704278518 -0.08834194392 0.6026918292 -0.3720382452 -0.7058007121 0.573461473
-0.01559014246 -0.08259145916 0.583501339 -0.5507172346 -0.5848091841 0.5933121443
-0.02018171176 -0.08247091621 0.5796570778 -0.4911717772 -0.6236353517 0.6055288911
-0.01946454681 -0.08881916851 0.5758526325 -0.5170286298 -0.62245363 0.5844954252
-0.01479888521 -0.09259337187 0.5749935508 -0.578418076 -0.5688359141 0.584305048
-0.01383051462 -0.08831305802 0.5797390342 -0.582419157 -0.5650454164 0.5839502811
0.003645658027 -0.06916888803 0.625950098 -0.4784363508 -0.5074321032 0.6977398396
0.01502354909 -0.07683715969 0.6253811717 -0.1249257848 -0.6660366058 0.6104019284
0.007198908366 -0.07444612682 0.6281597614 -0.3825688362 -0.5046494007 0.766261816
0.01041625813 -0.08056139201 0.6230931878 -0.3485822976 -0.5908123255 0.6386101842
0.001087913057 -0.06381020695 0.6126007438 -0.4178326428 -0.5690333843 0.5350425243
0.01429225877 -0.06580554694 0.6095352173 0.006251136772 -0.6291181445 0.5260491371
0.02268656529 -0.06394375861 0.6107166409 0.2725692689 -0.6877452731 0.5344330668
0.01273897663 -0.06063579395 0.6146568656 -0.04437328875 -0.6536380649 0.5483474135
-0.008492907509 -0.05027327687 0.6257537007 -0.5669916868 -0.5827871561 0.5806155801
-0.002529151738 -0.05279963836 0.631596148 -0.5369119048 -0.5547897816 0.6341556907
-0.00233701081 -0.0599283278 0.6242825389 -0.6034533381 -0.524789691 0.5980119705
-0.008848082274 -0.05536663532 0.6201518178 -0.5988439322 -0.5666105151 0.5647316575
-0.05501803756 -0.0404183045 0.6140300035 0.1108738184 -0.7495980859 0.6517138481
-0.04654378444 -0.03835931048 0.6158556938 -0.07331570983 -0.751113236 0.6514921188
-0.069063887 -0.046875678 0.6116614938 0.3474608958 -0.7097591162 0.6101517677
-0.07560957968 -0.05108275265 0.611446321 0.4505102038 -0.6772801876 0.5795353651
-0.07811770588 -0.1243341565 0.6850012541 -0.4956036806 -0.623781085 0.5966268778
-0.08431468159 -0.1203836724 0.6830288172 -0.5825981498 -0.5819166303 0.565984726
-0.08887190372 -0.1178275868 0.6785973907 -0.6437313557 -0.5450073481 0.5368484855
-0.08194451779 -0.1192361414 0.6894925833 -0.5200043917 -0.6173179746 0.5870560408
-0.06576579809 -0.1262771785 0.6910715699 -0.3024156094 -0.6835045218 0.6593985558
-0.06854636222 -0.1210966632 0.6949470639 -0.3609595001 -0.6601166725 0.654317975
-0.07586919516 -0.1212622672 0.691888988 -0.457983464 -0.6428762078 0.6111991405
-0.07237542421 -0.1173219904 0.6956680417 -0.3925231099 -0.6533287764 0.6444953084
-0.04881901294 -0.1281548142 0.6944773197 -0.02098961547 -0.719153285 0.6909385324
-0.0552167967 -0.123179689 0.6997834444 -0.131040439 -0.6733052731 0.7272619009
-0.06068145856 -0.1239901707 0.6949538589 -0.2173201591 -0.6916693449 0.6792504191
-0.04743525013 -0.1231448427 0.7001411319 -0.01522750128 -0.6956266761 0.7153980136
-0.05994941294 -0.1198392883 0.6993235946 -0.2158340365 -0.6701999903 0.6962341666
-0.1050450504 -0.1338725239 0.6303361654 -0.8621918559 -0.3545091152 0.3557879031
-0.1050902754 -0.1270234287 0.6403555274 -0.8291385174 -0.410333544 0.3741955161
-0.09986652434 -0.1372677237 0.637632966 -0.8182541132 -0.4253529608 0.3858187795
-0.1022800133 -0.1322526485 0.6383284926 -0.8313297629 -0.4106003344 0.3699091375
-0.04681504145 -0.08483785391 0.5640366673 -0.04013304785 -0.7572872043 0.6438072324
-0.02422459237 -0.09133088589 0.5705657005 -0.4607234895 -0.6645284891 0.5827548504
-0.03067301959 -0.08651205897 0.5709124207 -0.3451770842 -0.7119790912 0.5910705328
-0.03740276769 -0.08164297789 0.5704137087 -0.2324491143 -0.7635514736 0.5984329581
-0.04842095077 -0.07804279774 0.5726898313 -0.02742512338 -0.7364354134 0.6630787253
-0.04498195648 -0.08152735233 0.5690217614 -0.08677319437 -0.7657717466 0.626478076
-0.05133295804 -0.07987161726 0.5682634711 0.07117904723 -0.7451838851 0.6609824896
-0.0408096984 -0.07735671103 0.5741994977 -0.1701470762 -0.7457692027 0.6382086277
-0.04132175446 -0.0862967819 0.5601309538 -0.1171571985 -0.7864412665 0.6058344245
-0.03574253991 -0.08595311642 0.5654348135 -0.2980209589 -0.749574244 0.5884484053
-0.06728819758 -0.07290963084 0.5816699862 0.3091032207 -0.7052593827 0.6358253956
-0.07306063175 -0.07100662589 0.5868447423 0.4077949226 -0.6754056215 0.6137478352
-0.08115313947 -0.07943244278 0.5843557715 0.515515089 -0.6291126013 0.5813654661
-0.07580543309 -0.07953358442 0.5795375705 0.4481996894 -0.6480177045 0.6135053039
-0.08122230321 -0.08473479003 0.5792128444 0.5249867439 -0.6115671992 0.5894194245
-0.07565470785 -0.08305339515 0.5744976997 0.4333408773 -0.6480848789 0.625543654
-0.01560261939 -0.07782415301 0.5882605314 -0.5507766008 -0.5985041261 0.580460608
-0.01020087302 -0.07745330036 0.5952010155 -0.6252747178 -0.5674138665 0.5331125259
-0.0166314356 -0.06806792319 0.5986175537 -0.541203022 -0.6083612442 0.5779178143
-0.01103897206 -0.07182508707 0.5993791223 -0.6150923967 -0.5667680502 0.5475844741
-0.01538812462 -0.07363047451 0.5944291353 -0.5630311966 -0.5991544127 0.5617777109
0.02400811203 -0.06795639545 0.6052824855 0.3501352072 -0.6807809472 0.5223195553
0.01907870173 -0.07107572258 0.6005980372 0.2076522857 -0.6461279392 0.5370469689
0.01002190355 -0.07141238451 0.6002320051 -0.04967233911 -0.6195601821 0.5473619103
0.002575377934 -0.07264823467 0.5994411707 -0.2865984142 -0.5970959067 0.5851262808
-0.005404085852 -0.07422127575 0.5987275243 -0.5190638304 -0.5728873014 0.5494526625
0.005837642588 -0.07699749619 0.5968693495 -0.2527544498 -0.5989792943 0.5785321593
-0.002654648852 -0.06964304298 0.6028735042 -0.4086977243 -0.5873767734 0.5401368737
-0.004846601747 -0.06719617546 0.6086607575 -0.5707163215 -0.5508116484 0.53815943
0.01031084079 -0.06822847575 0.6052830815 -0.05587008595 -0.6291286945 0.5302121639
0.002762780525 -0.06718698144 0.6081815362 -0.3323533237 -0.5843345523 0.5334519744
-0.01167808753 -0.06500057131 0.6070968509 -0.5946193337 -0.5731894374 0.561435461
-0.001474717981 -0.1516630352 0.6330236197 0.7716093659 -0.4875018597 0.4076288044
-0.005643590819 -0.157208696 0.6333824992 0.7408099174 -0.4990962148 0.4478418827
0.003298608819 -0.1519861519 0.6246955991 0.7978380919 -0.4729327857 0.373450309
-0.08672911674 -0.1444876641 0.6549679041 -0.6330052614 -0.5664872527 0.5257028937
-0.0828416869 -0.1371587664 0.6656611562 -0.5950298309 -0.5868309736 0.5467457771
-0.071220465 -0.1531177908 0.6598534584 -0.3986204267 -0.6753947735 0.6157202721
-0.07393811643 -0.1783701032 0.6364432573 -0.3886950314 -0.5863336921 0.7072421312
-0.08047544956 -0.171087712 0.6376303434 -0.4847487807 -0.5522995591 0.6743469238
-0.06828316301 -0.1736484468 0.6409557462 -0.3270015717 -0.6061617136 0.7219777703
-0.07302473485 -0.1707711816 0.638594687 -0.4022113979 -0.5862464905 0.6925979853
-0.06537655741 -0.1395161748 0.678237319 -0.3024736643 -0.7120285034 0.6322398186
-0.09674433619 -0.1263004094 0.6597881317 -0.7310894728 -0.4965855479 0.4665748179
-0.09214305878 -0.1380005926 0.6554884315 -0.7034534812 -0.5240819454 0.4795117378
-0.08874668181 -0.1262711287 0.6718174219 -0.662960887 -0.5499209166 0.5067968965
-0.09218644351 -0.1284078062 0.6662438512 -0.6922603846 -0.5218994617 0.4983156621
-0.08500102162 -0.1408065856 0.6603841782 -0.605727911 -0.5745911598 0.5465969443
-0.04275017232 -0.1420959234 0.6783608794 0.1022870615 -0.7386613488 0.6611583829
-0.02844873816 -0.1301760375 0.6878605485 0.3004868031 -0.7036598921 0.6368963718
-0.02160352841 -0.1327219605 0.6801704764 0.3755419254 -0.6728925109 0.6331217289
-0.02203868516 -0.1286230087 0.6840476394 0.3481977284 -0.6916108131 0.6296429038
-0.0312686041 -0.1335639954 0.6841188073 0.2644591331 -0.7086408734 0.6509216428
-0.05683169886 -0.1314653754 0.6892873049 -0.146154806 -0.7271136045 0.6653572321
-0.0613527894 -0.1340549141 0.6859033704 -0.2313062698 -0.7190566659 0.6514820457
-0.0658172518 -0.1309792548 0.6874920726 -0.3030999899 -0.6936305761 0.652418375
-0.05511089042 -0.1355825365 0.6850792766 -0.1300587654 -0.7457136512 0.6531822085
-0.05028887838 -0.1327154338 0.6894433498 -0.04172479361 -0.7383941412 0.6676348448
0.0009497405263 -0.06886532158 0.6194401979 -0.6114583611 -0.4866981804 0.6204463243
-0.001308579231 -0.07096535712 0.6136940718 -0.6918606758 -0.4767443538 0.537515223
0.004616943654 -0.05826535821 0.6215086579 -0.3828833997 -0.6453025937 0.5672617555
-0.002798705362 -0.05802694336 0.6174816489 -0.5217862129 -0.6061589718 0.5258153677
-0.003562978934 -0.06558708847 0.6156076193 -0.6482389569 -0.5145885944 0.5598289967
0.002574876416 -0.06286738813 0.6280319691 -0.4879165888 -0.5035554767 0.7104602456
0.01274733897 -0.05482072011 0.6246682405 -0.1533663422 -0.7938502431 0.4535060227
0.001166364527 -0.05360128358 0.6250330806 -0.439327985 -0.6338415146 0.5443906784
-0.004082266241 -0.04730869085 0.631085813 -0.5577948093 -0.5744481683 0.5788395405
0.01928443834 -0.05783222243 0.6220794916 0.003543619765 -0.8788582683 0.4049328566
-0.08337704837 -0.05646127835 0.6129847765 0.5689751506 -0.6338697076 0.5235481262
-0.08518077433 -0.06391710788 0.606095314 0.5708338618 -0.6283071637 0.5279448628
-0.02991675772 -0.04789455608 0.6105498075 -0.3233931959 -0.6953285933 0.6341209412
-0.02949174494 -0.04198025167 0.6164268851 -0.3194838166 -0.7199104428 0.61326617
-0.03391205147 -0.04334313795 0.6128429174 -0.2517196238 -0.721696794 0.6437912583
-0.02323191799 -0.04238799214 0.62092942 -0.4128928781 -0.6916581392 0.5919539332
-0.04174663872 -0.04270075262 0.6120797396 -0.1335149705 -0.742731154 0.6520857215
-0.1105748788 -0.133214891 0.6142867208 -0.9499077797 -0.1553068906 0.2435092181
-0.1077787057 -0.1293104589 0.617785275 -0.7549176216 -0.3003237844 0.3498501778
-0.1033765748 -0.1060361713 0.5973704457 0.4568268955 -0.3550862074 0.490493238
-0.1053227782 -0.1161253303 0.606546104 -0.07401419431 -0.3321021795 0.4289031625
-0.1073778123 -0.131546706 0.607865274 -0.6588712335 -0.2829932868 0.3590768278
-0.1044391468 -0.1141984463 0.5997506976 0.1147075295 -0.3268823922 0.4503040016
-0.1051326171 -0.138694793 0.6200051904 -0.8817145228 -0.3060491085 0.3510910273
-0.101090014 -0.1383917779 0.6317967772 -0.8361452222 -0.3930155039 0.3751276731
-0.1041939259 -0.1443834305 0.6218838692 -0.8778517246 -0.3095653057 0.3647402227
-0.1061365753 -0.1443424672 0.6109106541 -0.892373085 -0.2811274827 0.352753073
-0.0999307707 -0.1215046719 0.6545869112 -0.7639040947 -0.4747759998 0.4357129931
-0.1025514081 -0.1251337528 0.6498794556 -0.7867909074 -0.4529392719 0.4188093245
-0.02187118307 -0.06322737783 0.5991277099 -0.4691433311 -0.6387094855 0.6076540947
-0.0543930456 -0.07637740672 0.5741768479 0.08655053377 -0.7187814116 0.6863116026
-0.06732846797 -0.08367373049 0.5689374208 0.2859603763 -0.6839606166 0.6696906686
-0.06604804844 -0.07793470472 0.5762460828 0.2738848329 -0.6963421702 0.6579505801
-0.03712416068 -0.07371389866 0.5792332292 -0.2343672514 -0.724327445 0.6437824368
-0.04391356185 -0.07276797295 0.5778105855 -0.110839963 -0.7438187003 0.6574286222
-0.04244855791 -0.06934884191 0.58238554 -0.1320526898 -0.73064363 0.6653674245
-0.03594155982 -0.06895364076 0.5845919847 -0.2513195574 -0.7129074931 0.6527546644
-0.07941529155 -0.1426353902 0.6635029912 -0.5390119553 -0.6162405014 0.5737465024
-0.07661698759 -0.1495951116 0.6594182253 -0.4801687002 -0.6423852444 0.5958572626
-0.07417023182 -0.1464909911 0.6650971174 -0.4416036904 -0.6582435966 0.6081832051
-0.07166722417 -0.1430084109 0.66948843 -0.4187920094 -0.6705093384 0.6069017649
-0.01139144786 -0.1444150805 0.6574350595 0.59273839 -0.6195946336 0.5136735439
-0.0087078223 -0.1292199045 0.670447886 0.5499446988 -0.6301773787 0.5450649858
-0.02641788498 -0.1368828714 0.677357018 0.3341809809 -0.6891835928 0.6285871863
-0.01673056744 -0.1353580952 0.6735925078 0.4803008437 -0.653719306 0.583584547
-0.02228222415 -0.1394089013 0.6746490598 0.4028359056 -0.6791940928 0.6121603251
-0.06881620735 -0.1345630139 0.6825482845 -0.3631816208 -0.6848561168 0.6269159913
-0.07262023538 -0.1265774816 0.6883109808 -0.4389603138 -0.6537406445 0.6139763594
-0.03993301839 -0.1583303064 0.6582446098 0.1537309587 -0.7419059277 0.6475894451
-0.04084257782 -0.1634386331 0.6539888382 0.1319023818 -0.7281039357 0.6689245105
-0.04024712741 -0.1558434516 0.6635206938 0.1539724618 -0.7345097065 0.6580662131
-0.0332814306 -0.1587230265 0.656745851 0.2568778694 -0.7259481549 0.636328876
-0.03121223673 -0.1446807832 0.6726357937 0.2848056853 -0.7128404975 0.6359369159
-0.03781805187 -0.1451651007 0.6732792854 0.1791920811 -0.7400018573 0.6426802278
-0.05662418902 -0.1403727978 0.6800506711 -0.1513816863 -0.738188684 0.6543083191
-0.04883731157 -0.1403895468 0.6806069016 -0.001439547632 -0.7456799746 0.6628164649
0.0021979257 -0.07508715242 0.61608392 -0.6376515627 -0.4660440683 0.6050314903
0.004451268818 -0.08120840043 0.6168592572 -0.59320575 -0.5034151077 0.6192160845
0.00572884921 -0.07672975212 0.6225571632 -0.5123260617 -0.5064507127 0.6924865246
0.005309020635 -0.05788275227 0.6309162974 -0.369826287 -0.5421917439 0.7227167487
0.002462492557 -0.05023674294 0.6304594278 -0.375926882 -0.5794905424 0.6508359909
0.008482205682 -0.05251920223 0.627301991 -0.2472290248 -0.7135160565 0.5233692527
0.01652321778 -0.06752552837 0.6306139827 0.06505639106 -0.6685299277 0.7132995129
0.01338137686 -0.06091926619 0.6281329989 -0.0751126036 -0.5610848665 0.8070793748
0.02064637281 -0.06392087787 0.6263505816 0.1636608988 -0.7114980817 0.652946353
-0.01188061945 -0.05944710225 0.6123518348 -0.5786266923 -0.5835267305 0.5687310696
-0.01397556905 -0.05321525037 0.6158171892 -0.5380795002 -0.6079790592 0.5825522542
-0.01939579658 -0.05555854738 0.6091297865 -0.4929803908 -0.6334316134 0.5954226851
-0.02036023699 -0.05111687258 0.6125654578 -0.4738582969 -0.6448255181 0.5989376903
-0.03124907427 -0.05116727203 0.6055269241 -0.3220984638 -0.6934988499 0.6419888735
-0.02607351914 -0.05578669533 0.6040575504 -0.4014541805 -0.6651178002 0.6263291836
-0.03327569738 -0.06220924482 0.5926851034 -0.295537442 -0.6959966421 0.6534383297
-0.02604083903 -0.06395523995 0.5950384736 -0.4129627645 -0.6624744534 0.62421
-0.02875536121 -0.06717900187 0.5900086761 -0.3744398355 -0.6733714342 0.6356124878
-0.05376794934 -0.05965747684 0.5922948718 0.08244296163 -0.7386908531 0.6643902063
-0.04503903911 -0.06112971902 0.5913109183 -0.1014152318 -0.7343384027 0.6688335538
-0.05793996528 -0.08181311935 0.5686032772 0.1506976932 -0.714388907 0.6821193099
-0.06018894911 -0.08613029867 0.56434834 0.1977899373 -0.7036600709 0.6626639962
-0.06642986834 -0.08958171308 0.5649480224 0.2744006813 -0.6837196946 0.6661623716
-0.05194228515 -0.08871971071 0.5597854853 0.05727305263 -0.7412174344 0.6358296871
-0.05387910828 -0.08504877985 0.564178288 0.09251210839 -0.7228435278 0.6770250201
-0.07182281464 -0.08770655096 0.5675559044 0.3694579601 -0.6566632986 0.6563948989
-0.007321647834 -0.1339511573 0.6642847061 0.6057478786 -0.6115843058 0.5088396668
-0.01219612733 -0.1359138787 0.667437613 0.5425205231 -0.6462364793 0.5355290771
-0.00865029078 -0.1390362084 0.6587539911 0.6062985659 -0.6102381349 0.5071364045
-0.0286198426 -0.1477464139 0.6665280461 0.3104814291 -0.7096745372 0.6280917525
-0.0233082287 -0.1433388293 0.668115437 0.3930547237 -0.6863606572 0.5971929431
-0.01589371637 -0.1402262747 0.6673954129 0.513525188 -0.6544521451 0.5525087118
-0.02113281935 -0.1477701664 0.664747715 0.4500148296 -0.6664136648 0.5907034278
-0.01618311368 -0.1455348283 0.6615575552 0.5376172066 -0.6429355741 0.540153265
-0.01673996449 -0.149989292 0.65774405 0.5317338109 -0.6425418854 0.5497744083
-0.0752216801 -0.1390162557 0.6725631952 -0.4543806612 -0.6632606387 0.5945103168
-0.02729835361 -0.156006828 0.657202661 0.3310727179 -0.7100400329 0.6170730591
-0.03036815673 -0.1531393528 0.6621991396 0.2776263654 -0.7220965624 0.629755795
-0.03573369607 -0.1520800442 0.6646456122 0.2019314766 -0.7332335114 0.6462563276
-0.07777426392 -0.06049781293 0.6023336053 0.488804251 -0.6604793668 0.5688186884
-0.07949465513 -0.057879664 0.6079930663 0.5184472799 -0.6513054371 0.5530729294
-0.03153878078 -0.05797044933 0.5974060297 -0.3144287765 -0.6906405687 0.6486665606
-0.03434630856 -0.05446321517 0.600946784 -0.2652288377 -0.7048485875 0.6566278934
-0.05394121632 -0.06842684746 0.5822758675 0.05829993263 -0.7458260655 0.6610379815
-0.04832137004 -0.06949368864 0.5815209746 -0.03511345759 -0.7396560311 0.6664634347
-0.05221951753 -0.06364950538 0.5876258016 0.03824862093 -0.7415343523 0.6630598903
-0.04572344571 -0.06549674273 0.5858381987 -0.07235912979 -0.7396535873 0.667069912
-0.08711185306 -0.1321049333 0.666503191 -0.6527137756 -0.5534843802 0.5149531364
-0.08190044761 -0.1342758238 0.6709049344 -0.5742916465 -0.6064500809 0.549590528
-0.08354073763 -0.1294647604 0.6743053794 -0.5960140228 -0.5951700211 0.5340121984
-0.08488640189 -0.1250685751 0.6775382161 -0.6103644967 -0.5810434818 0.5358384848
-0.07685596496 -0.1345294267 0.6760523319 -0.4732821286 -0.6567546129 0.5849268436
-0.07596275955 -0.130192697 0.6823563576 -0.4826106131 -0.6392945051 0.5961232781
-0.03781455383 -0.05747120082 0.5959482193 -0.2112405896 -0.7149232626 0.6627271175
-0.0408491306 -0.04754494876 0.6069974899 -0.1455505043 -0.7325147986 0.6607058048
-0.04479685426 -0.05113461614 0.6009432077 -0.08303453773 -0.7527306676 0.652297318
-0.04715600237 -0.05529903993 0.5967342854 -0.04905233532 -0.7444009781 0.6621106863
-0.05302729085 -0.05531860143 0.5968819857 0.05797407404 -0.7430133224 0.6623584032
-0.04768449441 -0.04326035082 0.6107831597 -0.03202558681 -0.7482568026 0.6571213603
-0.0482429117 -0.04710123688 0.6064234972 -0.01838259399 -0.7398181558 0.6672251225
-0.05434082076 -0.04718168452 0.6062365174 0.09689431638 -0.7394632101 0.665543139
-0.05296239629 -0.05083842576 0.6019046903 0.07334604859 -0.7473605871 0.6548542976
-0.06416893005 -0.04939407483 0.6069896817 0.2718303204 -0.7214869857 0.6365667582
-0.07000492513 -0.05691916123 0.6004213691 0.3677821159 -0.7009877563 0.6095705032
-0.07141260803 -0.0528062582 0.6057952642 0.3766719401 -0.6978499293 0.6090146303
