# .PCD v0.7 - Point Cloud Data file format
VERSION 0.7
FIELDS x y z normal_x normal_y normal_z
SIZE 4 4 4 4 4 4
TYPE F F F F F F
COUNT 1 1 1 1 1 1
WIDTH 512
HEIGHT 1
VIEWPOINT 0 0 0 1 0 0 0
POINTS 512
DATA ascii
-0.03213410079 -0.2068644911 0.7532253861 -0.7904123068 -0.26312989 0.5496453643
-0.0308412686 -0.20056355 0.7509903312 -0.7932727933 -0.2745761275 0.5378396511
0.009722547606 -0.1747728288 0.8011222482 -0.1377992183 -0.5578860641 0.8138862848
0.01025332324 -0.1915366799 0.7892356515 -0.1692444831 -0.5724723339 0.7949786782
0.07476343215 -0.162692219 0.7125890851 -0.3725391924 -0.07689236104 0.3869595826
0.07565956563 -0.1683151275 0.7153993845 -0.04771655425 -0.04611466825 0.3451523185
0.07786205411 -0.1766871363 0.7192604542 0.458550185 0.01158633549 0.2506892979
0.07332122326 -0.1573779881 0.7086257339 -0.6902546287 -0.1031222045 0.4382075965
0.07573760301 -0.1564524174 0.7144916654 -0.6595253348 -0.1108895391 0.4053482115
0.07785440981 -0.1707632691 0.7249137759 0.2205009758 -0.03326117992 0.3369903862
0.00888164714 -0.184248969 0.7937538028 -0.1668900251 -0.5570987463 0.8102860451
0.009315324016 -0.1790329963 0.7970374823 -0.1385413706 -0.555013001 0.8172025681
0.01486523449 -0.1896631718 0.7919399142 -0.08360032737 -0.5751007795 0.813747108
0.01579059102 -0.1830380857 0.7969021201 -0.06591287255 -0.5584642887 0.8261504769
0.02484572865 -0.1815001965 0.7989330292 0.08129187673 -0.5441374779 0.8338412046
0.02052843198 -0.1869150549 0.7944694757 0.006191818044 -0.5691834092 0.8185805678
0.03351983055 -0.1776380241 0.7974745035 0.192529276 -0.5143128037 0.8343765736
0.01803649031 -0.176916033 0.7991808653 -0.0099513717 -0.5517288446 0.8311414123
0.0350022763 -0.1835631579 0.7942458391 0.2718256116 -0.5203230977 0.8088438511
0.04052032158 -0.1772324741 0.794911921 0.3087307513 -0.4887854457 0.8106893301
-0.001089850906 -0.2151824087 0.7687003613 -0.2840955555 -0.4823375046 0.8154367208
-0.00639326591 -0.2104822099 0.7695552111 -0.3964982033 -0.4709959924 0.7808005214
0.00496243313 -0.2008071244 0.7799848914 -0.2464997917 -0.5342559814 0.7938457727
-0.0018752506 -0.1978162676 0.7788588405 -0.3804568052 -0.5122500062 0.7532544732
0.009427087381 -0.2193353772 0.7728780508 -0.1017350554 -0.5162885189 0.8386515379
0.001722755376 -0.1839506775 0.7919505239 -0.2936502099 -0.5417965055 0.7827727795
0.004301405512 -0.1892827153 0.7903341055 -0.2569693923 -0.5642558932 0.7812948227
-0.00698945066 -0.1769226938 0.7941291332 -0.4247030914 -0.4958941042 0.7567980886
-0.01233751792 -0.1774654388 0.7896530628 -0.5044248104 -0.473478049 0.7183824182
-0.001637044945 -0.1750457436 0.7981243134 -0.3247312605 -0.5244894028 0.7855119705
0.04035577178 -0.1443194747 0.6772450209 -0.29741925 -0.5943065882 0.7463616133
0.02796708047 -0.1440333426 0.6682113409 -0.1475193352 -0.6753482223 0.7214902043
-0.01762421243 -0.1851123869 0.7800799608 -0.596598506 -0.4590079188 0.6553837061
-0.008651373908 -0.194952786 0.7778206468 -0.4892622232 -0.4847990572 0.7234397531
-0.01423338801 -0.1914388686 0.7759212255 -0.5650039315 -0.4669849575 0.6728482842
-0.03758211434 -0.2005388886 0.7464304566 -0.8327156901 -0.2372610569 0.4992490709
-0.03375599906 -0.1961464286 0.7535526156 -0.8364077806 -0.2182574421 0.500341177
-0.03718869761 -0.1950785518 0.7488251328 -0.8451266885 -0.2177051455 0.4865721166
0.06128306687 -0.1789762676 0.7766743302 0.6736235023 -0.4200442731 0.6023162603
0.05554608256 -0.1854064167 0.7782877088 0.6092367768 -0.4573851526 0.6429956555
0.05512135103 -0.1803146452 0.7819827199 0.5825212598 -0.4518228173 0.6728183031
0.05045986548 -0.1800667644 0.7867196202 0.4973343313 -0.4741069078 0.721761167
0.04964050278 -0.1748604327 0.7903466225 0.472110182 -0.456076324 0.7502669692
0.04573687539 -0.1793159097 0.7911703587 0.4078244865 -0.4807642698 0.7748609185
0.05176001415 -0.186926052 0.7825511098 0.5463408828 -0.4861968756 0.6801272035
0.06542410702 -0.1800806522 0.7716514468 0.7305203676 -0.3819146454 0.5638672709
0.06524318457 -0.1847816557 0.7680827975 0.73282969 -0.3729025424 0.5679273009
0.01697854698 -0.1402344853 0.6756337285 0.09480494261 -0.6516672969 0.7472948432
0.02188300341 -0.1426266134 0.6710027456 -0.0179698579 -0.6618149877 0.7353172898
-0.007018553559 -0.09240145981 0.7265739441 0.4724743962 -0.5894175768 0.6539878249
0.0228351634 -0.1950568706 0.7875654101 0.06443237513 -0.5857080817 0.8032388091
0.01714652963 -0.1960738301 0.7870539427 -0.05962944031 -0.5886394382 0.8010989428
-0.02665583976 -0.2075501084 0.7557042241 -0.7395452857 -0.3112866282 0.5954446793
0.003244290128 -0.220796138 0.7689252496 -0.1822845191 -0.5095587373 0.8399518132
-0.01824278943 -0.2071699798 0.7635314465 -0.605845511 -0.3551224768 0.7028819919
-0.01679437049 -0.2163297534 0.7628374696 -0.5523032546 -0.3977135718 0.7079904079
-0.02381101437 -0.2136914134 0.7577827573 -0.6794760227 -0.3327062428 0.640322566
-0.006855683401 -0.2186461538 0.7677693367 -0.3775193989 -0.4662292898 0.7892663479
-0.01309290156 -0.2089665234 0.7677346468 -0.5153639317 -0.4201615155 0.7466583252
-0.009525329806 -0.2054366618 0.7710989118 -0.4756092429 -0.44757846 0.7555807233
0.009776894003 -0.2121837437 0.7765795588 -0.08260077238 -0.5331879258 0.8326929212
0.002890587552 -0.2159457356 0.7750794291 -0.1947574019 -0.4975010455 0.8358650804
0.02107884362 -0.2159360945 0.7739512324 0.04761414602 -0.5650623441 0.8223108053
0.0181827154 -0.2212552726 0.7686765194 0.03192771226 -0.5591640472 0.8225721717
0.03162332252 -0.2212509215 0.7672818899 0.211778447 -0.6093651056 0.7634475231
0.0799164474 -0.1748031974 0.7295851111 0.5965859294 -0.03695262596 0.2775857449
0.08047962934 -0.1803044975 0.7240245938 0.7836287618 0.02466734126 0.1759176254
0.07851516455 -0.1526439041 0.7253334522 -0.41763556 -0.2764053047 0.4067635536
0.08031918108 -0.1818320453 0.7322165966 0.9308492541 0.03857957199 0.2501069307
0.07932052016 -0.1641412824 0.7251332998 0.08504597098 -0.1513747424 0.3144278228
0.0777823925 -0.1574349552 0.7195775509 -0.3755694628 -0.1778486669 0.3612334728
0.0769591704 -0.1130071059 0.6877566576 0.6465028524 -0.3956591487 0.6452832818
-0.01622934081 -0.1794159412 0.783564508 -0.5796726346 -0.4551144242 0.6744403839
-0.006526891142 -0.1834101379 0.788687408 -0.4405489266 -0.509616971 0.7337673903
-0.01134859305 -0.1855273098 0.784147799 -0.5093820095 -0.4903295636 0.7023371458
-0.005595786963 -0.1921773404 0.7835106254 -0.4327910542 -0.5238817334 0.7322660685
-0.001833173679 -0.1884693205 0.7883427739 -0.3487353027 -0.5438195467 0.7574666739
0.07006208599 -0.1826507449 0.7631146312 0.7945349813 -0.3129650056 0.5192383528
0.0795756802 -0.1949744076 0.7341997623 0.8708862662 -0.2449881285 0.422960639
0.07607521862 -0.1863476634 0.7438345551 0.8681933284 -0.2526038885 0.4269436598
0.0790572986 -0.182049349 0.7406101227 0.9134012461 -0.0715008527 0.3796636164
0.08019374311 -0.1860719621 0.7247880697 0.9772997499 0.04531290755 0.1747734547
0.08056902885 -0.191144973 0.7292793989 0.9187350869 -0.1134391576 0.3035839498
0.06432951242 -0.2060260177 0.7613756061 0.7136278152 -0.3499242961 0.6025351882
-0.0008593206876 -0.1453074813 0.6813987494 0.3656680882 -0.5605521798 0.7242372036
0.04128953442 -0.1863542944 0.7893551588 0.3729650378 -0.5207590461 0.7628849745
0.03596977517 -0.1905305833 0.7888783216 0.2686084211 -0.5596979856 0.7761301398
0.04428008199 -0.1896288693 0.7854099274 0.4216134846 -0.5253560543 0.7363892198
0.03971969336 -0.1943382174 0.7837582231 0.3532105684 -0.5512345433 0.7504315376
0.02828824893 -0.1869181991 0.7938042283 0.1406314373 -0.5637393594 0.8096356392
0.03972678632 -0.2174877822 0.7666921616 0.3287293315 -0.5664708018 0.7496449351
0.001492773532 -0.196475774 0.7841287255 -0.3103992641 -0.5358368158 0.7812616825
-0.007035236806 -0.2010605335 0.7759674191 -0.4554168284 -0.4603001177 0.7574466467
-0.0031967822 -0.2205537707 0.7726811767 -0.2913936675 -0.4635315835 0.8353364468
-0.00299141556 -0.2130044997 0.7751638889 -0.3286748827 -0.4702254832 0.8157333136
-0.002335937228 -0.2076202333 0.7773294449 -0.3470638692 -0.4777230024 0.8048294187
0.0101920981 -0.1998755336 0.7839886546 -0.1488037407 -0.5579767823 0.8144843578
0.005443230271 -0.207032159 0.7763234973 -0.1979967356 -0.5179100633 0.8302437067
0.04139426351 -0.2089184374 0.7707970738 0.358754456 -0.5420834422 0.7552161813
0.04689144343 -0.2131012529 0.7661550045 0.428925097 -0.5206338167 0.7361305356
0.01792708598 -0.2105801553 0.7760652304 0.01803834364 -0.5613052845 0.8245157003
0.01412086003 -0.2145472616 0.7729293704 -0.03210161254 -0.5459364653 0.8360266685
0.04596554115 -0.1942988485 0.7812634706 0.4717033803 -0.5191117525 0.7098097801
0.03527063876 -0.2129812539 0.7711153626 0.2868952155 -0.5862458944 0.7570524216
0.02881992422 -0.2148698121 0.7733103037 0.1673568189 -0.5755214691 0.7949942946
0.02548193932 -0.2202901691 0.7709994912 0.1193654388 -0.5749205351 0.8059188128
0.004301212262 -0.08498875797 0.7259451747 0.3117468953 -0.6332554221 0.7068488598
0.08428815007 -0.1048636958 0.7086052299 0.4269487858 -0.2186694294 0.4286801219
0.07484760135 -0.1139878035 0.7283916473 -0.5999540091 -0.2954552174 0.5579754114
0.07834263891 -0.1103525758 0.7221237421 -0.2397131175 -0.2671975195 0.5085573792
0.07557334751 -0.10251946 0.7310840487 -0.6598998308 -0.2946565151 0.4979936182
0.08210673928 -0.1007251516 0.715028584 0.131363228 -0.2394766808 0.4314544201
0.08719055355 -0.100302048 0.7040606737 0.7064257264 -0.195950821 0.3806224763
0.07724449039 -0.1105598882 0.7402994037 -0.8124783039 -0.2753984332 0.4892191887
0.08013519645 -0.1022409424 0.7214007378 -0.1481039226 -0.2555382848 0.4524787664
0.08213032037 -0.1063221246 0.7166967392 0.1147285551 -0.2365535945 0.4524150491
0.08017478138 -0.1083301455 0.7295764089 -0.3589056432 -0.2516339719 0.4608716667
0.07814010978 -0.168992117 0.7322409749 0.3404340446 -0.09863515943 0.3849326372
0.07767300308 -0.1586620361 0.7277044058 -0.1552012116 -0.2096109837 0.4155719578
0.07582318038 -0.1506932825 0.7195600271 -0.617548883 -0.2906952202 0.433465451
0.07771942019 -0.1459857821 0.7240697742 -0.7301220894 -0.3476734459 0.4555586874
0.07627041638 -0.1638772637 0.7442092896 0.2493368536 -0.295704633 0.4669891596
0.07944526523 -0.1487660706 0.7338972092 -0.3568983972 -0.3277819455 0.4920135438
0.07975265384 -0.1669981331 0.7379696369 0.3981790543 -0.1256397963 0.412776649
0.07777386159 -0.1772397161 0.7446088195 0.8100414276 -0.09706804901 0.3937664926
0.07826822996 -0.1561903059 0.7381893992 -0.0568641983 -0.2969027758 0.4751819372
0.07878623158 -0.1438952088 0.7295654416 -0.6221477985 -0.3644847572 0.5035030246
0.07417497784 -0.1733983606 0.749499321 0.6031104922 -0.2701772749 0.4448233545
0.07617138326 -0.1703785956 0.7431542277 0.4547458887 -0.2149190158 0.4241800904
0.07984354347 -0.1730448008 0.7383683324 0.627699554 -0.05339984968 0.3809655309
0.08036854118 -0.1544211805 0.7325419784 -0.1381497979 -0.2269212753 0.4521371722
0.07963078469 -0.1295516342 0.7322847843 -0.7891054153 -0.3404265046 0.5082762241
0.07804774493 -0.1211247668 0.7361291051 -0.8022689819 -0.3123657703 0.5049327612
0.07461521775 -0.114398174 0.7348908782 -0.7753500938 -0.3025741279 0.5532686114
0.08066008985 -0.1362379938 0.7289446592 -0.7755427957 -0.3638244271 0.5150409937
0.07581559569 -0.1235545129 0.7294794917 -0.7578364611 -0.3297867775 0.5606307387
0.02282924391 -0.1408015192 0.6783795357 -0.02176946402 -0.6901447177 0.7174391747
0.002132939175 -0.1395250112 0.6826651096 0.317482084 -0.5851576924 0.7397069335
0.006526348181 -0.1427372843 0.6778226495 0.2316809148 -0.6247406602 0.7455071807
0.07729893923 -0.1236447319 0.723485589 -0.5570088029 -0.320302248 0.5460416675
0.07791522145 -0.1156897843 0.7186400294 -0.2736731768 -0.2842605114 0.5278533697
0.08260668069 -0.1171546876 0.7150946856 -0.01857928745 -0.2749959826 0.468074441
0.0823424831 -0.1234122962 0.7187026143 -0.2273536772 -0.3026174903 0.479483813
0.0816013366 -0.1320302784 0.7240198851 -0.5390045047 -0.3419064581 0.5001535416
0.070021227 -0.09051229805 0.7243760824 -0.2394602001 -0.7951979041 0.2362797111
0.06210379675 -0.08797985315 0.7372435331 -0.5357788801 -0.8131760359 0.1508366913
0.06793782115 -0.09040840715 0.7327281833 -0.4245353043 -0.7631477714 0.2491668612
-0.01958456077 -0.1899512261 0.7724696398 -0.6373028159 -0.4264368117 0.6378594637
-0.02180850506 -0.1935777217 0.7687571645 -0.6604098678 -0.3983789682 0.6336215138
-0.02441787533 -0.2032870352 0.763759017 -0.6722635031 -0.3551704884 0.6463674903
-0.01605658606 -0.1963038892 0.7702209949 -0.5827385187 -0.4035564959 0.691554904
-0.01543047838 -0.2028059959 0.7682179213 -0.5731099248 -0.3776073754 0.7235526443
-0.01995085925 -0.1991214454 0.7660409808 -0.6313580871 -0.3479828238 0.6882330179
-0.03052534349 -0.1951102614 0.7597230077 -0.7815973759 -0.2821498811 0.5549408793
-0.03138697892 -0.210956797 0.7573615909 -0.722037971 -0.3062794209 0.6200464368
-0.02525566518 -0.1955299228 0.7636048794 -0.6988289356 -0.3212487996 0.6371049881
-0.03061736934 -0.2028091103 0.758980453 -0.7462745309 -0.2974444628 0.5929375887
-0.02291427553 -0.1791820526 0.7786141038 -0.6613788605 -0.4184012115 0.6148306727
-0.02322041616 -0.09421924502 0.7434972525 0.6991573572 -0.4873010814 0.5206826925
-0.01635463722 -0.08957827091 0.738201499 0.6203657985 -0.5665341616 0.5365014076
-0.01979812793 -0.09461221099 0.7374777198 0.6780164242 -0.5169671178 0.519543469
-0.02323639579 -0.1094288081 0.7275865078 0.7304701209 -0.4480213225 0.513502419
0.06493409723 -0.187492311 0.7627565265 0.7625927925 -0.3457710743 0.5341770053
0.07218813151 -0.1831026226 0.7549986839 0.8530209661 -0.260302484 0.4505267143
0.02147071436 -0.1312964261 0.6865414977 -0.006396811455 -0.6592947245 0.7442729473
0.0275273975 -0.1322838515 0.6854286194 -0.1089808047 -0.6583875418 0.74241364
0.0478098765 -0.1476623267 0.683003664 -0.4100062549 -0.3350761831 0.811255753
0.03468337283 -0.1419580728 0.6795719266 -0.2398696095 -0.6264497638 0.7320252657
0.03530513868 -0.1343058795 0.6877337098 -0.214534983 -0.6347998977 0.7366809249
0.03109337948 -0.1363839656 0.6797369123 -0.1810658276 -0.6580725908 0.7300756574
0.03809730336 -0.1381207854 0.6828359365 -0.261351496 -0.6232048273 0.7341194153
0.08014951646 -0.1884032339 0.7369632721 0.8986107111 -0.1287608892 0.3952104747
0.07779330015 -0.1920719445 0.7414467931 0.8726263642 -0.21483922 0.4264999926
0.07789715379 -0.2001281977 0.7391847372 0.8609582782 -0.2505337 0.44264853
0.07333690673 -0.1888924837 0.7487590313 0.8658235669 -0.2519248724 0.4322497249
0.06936907023 -0.1891886443 0.7565065622 0.822729826 -0.2833746374 0.4916872084
0.07003610581 -0.1946248114 0.7534609437 0.8227466345 -0.2742975652 0.4965020418
0.06925167888 -0.2030897588 0.7518939972 0.795496583 -0.2749626338 0.5372503996
0.0730773136 -0.1976648569 0.746291399 0.8602461815 -0.2508061528 0.4436351359
0.06618575752 -0.2137089819 0.7593727708 0.6923292279 -0.3764068484 0.6055929065
0.07257932425 -0.2042842209 0.7473686934 0.8275014758 -0.2747989297 0.4759725928
0.065525949 -0.2084076852 0.7525155544 0.7248496413 -0.3438201845 0.5698765516
0.02831836604 -0.1975854933 0.7848576903 0.1626240313 -0.5820367336 0.7937645316
0.03335364908 -0.2000165135 0.7817642689 0.2488651127 -0.5716175437 0.7801755071
0.04192315787 -0.1997904181 0.7775229812 0.4000636041 -0.5365716815 0.733024478
0.03029057011 -0.2086106539 0.7765206695 0.189984411 -0.5782648921 0.7890803814
0.03716437891 -0.2068888098 0.7765387893 0.3311489224 -0.5654088259 0.7514739037
0.05575846881 -0.1951305717 0.7697791457 0.6351655126 -0.4061968029 0.646713078
0.05906858668 -0.189258039 0.7724903226 0.6621059775 -0.4225647748 0.6153249741
0.06259583682 -0.1938775927 0.7639940381 0.7498400807 -0.3209297657 0.5766709447
0.06646713614 -0.1989451796 0.7558033466 0.787083149 -0.2822994888 0.5425683856
0.06042914838 -0.21005027 0.758280158 0.6539356112 -0.3883151412 0.639141202
0.05521275476 -0.2132321149 0.7609012723 0.5687026978 -0.4684990048 0.6748081446
0.0610614568 -0.1993013918 0.7609553933 0.7074764371 -0.3406809568 0.6003228426
0.04906084761 -0.2083952278 0.7705662847 0.4734999835 -0.484669596 0.723166883
0.06080259383 -0.2143149972 0.7640460134 0.6130855083 -0.421744585 0.6562154293
0.05454417318 -0.208818987 0.7682446241 0.547985673 -0.4479596317 0.6938334107
0.05245213956 -0.1997804344 0.772182703 0.5547012091 -0.445504427 0.7019594312
0.05922622234 -0.1990026981 0.7666081786 0.6755375862 -0.3686615825 0.6373291016
0.06046551839 -0.2054798454 0.7663873434 0.6509097815 -0.4059838951 0.6392430067
0.05470497906 -0.203183502 0.7659366131 0.5885147452 -0.4184846878 0.6848145723
0.02674046531 -0.2039430588 0.7805250287 0.1321804523 -0.5736573935 0.8043826818
0.02191722952 -0.2063534707 0.7791665196 0.04613310471 -0.576395154 0.8122237325
0.01542941201 -0.2044354379 0.7812204957 -0.04788684845 -0.5668584108 0.822145462
0.04623424634 -0.2036079317 0.7735694647 0.4544130862 -0.5113862157 0.7261425257
0.07071728259 -0.09747970104 0.7421162128 -0.7541891336 -0.5305925608 0.3366425037
0.07428850979 -0.104727082 0.741861999 -0.8228819966 -0.3611989021 0.4182655513
0.06917705387 -0.1037321091 0.7352186441 -0.825445056 -0.3100497723 0.4542116523
0.07295057178 -0.09952194244 0.7373657227 -0.7848212719 -0.4053987861 0.433775872
0.0556765832 -0.08563285321 0.7244561911 -0.3881013691 -0.7007036805 0.2313268334
0.05130635947 -0.08428228647 0.728664577 -0.3213321567 -0.6862541437 0.5013243556
0.06245558709 -0.0874113515 0.7225237489 -0.4364478886 -0.7219206691 0.02813586406
0.05397340655 -0.08599800617 0.7341135144 -0.4110393226 -0.7416141033 0.4226649106
0.05557543412 -0.09658565372 0.7268992662 -0.4148670435 -0.5126876831 0.7265778184
0.06163371727 -0.09822816402 0.731091857 -0.6220288277 -0.4487486482 0.55248487
0.06385742128 -0.0942812115 0.7362915874 -0.633050561 -0.5763420463 0.4253554344
0.05875396729 -0.09260865301 0.7326917648 -0.4854142666 -0.6448450685 0.4833218753
0.01186622865 -0.08969306946 0.7207099795 0.1661139876 -0.6398435831 0.7456686497
0.005963152274 -0.08952964097 0.7214484215 0.2596872747 -0.6284781098 0.7295261025
-0.0003248466819 -0.08879129589 0.7245362401 0.3738675714 -0.6233693957 0.682711184
-0.002061899984 -0.09425903857 0.7212882638 0.3994036019 -0.5932004452 0.6943156719
0.002124298131 -0.0964813903 0.7178295255 0.3256564736 -0.5916769505 0.7325327992
0.04495743662 -0.1382698864 0.6880115271 -0.325545162 -0.5646907091 0.7567259669
0.05037323013 -0.1401957422 0.6906445026 -0.391195029 -0.3755693734 0.8019124269
0.01242579613 -0.1324125528 0.6848439574 0.1505603492 -0.6382180452 0.7506805658
0.00876256451 -0.137286365 0.6818398833 0.2166380733 -0.6157066822 0.7543300986
0.004838690627 -0.1348294467 0.6865393519 0.2764051855 -0.5984216332 0.7516506314
0.01855150796 -0.1351103634 0.6819281578 0.0411339961 -0.6759263873 0.7321630716
0.06712273508 -0.1217475012 0.7205863595 -0.684863627 -0.3525908589 0.6273544431
0.05873501301 -0.1211323366 0.7109312415 -0.5054668784 -0.6594111919 0.5486779213
0.06263776124 -0.1188559458 0.7169287205 -0.5905873179 -0.4646068513 0.6475327015
0.07068163157 -0.1189883053 0.7269182801 -0.7300583124 -0.3155249655 0.6038591266
0.06613431126 -0.116517514 0.7230297923 -0.7342194319 -0.2459308505 0.6303172708
0.06045494974 -0.1133275777 0.719799757 -0.5968948603 -0.3591920137 0.7139800787
0.05958823115 -0.1285426021 0.704759717 -0.4935297966 -0.6432949305 0.5824209452
0.009144370444 -0.09498316795 0.7168956995 0.2027871162 -0.6114743352 0.7604464889
0.01876445673 -0.08935540915 0.7200478911 0.05290546268 -0.6434420943 0.7597465515
0.07333596051 -0.09397265315 0.7168027163 0.5245783329 -0.147620663 0.5256482959
0.08115101606 -0.09716412425 0.7088723183 0.6725051999 -0.1703917235 0.4438537657
0.07497160137 -0.09799004346 0.7244208455 -0.3816275597 -0.2777927816 0.5015561581
0.07771731913 -0.09608788788 0.713259697 0.5162969232 -0.1725925207 0.479113102
0.08135844022 -0.09335779399 0.7027526498 0.6741208434 -0.4706895947 0.4237807393
0.07486082613 -0.09077332914 0.7102731466 0.3254089653 -0.8058531284 0.2706785798
0.07739397883 -0.1029263809 0.692086041 0.6894416809 -0.3854728043 0.6086360812
0.08220467716 -0.09855844826 0.6963160038 0.8243997097 -0.2925511301 0.4676688612
0.08324365318 -0.1045701429 0.6936660409 0.8130602837 -0.3293413818 0.4679509699
0.08343162388 -0.1114498377 0.6908910275 0.806397438 -0.388695091 0.437923491
-0.02470362186 -0.1787800044 0.7717959881 -0.6878282428 -0.409108758 0.5987195969
-0.0254789982 -0.1845746487 0.7685470581 -0.7200421691 -0.3831114769 0.5761409402
-0.0318284221 -0.1909378469 0.7504742742 -0.8258345127 -0.2365947664 0.5080018044
-0.03036692552 -0.188274473 0.756005168 -0.7972744703 -0.2804064751 0.5261324048
-0.03760068864 -0.1913644224 0.7412166595 -0.8507043123 -0.2202410698 0.4770334661
-0.04172160849 -0.1970029473 0.7408632636 -0.8482289314 -0.2301460057 0.4770120978
-0.0093229739 -0.1247972697 0.7024927735 0.496961087 -0.5393561721 0.6749786139
-0.03294928372 -0.09927108139 0.7535856962 0.7501248717 -0.4376016855 0.4954052567
-0.02895144187 -0.1049030498 0.7435753345 0.7585751414 -0.4269545078 0.4918633401
-0.0283004716 -0.09823878855 0.7475848198 0.7349178791 -0.450766325 0.5059217811
0.0496689342 -0.09396377206 0.7248652577 -0.3245795667 -0.5738527179 0.7496715188
-0.003583220765 -0.1045863703 0.7133419514 0.4240059555 -0.5591155291 0.7120545506
-0.006471941713 -0.1100926995 0.7116214633 0.4607966244 -0.5398793221 0.7024343014
-0.005210729316 -0.1007049754 0.7180461287 0.4591611028 -0.5579806566 0.6878017187
0.02514304221 -0.1267865151 0.6899132729 -0.0757682547 -0.6434468031 0.761051774
0.02518597804 -0.1183080226 0.6969001293 -0.0590572916 -0.6264281869 0.7766419649
0.03186418116 -0.1232375056 0.6936398149 -0.1785497665 -0.622058928 0.7609308958
-0.01717208885 -0.1328793019 0.7025663853 0.6278865933 -0.4770177305 0.6148775816
-0.01462870277 -0.1257903874 0.7053741813 0.5861377716 -0.501418829 0.6352933645
-0.02161491849 -0.1364432126 0.7050740719 0.6926500797 -0.4404736459 0.5701992512
-0.02457836457 -0.1434078664 0.7040269971 0.706364274 -0.4253516495 0.5656049252
-0.02161164023 -0.1448016167 0.6968413591 0.6591202617 -0.437499404 0.6109631062
-0.02496632934 -0.1341405362 0.7114132047 0.7451623082 -0.4185400605 0.517107904
-0.02395380102 -0.128180027 0.7142655849 0.7239270806 -0.431989938 0.536901176
-0.01835789718 -0.1251098663 0.7102174759 0.657635808 -0.451420188 0.6023423076
-0.02093780227 -0.1303046495 0.7093256116 0.6906878352 -0.4392640591 0.5711134076
0.05342164263 -0.1344276667 0.683837831 0.04108475149 -0.4290394783 0.7998513579
0.05803081766 -0.1302973032 0.6868155003 0.1602163166 -0.37014094 0.8193495274
0.03148297966 -0.1418221891 0.6744496822 -0.2138958126 -0.6472769976 0.7294023037
0.01072911918 -0.08514925838 0.7242899537 0.1948744059 -0.6419907212 0.7353909016
0.01004177798 -0.07978621125 0.7281948924 0.1886521727 -0.6640244722 0.7211651802
0.01594299637 -0.08077442646 0.7268230319 0.1093930751 -0.6760464907 0.7269968987
0.002334331861 -0.0814166218 0.7306209803 0.3441500366 -0.6600421667 0.6663866639
0.05303264037 -0.09009124339 0.7291248441 -0.2707362473 -0.6414070129 0.7008496523
0.06123161688 -0.08725195378 0.7296948433 -0.4649601877 -0.7524985075 0.1465693116
-0.01598460786 -0.09666088223 0.7317315936 0.6409176588 -0.5177906156 0.5626094341
-0.01504705101 -0.1000829563 0.7262880802 0.6195651889 -0.5196300745 0.5859954953
-0.02173976228 -0.101716131 0.7356212139 0.7193769813 -0.4620574117 0.5152180195
-0.02030602098 -0.1034126356 0.728461802 0.6954902411 -0.4782309234 0.5358180404
-0.0241273772 -0.1083073616 0.7331174016 0.7495462894 -0.4313665032 0.5000457168
-0.02466343343 -0.09966125339 0.7413183451 0.7296940088 -0.4559220374 0.50881356
0.06704171747 -0.1505203843 0.700095892 -0.7374815941 -0.05007206276 0.6404524446
0.0687584579 -0.139946118 0.7102506161 -0.7079794407 -0.4554797709 0.4844257534
0.06462022662 -0.1353313625 0.7072166204 -0.6085987687 -0.5425387621 0.5289695263
0.0745331049 -0.1494331211 0.7126843333 -0.860747993 -0.2544428408 0.4303548336
0.06248610839 -0.1399282366 0.7009801865 -0.5787369013 -0.3670911491 0.6528849602
0.06911564618 -0.1453102529 0.7063601613 -0.7658446431 -0.3263477087 0.5217908025
0.0624259375 -0.1463036239 0.6967177987 -0.5893221498 -0.1197121963 0.7550948858
0.07304996997 -0.1497271359 0.7055902481 -0.8855791092 -0.06132274494 0.4486770928
0.06592806429 -0.1299455911 0.7117365599 -0.6528549194 -0.5419639349 0.5041243434
0.06467334926 -0.1246652007 0.7130634785 -0.631041348 -0.5753458738 0.5183365941
-0.0009447101038 -0.1323432177 0.6901182532 0.3755791783 -0.5637914538 0.7318162918
0.001081293332 -0.1278049201 0.6937826276 0.3408783674 -0.5921127796 0.7276086211
0.06547741592 -0.1103897095 0.7278240919 -0.7294552922 -0.2586947381 0.6137780547
0.07250063866 -0.1085207686 0.737265408 -0.8313047886 -0.2844230831 0.4721655846
0.07417877018 -0.1185451746 0.6873831749 0.5725548863 -0.3303000033 0.7475916147
0.06013645232 -0.1010921746 0.7052493691 0.142619729 -0.5005613565 0.6378917098
0.06933806837 -0.09793546796 0.7019459605 0.4688646197 -0.4487838149 0.5757287145
-0.02965330705 -0.1889724731 0.7624697685 -0.7887050509 -0.2940131724 0.5354664326
-0.03460671753 -0.1826191992 0.7538184524 -0.8461001515 -0.208300367 0.4845952094
-0.03173980862 -0.1814697683 0.7613142133 -0.8040279746 -0.2723459005 0.5139407516
-0.03569379821 -0.1760635972 0.7558960319 -0.7373605371 -0.2047299147 0.4687012434
-0.036145024 -0.1580753177 0.7526500225 -0.09751908481 -0.3026222885 0.4550054073
-0.03328594938 -0.174329713 0.7627469897 -0.6686297655 -0.293495059 0.4797327816
-0.03857177868 -0.1374712586 0.7433504462 0.6298675537 -0.3529420197 0.4296944141
-0.0340586938 -0.1671818048 0.7597228289 -0.4160878062 -0.3131892383 0.4713003337
-0.03550432995 -0.1475660503 0.7505170703 0.3070810139 -0.3820798099 0.4672703743
-0.04210343584 -0.1907604188 0.7368330359 -0.8744971156 -0.1664504558 0.4380421937
-0.03728025034 -0.1881979257 0.7509661317 -0.8584095836 -0.1973774582 0.4727825522
-0.02099707164 -0.1506007016 0.6963648796 0.662309289 -0.430637449 0.6030698419
-0.03754011914 -0.184857741 0.7394498587 -0.9115135074 -0.03239947557 0.3907514811
-0.01306520682 -0.1505481452 0.6878548861 0.5726083517 -0.4636467099 0.674131155
-0.01712090708 -0.148104921 0.6911413074 0.6061523557 -0.4542716742 0.6500157714
-0.009728783742 -0.1454776824 0.6880565882 0.5201123953 -0.4918984473 0.6951188445
-0.03483004123 -0.1216205657 0.7408818603 0.8123515248 -0.3797575831 0.4424126148
-0.00476892665 -0.0845856145 0.7317371368 0.4362484515 -0.6427876949 0.6288852692
0.05462973192 -0.1083718911 0.7182626128 -0.5067388415 -0.411311388 0.7454500198
0.0593659915 -0.10253039 0.7263970971 -0.532495141 -0.3737126887 0.7350844741
0.06505446881 -0.1040889621 0.7297306061 -0.7856529355 -0.2674864531 0.5369779468
0.04479635879 -0.08463008702 0.7291775346 -0.2737778127 -0.6684831977 0.691301167
0.03771437332 -0.08190763742 0.7290391326 -0.2533922791 -0.6487998366 0.7167461514
0.03376681358 -0.08432596177 0.72484833 -0.1758168191 -0.6443641782 0.7429405451
0.02942013927 -0.07940588892 0.7284607887 -0.1316418648 -0.6779383421 0.7176096439
0.0274704434 -0.08377011865 0.7244657278 -0.08657865971 -0.6567661166 0.744531095
-0.02592533268 -0.1177434176 0.7261924744 0.7531756163 -0.4333650172 0.4926629364
-0.02964999527 -0.1234487444 0.7274830341 0.7917801738 -0.4005172849 0.4609358609
-0.02895474993 -0.1174003407 0.7323045135 0.7896763086 -0.4000688791 0.4649117887
-0.03239762783 -0.1228932366 0.7349180579 0.8022289872 -0.390445888 0.4514605701
-0.01401527692 -0.1041779369 0.7221263647 0.5990307331 -0.518402338 0.6077955961
-0.01173824444 -0.1082549021 0.717354238 0.5359142423 -0.5270957947 0.6592616439
0.07295515388 -0.1440589577 0.7016484141 -0.7955943346 -0.01060829777 0.4582626522
0.0777638182 -0.1324345171 0.6953060627 0.01360890362 -0.1899050772 0.5224543214
0.07794936746 -0.1396668553 0.7014827728 -0.2116442472 -0.2183251828 0.4844850004
0.07632734627 -0.1430805475 0.7075544596 -0.4918088019 -0.2808691561 0.46387586
0.08072843403 -0.1230012923 0.6882140636 0.730427146 -0.3802312911 0.5572713614
0.03282994777 -0.1161427647 0.6997292042 -0.1918423623 -0.6067426801 0.7694888115
0.02511565015 -0.1127278805 0.701380074 -0.07829361409 -0.6294993758 0.7728478909
0.04349272698 -0.1115692556 0.7013133168 -0.1196531877 -0.5583410859 0.7389608622
0.05728752911 -0.1088729203 0.6975126266 0.1528562009 -0.5002225637 0.686268568
0.06220258772 -0.108950071 0.6940717101 0.3209292591 -0.4742972553 0.6717148423
0.04543526098 -0.1147780418 0.6958322525 0.02914547548 -0.5522082448 0.7294430137
0.03469445929 -0.09850783646 0.7131073475 -0.1976491064 -0.6058585048 0.7695051432
0.0453688018 -0.1016802192 0.714872539 -0.3657242656 -0.5573488474 0.7437108755
0.04975836352 -0.09817518294 0.7136669755 -0.1732033491 -0.5384712219 0.7075885534
0.05572061241 -0.09789694101 0.7105639577 0.02516075969 -0.5026949048 0.6661539078
0.07481707633 -0.0929036811 0.7038884759 0.5513790846 -0.4318802953 0.4040540755
0.06676035374 -0.09027436376 0.714646399 -0.4349648654 -0.7014698982 -0.2357373238
0.06815117598 -0.09333191067 0.7079060078 0.2346206903 -0.4997008145 0.3617156446
0.06197787821 -0.09474156797 0.709726572 0.1355515122 -0.5021100044 0.5119985938
0.04596234486 -0.09610579163 0.7201333046 -0.3272455931 -0.5659964085 0.753018856
0.05110978335 -0.1002268493 0.7214314342 -0.3881188631 -0.4725108445 0.7810104489
-0.005512382835 -0.1155179515 0.706761837 0.432687223 -0.5581845045 0.7059766054
-0.0123855751 -0.1152238548 0.7134157419 0.5421073437 -0.5082820654 0.6676505804
0.05557027087 -0.1504529268 0.6872284412 -0.5101789832 -0.1547672302 0.843310833
0.0611724928 -0.1448820084 0.6877552271 -0.3218539357 -0.0870045498 0.8761944175
0.06908661127 -0.134015739 0.6876426935 0.06309576333 0.002875198144 0.9606001377
0.0589216128 -0.13990058 0.685678184 -0.1768515557 -0.2079149932 0.881409049
0.04866861552 -0.1421109438 0.6808351278 -0.2325896621 -0.4271323383 0.8053408861
0.06187935919 -0.1347409487 0.6847798824 0.05842229351 -0.1811238527 0.8933768868
0.06513801217 -0.1290997863 0.6865785122 0.2992692292 -0.2180318683 0.8723736405
0.0571276769 -0.1433093995 0.6920977831 -0.4475452602 -0.1412177682 0.8719207048
0.05737844482 -0.1327372938 0.699962616 -0.4553988576 -0.5511269569 0.6592084169
0.05380536988 -0.1353118718 0.6959472299 -0.4135636985 -0.4689964354 0.731659472
0.04671344906 -0.1339996308 0.692663908 -0.3335674405 -0.5557595491 0.7471400499
0.07072395086 -0.09547752887 0.7289942503 -0.8516048789 -0.4233621657 0.2151355892
0.07206399739 -0.1397219598 0.7157544494 -0.7696136236 -0.4081530571 0.4674068093
0.07545471936 -0.1406198293 0.721927166 -0.7759270072 -0.4047162533 0.471825093
0.08321234584 -0.1180398092 0.6906378865 0.772551775 -0.3656343222 0.5070301294
0.08081273735 -0.128467977 0.6989178658 0.2852222323 -0.3524184823 0.5479314327
0.0767140612 -0.1422282308 0.7130947113 -0.5993736386 -0.3347866237 0.4724313617
0.07905520499 -0.1358217597 0.7090107203 -0.2429414839 -0.3472582102 0.5106182098
0.08013974875 -0.1357847005 0.7152129412 -0.3779850602 -0.357876271 0.5183495879
0.07872449607 -0.1342851073 0.7028443813 -0.04322553426 -0.3414638042 0.513520658
0.07254428416 -0.1354252249 0.7202135921 -0.7370910048 -0.4378409386 0.4955765009
0.06935507059 -0.1272784024 0.7202170491 -0.7079026699 -0.3920659125 0.5703250766
0.08747223765 -0.1022527367 0.6976874471 0.8880261779 -0.2330877483 0.3867967129
0.0846721679 -0.115405336 0.6976183653 0.6536407471 -0.2900585234 0.4891139269
0.08197045326 -0.1299462616 0.7117236853 -0.09115796536 -0.3535349965 0.5299873948
0.08373179287 -0.1202498227 0.7018381357 0.4201134145 -0.3123774529 0.5050407052
0.08212460577 -0.123987332 0.6945918202 0.5599057674 -0.3552385271 0.5678967237
0.08257439733 -0.1299617141 0.7189664841 -0.3121564984 -0.3359546959 0.4952277839
0.08480513096 -0.1180656105 0.7076701522 0.2897568941 -0.2834294736 0.4606166482
0.08633383363 -0.1116021574 0.7053046227 0.5018684268 -0.245681107 0.4236482978
0.08653785288 -0.1081303582 0.696683526 0.8397485018 -0.2433522344 0.4391849935
0.0876185447 -0.1060321629 0.7028768063 0.696519196 -0.2141011953 0.3936645389
0.0839214325 -0.1230090111 0.712879777 0.02392829396 -0.3039976358 0.4725171328
0.07381939143 -0.1316467226 0.7243338227 -0.7400919795 -0.3497850895 0.5682103634
0.0485977456 -0.119434841 0.7045947909 -0.3819647729 -0.6124356985 0.6842687726
0.000838697888 -0.1131518111 0.7041568756 0.3402873576 -0.5815759301 0.7338192463
-0.0004474856833 -0.1227482483 0.6988592148 0.3607992232 -0.5829091668 0.7270417213
0.01264693122 -0.1244405881 0.6921811104 0.1396375895 -0.6292568445 0.7614996433
0.006439195946 -0.1302716583 0.6899942756 0.2659862041 -0.6162879467 0.736004889
0.0200086385 -0.1234387159 0.6930100322 0.01520023122 -0.627472043 0.7731356025
0.01666411012 -0.1274986118 0.6882598996 0.07469137758 -0.6541961432 0.7507147789
0.01105669606 -0.1189510748 0.6970553398 0.1616222411 -0.6167285442 0.7676076293
0.005630871747 -0.1217028573 0.6959064007 0.2472928762 -0.6089763045 0.7532376051
0.07630946487 -0.1283869594 0.6893213391 0.3446928561 -0.1071687937 0.7911354303
0.07311911881 -0.1342562884 0.6921734214 -0.1684883833 0.01608739048 0.7291837335
0.07230751961 -0.1390066445 0.6969305277 -0.6755408645 0.03224870935 0.4906523526
0.06754428893 -0.1439992934 0.693536222 -0.3781640232 0.1135102436 0.8328128457
0.06208156422 -0.1503429562 0.6926275492 -0.6157348156 -0.04038932547 0.7609956264
0.01453105733 -0.1019939706 0.7104281783 0.1160216182 -0.6075708866 0.785464406
0.02296143956 -0.1002709866 0.7111865282 -0.02149544656 -0.6121621132 0.7880612016
0.02433860675 -0.09531186521 0.7150679231 -0.03641504422 -0.618950367 0.7834352851
0.01747281477 -0.0966296494 0.7139900923 0.05732876062 -0.617792964 0.7817679644
0.04946146905 -0.1099277139 0.7125757337 -0.4514136612 -0.5176722407 0.7177026868
0.05205057561 -0.1168042123 0.7091914415 -0.4474490583 -0.6200867891 0.6340004802
0.07241484523 -0.1016525179 0.6953855157 0.5811972022 -0.4500494897 0.5780371428
0.07213696092 -0.1073309109 0.6900734901 0.5787265897 -0.4300825894 0.631975472
0.06058812886 -0.1045204103 0.7000876665 0.2204318494 -0.500169158 0.638461709
0.06719160825 -0.1052488536 0.6952106953 0.4243599772 -0.4634052813 0.626529634
0.05145024508 -0.1075423732 0.7029417753 -0.05744983256 -0.5358562469 0.6926937103
0.04743510485 -0.1065649018 0.7069575787 -0.2049279958 -0.5570915341 0.7049136758
-0.03311496601 -0.1449832469 0.716152072 0.7890536189 -0.3957484961 0.4697817564
-0.03501505405 -0.1410164088 0.7233527899 0.8031206727 -0.3868157864 0.4530735612
-0.03819579631 -0.1621756256 0.7264469862 0.1678269506 -0.1299639493 0.3834129572
-0.03970455751 -0.1729697585 0.726788342 -0.2230157852 -0.09392531961 0.3841701746
-0.03788616136 -0.1577020586 0.7196622491 0.5844094157 -0.1983966231 0.4229632914
-0.03630076349 -0.1537383199 0.7149851322 0.8363236189 -0.2208795249 0.4559110105
-0.03871930018 -0.1774217784 0.7354694009 -0.775136292 0.01610743441 0.338930279
-0.03864918649 -0.1468969285 0.7248671651 0.8575510383 -0.3035851419 0.4061586857
-0.03785240278 -0.15578565 0.7270411253 0.3429455161 -0.2287984341 0.4041305184
-0.01606264152 -0.1420728415 0.6935993433 0.6048390865 -0.4750045538 0.6380712986
-0.01904579997 -0.1398191303 0.6997381449 0.6433250904 -0.4570870399 0.6087607741
-0.01154542435 -0.131867379 0.6988762021 0.5364992619 -0.5139929056 0.6584019661
-0.005692766979 -0.131338492 0.6944631934 0.4425825179 -0.5479362607 0.7073892355
-0.009071884677 -0.1363378912 0.6918450594 0.5137534142 -0.5104988813 0.6838175654
-0.004418808967 -0.1384070814 0.6868718266 0.4362859428 -0.5347464681 0.7222372293
-0.02864016406 -0.1297076941 0.7193347216 0.7774737477 -0.4098899066 0.4750387371
-0.028852107 -0.1354438961 0.7160381675 0.7828378677 -0.4000561833 0.4758880138
-0.03186160699 -0.1335124373 0.7238756418 0.7993466258 -0.3928702176 0.4541648328
-0.03192229941 -0.1155194491 0.741471529 0.7964590788 -0.3916550577 0.4604924619
-0.03642411903 -0.1111992896 0.7511527538 0.7922868729 -0.3972471654 0.4630439281
-0.03314945847 -0.1101492941 0.7456618547 0.7840714455 -0.4056661129 0.4693076611
-0.02934643254 -0.1114052683 0.7377051711 0.7816671133 -0.4069049358 0.4725548923
-0.03529866785 -0.105277814 0.7532013655 0.7722885013 -0.4207752943 0.4758214951
0.02993353643 -0.09292111546 0.7169718742 -0.1152525693 -0.6237342358 0.7698790431
0.05549873784 -0.08787321299 0.7188234329 -0.4103478491 -0.7013371587 0.03957738727
0.04886990786 -0.08739756048 0.7230445743 -0.3355345726 -0.6831205487 0.3825279176
0.04258247092 -0.08936046809 0.7247490883 -0.2667411268 -0.6408993006 0.7178675532
0.06007805467 -0.09072993696 0.7164554 -0.4659069479 -0.698053062 -0.06235600635
0.04855848476 -0.09158973396 0.7182387114 -0.3497781754 -0.649230361 0.3667111099
0.04009415209 -0.0921138227 0.7195866108 -0.2637646198 -0.6144844294 0.6778206825
0.02621304244 -0.08960630745 0.7207816839 -0.05839376152 -0.6333220005 0.7565373778
0.03207928315 -0.08864539862 0.7214767337 -0.1515876055 -0.6294116378 0.7570751905
-0.02585830539 -0.1240232438 0.7200188637 0.750788331 -0.4225497544 0.5041430593
-0.02140245959 -0.113994889 0.7228038311 0.7122315764 -0.4551506639 0.5325692296
-0.01666650176 -0.1149847209 0.7179444432 0.6154471636 -0.4828374386 0.6163681149
-0.01829696447 -0.1198668331 0.7143253088 0.6471652985 -0.4633701742 0.6027935743
0.02236948535 -0.1059618592 0.7066341043 -0.01647815481 -0.620042026 0.7819010019
0.04391312227 -0.1245459318 0.697412312 -0.2939480841 -0.6165843606 0.7292372584
0.05663770437 -0.1249943227 0.6917110682 0.1072958186 -0.4298225045 0.788931489
0.06809559464 -0.1134691909 0.6894665956 0.4547841251 -0.4306541681 0.6782232523
0.05934696272 -0.1174125448 0.6920993328 0.174213931 -0.510553062 0.6885558367
0.06815894693 -0.1209404692 0.6880283952 0.4803608656 -0.3057110906 0.7927291989
0.03176616505 -0.1295824647 0.6881774664 -0.1796129942 -0.6364408731 0.7487672567
0.03808560967 -0.1280471683 0.6911882758 -0.1963660866 -0.6117706299 0.7480596304
0.04957874864 -0.1259088665 0.6941395998 -0.1208009124 -0.5305607319 0.7629521489
0.04142306745 -0.1322559416 0.6854416728 -0.05919203535 -0.5646297932 0.7534776926
0.04769149795 -0.1320913136 0.6856414676 0.01229489408 -0.4974516332 0.7740669847
0.03815439343 -0.1197422519 0.6971057653 -0.1899578422 -0.6017130017 0.7532935739
0.05509480089 -0.1133591533 0.6928117871 0.2286829352 -0.5106978416 0.6953691244
0.05267093331 -0.119788669 0.69386518 0.002959016478 -0.5525662899 0.706664145
0.04271061346 -0.1181293279 0.7022254467 -0.3215736747 -0.588968277 0.7370987535
0.05407987535 -0.1275016963 0.7014837861 -0.3684120476 -0.6731265783 0.6353234649
0.002479376271 -0.1077265218 0.7090536356 0.3163532615 -0.5814624429 0.7438092828
0.01387219504 -0.1079865396 0.7052955031 0.1183355376 -0.6153109074 0.7771546245
0.01241581701 -0.113044709 0.7016511559 0.1623153239 -0.6138556004 0.7705651522
0.005865858868 -0.1159497574 0.7003518939 0.2415374964 -0.605619669 0.7580458522
0.007422192954 -0.1101889163 0.7049159408 0.2337033302 -0.6010246277 0.7624912262
0.01781174727 -0.1145901084 0.6998921633 0.06152898446 -0.6223524809 0.7751539946
-0.03502160311 -0.1522268653 0.7458804846 0.1778897643 -0.3351190388 0.4566603899
-0.03180175647 -0.1614000052 0.7553821206 -0.1211239696 -0.3858926296 0.50159657
-0.02939820848 -0.1773458421 0.766285181 -0.6868559718 -0.3796272278 0.5426844954
-0.03440090269 -0.1705500335 0.7546452284 -0.5029947758 -0.2645427883 0.4790495336
-0.03573520482 -0.1436457336 0.7460348606 0.4643106461 -0.3816873133 0.4549315572
-0.03860699758 -0.1474681199 0.7423765659 0.4090870619 -0.2910754681 0.4198343456
-0.03977196664 -0.1382550448 0.7363624573 0.8474174142 -0.3124885261 0.3947218657
-0.03866257519 -0.1540880799 0.7414239049 0.2777034938 -0.2492605299 0.411380142
-0.03946120664 -0.1445171833 0.7376079559 0.6484155655 -0.2836909592 0.3975102305
-0.03770179674 -0.1595051587 0.746589601 -0.03674324602 -0.2448359132 0.434332937
-0.03497191519 -0.1304421425 0.7352292538 0.814255774 -0.3838716745 0.4352339506
-0.03392707184 -0.1333093345 0.7289963365 0.8079318404 -0.3859029114 0.4451397955
-0.03650040925 -0.1271761656 0.7397316694 0.8171041608 -0.3782707751 0.4348165393
-0.04002685472 -0.1789615899 0.7291083932 -0.5544778705 -0.0703804791 0.3724564612
-0.03339670971 -0.1583641917 0.7120813131 0.5115925074 -0.3117798269 0.4826423824
-0.04093236104 -0.1835450828 0.7326863408 -0.8259492517 -0.02976902388 0.3505575359
-0.03416607529 -0.1634018123 0.7171781063 0.1619805545 -0.2490258813 0.4526836276
-0.03606128693 -0.1686125398 0.720277071 -0.0557015352 -0.2070290148 0.4309645593
-0.02958673239 -0.1524140686 0.7053347826 0.7484503388 -0.4000305235 0.528511107
-0.02809162252 -0.1446986794 0.7088904977 0.7598238587 -0.4028514326 0.5093342662
-0.0376692526 -0.1549915522 0.7345272303 0.1981412619 -0.2516554594 0.4134618938
-0.03717369586 -0.1633427143 0.7406873107 -0.1684901267 -0.2127549201 0.4242937863
-0.03641837463 -0.1728147864 0.7491981983 -0.5757787228 -0.1881812215 0.448112309
-0.036700923 -0.1788247228 0.7489647269 -0.8622374535 -0.09865249693 0.4194871187
-0.03775524348 -0.1748286635 0.7420441508 -0.6854792833 -0.0552219674 0.376924783
-0.0391327329 -0.1650020182 0.7347988486 -0.1941574812 -0.07292553037 0.3456535041
-0.0382992439 -0.171019122 0.7354738712 -0.5317467451 -0.03393926844 0.3481605649
-0.04009152576 -0.1504133791 0.730265677 0.6399124265 -0.2064190805 0.3576065898
-0.03626392037 -0.1654617488 0.7479991913 -0.2850053012 -0.249171719 0.4573373497
-0.0392459482 -0.1420134157 0.7306701541 0.8771585822 -0.2824608088 0.3807172179
0.03457771987 -0.1106560305 0.7045423388 -0.2188302428 -0.5896254778 0.7771808505
0.04496578127 -0.1125789732 0.707680285 -0.3864768147 -0.5618696213 0.7283411026
0.03785671666 -0.104133077 0.7100126147 -0.2718370855 -0.589874506 0.7578767538
0.02940873988 -0.1046889201 0.7083538175 -0.1303644627 -0.600764215 0.7848038673
