# .PCD v0.7 - Point Cloud Data file format
VERSION 0.7
FIELDS x y z normal_x normal_y normal_z
SIZE 4 4 4 4 4 4
TYPE F F F F F F
COUNT 1 1 1 1 1 1
WIDTH 512
HEIGHT 1
VIEWPOINT 0 0 0 1 0 0 0
POINTS 512
DATA ascii
-0.03247716278 -0.1597482115 0.7232170105 -0.6427194476 -0.4692016244 0.60127455
0.06329848617 -0.1800971329 0.6856530309 0.8066780567 -0.3971726 0.4376319349
0.08030947298 -0.0905880183 0.6528440714 0.4611178637 -0.6442252398 0.6061846018
0.08531615883 -0.09417437017 0.6532168984 0.6447920203 -0.5273656249 0.5526873469
-0.0340782702 -0.1953741163 0.7006016374 -0.6614069343 -0.374004811 0.6367729902
-0.02679748647 -0.2009087801 0.7057728767 -0.5592018366 -0.4321607649 0.7008571029
0.09112405032 -0.09652502835 0.6553063989 0.7155991793 -0.4637087286 0.5211932063
0.08405797184 -0.09272515029 0.6664218307 0.7192729115 -0.3073016107 0.6109284163
0.01546886005 -0.1651452184 0.7402182817 0.08807958663 -0.5938004851 0.7935576439
-0.0365043655 -0.09869813174 0.6741669178 0.7160269618 -0.5016298294 0.4848253131
-0.03268283233 -0.09382609278 0.6718515754 0.6660019755 -0.5305300951 0.5232365131
-0.01983771473 -0.1198236197 0.636200428 0.4418695271 -0.5804858804 0.6725953817
-0.02655179985 -0.1205822229 0.6405103803 0.5584780574 -0.5348352194 0.6264921427
-0.02487461269 -0.1231962591 0.6354846358 0.5345134735 -0.5464754105 0.6439818144
0.04835594445 -0.1034735218 0.6493451595 -0.2831805348 -0.5531949997 0.683024466
0.0729527697 -0.09764796495 0.648420155 0.3078581691 -0.5958144665 0.6720916033
0.0665974319 -0.09921343625 0.6486395597 0.1539437175 -0.5845708847 0.6746205091
-0.04086694121 -0.1017886847 0.6789043546 0.7552877665 -0.4626993239 0.463360399
-0.0427451767 -0.09454013407 0.6910606027 0.7189967036 -0.4985722303 0.4827979207
-0.05175291374 -0.1524056792 0.6797376871 -0.2730913758 -0.2199361622 0.3844425082
-0.05082465708 -0.1334090382 0.66455549 0.7387250066 -0.4429305196 0.4585877359
-0.05180468783 -0.1583077163 0.6811335683 -0.5148081183 -0.1696438491 0.3732470572
-0.05147344247 -0.1423410922 0.6746740341 0.1977946013 -0.3210411072 0.4131005704
-0.02776598185 -0.1601405293 0.728888154 -0.5896695256 -0.5009099841 0.6329943538
-0.04954857752 -0.1783840507 0.6880295277 -0.7725920677 -0.3419687748 0.5346918106
-0.05119975656 -0.1738026887 0.6850165725 -0.7748724818 -0.3393422067 0.5332878232
-0.0102830315 -0.1095892936 0.6400558949 0.319563061 -0.6268082857 0.7014608383
-0.01534433104 -0.1146429032 0.637871325 0.3836559057 -0.6135129333 0.6886097789
0.04507572949 -0.1382996142 0.6282368302 -0.5319120288 -0.5052662492 0.6770729423
-0.04661841691 -0.1859309524 0.6908402443 -0.7605004311 -0.3364960551 0.5550090671
-0.04933842272 -0.1751735955 0.6925766468 -0.7836513519 -0.3285665512 0.5264437199
0.03624357283 -0.16975528 0.7299706936 0.4515108764 -0.5714078546 0.6829462647
0.03018010594 -0.1736266464 0.7298051119 0.3745059669 -0.5923608541 0.708343029
0.007094325963 -0.2077186704 0.7121753693 0.008409149945 -0.6001498103 0.7804710269
-0.0009246833506 -0.204518348 0.7132897973 -0.1231985092 -0.5917928219 0.7837415934
-0.02898849733 -0.1952353418 0.7045162916 -0.6239446998 -0.415843904 0.6563521028
-0.05141725391 -0.1669260561 0.6892570853 -0.8653254509 -0.1843229532 0.4169682562
-0.05088100582 -0.1532635838 0.6865525246 -0.2486774623 -0.3599589765 0.4824019074
-0.04462279379 -0.1129805371 0.6747377515 0.7776467204 -0.4536379874 0.4351284504
-0.0388946794 -0.1036398858 0.6720606685 0.7399543524 -0.4770406783 0.4738377333
-0.0423703976 -0.1081049293 0.6755273342 0.7642529011 -0.4615855515 0.4494050145
-0.03788009658 -0.1588423401 0.7188113928 -0.711386621 -0.4250951409 0.5557714105
-0.04672618583 -0.1588288397 0.6996548176 -0.5767408609 -0.3713937104 0.5076560974
-0.04226110503 -0.1592280865 0.7110948563 -0.7206331491 -0.393784076 0.5198729038
-0.04967650026 -0.1449905783 0.6859269738 0.03859444335 -0.3967574537 0.473880738
-0.04871654138 -0.1374632716 0.6849266887 0.2994416654 -0.4240936637 0.4620918334
-0.04970507324 -0.1617956758 0.6934919357 -0.6046588421 -0.3468909562 0.5056276917
-0.04574543238 -0.1460251361 0.6963092089 -0.1142680123 -0.4144492149 0.4859297872
-0.0473639667 -0.1529456377 0.6953731179 -0.3328923285 -0.3854314983 0.4948793054
0.0527500622 -0.1446891725 0.6267947555 -0.4953461289 -0.4831897318 0.721057415
0.05536343157 -0.1331847012 0.6353325844 -0.2312357426 -0.5191872716 0.7443441153
-0.01085456368 -0.0934382081 0.6537278891 0.3365046978 -0.6184266806 0.7064810991
-0.04214583337 -0.09513171762 0.6852722764 0.720887959 -0.4950639307 0.4845817089
-0.04040902108 -0.0832676366 0.6893367171 0.686799109 -0.5152060986 0.5122888088
-0.04360646009 -0.0850629136 0.69991225 0.6822684407 -0.5250566006 0.5086952448
-0.03628858179 -0.0759300366 0.6931361556 0.6451081038 -0.5531616211 0.5268195868
-0.03943367302 -0.08017422259 0.696585834 0.660277009 -0.5425715446 0.5184810162
-0.03431895748 -0.08084278554 0.6871916056 0.6569842696 -0.5408553481 0.5247491002
-0.04027020559 -0.08866025507 0.6914489865 0.691023767 -0.5181118846 0.5035291314
-0.03755348548 -0.08938831091 0.6853924394 0.6843549013 -0.5240975022 0.506282866
-0.03516560048 -0.09295199811 0.6773406267 0.6910874844 -0.5213487744 0.5002424121
0.01896253042 -0.1598464847 0.7449629903 0.1303029805 -0.585783124 0.7970992923
-0.0296808295 -0.09501773864 0.6665144563 0.6278030872 -0.5552271605 0.5442020297
-0.02258195169 -0.09297730029 0.662881732 0.525662303 -0.5876426697 0.6063168049
-0.0386091657 -0.1630484313 0.7153388858 -0.7225548625 -0.4209133685 0.5439053178
-0.03990234807 -0.1697977185 0.7065854669 -0.7673697472 -0.3683157861 0.5245687366
-0.04289412126 -0.1694708914 0.7009044886 -0.789082706 -0.3277829289 0.5193859339
-0.04341249913 -0.1527706236 0.7047932744 -0.4315911531 -0.4037941098 0.5036306381
-0.05102802068 -0.1284038424 0.6749202609 0.7143300176 -0.4382950068 0.4388652444
-0.04694295675 -0.1410881281 0.6910043955 0.1101908684 -0.4224619269 0.4734126031
-0.04291727766 -0.1622990221 0.7055056095 -0.7229725718 -0.3465804756 0.5118231177
-0.04697627947 -0.1495910138 0.6902760863 -0.1355785131 -0.3692627251 0.4795828164
-0.04714258015 -0.1656332761 0.7005557418 -0.7797780633 -0.3532580733 0.5153642297
-0.04263697565 -0.1123882979 0.6684830189 0.762968719 -0.4575272501 0.4558840692
-0.04207327962 -0.1173217818 0.6614988446 0.7498859167 -0.4596001208 0.4757935405
-0.03922516853 -0.1200791001 0.6560408473 0.7414155602 -0.4617677331 0.48674196
-0.02733365633 -0.116255112 0.6446039081 0.5604958534 -0.5473169684 0.6190773249
-0.03186118975 -0.1196991503 0.6470459104 0.6355082989 -0.5080599785 0.5697316527
-0.03839976341 -0.1234498248 0.6514984369 0.719440341 -0.4633497298 0.5148114562
-0.03191858903 -0.1247379035 0.6413826942 0.626545608 -0.4944033623 0.6014261246
-0.03320324793 -0.114975065 0.6521162391 0.6548703909 -0.5115744472 0.5515773296
-0.02919250727 -0.1116230562 0.6497035623 0.586384654 -0.5403912067 0.6031669974
-0.02360018529 -0.1617166549 0.7325948477 -0.5398975015 -0.5190395713 0.6597564816
-0.0032337429 -0.1566037983 0.7477611899 -0.1790229082 -0.5727427602 0.792671442
0.00118320121 -0.1630400866 0.7429476976 -0.1176512241 -0.5736151338 0.807991147
-0.003512593452 -0.1674458236 0.7397291064 -0.1668733358 -0.582046628 0.7950193286
-0.02416185476 -0.1302060932 0.6305312514 0.5069186091 -0.5430888534 0.6620929837
-0.02827977575 -0.1307104379 0.6338814497 0.5744110942 -0.5153186917 0.6265550256
-0.01859611459 -0.1277619451 0.6277846098 0.420648247 -0.5694501996 0.7036952376
0.08035678416 -0.09626621753 0.6493356824 0.4586533904 -0.6070768833 0.6479808688
0.01869208366 -0.2068932801 0.7106146812 0.2319324613 -0.5861520171 0.7670146227
0.01563581638 -0.2008633018 0.7141479254 0.1672190279 -0.587202549 0.7907647491
-0.0393447578 -0.1082787141 0.6643563509 0.7390782833 -0.4699975252 0.4815990329
-0.03489251807 -0.1034021005 0.6636975408 0.6765279174 -0.5146303177 0.5264307261
-0.03450175747 -0.1003360152 0.6682542562 0.6849774718 -0.5181741714 0.5087749362
0.05950590223 -0.1380495876 0.6327102184 -0.1991693377 -0.5065130591 0.753113091
0.06266117841 -0.1332666427 0.6363778114 -0.02570402995 -0.5227410793 0.7655062079
0.06896860152 -0.1353294104 0.640597105 0.1205246076 -0.5896624327 0.7394990921
0.07178232074 -0.1282932013 0.639906168 0.2871975005 -0.5215879679 0.7365231514
0.06506042182 -0.1396886408 0.6359384656 -0.1076470017 -0.5311344862 0.7411940098
0.0611179471 -0.1448594332 0.6332068443 -0.3071392179 -0.5279506445 0.7416226864
0.008011049591 -0.168573156 0.7385194898 -0.007610225584 -0.5841563344 0.8039534688
0.008170341142 -0.1641125381 0.742162466 -0.01745476201 -0.5805305839 0.8078835607
-0.01234974619 -0.1562915593 0.7489943504 -0.2688953876 -0.5723854899 0.7688294053
0.003414216917 -0.1584428549 0.7476903796 -0.0914876163 -0.5700571537 0.8127611876
0.01255791355 -0.1574280262 0.7478407025 0.008936203085 -0.5751140714 0.8169110417
0.01175318658 -0.07410857826 0.6646277308 0.02000739425 -0.6492854953 0.7574898601
-0.007053373847 -0.1046723947 0.6415268183 0.2641757727 -0.6360029578 0.721057415
-0.01507706754 -0.1021732613 0.6494633555 0.3892913163 -0.6056297421 0.6888972521
-0.01082220487 -0.09815660119 0.6488621831 0.3356069326 -0.6178818345 0.7095470428
0.006181468721 -0.1057342067 0.6390299797 0.05114051327 -0.64405936 0.7611442804
-0.0003106859222 -0.106617339 0.6384973526 0.1571392417 -0.6454371214 0.7448969483
-0.00329197431 -0.09934651107 0.6453638673 0.2078157514 -0.6403121352 0.7382279634
-0.008075901307 -0.06986371428 0.6734501719 0.3200024664 -0.6685373187 0.668858707
-0.01146739163 -0.06811151654 0.6780204773 0.3908904791 -0.6616171598 0.6287477016
-0.003353549866 -0.06568931788 0.6747598648 0.2592742145 -0.6853060722 0.6783084869
-0.002967208624 -0.07198826224 0.6697449684 0.2369492054 -0.6659016013 0.7029681802
0.002576967934 -0.06707752496 0.6721375585 0.1533197463 -0.6858978271 0.708201766
0.03049186431 -0.08168621361 0.662909627 -0.2932568789 -0.6002563238 0.7426670194
0.06262375414 -0.09396921843 0.6835359335 -0.3384887576 -0.2379015833 0.9067591429
0.06113444269 -0.0882550925 0.6831993461 -0.3088283241 -0.199264273 0.9278410673
0.07508904487 -0.09748852253 0.6788875461 0.1672089398 -0.269718498 0.8003953695
0.07366312295 -0.1025066227 0.6800197363 -0.02101740241 -0.3109280169 0.8186264038
0.0682618618 -0.09393093735 0.6825295687 -0.207653746 -0.2550833821 0.9105183482
0.05875548348 -0.09592965245 0.67717731 -0.4457490742 -0.304368645 0.8377748132
0.06378281862 -0.09968294203 0.6827588081 -0.3774173856 -0.2853006721 0.8777920008
0.02449935861 -0.1673236489 0.7366933823 0.2318495363 -0.595208168 0.7594799399
0.008345710114 -0.0651063621 0.6727869511 0.07047855109 -0.6869956255 0.7198722959
0.008941023611 -0.06882958859 0.6684864163 0.06090211868 -0.6701494455 0.7382795811
0.0678069666 -0.08907284588 0.6787521243 0.09518192708 -0.1933271885 0.8184500933
0.07362270355 -0.09038574249 0.6743624806 0.6025564075 -0.02993400395 0.7290942669
0.04750674963 -0.09703324735 0.6624491215 -0.5770569444 -0.4691920578 0.6669658422
0.05384357646 -0.1000671983 0.6679341197 -0.6090856791 -0.3855159879 0.6885525584
0.0544812195 -0.09551036358 0.6715565324 -0.5168568492 -0.3538473547 0.772903204
-0.02655280568 -0.176911518 0.7194974422 -0.6048207879 -0.4644337595 0.6432439685
-0.02945494652 -0.1658930182 0.7246201634 -0.6209611893 -0.4762876034 0.6217580438
-0.02632594854 -0.1714624614 0.7226855755 -0.6039113402 -0.4757754207 0.6373913884
-0.03400468081 -0.1680227816 0.7179399133 -0.6846055984 -0.4385148287 0.5803200006
-0.04298775643 -0.1237286478 0.6593068838 0.7536339164 -0.4563752115 0.4728500843
-0.04807072878 -0.1319573522 0.6595003605 0.7514030337 -0.4532921314 0.4791749716
-0.04750062153 -0.135309577 0.6544649005 0.7427973747 -0.4558497369 0.490356952
-0.0370570682 -0.1688349545 0.7124776244 -0.7339709401 -0.406021744 0.543671608
-0.01630099863 -0.1063628271 0.645211339 0.3875854313 -0.6125391126 0.6861528158
-0.01749086939 -0.1116576642 0.6420958638 0.4383738637 -0.6022820473 0.6668560505
-0.02350270562 -0.1118130684 0.6448474526 0.5056587458 -0.5759554505 0.6422034502
-0.04307441413 -0.1335106343 0.6496438384 0.7329346538 -0.430976212 0.5253925323
-0.0421795398 -0.1280389577 0.653673768 0.7423462868 -0.4498191476 0.4954915345
-0.03654480353 -0.125889957 0.6464955807 0.67792207 -0.4644938111 0.5675415993
0.04040671885 -0.1010071412 0.6520180106 -0.4317800403 -0.5468884706 0.6994771361
0.04993436486 -0.09779523313 0.6549916267 -0.3234377801 -0.5379448533 0.6733423471
0.05565538257 -0.09962528944 0.6497777104 -0.06632191688 -0.5738176703 0.6900348663
0.04651619121 -0.1034025624 0.6570111513 -0.5838446617 -0.473285079 0.6589776278
0.07402331382 -0.09314578027 0.6518919468 0.2947261333 -0.6256825328 0.6371008158
0.06356199831 -0.09620396048 0.6526252031 0.02625520527 -0.5759830475 0.6618155241
-0.03381400928 -0.1106091589 0.6565935016 0.6658650041 -0.5155760646 0.5370736122
-0.02053091861 -0.1584326625 0.74036026 -0.4631072283 -0.5554813743 0.6886595488
-0.01607208885 -0.1564647704 0.7441965938 -0.3604685962 -0.5647767782 0.7377159595
-0.005728984717 -0.1627202481 0.7426894903 -0.1956917048 -0.5823838711 0.786108315
0.05746139586 -0.175782755 0.6938400269 0.7827273607 -0.4142161608 0.4632387459
0.05403847247 -0.1801527292 0.6972922087 0.7623910904 -0.4229329526 0.488356173
0.007631540764 -0.1126299202 0.6328200698 0.004043188877 -0.6398190856 0.764230907
0.01137538999 -0.1087272838 0.6362988949 -0.05361248553 -0.6409271955 0.7615584135
0.001314578694 -0.1131197661 0.6325292587 0.1170063466 -0.6334167719 0.7594045997
-0.005944215693 -0.1150097996 0.6339113116 0.2203058302 -0.6268051863 0.7327089906
0.007731706835 -0.1268013269 0.6204531193 -0.02487418614 -0.6392797232 0.7449439168
0.0008059288375 -0.1259735227 0.6216433048 0.08083853126 -0.6223182082 0.760042727
0.01459024753 -0.1293219626 0.6162885427 -0.1306015551 -0.6565034389 0.7246836424
-0.01248290483 -0.1274747252 0.6260931492 0.3223965764 -0.5842278004 0.7299641371
0.01982953399 -0.1304389685 0.6150633693 -0.2271615863 -0.6668482423 0.7089855671
0.02749654651 -0.1288248152 0.6253198981 -0.3572397232 -0.6205697656 0.6735663414
0.01591278799 -0.113172181 0.6329981685 -0.1469070315 -0.6512644887 0.7440500855
0.06476190686 -0.179315716 0.6791491508 0.8061725497 -0.3982849419 0.4375556707
0.06275056303 -0.1854447275 0.6824501753 0.8046189547 -0.3997587264 0.4390009344
0.08267717063 -0.1114302948 0.6589761376 0.3464483917 -0.4458332658 0.6647651196
0.07867239416 -0.1177614182 0.6576001644 0.1940787882 -0.4591825306 0.7524365187
0.0769418031 -0.1105393767 0.6720587015 -0.0207517948 -0.4110206366 0.7522770762
0.08125729114 -0.118050687 0.6518736482 0.3578944504 -0.4742644131 0.7125664353
0.07396519929 -0.1112529784 0.6770706773 -0.1937307715 -0.3993221521 0.8021879196
0.08707150072 -0.1077417582 0.6555602551 0.5623908639 -0.4488326907 0.5810148716
0.07697556168 -0.1154827774 0.6645168066 0.05529241636 -0.4379698336 0.7706286311
0.08095102757 -0.1098520607 0.6648939252 0.2163330317 -0.4282606542 0.6860978007
0.08809538931 -0.1023926958 0.6596562266 0.6333243251 -0.4142643213 0.5482916832
0.08209418505 -0.1043499261 0.6680598855 0.3348365128 -0.3881846368 0.6528084278
0.08015947044 -0.09786952287 0.6733085513 0.5125957131 -0.2938085794 0.6764213443
0.08447095752 -0.09989500791 0.6660456657 0.5948262811 -0.3540295064 0.606197834
0.07786425948 -0.1049874201 0.6742481589 0.1530381143 -0.3608320653 0.7254245877
0.06934289634 -0.09956360608 0.683550179 -0.2754493356 -0.2740437686 0.9182872772
0.06991861761 -0.1075647101 0.6827324033 -0.3410794735 -0.3463988602 0.8703305125
0.0397497192 -0.1737355888 0.7244636416 0.5061208606 -0.5591678023 0.6538295746
0.04273194075 -0.1675287485 0.7267392874 0.5231244564 -0.5406566262 0.6576673388
0.05454185233 -0.1335898191 0.6423392296 -0.411056608 -0.5482906103 0.7259145975
0.05106426403 -0.142904982 0.6319859028 -0.461423099 -0.4936756492 0.7286028266
0.05693946779 -0.1492219418 0.6322136521 -0.4079505503 -0.4513526857 0.791852355
0.05200497061 -0.1389932632 0.637396574 -0.4464290142 -0.5506643653 0.7003439069
0.04559539631 -0.1337000877 0.6330296397 -0.5242773294 -0.505710423 0.6840274334
0.06657198817 -0.1250545681 0.6425360441 0.2201592028 -0.5502440929 0.8011105061
0.07247743011 -0.1210249811 0.6420295835 0.3292322159 -0.5004299879 0.7926350236
0.01002204884 -0.08485290408 0.6558721662 0.01428907737 -0.6232095361 0.7775197625
-0.002721707337 -0.08607975394 0.6566897035 0.2314350158 -0.6347819567 0.7347199321
0.008773942478 -0.07893691957 0.6595771909 0.05029082298 -0.6417503357 0.7646267414
0.004481866024 -0.08835183084 0.6528760791 0.09634583443 -0.6353975534 0.7638231516
-0.003020026954 -0.09053263813 0.6528763771 0.2159536183 -0.6286985278 0.7433103323
0.01857951656 -0.08020498604 0.6617096066 -0.1305865645 -0.6242828965 0.766261518
0.02289715782 -0.08605924994 0.6573554873 -0.1902299672 -0.6010514498 0.7749828696
0.01644923352 -0.08522502333 0.6561248302 -0.09185849875 -0.6134735346 0.7826443315
0.02466538548 -0.07640434802 0.664576292 -0.2263591439 -0.6167786717 0.7535578609
0.02480313927 -0.08159064502 0.6611255407 -0.2241562605 -0.6065837741 0.7624776363
0.002995588351 -0.1017027572 0.6429021358 0.1145458594 -0.638415575 0.7588424087
0.001671990263 -0.09425611794 0.6488892436 0.1261645705 -0.6346374154 0.7569281459
-0.004734963179 -0.09497753531 0.6495014429 0.2348654717 -0.6344020367 0.7355182171
0.01434624568 -0.09715542942 0.6461840272 -0.08456926793 -0.6242055893 0.7755734324
0.01127547119 -0.1008907035 0.6431635618 -0.03788511083 -0.6309466362 0.7702419162
-0.02062053606 -0.0836866349 0.669988215 0.5081719756 -0.5999279022 0.611528933
-0.02494044416 -0.0876409933 0.6705381274 0.574947834 -0.5760366917 0.5721539259
-0.02842820063 -0.08529529721 0.6756578088 0.6098797917 -0.5481836796 0.5648665428
-0.01177357696 -0.08792539686 0.6590151191 0.3560816646 -0.6287174821 0.6900631189
-0.009149348363 -0.08259368688 0.6627249122 0.3267503083 -0.635962069 0.6978448629
-0.0149015924 -0.08356910199 0.6654859781 0.418825537 -0.6223515868 0.6583409309
0.05430826172 -0.08661733568 0.6763610244 -0.4306614399 -0.3930503726 0.8078714013
0.05733491853 -0.1053410023 0.6680445671 -0.646784544 -0.3908129036 0.6455672979
0.02423167974 -0.163070783 0.7416217327 0.2031906992 -0.5941293836 0.7779647112
0.03149370104 -0.1636117101 0.7401886582 0.331736207 -0.5817547441 0.7416700721
0.03053231724 -0.1695678532 0.7356266379 0.3411057293 -0.5920819044 0.728341341
0.06317317486 -0.08434012532 0.6777046323 0.0569861345 -0.05223546177 0.8187897205
0.05703542382 -0.08353886008 0.682225585 -0.3338034153 -0.202714324 0.9132502675
0.0481843017 -0.0773704946 0.676209569 -0.4374009967 -0.5038368106 0.7410906553
-0.04970719293 -0.1276723593 0.6682468653 0.7727863193 -0.4480864704 0.449262321
-0.04569127783 -0.1232192367 0.6641225219 0.7629752755 -0.4515956342 0.4623498321
-0.04772903025 -0.1213430688 0.6711027622 0.7757065296 -0.4501581192 0.4421157539
-0.03402400017 -0.1743602157 0.7119520903 -0.7230930328 -0.4045473337 0.5594809055
-0.04307649285 -0.1756274849 0.697791338 -0.77251333 -0.3412387073 0.5349751115
-0.04249033704 -0.1847475916 0.6978394389 -0.7530890703 -0.338324517 0.5638075471
-0.04486499727 -0.1707917452 0.6949369907 -0.7870733738 -0.330706954 0.5206367373
-0.05072038993 -0.1373526156 0.6699430346 0.4978943467 -0.4265273213 0.4638136923
-0.05078924075 -0.1454219222 0.6794521809 0.07345752418 -0.3892080784 0.4705968201
-0.05117478967 -0.1341112852 0.675725162 0.5067451596 -0.4206137657 0.4488794506
-0.04907974228 -0.159039706 0.6879583001 -0.4691055417 -0.3498818278 0.4977912903
-0.0512351729 -0.1504525542 0.6728050709 -0.05733818933 -0.2733443379 0.4144830406
-0.05103807524 -0.145071581 0.6693841815 0.2104896307 -0.3314986527 0.4320879877
-0.049781885 -0.1640895307 0.684235394 -0.6240233779 -0.3400981724 0.5094794631
-0.04989385977 -0.1410490125 0.663000226 0.5029544234 -0.4350515902 0.4919896424
-0.03669315577 -0.1316292584 0.6414068937 0.676435113 -0.460839361 0.571878314
-0.01666159183 -0.09691693634 0.6544268131 0.4241165817 -0.6036064029 0.6745002866
-0.01669655368 -0.0919572413 0.6578946114 0.4253578186 -0.6103342175 0.6617594361
-0.02332074381 -0.09651078284 0.6575415134 0.5222441554 -0.5846608281 0.620066762
0.04689160362 -0.1934313625 0.6987829208 0.7012169361 -0.4358671606 0.5527576208
0.04833928868 -0.1994143724 0.695789516 0.7065305114 -0.4175141454 0.5642262101
0.04281186685 -0.2021424174 0.6996248364 0.6176069975 -0.4692514837 0.6143127084
0.03937841952 -0.2013178468 0.7048363686 0.547971189 -0.5231742263 0.6506704688
0.03609104827 -0.1940175891 0.7103610635 0.4971334934 -0.521007061 0.6916365623
0.05578872561 -0.1717057228 0.7038540244 0.7417079806 -0.4546944499 0.488809526
-0.03913281858 -0.1799201816 0.6985170245 -0.7700552344 -0.3411414325 0.5381535292
-0.03185279295 -0.1903178096 0.7049614787 -0.6745859385 -0.3915480971 0.6256074905
-0.03539067134 -0.1874650419 0.7010859847 -0.7198346257 -0.3567759991 0.5927661657
-0.03999414667 -0.1913958341 0.6974304318 -0.721590519 -0.3497378826 0.5948417783
-0.02032693662 -0.2028425038 0.7100921869 -0.4651612937 -0.4961629808 0.7327168584
-0.01132258028 -0.1946158409 0.7176098228 -0.3439551592 -0.5320852995 0.77292943
-0.01254735142 -0.2019846588 0.7123970389 -0.3257283866 -0.5577186346 0.7619342208
-0.006943946704 -0.2021279931 0.7138698697 -0.2295760363 -0.5791239738 0.7801288962
0.0008107926697 -0.1201691702 0.6264438629 0.1395727247 -0.6241775751 0.7671015859
0.007981006987 -0.1184334382 0.6275458336 0.02475207299 -0.6640687585 0.741602242
-0.01193993073 -0.1171000823 0.63299793 0.3127825856 -0.6132447124 0.7237971425
-0.01572881825 -0.1220810413 0.6311491132 0.3661577404 -0.6010429263 0.7070668936
-0.005048327148 -0.1222841069 0.6255174279 0.1836992353 -0.6099344492 0.7703741193
0.03314631805 -0.1015021652 0.6488575935 -0.4134756625 -0.5656460524 0.7101017237
0.03525209799 -0.09645638615 0.6529947519 -0.4154307544 -0.5591273308 0.7172600627
0.04509029537 -0.1090941951 0.6514928341 -0.5624239445 -0.5143223405 0.6460625529
0.0374539271 -0.1789534688 0.7212375998 0.5096907616 -0.5572332144 0.6521134377
0.03365686908 -0.1776762605 0.7250344157 0.4333966076 -0.5827744603 0.6863601208
-0.03674705327 -0.1772749126 0.7057543993 -0.7372033596 -0.3640370667 0.5673854947
-0.03277435154 -0.182450071 0.7082058787 -0.7029588819 -0.3804025352 0.6001643538
-0.03055962734 -0.1785678267 0.7126629353 -0.6848144531 -0.4078886807 0.6000498533
-0.02807918005 -0.1876071095 0.7096771598 -0.6505689025 -0.3949485421 0.648024559
0.002239864087 -0.1709872335 0.7374842167 -0.09596996009 -0.5834609866 0.8049066067
-0.003201476997 -0.1742058098 0.7347579002 -0.1801938117 -0.5841815472 0.7893632054
0.02632332034 -0.1785653085 0.7305400968 0.2961509824 -0.6160798669 0.7261581421
-0.003156402381 -0.1805184782 0.7298756838 -0.1995450407 -0.5941189528 0.7756044865
0.001054555178 -0.178223446 0.7324564457 -0.1265966743 -0.5970271826 0.7906768322
-0.00917406939 -0.1746571362 0.7328047752 -0.2934188545 -0.5695739388 0.7617642879
0.06056408957 -0.1679895371 0.7000896335 0.770369947 -0.432094574 0.4669138491
0.05871362984 -0.1017460674 0.6729971766 -0.5906276107 -0.3283627629 0.7296566367
0.06426750869 -0.1053843349 0.6788186431 -0.4747741222 -0.304998517 0.8188233972
0.05602871999 -0.1246292144 0.65227139 -0.3896973133 -0.6275492907 0.6705541611
0.05078430846 -0.12832959 0.6425084472 -0.4763477445 -0.5367342234 0.6902568936
0.05669442937 -0.1313308626 0.6474778056 -0.4022969604 -0.5905308723 0.6923821568
0.05047184601 -0.1224009246 0.6474196315 -0.4815902412 -0.571852982 0.655295074
0.05090361089 -0.1170638725 0.6519270539 -0.4972461462 -0.5742380023 0.6389853358
0.03766075149 -0.1158937588 0.6398848891 -0.4508831501 -0.5468466878 0.6983626485
0.04063165188 -0.1125108525 0.6453693509 -0.5142154098 -0.5290029049 0.6694872975
0.03450610489 -0.1116345152 0.6423687935 -0.4289386868 -0.5613489151 0.6993471384
0.02620083839 -0.1080900207 0.6401804686 -0.2940905094 -0.6052989364 0.7377262115
0.02009693533 -0.1056540161 0.6409647465 -0.1900065243 -0.6153689027 0.7559267879
0.030669678 -0.1052709445 0.6439737678 -0.354719311 -0.5864294767 0.7241540551
0.03808775544 -0.1072379351 0.6470295787 -0.4739153683 -0.5461581349 0.6872708797
0.06387596577 -0.1637972742 0.6792763472 0.5557332635 -0.4401451051 0.5164354444
0.06338194013 -0.1597431749 0.6746727824 0.4283625185 -0.4600624144 0.5538378954
0.06209050864 -0.150991872 0.660130322 0.09301823378 -0.511800468 0.6509256363
0.06264986098 -0.1569310278 0.6635101438 0.2354885638 -0.4890101254 0.6080765724
0.06327548623 -0.1731370389 0.674402833 0.6260985136 -0.4255422354 0.4807087481
0.06189489365 -0.1728399694 0.6803568602 0.6743966937 -0.4194197357 0.4737383425
0.05978116021 -0.1569147259 0.658121109 0.1057704687 -0.5035482049 0.6024769545
0.05851258337 -0.150561735 0.6530430913 -0.07993278652 -0.5316015482 0.6464018822
0.06325893849 -0.172697559 0.6878889203 0.7897025943 -0.4033536911 0.448577404
0.06046834588 -0.1616691798 0.6682088971 0.3201408684 -0.4723215997 0.5550848246
0.06103254482 -0.1669995487 0.6734481454 0.4802280366 -0.4483327866 0.5182492137
0.06272948533 -0.1681068987 0.6831395626 0.6481188536 -0.4245323539 0.4811142087
0.06314336509 -0.1661743075 0.6620450616 0.3399577439 -0.4625617862 0.5654799342
0.06131342798 -0.1497821957 0.6465566158 -0.1251327842 -0.5383108258 0.7055488229
0.06160483137 -0.1562255472 0.645714879 -0.08677963167 -0.5147819519 0.6754883528
0.06217074022 -0.1608567089 0.6508828402 0.06113130227 -0.4926671088 0.6330584288
0.06381376833 -0.1700386256 0.6695671082 0.5302900672 -0.4412156641 0.5184974074
0.06269717216 -0.1645209193 0.6562460065 0.2047234327 -0.4740211368 0.5948910713
0.05846567452 -0.1457526982 0.6388001442 -0.3736551702 -0.563578248 0.7257234454
0.06031412631 -0.1520129442 0.64050138 -0.2499310821 -0.5364269018 0.7060843706
0.06280359626 -0.1384043992 0.6422504783 -0.154258281 -0.5843022466 0.7713907361
0.08155171573 -0.1053612605 0.6458902359 0.5307289958 -0.5323609114 0.6571124792
0.05463437364 -0.1091573536 0.6614813805 -0.6605544686 -0.4754830599 0.5778332353
0.08498585969 -0.1001390219 0.6501435041 0.5770605206 -0.5402617455 0.6032370329
0.06850079447 -0.1104172841 0.6446608305 0.1626916826 -0.508498311 0.7008445859
0.05714756995 -0.1150651276 0.644166708 -0.1878042668 -0.4914083779 0.7026596069
0.07392941415 -0.1121096462 0.6434687376 0.3156856894 -0.4856393933 0.7476527095
0.07773659378 -0.1008745134 0.6468960047 0.4334371984 -0.5690314174 0.6789285541
0.07050643861 -0.1033648252 0.6469180584 0.2484550774 -0.5527139306 0.6796496511
0.06172112375 -0.103756927 0.6477527618 0.01174439304 -0.5551122427 0.6733925343
0.06116601825 -0.1097014621 0.6457377076 -0.03487409651 -0.5209949017 0.673727572
0.05442008749 -0.1079698578 0.647213459 -0.1767902374 -0.5268350244 0.6762512326
0.04652595147 -0.1135446876 0.6459010839 -0.4727048278 -0.5135800242 0.6568120122
-0.0141917076 -0.07441922277 0.6729263067 0.4333697259 -0.6403363347 0.6329143047
-0.009354365058 -0.07584544271 0.6687037349 0.3368470669 -0.6471539736 0.6823368073
-0.001485300367 -0.07642243803 0.6651004553 0.2232408077 -0.6450212002 0.72625947
-0.00359540456 -0.08184095472 0.6618230939 0.2428284287 -0.6400972605 0.7243501544
0.005363993812 -0.07434739918 0.6649039388 0.1085850671 -0.6543757319 0.7480029464
0.00294118165 -0.08402570337 0.656840086 0.13449651 -0.63088727 0.7600690722
0.002101218095 -0.07979053259 0.6609481573 0.1557386965 -0.6393749118 0.7479710579
0.04585209116 -0.08836600184 0.6667173505 -0.4964675009 -0.4878626466 0.7132616639
0.05021811277 -0.09394512326 0.667775631 -0.5192286372 -0.4171993136 0.7374706268
0.05017343163 -0.08754950762 0.6719765663 -0.4713306129 -0.4411228895 0.7560197115
0.04099287093 -0.08872497082 0.6633613706 -0.4721407592 -0.5244101286 0.7035416365
0.03582696617 -0.08591727912 0.6619369388 -0.3903760612 -0.5614182353 0.7282837629
0.0432279706 -0.08228118718 0.6691343188 -0.4347441494 -0.5377209783 0.7187232375
0.03796669096 -0.0815666467 0.6661284566 -0.3933622241 -0.5682167411 0.7165794969
0.05223200843 -0.09331333637 0.6580353379 -0.280043602 -0.5531769395 0.665050149
0.05804086104 -0.09461446106 0.6553381681 -0.1305757761 -0.5757060647 0.6502734423
0.0615484044 -0.09021577984 0.657723546 -0.03417284414 -0.5885369778 0.6551034451
0.0492111966 -0.09002269059 0.6614618301 -0.3546711802 -0.5410712957 0.6796687841
0.05634708703 -0.08796332031 0.6609805226 -0.1667181551 -0.5682020187 0.6712192893
0.04041389003 -0.09397500753 0.6587861776 -0.4733998775 -0.5307059884 0.6958119273
0.03471506387 -0.08995018899 0.6577919126 -0.372808069 -0.5686653852 0.7318173647
0.06596456468 -0.1108540669 0.6767446995 -0.4136419296 -0.3706354201 0.8231615424
0.06063187495 -0.1125725657 0.6675552726 -0.5849041939 -0.4604729712 0.6343332529
0.08370005339 -0.1131961569 0.643443644 0.5172547698 -0.5099850893 0.6869713664
0.07887488604 -0.08692771941 0.6662818789 0.6855590343 -0.290579319 0.6575824618
0.0793665275 -0.0883089453 0.6602206826 0.5804722309 -0.4615463316 0.6350482702
0.06164218485 -0.08373051882 0.6702187061 0.07390457392 -0.3947179914 0.7088800073
0.05597913265 -0.0795263797 0.6763281822 -0.2463939488 -0.3726015389 0.7640583515
0.0703189075 -0.08499261737 0.6714670658 0.4291621745 -0.1107145399 0.714930594
0.08043528348 -0.09096834064 0.6710525751 0.7195294499 -0.202743724 0.6524114013
0.06696454436 -0.08712542057 0.6614586115 0.1401435584 -0.5464321375 0.6658650637
0.06628873199 -0.0854164958 0.667135179 0.2346194237 -0.4039617777 0.6880783439
0.07301445305 -0.08871271461 0.6576749682 0.2978544533 -0.579112947 0.6459231377
0.05462358147 -0.08388919383 0.6691710353 -0.1816843599 -0.4799166322 0.7065223455
0.04201341048 -0.07548204064 0.6739130616 -0.4078746736 -0.5805103183 0.7036141157
0.03653975576 -0.07508244365 0.6706562042 -0.3625579178 -0.5993461609 0.7120823264
0.0165694505 -0.0654469505 0.6725574136 -0.05095371976 -0.671492815 0.7348231673
0.02455119044 -0.07044458389 0.6679558158 -0.1900289655 -0.6528958082 0.7304005027
0.03115328401 -0.0745941028 0.6681368351 -0.2930660546 -0.6176410317 0.7289453745
0.01509487536 -0.06967740506 0.6676608324 -0.02719018236 -0.6610017419 0.7486428022
0.01920335554 -0.0749129802 0.6645616889 -0.1115867272 -0.6338147521 0.7587777972
-0.0105858203 -0.1654648781 0.7383559942 -0.2995419204 -0.5809213519 0.7523818016
-0.01452179812 -0.1614738256 0.7411769629 -0.3573240936 -0.5687409043 0.739949882
-0.01444957033 -0.1700919569 0.7332698107 -0.3914926052 -0.5558012128 0.7238667607
-0.01776372828 -0.1653323621 0.7340314984 -0.4454937279 -0.5420193076 0.6945287585
-0.0270077344 -0.106953457 0.6518979669 0.5512958765 -0.5553488135 0.6213040352
-0.02030266076 -0.1042323187 0.6503364444 0.4635610878 -0.5878331661 0.6601943374
-0.0246099066 -0.1013659686 0.6545600891 0.5237045884 -0.5726256371 0.6305324435
-0.03079625964 -0.1047797725 0.6579230428 0.6211137772 -0.5439363718 0.5622853041
-0.02791256085 -0.0980804041 0.6608489752 0.5911984444 -0.5627036691 0.5731352568
0.02895542048 -0.1970583051 0.7122645378 0.3948563933 -0.5490274429 0.7319925427
0.03333034739 -0.1997795999 0.7085309625 0.4716976285 -0.5397031307 0.6952421069
0.02819991484 -0.2044821233 0.7085261941 0.4176858068 -0.5512393117 0.7203708291
-0.02398141101 -0.1964035779 0.7084744573 -0.5666245818 -0.4472177029 0.6898778677
-0.01866059005 -0.1975288242 0.7110988498 -0.4765290916 -0.4759946465 0.7353121042
0.01689309254 -0.1231367663 0.6260721684 -0.1666736454 -0.6738831401 0.7140673995
0.02545327693 -0.1167656407 0.6327146292 -0.2970635295 -0.6268508434 0.7183693647
0.01410945039 -0.1179022193 0.6285511851 -0.0959142223 -0.6853687763 0.7215852141
0.02320894413 -0.1274297684 0.6199034452 -0.2669759095 -0.6656771302 0.6967274547
0.02302728593 -0.1221803799 0.626041472 -0.2878757119 -0.6567816138 0.6965571046
0.02080718428 -0.117716752 0.6297397614 -0.2472575158 -0.6517291665 0.714622438
0.02241242863 -0.1110599265 0.6355956793 -0.2440374196 -0.6287914515 0.7375893593
0.02936580777 -0.121644251 0.6310546398 -0.3876484632 -0.6230139136 0.6778760552
0.03349177912 -0.1264905185 0.6300934553 -0.4409146011 -0.5895242095 0.6714866161
0.05485124514 -0.1144199595 0.6580054164 -0.6354486942 -0.5236009955 0.5661259294
0.0495957844 -0.1119748056 0.653618753 -0.6014502048 -0.5162506104 0.608831346
0.05821255967 -0.1198530123 0.6604514718 -0.5209328532 -0.6497009397 0.5433554053
0.05551060289 -0.1861600578 0.6913124919 0.7950415611 -0.4077895582 0.4487256706
0.05799842626 -0.1800952107 0.6888259053 0.7992578745 -0.4030848742 0.4456957877
0.02370428853 -0.1740446091 0.7345955968 0.2543111742 -0.6025304198 0.7531285286
0.01982191019 -0.169513911 0.7391069531 0.1718710363 -0.5866565704 0.7836524844
0.02177809924 -0.1972178668 0.7148390412 0.2720398307 -0.5676538348 0.7718939185
0.02314016782 -0.2018194348 0.7119154334 0.3108672798 -0.5671547651 0.7601647973
-0.02143800631 -0.1802353263 0.7215967774 -0.5313661098 -0.4899737537 0.6903567314
-0.01612084918 -0.1751966178 0.7287111878 -0.4345660806 -0.545758903 0.7145335674
-0.02121392637 -0.1744916141 0.7250286341 -0.5280692577 -0.5068975687 0.6750966907
-0.02278216556 -0.1679876745 0.7290919423 -0.5487062931 -0.5084261298 0.6606573462
-0.02542343363 -0.1826212257 0.7150838971 -0.6177763343 -0.4274795055 0.6578396559
-0.01150853187 -0.1812132895 0.7260728478 -0.3603096902 -0.5486813188 0.7529601455
0.06389433891 -0.1691249758 0.6939817667 0.8008689284 -0.400919795 0.4447217286
0.05998433754 -0.1692799032 0.707064867 0.7542744875 -0.4509403706 0.477026999
-0.01991256885 -0.07850015163 0.6737877727 0.5071858168 -0.6100723147 0.6065785289
-0.01968576573 -0.07350283116 0.6783425212 0.5152097344 -0.6211396456 0.5857973695
-0.03036027774 -0.08085720241 0.6814957261 0.6324102879 -0.5504119396 0.543938458
-0.03349515796 -0.08542010188 0.6813092828 0.6579192281 -0.5327171683 0.5319128633
-0.02572493069 -0.07515142858 0.6817747355 0.5992712379 -0.5751650929 0.556055069
-0.03015885316 -0.07627250254 0.6861683726 0.6287392378 -0.5635872483 0.5341736078
0.0802134499 -0.1204360574 0.6425332427 0.4446270168 -0.485794276 0.7492693663
0.07672776282 -0.1269623488 0.6430637836 0.3816590011 -0.5578374267 0.7273562551
0.06610261649 -0.1251166016 0.6550577879 -0.1340350062 -0.6917030811 0.6067955494
0.07461617887 -0.1245345697 0.6478845477 0.2122650146 -0.5900173783 0.6750469804
0.06404791027 -0.1177422255 0.6691115499 -0.387501061 -0.5729043484 0.6825569272
0.08748198301 -0.1106958315 0.6495975256 0.6342954636 -0.4699183404 0.5888581872
0.07309892029 -0.1221594363 0.6531066298 0.0694668591 -0.5970423222 0.653044343
0.07349511236 -0.1153130904 0.6706723571 -0.1417027116 -0.4377799332 0.7981134653
0.06539995968 -0.1220113486 0.6605194807 -0.2656703591 -0.6885641217 0.585124433
0.06921087205 -0.1182188615 0.666972816 -0.2286123037 -0.5560905337 0.698595047
0.07151886076 -0.1204447821 0.6590382457 -0.05544329807 -0.5778462887 0.6738948822
0.06573151052 -0.1319540739 0.6452978849 0.01813650876 -0.6168320775 0.7579730153
0.06410247087 -0.1291824132 0.6505545378 -0.1290385276 -0.6584184766 0.6910267472
0.06464494765 -0.1453422457 0.6830341816 0.2824355364 -0.4814155698 0.5515770316
0.06455715001 -0.131922096 0.6762962341 -0.03870250657 -0.5295127034 0.6157679558
0.06610185653 -0.1246914268 0.678911984 -0.1301949173 -0.4395461679 0.7263522148
0.06359885633 -0.1411866844 0.6769502163 0.1308116019 -0.5704743266 0.5228135586
0.06275139004 -0.1309358627 0.6687416434 -0.1544541568 -0.6640179753 0.5345901251
0.06879971921 -0.1307321638 0.6856105328 0.03311911598 -0.4005466998 0.7066527605
0.06922004372 -0.1246244982 0.6834807396 -0.1045449376 -0.411567539 0.7427141666
0.06758197397 -0.1402060688 0.687297523 0.2281457782 -0.4089300931 0.634201169
0.06609519571 -0.1367633492 0.681171298 0.09415025264 -0.4927681983 0.60421139
0.06499551982 -0.160800606 0.6911380887 0.6540840864 -0.424420774 0.4784762561
0.06710014492 -0.11894539 0.674325645 -0.3146983385 -0.5348840952 0.7029547691
0.06481521577 -0.1557137072 0.687848568 0.5220739245 -0.4574851692 0.4930284321
0.06369248033 -0.1248281673 0.6677961349 -0.2803526521 -0.6594988704 0.5805661082
0.06928303093 -0.118540436 0.6803426147 -0.2533155084 -0.4385650754 0.7682526112
0.06648933887 -0.1487619132 0.6895136833 0.4161748886 -0.398670882 0.5806787014
0.06197321042 -0.1303979754 0.6611759663 -0.2594300807 -0.6844868064 0.5687003136
0.06140836328 -0.1407360882 0.6524265409 -0.1855835915 -0.591589272 0.6735140681
0.06258497387 -0.145173043 0.6674178243 0.08112688363 -0.565610528 0.5740879178
0.06364090741 -0.1508111954 0.6806652546 0.3473000228 -0.528298974 0.4924426079
0.06411138922 -0.1622200906 0.6854598522 0.6099520326 -0.4364873469 0.4967971444
0.06315486133 -0.1461921632 0.6748195291 0.1920115948 -0.5625767112 0.5207582116
0.0611420013 -0.1353979558 0.6495724916 -0.3161326647 -0.6340947151 0.6761811376
0.06374938041 -0.1571889371 0.6813040376 0.4685333073 -0.4754622579 0.5106028914
0.06046684086 -0.1456825286 0.6619692445 -0.01946437173 -0.5596682429 0.5954011083
0.06235028803 -0.152424261 0.6749394536 0.2830755711 -0.5117734075 0.5309112072
0.06259098649 -0.1371676773 0.6706252694 -0.02468167804 -0.635124445 0.518286109
0.06084701419 -0.1510663629 0.6660777926 0.1280682534 -0.5176851153 0.5834779739
0.06143263727 -0.1387026161 0.6647532582 -0.08864439279 -0.618945241 0.5594934225
0.05793052539 -0.1408866197 0.6460897923 -0.3348277509 -0.5897633433 0.6834101677
0.05941122025 -0.1457972676 0.6561422348 -0.1053524762 -0.5552383661 0.6326047778
0.06014273316 -0.1348802298 0.6561648846 -0.278760761 -0.6453624368 0.6038762927
0.04712130502 -0.1673112214 0.722235322 0.5791178942 -0.5205421448 0.6240962744
0.04417195544 -0.1724394411 0.7214238048 0.5769616961 -0.5382768512 0.6125987172
0.04915089533 -0.1717204452 0.7159664035 0.6440804005 -0.5046897531 0.5713396072
0.05334113166 -0.1682992578 0.7135082483 0.6867703795 -0.4837291539 0.5418885946
0.02625895664 -0.1312087774 0.6160815954 -0.3262481093 -0.629956007 0.704474628
0.03097814322 -0.1309605837 0.6201117635 -0.400865078 -0.6139764786 0.6797037125
0.03417391703 -0.1298724413 0.6251834631 -0.4566245973 -0.5926507115 0.6620951295
0.0404041037 -0.1282681227 0.6317821145 -0.5031668544 -0.5550512075 0.6617215872
0.03905694187 -0.1335049123 0.6278152466 -0.5260285139 -0.5441567302 0.6523574591
0.04596973956 -0.1271302551 0.6357082129 -0.4402441084 -0.5363584757 0.6859977245
0.05627262592 -0.1273817271 0.6390346289 -0.1123607382 -0.5433080196 0.751339376
0.05042370409 -0.1324422657 0.6381168365 -0.4725046158 -0.5145819783 0.7137998343
0.06007776037 -0.1212747991 0.638538003 -0.06761810184 -0.4927806854 0.7398341298
0.04606056958 -0.1189952046 0.6420641541 -0.4932030141 -0.5131494403 0.665284276
0.06632399559 -0.118591778 0.6404382586 0.09595558792 -0.4743139744 0.7645621896
0.05447811633 -0.1210708991 0.6392832994 -0.2326506823 -0.5027118921 0.7116753459
0.04091594741 -0.1209789589 0.6388218403 -0.4805041552 -0.5446792245 0.6818249226
0.03561750054 -0.1195762381 0.6353916526 -0.4181269407 -0.5719613433 0.7035911679
0.02404563688 -0.1843935847 0.7257553339 0.2781563699 -0.6118245721 0.7399900556
0.01822053082 -0.1852260679 0.7262579799 0.1935481429 -0.6017000079 0.7726279497
0.0306623634 -0.1848856062 0.7203451395 0.3941426277 -0.5871854424 0.7059913874
0.01734510995 -0.1772066802 0.7313976884 0.1599403769 -0.6179202795 0.7631939054
0.01107072085 -0.1763719022 0.7333287001 0.04393643886 -0.6106321216 0.7849044204
0.01583519764 -0.1726454347 0.7347397804 0.1072673351 -0.607991457 0.7833819985
0.04133005068 -0.1914722472 0.7050492167 0.5954871774 -0.4813308716 0.6186209321
0.0362647064 -0.1868087798 0.7149713039 0.4805633128 -0.5421589017 0.6884155869
0.04240326956 -0.18503353 0.7128040195 0.5826074481 -0.5047134757 0.6366335154
0.04796295241 -0.1796025187 0.7103473544 0.6520352364 -0.4863868058 0.5731527209
0.04798317701 -0.1853272766 0.7071259618 0.6886894107 -0.4563592374 0.5626823306
0.05101042613 -0.1899896115 0.7005907297 0.7406830192 -0.4154395163 0.5245645642
0.05299949273 -0.193454057 0.6945129037 0.7534826994 -0.4093671143 0.5120047331
0.0562248677 -0.193775028 0.6886570454 0.7720469236 -0.4191182554 0.4762568772
0.05057786033 -0.1838902533 0.701949656 0.7253024578 -0.4446023107 0.5203928351
0.05263891071 -0.1746417433 0.7095692754 0.7085390687 -0.4765411019 0.5176112056
0.05372491851 -0.178797245 0.7050850391 0.7539409995 -0.4324623942 0.4917045534
0.06042580307 -0.186936453 0.6870204806 0.7914264202 -0.4133157432 0.4503071308
-0.01263373904 -0.1867055595 0.7210713029 -0.3690511882 -0.5186702609 0.7635172606
-0.01690276153 -0.1916493326 0.7167491913 -0.4350107312 -0.4930359721 0.7517357469
-0.02245725319 -0.1899062693 0.7128032446 -0.5658035874 -0.4359812737 0.6942499876
-0.01784050465 -0.1848582476 0.7204617858 -0.460940212 -0.4944118261 0.7349565625
0.02677159943 -0.1893198043 0.7188693285 0.3379202187 -0.5854725838 0.7358763218
0.01637795381 -0.1905780435 0.7216790318 0.1704003066 -0.5928487778 0.7842905521
0.01683491841 -0.1962094307 0.7187101245 0.1794291139 -0.5938043594 0.7824347019
-0.007439529989 -0.1898309439 0.7216786742 -0.2793185413 -0.5501730442 0.7831530571
0.00874977652 -0.1992405206 0.7162095904 0.03856977448 -0.5966595411 0.7962263823
0.008929292671 -0.1933787018 0.7206164598 0.03900111094 -0.5976004601 0.7961562872
-0.0007302967715 -0.1931836158 0.7204834819 -0.1284845173 -0.5901020169 0.7937096953
0.002542907605 -0.200315699 0.7167669535 -0.08518259227 -0.5996348262 0.7932937145
-0.004112290684 -0.1969598085 0.7168840766 -0.1915231347 -0.5743789673 0.7931168079
0.008221773431 -0.1820383668 0.7299514413 0.009702393785 -0.6207674146 0.7798101902
0.00210844446 -0.1840172112 0.7279669642 -0.1056359261 -0.5969679356 0.7896046042
0.00527441036 -0.1902131736 0.7235464454 -0.02914241329 -0.597186625 0.8011713624
0.01063264254 -0.1884250939 0.7242569327 0.06763478369 -0.5992591381 0.7924677134
-0.003674090374 -0.1865627617 0.7250761986 -0.2011404932 -0.5826693773 0.7863146663
