# .PCD v0.7 - Point Cloud Data file format
VERSION 0.7
FIELDS x y z normal_x normal_y normal_z
SIZE 4 4 4 4 4 4
TYPE F F F F F F
COUNT 1 1 1 1 1 1
WIDTH 512
HEIGHT 1
VIEWPOINT 0 0 0 1 0 0 0
POINTS 512
DATA ascii
-0.04263082147 -0.1740249842 0.6854634285 -0.8180121183 -0.2707805336 0.4973182678
0.0006749493186 -0.1261857152 0.6276629567 0.3067598343 -0.660428524 0.6760951877
0.08786863834 -0.08821667731 0.669015646 0.6100711823 -0.3707041442 0.670622766
0.09322321415 -0.09284191579 0.6585428119 0.6731151342 -0.4537297487 0.5571193695
0.09098684788 -0.09639834613 0.6635634899 0.7081872821 -0.3242876828 0.5922548771
0.09055285156 -0.08959366381 0.6636547446 0.6311397552 -0.4285834134 0.6158294082
0.06740768254 -0.1942561567 0.6917316318 0.7626894116 -0.3664425313 0.5326318741
-0.008887376636 -0.1301323026 0.6348906159 0.434137404 -0.6054818034 0.6405980587
-0.00271076127 -0.1225398406 0.6307395101 0.3507153392 -0.6335532665 0.6859613061
0.01467363816 -0.1306019425 0.6150491834 0.08197104931 -0.7184333205 0.6693431735
-0.001635913271 -0.1291405112 0.6212231517 0.3051408231 -0.6405920982 0.6785060167
0.007692142855 -0.1280390918 0.6178513765 0.1807772219 -0.6779260039 0.6839365959
-0.01134791877 -0.1304714233 0.624250412 0.4282876253 -0.6025668979 0.6733264327
0.004678078461 -0.1273380667 0.623883009 0.2399814278 -0.6771761775 0.6787680387
-0.005218300037 -0.1299396008 0.6251473427 0.3962306678 -0.6123348475 0.6760453582
-0.01285096444 -0.08761841804 0.6683940887 0.5137331486 -0.5751632452 0.6345106363
-0.009442513809 -0.08240378648 0.6710021496 0.4633666575 -0.6001916528 0.6499662399
-0.0163933076 -0.08681836724 0.6726886034 0.5537669659 -0.5593233109 0.6159771681
-0.03889526427 -0.1170784757 0.6742171645 0.7096713781 -0.4674699306 0.5270473957
-0.03653394058 -0.1057301611 0.6796017885 0.7068799734 -0.4672384858 0.5309121609
-0.03048928641 -0.07996992022 0.6956256032 0.6472033262 -0.5106976628 0.5654304028
-0.02562432922 -0.07505299896 0.6932567358 0.6279553175 -0.5298829079 0.5698946118
-0.02818890661 -0.07952623814 0.6907197237 0.6354346871 -0.5292021036 0.562243104
0.08911330998 -0.0899951309 0.6553550363 0.6217926145 -0.5119009614 0.588447094
-0.03674192727 -0.1578771621 0.6952754855 -0.5079236031 -0.3564250171 0.5077774525
-0.04025155306 -0.1296331733 0.6797068119 0.4104674757 -0.43786937 0.5200583935
-0.03543344885 -0.1616343707 0.7005658746 -0.6724727154 -0.3447160721 0.5074660182
-0.04124855995 -0.1185329109 0.6808668375 0.618815124 -0.4532807171 0.5203672051
-0.04030425474 -0.1246338561 0.6851641536 0.4059675634 -0.4348759651 0.5178115368
-0.03841085732 -0.1388359815 0.6913722754 -0.01388326753 -0.3996726274 0.513697207
-0.04106159136 -0.1234170347 0.6772221923 0.5895965695 -0.4528092444 0.521746695
-0.0379499495 -0.1449739933 0.6896052957 -0.1066623628 -0.3934166729 0.5140706897
-0.005906379782 -0.1205040663 0.635669291 0.3870857358 -0.6098754406 0.6835343242
-0.002288712189 -0.1148706675 0.6372080445 0.3405742347 -0.615519166 0.7095457315
0.002533831866 -0.1194251031 0.6315014362 0.2553133368 -0.6595861912 0.7056311965
-0.01152291335 -0.1246918961 0.6404107213 0.4741118848 -0.5715764165 0.6558906436
0.003446137533 -0.1135819033 0.6358593106 0.250177145 -0.6267593503 0.7341842651
-0.01751445793 -0.07436653227 0.6845424771 0.574077487 -0.5765209794 0.5805668831
-0.04167224839 -0.135838598 0.6811460257 0.1814857423 -0.4126688838 0.513561964
-0.04172434658 -0.1419206411 0.6858367324 -0.0727186054 -0.3875806034 0.5082759857
-0.04163949937 -0.1428203583 0.6799426079 0.04149766639 -0.4007190764 0.5122190118
-0.04077418894 -0.1339584142 0.6875987053 0.110765025 -0.4059424102 0.5119875073
-0.03670899943 -0.1517395526 0.6971718073 -0.3995446265 -0.3671880066 0.5098049641
-0.0424512662 -0.1686396748 0.6895182133 -0.8469317555 -0.2261867374 0.467019707
-0.03992329165 -0.1669719666 0.6944143176 -0.8072249293 -0.3180782199 0.4971374869
-0.03628201783 -0.1312278211 0.6563228369 0.683481276 -0.4567167163 0.5693488121
0.01387207583 -0.108372055 0.638045609 0.07766427845 -0.6487079263 0.7545179129
-0.01251976471 -0.1260764152 0.6316824555 0.4779880047 -0.5880995989 0.6512770653
-0.02004738897 -0.2049874812 0.7135663629 -0.5357275009 -0.345191896 0.7659795284
-0.01524834242 -0.2014199793 0.7154377103 -0.4868533015 -0.3831861019 0.7748908401
-0.008109588176 -0.1968179643 0.7180736065 -0.4107544422 -0.4391999543 0.7896684408
-0.003107202239 -0.2082260102 0.7168520093 -0.2869053483 -0.4679892361 0.831618011
0.06082336977 -0.1763319075 0.7124701738 0.6869170666 -0.4598552883 0.5619496107
0.06429786235 -0.1747873724 0.7085964084 0.727445364 -0.4252693355 0.5358198881
-0.02026907168 -0.1598722637 0.7304508686 -0.5856952071 -0.4819199741 0.6450178623
-0.02599210292 -0.1590947509 0.7263116241 -0.6430253983 -0.4762505591 0.5981920362
-0.01446317602 -0.1621736586 0.734690547 -0.5086920857 -0.5069471002 0.6948779821
-0.01718238555 -0.1576582491 0.7371242642 -0.4944234788 -0.500739634 0.7081471086
-0.007197920699 -0.1063272431 0.6477808952 0.428845048 -0.5903417468 0.6801882982
-0.02105110511 -0.1220394745 0.6449582577 0.6076387763 -0.5096415877 0.6079656482
-0.02745058201 -0.1639713347 0.7199139595 -0.6926427484 -0.4537714422 0.5600286722
-0.03134557232 -0.1627407819 0.7155690193 -0.7411689758 -0.4278250933 0.5153172612
0.007473115344 -0.1087763384 0.6384504437 0.2099861652 -0.6318559051 0.7459090948
0.01054972876 -0.105080992 0.6418950558 0.1411113739 -0.6397774816 0.7500790954
-0.02072981559 -0.08475849777 0.6780228615 0.6011511087 -0.5396337509 0.586902678
-0.01549652312 -0.0815602839 0.6758993268 0.5384585261 -0.5722839832 0.615387857
-0.01221168786 -0.07623285055 0.6775840521 0.5024927258 -0.6005612612 0.6211910248
-0.01856515929 -0.07957784832 0.6816141605 0.581758678 -0.5675734878 0.5815665126
-0.009632914327 -0.07184772193 0.6797960997 0.4807554781 -0.6189639568 0.6203903556
-0.04067617282 -0.18174465 0.6890205145 -0.7870637774 -0.2984215319 0.5397638679
-0.03974751011 -0.1587590873 0.6894850135 -0.5026655197 -0.3482935727 0.5019087195
-0.04117704183 -0.1279491633 0.6716338992 0.6003590226 -0.4549680352 0.5230221152
-0.03938435018 -0.1478895545 0.6839908361 -0.1058088839 -0.3867182136 0.5095252991
-0.03905655071 -0.1520604789 0.687526226 -0.2749186754 -0.3702078462 0.5062172413
-0.0419870913 -0.1504571438 0.6786617041 -0.09769651294 -0.3859759271 0.5193177462
-0.0419661589 -0.15482454 0.6825863719 -0.2972854376 -0.3669464588 0.5129637122
-0.04210743308 -0.144934833 0.674888432 0.1252226681 -0.407081157 0.5262199044
-0.04192050174 -0.1345101595 0.6712028384 0.4553134441 -0.4395337701 0.5289314389
-0.0424493216 -0.135082975 0.6645674706 0.6151530147 -0.4529634416 0.5461703539
-0.04216665775 -0.1398438364 0.6711037755 0.33808586 -0.4273454249 0.5325911641
-0.03978860751 -0.1299634874 0.6625991464 0.6968759894 -0.4643208981 0.546313405
-0.03183593228 -0.127059862 0.6538046002 0.6731331348 -0.4584346712 0.5801821351
0.06461122632 -0.1670835614 0.7142093182 0.7166166902 -0.4387738109 0.5411981344
-0.01767528802 -0.1651944369 0.7301962972 -0.5405644774 -0.5150370598 0.6647646427
-0.02158906683 -0.164740935 0.7256492376 -0.6182481647 -0.4885402322 0.6108011603
-0.0379858464 -0.09076108038 0.6957719326 0.6799613237 -0.4853458107 0.5492785573
-0.03654024377 -0.08466297388 0.7006388903 0.6672424674 -0.4904402494 0.5604940057
-0.04153402895 -0.1109194532 0.6827332973 0.7175716758 -0.461527735 0.5215978622
-0.04009733722 -0.1119671315 0.6775662899 0.7125105262 -0.4654991329 0.5250130892
-0.04021177068 -0.1025583819 0.6870235205 0.7056237459 -0.470235914 0.5298674107
-0.03237762675 -0.1014076322 0.6774569154 0.6913365126 -0.4750379622 0.5442835093
-0.03528834879 -0.09944085777 0.6836061478 0.6967863441 -0.4753867388 0.5368357301
-0.02312036231 -0.07842410356 0.6860045791 0.6229116321 -0.5362033844 0.5695621371
0.01067543309 -0.1563020945 0.7491384745 -0.1385373026 -0.5385525823 0.8279650807
0.02412514761 -0.06478765607 0.6743338704 -0.04886631295 -0.6793048382 0.7312632799
0.01426443178 -0.06916966289 0.6715174317 0.1047496349 -0.6742393374 0.7307299972
0.02922218852 -0.07007217407 0.6713092923 -0.1447648704 -0.6538614035 0.7409945726
0.05135333166 -0.0820409134 0.6719449759 -0.451841861 -0.5456055403 0.704893291
0.08382383734 -0.08985957503 0.6758230329 0.6286597252 -0.2615325749 0.722232461
0.04728705809 -0.06908667088 0.6787199378 -0.3737526238 -0.6152423024 0.6929282546
0.05491432548 -0.08024644107 0.6766636372 -0.4391975105 -0.5404356122 0.7170448899
0.05044741929 -0.07643657923 0.6743767858 -0.4391673505 -0.5776231885 0.6875265241
-0.02554773353 -0.1333470643 0.6442708969 0.6375431418 -0.4950786531 0.5873853564
-0.03037705645 -0.1316946447 0.648673594 0.6754478216 -0.463118434 0.5737497211
-0.01494617388 -0.1313129514 0.62858814 0.4815958738 -0.5751165748 0.6529120803
-0.01828241348 -0.1341860443 0.6387042999 0.5667688251 -0.5482244492 0.6126358509
-0.01840855926 -0.1297856718 0.6340913773 0.5407363772 -0.5428563952 0.6296004057
-0.02224935032 -0.1293468624 0.6401032805 0.606639564 -0.5081136823 0.6033419967
0.01453752909 -0.2025520056 0.7184736729 -0.01039207354 -0.5590643883 0.8282706738
0.01133374963 -0.2100808024 0.7152014971 -0.08326911181 -0.5429851413 0.8323604465
0.06396843493 -0.1175768077 0.6565108895 -0.6224700212 -0.5767421126 0.5286110044
0.07488966733 -0.09531652927 0.6815010309 -0.3059873581 -0.3852522969 0.8372015357
0.07123390585 -0.1031377167 0.675878942 -0.4656035304 -0.356696099 0.8057810664
0.07103595883 -0.07870274037 0.6738007069 0.02501277067 -0.5897071362 0.6716407537
0.0559938252 -0.07254358381 0.6808629632 -0.3835983574 -0.5875695944 0.6862354875
0.05638312921 -0.07444459945 0.675649941 -0.3113744259 -0.591829896 0.6737748981
0.0617175661 -0.07534699142 0.681179285 -0.3109032214 -0.5689578056 0.6965789795
0.07029794902 -0.08253473788 0.6808445454 -0.2069769055 -0.5146948695 0.8050047755
0.08560927212 -0.08443950117 0.6651906967 0.4814822078 -0.5836377144 0.6495943666
0.07862353325 -0.08439751714 0.673178494 0.1860074252 -0.5309570432 0.7348719239
0.062198814 -0.08056097478 0.6841503382 -0.4224323332 -0.5132111907 0.7455119491
0.0767365694 -0.0856192559 0.6829029918 0.1832554638 -0.3852276802 0.7464345694
0.08069631457 -0.09204506129 0.681345284 0.508652389 -0.2542162538 0.7712978721
0.07232511044 -0.08815968037 0.6869037747 -0.2893145978 -0.42724365 0.8090686202
0.06934686005 -0.09605930001 0.6781344414 -0.3879796565 -0.4236468375 0.8182556033
0.06801000983 -0.09040819854 0.6821299195 -0.3862827718 -0.4489213526 0.8051724434
0.06500897557 -0.09507870674 0.6748140454 -0.4520627558 -0.4281168878 0.7764410377
0.06084796786 -0.09541158378 0.6706671715 -0.5468860269 -0.4401484728 0.70932585
0.04794578254 -0.1827308387 0.7197742462 0.5119196773 -0.5240587592 0.6737399697
0.05291067809 -0.1763606966 0.7206035852 0.5886642337 -0.5149110556 0.6176882386
-0.01156391017 -0.1097092628 0.6475334764 0.4820669293 -0.5754470229 0.6589778066
-0.02528304979 -0.1236345321 0.6504923105 0.6444829106 -0.4769205451 0.5937649608
-0.01541578863 -0.12904419 0.6404841542 0.528727293 -0.5570127368 0.6332700849
-0.009472719394 -0.1156890094 0.6404579282 0.4493895769 -0.5890667439 0.6690298319
-0.01517626643 -0.1186557859 0.6421417594 0.5325919986 -0.5501173139 0.6383852959
-0.02366546914 -0.1031671241 0.6654487848 0.6328780651 -0.5151120424 0.5750303864
-0.03738880157 -0.1723218113 0.6954498291 -0.8021938205 -0.3108605742 0.5094245672
-0.02667128667 -0.1977488548 0.7043197751 -0.6795424819 -0.271532923 0.6719831228
-0.0227554515 -0.1972478926 0.7095381021 -0.6392182112 -0.310002625 0.6970471144
-0.03605221957 -0.1865591854 0.6943464279 -0.7757616043 -0.2689890563 0.5689640045
-0.02279085852 -0.188212797 0.705773294 -0.6893043518 -0.3126277924 0.6438902617
-0.01959313639 -0.2015759051 0.7057126164 -0.6036198139 -0.3118094504 0.7319829464
-0.001737255952 -0.1899454892 0.7221389413 -0.3487921953 -0.503249526 0.7886664867
0.002202399541 -0.1856313497 0.7266178727 -0.2600958049 -0.5776472092 0.7699996233
-0.004628225695 -0.1832244247 0.7252153158 -0.3841594458 -0.5439752936 0.7408757806
-0.001497601857 -0.1807001233 0.7298395634 -0.3704405725 -0.5741435885 0.7289779782
-0.03249563649 -0.09192833304 0.6847249269 0.6793062687 -0.4892779589 0.5466064811
-0.03698655218 -0.09402618557 0.6896023154 0.6854367256 -0.4838963151 0.5437877178
-0.03299305588 -0.08624781668 0.6927496791 0.6643460393 -0.4961678982 0.5589541197
-0.02948950231 -0.08586307615 0.6869161129 0.6589922309 -0.5052739382 0.5568008423
0.03587971628 -0.1845337898 0.7256375551 0.3185913265 -0.5868420601 0.7414893508
0.04438627884 -0.1808911115 0.7249720097 0.463316679 -0.5551297665 0.689480722
0.03325837851 -0.1811370105 0.7297260761 0.2666086555 -0.6021260023 0.7502202988
0.02585445903 -0.07905885577 0.6632810235 -0.1026720479 -0.6330276132 0.7665029764
0.02903137542 -0.07534226775 0.6672003269 -0.1443513483 -0.6356396675 0.7568768859
0.05348870531 -0.09663105756 0.6623628736 -0.562061429 -0.5015828013 0.6538665891
0.06474097818 -0.09443920851 0.6572967172 -0.1133758053 -0.5328128338 0.6449751258
0.08073262125 -0.09076245129 0.6563380361 0.3742161095 -0.5413965583 0.6122419834
0.08556187898 -0.09377291054 0.6528484821 0.5425353646 -0.5433749557 0.5740634203
0.05821972713 -0.09896799177 0.6650528908 -0.5910457969 -0.465177387 0.6576257944
0.07078733295 -0.09119594842 0.6580793858 0.08829913288 -0.5380612016 0.6391077638
0.06796559691 -0.08144772053 0.6910429001 -0.3837685287 -0.4901480079 0.7820224166
0.06436251104 -0.08564003557 0.682030201 -0.4084606469 -0.4816453755 0.7729480863
0.0581445992 -0.08799336106 0.6731250286 -0.5121398568 -0.4913688302 0.702804029
0.05996330082 -0.08399092406 0.6781579256 -0.4539008141 -0.5041036606 0.7320847511
0.06357355416 -0.08932989836 0.6775009632 -0.4217868149 -0.4668535888 0.7736338973
0.03344289213 -0.06671795994 0.6739431024 -0.2142385989 -0.671203196 0.7059845924
0.02358178794 -0.06999123096 0.6682569981 -0.05274812877 -0.6615037918 0.7446985841
0.004613627214 -0.09895332903 0.6482485533 0.2410552651 -0.6227855086 0.7417314053
0.001074875938 -0.104818143 0.644965589 0.3055791855 -0.6181734204 0.7208960056
0.003879275406 -0.08413392305 0.6607991457 0.2648681998 -0.6302192807 0.7276758552
-0.01672791317 -0.09204608202 0.6687959433 0.5664960146 -0.5514089465 0.6110127568
0.01903340407 -0.08598671108 0.6568670869 -0.0004650836345 -0.6335251331 0.7707246542
0.01467488706 -0.08136177063 0.6608350873 0.0952392742 -0.6458823085 0.7570508122
0.02166535705 -0.08188834041 0.6609326601 -0.03125721961 -0.6325992346 0.7682130933
0.02479958721 -0.204394117 0.714684248 0.1930467039 -0.5920152068 0.7816007137
0.01723220758 -0.2080799937 0.7151067853 0.03252002597 -0.5605142117 0.8193442225
0.06308368593 -0.1980149895 0.694291532 0.7014291286 -0.3961916864 0.5806362629
0.05924858153 -0.197923705 0.6991304755 0.6711872816 -0.4232490063 0.5995009542
0.0540462248 -0.201080054 0.7031593323 0.6081351638 -0.4696653485 0.6348788738
0.04973919317 -0.198296383 0.7056373954 0.5511366129 -0.5083782077 0.6592911482
0.05523064733 -0.1953674704 0.7027812004 0.6286051273 -0.4597485662 0.6191418171
-0.008781756274 -0.1591915041 0.7420012951 -0.4013321698 -0.4955661595 0.7682740688
0.007584732026 -0.2004082352 0.7170128226 -0.1632052511 -0.508652389 0.8397421837
0.00220572087 -0.2095279992 0.7164062262 -0.2236323953 -0.5004813671 0.8355209827
0.01532774977 -0.1931891739 0.7228752971 0.0198892355 -0.5678064823 0.8220857978
0.001516850898 -0.2002991736 0.720456183 -0.2326698899 -0.5073025823 0.8278577924
0.004750821739 -0.1930233687 0.7215281725 -0.2079388946 -0.5066210032 0.8357658982
0.01253052894 -0.1971788108 0.7185298204 -0.04277040064 -0.5203282237 0.8492419124
0.009843920358 -0.1918243617 0.7234457731 -0.1016580835 -0.5425699949 0.8260599375
0.008218457922 -0.1867149919 0.7276428938 -0.1518225223 -0.5988570452 0.7800847292
0.01425626595 -0.1849378645 0.7298673987 -0.05355153233 -0.6297487617 0.7725806236
0.02602081746 -0.1861957163 0.7274899483 0.1584177762 -0.6162685156 0.7707995176
0.07672441751 -0.1157283634 0.6750318408 -0.1712170094 -0.5949046612 0.734644711
0.07632787526 -0.1069661975 0.6777103543 -0.1776097566 -0.4737800956 0.7805771828
0.08152933419 -0.09788620472 0.6782551408 0.4637572169 -0.2934187055 0.7490804791
0.09135039896 -0.1067683175 0.6580986381 0.5201743841 -0.4792580903 0.5348526239
0.08171697706 -0.1167672798 0.6680680513 0.04556464776 -0.6134562492 0.6475489736
0.08266318589 -0.1052091867 0.6726388335 0.3226667345 -0.4132872224 0.6912679076
0.08609391749 -0.1074733958 0.666031599 0.3647400439 -0.4684861898 0.6209569573
0.08682925254 -0.1014954597 0.6680071354 0.5146133304 -0.3660445511 0.6393689513
0.09160456061 -0.1011245474 0.660658896 0.6499431133 -0.3805974722 0.5597499013
0.08553767949 -0.09643545747 0.6727026105 0.5904710889 -0.2708717287 0.687636137
0.08106111735 -0.1115526706 0.6718404889 0.1417316198 -0.5183603168 0.685761869
0.09490610659 -0.1036341339 0.6541269422 0.683226645 -0.4395636022 0.4903736413
0.0726282075 -0.1114958301 0.6732674241 -0.5511229038 -0.3841117024 0.7392001152
0.05820927396 -0.1840862334 0.7083307505 0.677154541 -0.4418676794 0.5873742104
0.06375024468 -0.1815928519 0.7040260434 0.727432251 -0.412302345 0.5473257899
0.06088513508 -0.1894655824 0.7033755183 0.7056921721 -0.4186699986 0.5709053278
0.08087090403 -0.1695439965 0.6826987267 0.8111482263 -0.3252365589 0.4860194921
0.04635503143 -0.09511019289 0.656902492 -0.4405526221 -0.5532832146 0.7040813565
0.02531834319 -0.1244837195 0.6199843884 -0.1421857625 -0.7634579539 0.6289735436
0.02853227779 -0.1206136122 0.6269847155 -0.201917693 -0.7379199266 0.6396049261
0.02032130584 -0.1267040968 0.6144458652 -0.01710202731 -0.7348080277 0.6728868484
0.0484627299 -0.1017295197 0.6533393264 -0.4719977975 -0.5463351607 0.6902801394
0.05687404424 -0.1043405831 0.6595041156 -0.6171816587 -0.476300627 0.6257911921
0.0754269287 -0.09777290374 0.6518593431 0.2299475372 -0.5252617002 0.6173149943
0.05674549565 -0.09735570848 0.6568986177 -0.3532683551 -0.5266973972 0.6584852934
0.06976437569 -0.1002244502 0.6512785554 0.05656518415 -0.5264254212 0.6309044957
0.06226742268 -0.09846660495 0.6545844674 -0.1796980947 -0.5252792835 0.6479696035
0.05975286663 -0.1065518633 0.6487333775 -0.2466205657 -0.5346171856 0.6506407261
0.08029659092 -0.1011308357 0.6480218768 0.3869355023 -0.5225794911 0.6121795774
0.07504504919 -0.1035538092 0.6476388574 0.2278008461 -0.5194058418 0.6310506463
0.06883988529 -0.1044770032 0.6482427716 0.03449570015 -0.527346015 0.6364433169
0.09154766053 -0.09558609128 0.6517395377 0.6832437515 -0.487560153 0.5383000374
0.02560300566 -0.1907264292 0.7242408991 0.1614244729 -0.5932665467 0.7882632613
0.01799043268 -0.1891953051 0.7266418934 0.03274576366 -0.608664453 0.7891139984
0.02978816815 -0.1941884905 0.7195894718 0.2392234504 -0.5826917291 0.775849402
0.02397480793 -0.1992986947 0.7182148695 0.1688014418 -0.5597903728 0.807905674
0.02292860113 -0.194848597 0.7215841413 0.1274849623 -0.5725172758 0.8076717257
0.03910561651 -0.174846068 0.7325506806 0.3624679148 -0.5724070668 0.7286196351
0.04466691986 -0.1762575656 0.7286251187 0.4647415876 -0.5598212481 0.6831933856
0.04430850968 -0.1710146368 0.7330533266 0.4463134408 -0.5513828993 0.704605937
0.05474852398 -0.1640714854 0.728497386 0.5557878613 -0.5227862 0.6432188749
0.05895132199 -0.1662153751 0.7225966454 0.6311458349 -0.4976328015 0.5940452218
0.05757159367 -0.1732110828 0.7176125646 0.6465636492 -0.4917218983 0.5828133225
0.04949557036 -0.1665712744 0.7321324944 0.4948369563 -0.5269442201 0.6845253706
0.05094467476 -0.1722403616 0.7263573408 0.5504149795 -0.529871285 0.640111208
-0.01767331921 -0.1162912175 0.6478612423 0.5660581589 -0.5155426264 0.639175117
-0.02379490063 -0.117620863 0.6514222026 0.6384834051 -0.4882017076 0.5940643549
-0.01495470386 -0.1038516983 0.655097425 0.5225629807 -0.5599297881 0.6419712305
-0.02081708238 -0.1067757085 0.6578465104 0.6050637364 -0.5311313868 0.5917373896
-0.01815495454 -0.1013803631 0.6613019705 0.5709466934 -0.5479453206 0.6107235551
-0.01683963835 -0.09638445079 0.664293766 0.556030035 -0.5575665236 0.6150260568
-0.007992433384 -0.1026259065 0.6521911621 0.4426864684 -0.5890418291 0.6753438115
-0.01302944683 -0.09799904376 0.6584698558 0.5096692443 -0.5728341341 0.6415179372
-0.01130226534 -0.09375432134 0.6619167328 0.5133844018 -0.5693053007 0.641043067
-0.02434840985 -0.09108727425 0.6758008003 0.6407764554 -0.512326777 0.5713942051
-0.02791325562 -0.09141098708 0.6807188392 0.6533421278 -0.5040561557 0.5633756518
-0.03148304299 -0.09659567475 0.6802604198 0.6813325286 -0.4838274121 0.5490704775
-0.0222472623 -0.09667256474 0.6701509953 0.619617939 -0.5248712897 0.5811013579
-0.02825579233 -0.09943836927 0.673920095 0.6696892381 -0.4919174612 0.5556776524
-0.03136212006 -0.1077095494 0.6705960631 0.690741539 -0.4765463471 0.5438005328
-0.03479740024 -0.1112381965 0.6739574075 0.6996306777 -0.4733498693 0.5350503922
-0.03627120703 -0.1148432642 0.6693027616 0.701028347 -0.4735073149 0.5328954458
-0.030266691 -0.1112920791 0.6650217772 0.6876266003 -0.4809374511 0.543849051
-0.03291967511 -0.1164211705 0.6647606492 0.7015591264 -0.4855091572 0.5215980411
-0.0354482159 -0.1216682792 0.6646031737 0.7031230927 -0.4803852141 0.5242305994
-0.03783905134 -0.1794406325 0.6937488317 -0.7910982966 -0.3054065406 0.5297371745
-0.02047024667 -0.1899338216 0.7135016322 -0.6277055144 -0.3788589239 0.6727256179
-0.0200505387 -0.1844445318 0.7164592743 -0.6136081815 -0.4385848045 0.6503007412
-0.02049902081 -0.1955663562 0.7150596976 -0.5763799548 -0.3877676427 0.7117473483
-0.01182349492 -0.1868242621 0.7196847796 -0.5015894175 -0.4739192128 0.7208999991
-0.01444246527 -0.1907818913 0.7128076553 -0.5597971678 -0.386035502 0.7292546034
-0.02197382413 -0.1769114882 0.7152876854 -0.6718661189 -0.43686378 0.5943384171
-0.02940545045 -0.1670709401 0.712495923 -0.7312938571 -0.4065456688 0.5433582067
-0.03295657784 -0.1658579856 0.7064589262 -0.771358788 -0.3628136218 0.51878649
0.01666403934 -0.07367052883 0.6673570275 0.06581471115 -0.6578881145 0.7462015748
0.02249358408 -0.07505811006 0.6659318209 -0.04365480319 -0.6484775543 0.7556858063
-0.003330134088 -0.07797955722 0.6709963679 0.381791383 -0.6277605891 0.6731455326
0.003368134145 -0.07408373058 0.6704266667 0.2942785919 -0.6516569257 0.6976235509
0.005033024587 -0.0777579546 0.6663115025 0.2568996251 -0.644548893 0.7177911401
-0.001181303174 -0.08137784898 0.6657651067 0.3697022498 -0.6221707463 0.686281085
-0.002053118544 -0.08711033314 0.6605846882 0.3775349557 -0.6115705967 0.6949677467
0.01690560021 -0.1574612558 0.7490845323 -0.02864663303 -0.5584924817 0.8274088502
0.02252910845 -0.1618602276 0.7464573383 0.06001878157 -0.5782610774 0.8123781681
0.01665649191 -0.1640458256 0.7462666631 -0.02701125108 -0.5678651333 0.8213019371
0.00961837545 -0.1622627527 0.7465226054 -0.1322358847 -0.5552142262 0.818189919
-0.0011565733 -0.1607599556 0.7431820631 -0.3252672851 -0.518230021 0.7878998518
0.002874205122 -0.1586266905 0.7459965944 -0.2767680883 -0.5241272449 0.8030275702
0.006439579185 -0.1679721326 0.742642343 -0.2012063712 -0.5620756149 0.8020355701
0.01297554374 -0.170445174 0.7420797944 -0.09481072426 -0.5763921738 0.8085084558
0.04345459491 -0.08611743152 0.6634781957 -0.3902902603 -0.5638114214 0.7228916287
0.01120839454 -0.09248644859 0.651940465 0.1392842829 -0.6253882647 0.7621790171
0.0134017868 -0.08777615428 0.6554464102 0.09230232984 -0.6326821446 0.76598382
0.01860155351 -0.09232944995 0.6517264247 0.003486042609 -0.6282913685 0.7724897861
0.03620907292 -0.2032622248 0.7116698623 0.3490526676 -0.5838963985 0.7294721603
0.03572231531 -0.1988114715 0.7148979902 0.3328813314 -0.5821657777 0.7406392694
0.0553439483 -0.188927874 0.7075958252 0.6398444176 -0.4546906054 0.6156287193
0.05184917524 -0.1941380203 0.7084697485 0.5866772532 -0.4867164791 0.6469722986
-0.005617120769 -0.2039848119 0.7120984197 -0.3688425422 -0.4402933121 0.808621943
-0.01336010825 -0.2027414143 0.7082045078 -0.5077617168 -0.361330986 0.7736997604
-0.01496477332 -0.2069763541 0.713766396 -0.4606170654 -0.3781292737 0.7869788408
-0.0155114485 -0.1968141049 0.7092319727 -0.5439260602 -0.3546122313 0.7590112686
-0.006548013072 -0.1913026422 0.7178325057 -0.4184636176 -0.4594403803 0.777670145
-0.01011625398 -0.1977707446 0.7123574615 -0.4496718347 -0.4133853912 0.7870566249
-0.00284777116 -0.1970926374 0.7156209946 -0.3278134167 -0.4668722451 0.8160031438
-8.692144183e-05 -0.2030994296 0.7141651511 -0.2962063253 -0.4687295258 0.8239390254
0.07667874545 -0.1357339323 0.67882514 0.1017112583 -0.5744270086 0.6419163346
0.07590837032 -0.1667577475 0.694540143 0.7637312412 -0.3369514942 0.5013103485
0.07678389549 -0.1506850272 0.683622241 0.4217479825 -0.4605771601 0.5726183057
0.07697504014 -0.1648412496 0.6876305938 0.7249609232 -0.3528945744 0.5067091584
0.07614413649 -0.1602746397 0.6908203959 0.6255437136 -0.3866706192 0.5304518342
0.07696358114 -0.155387491 0.6870506406 0.5215622783 -0.4243032932 0.5520723462
0.0763675794 -0.1427777261 0.6831880808 0.2517347634 -0.5203390718 0.6104325652
0.07716614008 -0.1267472357 0.6743428111 -0.09017336369 -0.6431705356 0.6827932596
0.07604624331 -0.1334981918 0.6703383923 0.002346696099 -0.657561779 0.6365932822
0.07409294695 -0.1383703947 0.6591337919 -0.005120630842 -0.761290729 0.5825469494
0.07597241551 -0.1593212932 0.6732439995 0.5242184401 -0.5010276437 0.5070446134
0.07599234581 -0.1521818936 0.6724377275 0.3799083233 -0.5443383455 0.5428540111
0.07717753202 -0.1647200584 0.681248188 0.6999935508 -0.384431541 0.498591423
0.07483417541 -0.1439107209 0.6603815556 0.1156735718 -0.7165590525 0.5572428107
0.07698474824 -0.1407232285 0.6707155108 0.1494764835 -0.6122943759 0.6006957889
0.07663628459 -0.1551240683 0.6664935946 0.391064465 -0.5871596336 0.5146556497
0.07942461967 -0.159479171 0.6783348322 0.5859290957 -0.4262811244 0.5227006078
0.07639924437 -0.1491906047 0.6665077209 0.2755041718 -0.6176762581 0.5456254482
0.0756053105 -0.1366958916 0.6652010679 0.01974834315 -0.697552681 0.6073716879
0.07913012058 -0.1521563083 0.6783433557 0.4432263374 -0.4640474319 0.5608993173
0.07830355316 -0.1441869736 0.6760585308 0.266623944 -0.5319533944 0.5965129137
0.09515273571 -0.1052553654 0.6485709548 0.7222551703 -0.4509575069 0.5144097805
0.09250150621 -0.1122252345 0.6497839689 0.6732220054 -0.4984613657 0.4629872143
0.07786024362 -0.1212931573 0.6714403629 -0.1329509318 -0.6686131358 0.6876876354
0.08628145605 -0.1163912639 0.6586204767 0.3371290565 -0.5717772841 0.5555089712
0.08955600113 -0.1195420697 0.6477710009 0.6229823232 -0.5507317781 0.4567553699
0.06806991249 -0.1090257093 0.6693655252 -0.592571497 -0.3690368533 0.7131569982
0.06594146043 -0.1111436263 0.6641138196 -0.6415267587 -0.5175928473 0.5560227633
0.0622956045 -0.1103058383 0.66015172 -0.6429070234 -0.506095469 0.572030127
0.06474826485 -0.1040813476 0.6685709953 -0.5955538154 -0.3902308643 0.6960423589
0.06117882207 -0.1048807949 0.6636805534 -0.6428061724 -0.4433668256 0.623989284
0.03792157769 -0.1921032369 0.7182869315 0.3583487272 -0.5649424791 0.7425394058
0.03534337133 -0.1888271272 0.7223431468 0.3141950667 -0.5855886936 0.7471179366
0.0421230495 -0.1861253083 0.7214355469 0.4263792932 -0.5511470437 0.7161233425
0.04080638662 -0.1958971918 0.7131465077 0.4087627232 -0.55481565 0.7162101269
0.04795627296 -0.1911641061 0.7124756575 0.5246009231 -0.5103600621 0.6742712259
0.04350934923 -0.1902520508 0.7161175013 0.4490405619 -0.5332352519 0.7092260718
0.08133537322 -0.1785865128 0.6780886054 0.8026783466 -0.3447626531 0.4866684079
0.03921440616 -0.08907006681 0.658714056 -0.3201845288 -0.5846064091 0.7337573171
0.03046175838 -0.08319866657 0.6612322927 -0.1845410466 -0.6099707484 0.765598774
0.02500128746 -0.130779162 0.6148718596 -0.1110423878 -0.7491282821 0.6332565546
0.07283108681 -0.1107963622 0.6445988417 0.1766588241 -0.4946581721 0.7202771306
0.07551431656 -0.1161744222 0.641964972 0.2744872272 -0.4777836502 0.8093605638
0.05392904952 -0.1092745364 0.6483734846 -0.4231593907 -0.5332111716 0.6763522029
0.06627759337 -0.1100597158 0.6459924579 -0.03181656078 -0.5084865093 0.701693356
0.07959635556 -0.1070642695 0.644986093 0.3808343709 -0.4903060198 0.6673582196
0.08863670379 -0.09996123612 0.647783041 0.6136392355 -0.5151414275 0.5980496407
0.0898328796 -0.1079603434 0.6449748874 0.6330077648 -0.4794735312 0.6008945704
0.069308348 -0.1206842065 0.6631993055 -0.6277891397 -0.5362687111 0.5462601781
0.06980950385 -0.1154850498 0.6673286557 -0.5939646363 -0.4367292523 0.6540259719
0.08635462075 -0.1131057292 0.6425818205 0.5139481425 -0.4512616992 0.712422967
0.08117312938 -0.1141976044 0.6420931816 0.4052667022 -0.4635056555 0.7781860828
0.03938961402 -0.1673638225 0.7378048897 0.3457743526 -0.5497732162 0.7572180629
0.04210497811 -0.1620957851 0.742718935 0.3618947864 -0.5041632056 0.7818611264
0.04458052665 -0.1647991389 0.7381523252 0.4118885994 -0.5276114345 0.740814209
-0.02871252596 -0.1142503992 0.6602199674 0.678638339 -0.4860284626 0.5504589081
-0.03157675266 -0.1214739084 0.657869339 0.6790184975 -0.4741109312 0.5601177216
-0.03496225551 -0.1263161004 0.6592755914 0.686329186 -0.4635349214 0.5596757531
-0.03200434893 -0.1739654839 0.7020910382 -0.7980037928 -0.3186463714 0.5114858747
-0.03016618453 -0.1877456903 0.6980350018 -0.7701633573 -0.2499694973 0.586150229
-0.01774144918 -0.1772897989 0.7203530073 -0.5976167917 -0.4883494079 0.6342657804
-0.009961969219 -0.1821665466 0.7236241698 -0.4804660678 -0.5199921131 0.7031005025
-0.01417994779 -0.1762890667 0.7246584296 -0.5484902263 -0.5103533864 0.6611898541
-0.000264327944 -0.1706651896 0.7370023727 -0.3118667305 -0.5569230318 0.767385602
-0.001168209012 -0.1664742231 0.7402339578 -0.3111267388 -0.5343737006 0.7846753597
-0.006779762451 -0.178572461 0.7280083299 -0.4580390453 -0.5361369848 0.7021356821
-0.006429131143 -0.1703517139 0.7343250513 -0.411418736 -0.5419906378 0.7313549519
-0.0104037514 -0.1660677791 0.7350041866 -0.4609547555 -0.5209792256 0.7158452868
-0.01065463107 -0.1736903489 0.7294872403 -0.4797656834 -0.5372691751 0.6895721555
0.05708577111 -0.08946905285 0.6631044745 -0.3115770221 -0.5289527774 0.6698897481
0.07718077302 -0.08785903454 0.6598466635 0.2594517767 -0.537632525 0.6293481588
0.06384008378 -0.08927898109 0.6614838243 -0.1100420281 -0.5333108306 0.6559737325
0.08438777924 -0.08740542084 0.6587107182 0.4739686847 -0.549268961 0.6185263991
0.06928535551 -0.08637434989 0.665109098 0.0008189236978 -0.5554388762 0.6612740159
0.05602704361 -0.09190469235 0.667868197 -0.5464467406 -0.4903699458 0.6781393886
0.04968035594 -0.08729746938 0.6660189033 -0.4819792807 -0.5320100784 0.6937991977
0.04536368325 -0.09023748338 0.6600742936 -0.4300177693 -0.5529517531 0.7104637027
0.06079046801 -0.08548641205 0.6670121551 -0.2153068632 -0.5517978072 0.6765756607
0.07467935979 -0.084053047 0.6661666632 0.1885378063 -0.5851079226 0.6629237533
0.06717243046 -0.0819471553 0.6684482694 0.004181943368 -0.5838304162 0.6726948023
0.06401371956 -0.07911816984 0.6718761921 -0.1365517974 -0.5829527378 0.6702483892
0.03898572922 -0.08113139868 0.664789021 -0.3286611438 -0.5915313959 0.7339661121
0.03547064587 -0.07689264417 0.6671313047 -0.2450808287 -0.6179933548 0.7458286285
0.03852783144 -0.07409778237 0.6708938479 -0.3050941229 -0.6117653251 0.7258386016
0.04581394419 -0.07901017368 0.6706008315 -0.4029631019 -0.5778648257 0.7063453197
0.04118342325 -0.06970500946 0.6746640801 -0.3262799978 -0.6257443428 0.7068145871
0.00212434493 -0.08965067565 0.6570195556 0.2896129489 -0.6202169061 0.7241119742
-0.004399083089 -0.09712020308 0.6539035439 0.3909311295 -0.5983905792 0.6968998313
0.003919837065 -0.09388301522 0.652207613 0.2678386569 -0.6210743785 0.7350533009
0.04422093555 -0.2023447156 0.70863837 0.4744746983 -0.5373634696 0.6902730465
0.04639010876 -0.1969660372 0.7116605043 0.5061594844 -0.5233866572 0.6838136911
0.05595186353 -0.1795031875 0.7150028348 0.6361384392 -0.4829797149 0.6010473967
0.05265909061 -0.1844394058 0.7145903111 0.585994482 -0.4865066707 0.6440517902
0.06644152105 -0.1798850298 0.6976183653 0.7735565305 -0.36638394 0.5118703842
0.07242383808 -0.1673179865 0.7039061785 0.79593575 -0.3611057401 0.4857627749
0.07309854776 -0.1231624708 0.6668158174 -0.3797466457 -0.6358460784 0.6133904457
0.07232104987 -0.1287743449 0.6611059308 -0.3067597449 -0.6859671474 0.5768737197
0.0819035694 -0.1225239187 0.6605977416 0.1692958772 -0.6372855306 0.5866215825
0.07444925606 -0.1394263208 0.6507132649 0.05309301615 -0.8068919778 0.5352903605
0.08547418565 -0.1239706129 0.6503119469 0.4454718828 -0.6126799583 0.4917691052
0.07797505707 -0.1350549459 0.6496855617 0.1917806566 -0.7481735945 0.5142204165
0.07605013251 -0.1335630119 0.6563513279 0.0264403969 -0.7572127581 0.5742673278
0.07797873765 -0.1266147345 0.662962079 -0.003002486425 -0.6980480552 0.6197795868
0.08524246514 -0.1209479049 0.6555893421 0.3598709702 -0.5968946218 0.5345820189
0.0801666677 -0.1274379492 0.6567589045 0.1647651941 -0.6825953722 0.5624495745
0.07011460513 -0.13321428 0.6549163461 -0.3658251166 -0.6776234508 0.5491961837
0.07368026674 -0.1532385647 0.6620658636 0.2160770744 -0.6148613095 0.566691637
0.07544720173 -0.1584981978 0.6616131663 0.2556993067 -0.582103014 0.5706468821
0.06308713555 -0.1383715868 0.6423559189 -0.4559473693 -0.5461076498 0.6860769987
0.05364492163 -0.1332529485 0.6311203837 -0.480353564 -0.5441209674 0.6685394049
0.05847807601 -0.1299269348 0.6333395839 -0.3177872002 -0.5284543037 0.701364696
0.03991766274 -0.09778543562 0.6525650024 -0.3431050777 -0.5825889707 0.7296351194
0.02555568144 -0.08689848334 0.6568270326 -0.09858968854 -0.6275316477 0.7704385519
0.03449513391 -0.09340512753 0.653003335 -0.2459160388 -0.6011222601 0.7591785789
0.026561331 -0.09150303155 0.6529340744 -0.1390118301 -0.6301336288 0.762855649
0.03248162195 -0.08778443187 0.6569045186 -0.2038011253 -0.6144698262 0.7598794103
0.02624589391 -0.09646939486 0.6489806771 -0.1321305335 -0.6290766001 0.7638137937
0.03266011924 -0.1237579137 0.6232933402 -0.27515921 -0.7285055518 0.6247247458
0.03476533666 -0.1166093498 0.6341189742 -0.2640639544 -0.6557474136 0.7053084373
0.02937756106 -0.1173066199 0.632250905 -0.195503816 -0.6585587263 0.7154606581
0.04725353047 -0.1323144287 0.6277207136 -0.4837664366 -0.5859331489 0.6490080357
0.02605521493 -0.1086927801 0.6389523149 -0.1372400671 -0.6368682384 0.7536064982
0.03022088297 -0.1121721491 0.6369774938 -0.1923564523 -0.6395974755 0.7393445373
0.02769425698 -0.1299265176 0.620339334 -0.1852254868 -0.7249557972 0.6298656464
0.01391898934 -0.1253469288 0.6243052483 0.08842322975 -0.7222519517 0.6820240617
0.01364021003 -0.1254861206 0.6189864874 0.1051378697 -0.7108350992 0.6887894869
0.0237115398 -0.125010103 0.626376152 -0.1047975346 -0.7293151021 0.6458941102
0.03417898715 -0.1213385761 0.6304551363 -0.2815893888 -0.6937484145 0.6514610052
0.007695642766 -0.1200479195 0.6288567185 0.2086755931 -0.6927211285 0.6900311112
0.04558066279 -0.115856126 0.6408134103 -0.443661958 -0.5745801926 0.6868059635
0.06251365691 -0.1165117547 0.6408777833 -0.01772989519 -0.5213481188 0.7643077374
0.05542150885 -0.1174282432 0.6391974092 -0.1520358473 -0.55468297 0.7351334691
-0.03223071992 -0.1817229539 0.6995413303 -0.7733014822 -0.3134435415 0.5501007438
-0.03009598143 -0.171515286 0.709061563 -0.7660566568 -0.3773033619 0.5189636946
-0.02612970024 -0.1723172069 0.7138532996 -0.7197147608 -0.4147917926 0.5556276441
-0.02861618437 -0.185930714 0.7041378617 -0.7498947978 -0.2953268886 0.5864460468
-0.02716630325 -0.1920427531 0.7036699057 -0.7240903974 -0.2645506263 0.6333386898
-0.0218388699 -0.1839203984 0.709992528 -0.6728564501 -0.3477308154 0.6506355405
-0.02700134739 -0.1773568392 0.7086051702 -0.7488328218 -0.3685761094 0.5488852262
0.03380237892 -0.1638996303 0.7434629798 0.2100695223 -0.5537187457 0.8047209382
0.02860848419 -0.1649662703 0.7435723543 0.1487353742 -0.5710850954 0.803526938
0.02873972431 -0.1703455597 0.7400678396 0.1588552445 -0.5768467188 0.7954252958
0.03027175367 -0.1753190905 0.7353833914 0.211603716 -0.5934427977 0.7728087306
0.02095010877 -0.1673685014 0.7436997294 0.03823518381 -0.5781978965 0.812507391
0.005198278464 -0.1819079369 0.7308303118 -0.2107937932 -0.6144027114 0.7598392963
0.0006992202834 -0.1760316789 0.7339371443 -0.3186985254 -0.5721790791 0.7536126971
0.07616688311 -0.1864836663 0.6825931668 0.7918524146 -0.3564887345 0.4954486787
0.07581548393 -0.1727507412 0.6813454628 0.7286865115 -0.3764177561 0.498047024
0.07551501691 -0.165549621 0.6758757234 0.5754771233 -0.4372887909 0.5217999816
0.07220036536 -0.1490243226 0.6549248099 0.009573498741 -0.6878867149 0.6084765792
0.07486000657 -0.1650847495 0.6702773571 0.4585072398 -0.4948878586 0.5394772291
0.07751931995 -0.1735139191 0.6742910147 0.6583245993 -0.407728821 0.5088177323
0.06799795479 -0.1746578068 0.7031832933 0.7756780386 -0.3781750202 0.504303515
0.0747847259 -0.175111562 0.6937758327 0.8007273674 -0.329562664 0.4995371401
0.07254330069 -0.1906924099 0.6884386539 0.7788817286 -0.3527117074 0.5181874037
0.07543577999 -0.1801249832 0.6898344755 0.7963160276 -0.3377065957 0.50105232
0.074713476 -0.1803011298 0.6845540404 0.7986046672 -0.3486992717 0.490501523
0.0796521306 -0.1764127761 0.6843141317 0.8042989373 -0.3392046094 0.4877768159
0.06830516458 -0.1261903346 0.6578483582 -0.5917220712 -0.5747734308 0.5497238636
0.06717713177 -0.1337732673 0.650550127 -0.4755936563 -0.618924439 0.6116417646
0.06526187062 -0.1276983768 0.651103735 -0.5454154611 -0.5750839114 0.5965257883
0.0648002252 -0.1226822808 0.6530755758 -0.597902298 -0.5592122078 0.5694788098
0.06052227691 -0.1296768785 0.6436949968 -0.5480581522 -0.4912454188 0.67124933
0.07082366198 -0.1199549511 0.6395281553 0.1230526641 -0.492025733 0.7873659134
0.05585002899 -0.1250232905 0.6414129138 -0.5203050375 -0.5264806151 0.6720789075
0.05104056746 -0.1234025881 0.6388081908 -0.4842520356 -0.5554413199 0.6732338071
0.04114579782 -0.1239930913 0.6310123205 -0.3936103582 -0.6516493559 0.6437572837
0.04509853944 -0.1197086871 0.6364181042 -0.3924334645 -0.5964249372 0.6828465462
0.06156017631 -0.1224259734 0.6379436255 -0.154789269 -0.5189911127 0.7331377268
0.04974516854 -0.1276070774 0.6336995959 -0.4972276092 -0.5617359877 0.6605200768
0.03680195287 -0.1299199164 0.6200476289 -0.3343411684 -0.7269556522 0.5970598459
0.03687813133 -0.1259468198 0.6270275116 -0.3370701373 -0.7169651389 0.6086571217
0.04137392715 -0.1298618615 0.6247850657 -0.3947425485 -0.6813450456 0.6135121584
0.0312801078 -0.1308748275 0.6151533127 -0.2412344217 -0.7682098746 0.5861800313
0.03297095373 -0.1008879021 0.6473227739 -0.2322402596 -0.6159635186 0.7525036931
0.03667737916 -0.1050324142 0.6448864937 -0.2796809375 -0.6104148626 0.7382873893
0.04378063977 -0.1036693603 0.6492916346 -0.3986783326 -0.569803834 0.716391325
0.03667725995 -0.1097773761 0.6409059763 -0.2829360664 -0.6225508451 0.7289552689
0.02815717645 -0.1048755646 0.6426416039 -0.1463577896 -0.6287454367 0.760705471
0.01940505579 -0.1230226606 0.6202945709 0.0005938978866 -0.7191197872 0.6905473471
0.01714838296 -0.1194483265 0.6254510283 0.02918378077 -0.692008853 0.7182533741
0.01576868817 -0.1153988093 0.6317379475 0.0402267389 -0.6707696319 0.7386347055
0.02359255776 -0.1189285889 0.6287608743 -0.08949247003 -0.7425901294 0.6589425802
0.01009546407 -0.1161831096 0.6327039003 0.1329253614 -0.6572300196 0.7368625402
0.02226321772 -0.1146390885 0.6332181692 -0.07092538476 -0.643658042 0.757132411
0.0579142496 -0.1148088798 0.6453748345 -0.3054242432 -0.5513079762 0.7038583159
0.06883110106 -0.1156003103 0.6432916522 0.05652396381 -0.5016527176 0.7756407261
0.05126060545 -0.1139473319 0.6467205882 -0.4845029712 -0.5822537541 0.6497359872
0.04599675909 -0.1107856259 0.6451955438 -0.4379746914 -0.5713998675 0.6919569969
0.05348301679 -0.1057787836 0.6546643376 -0.5737717152 -0.4945737422 0.6493751407
0.05785387382 -0.1112306565 0.6544587016 -0.5634651184 -0.5630868077 0.599753201
0.02387509495 -0.1754579395 0.7366958261 0.1118232757 -0.6021873355 0.7887665033
0.01183466613 -0.1747821569 0.737154901 -0.09333494306 -0.5859350562 0.7987902164
0.007161955815 -0.1723017395 0.7393855453 -0.208692655 -0.5750041604 0.7908737063
0.01141929068 -0.1799220294 0.7333267331 -0.1030324548 -0.6123418212 0.7792582512
0.02326665632 -0.1819090396 0.7313377261 0.1038219184 -0.6300494075 0.7683025002
0.01874200255 -0.1780378968 0.7350514531 0.02104389295 -0.6113831401 0.7861961126
0.0746351406 -0.1736063212 0.6874366403 0.8062441945 -0.3365421593 0.48639521
0.07112882286 -0.1722414047 0.6984264851 0.8047340512 -0.3382852376 0.4877178967
0.06458630413 -0.1865587234 0.7001052499 0.7284548283 -0.4023860395 0.5530343056
0.06891217828 -0.1815657765 0.6931520104 0.7939009666 -0.3491966426 0.4975662529
0.07149580866 -0.1855024099 0.6876602769 0.7894585729 -0.3568550944 0.4992811084
0.06333806366 -0.1929591447 0.6974640489 0.7350079417 -0.3925758004 0.551723659
0.06567592919 -0.1884680986 0.6949507594 0.7620543838 -0.374067843 0.5249243975
0.08471935242 -0.1201077104 0.6423735619 0.5256021023 -0.5239008069 0.6506130695
0.08177693188 -0.1301809847 0.6462627053 0.3925382793 -0.6753574014 0.5035916567
0.06057876721 -0.1245316342 0.6469945312 -0.5631241202 -0.5281286836 0.6295878291
0.0583502613 -0.1187527999 0.6489563584 -0.5394858122 -0.5699449778 0.6162568927
0.06961513311 -0.1353286207 0.6421704888 -0.152322188 -0.5780570507 0.6480438113
0.07077372819 -0.1438433379 0.6480494142 -0.1564430594 -0.7346667647 0.6356447935
0.07667499036 -0.1306331158 0.6430181861 0.1965264976 -0.597168982 0.605512619
0.06213096157 -0.1346448362 0.6377845407 -0.484754622 -0.4639405608 0.697218895
0.07293237001 -0.1263828278 0.642496407 0.04432827234 -0.3845156133 0.8879323006
0.07874791324 -0.1234137863 0.6428533792 0.335247606 -0.4711677432 0.765337348
