# .PCD v0.7 - Point Cloud Data file format
VERSION 0.7
FIELDS x y z normal_x normal_y normal_z
SIZE 4 4 4 4 4 4
TYPE F F F F F F
COUNT 1 1 1 1 1 1
WIDTH 512
HEIGHT 1
VIEWPOINT 0 0 0 1 0 0 0
POINTS 512
DATA ascii
-0.02299228497 -0.1826639771 0.6758733988 -0.06653518975 -0.6419416666 0.7384132147
-0.01678346843 -0.1820847392 0.6773138046 0.05677739158 -0.6598928571 0.7426131964
-0.02616909146 -0.1860854775 0.6795518994 -0.1340922117 -0.6604681015 0.7341817617
0.007553265896 -0.04500101879 0.6512870789 -0.3957881331 -0.697414577 0.5968931317
0.002081559738 -0.04294141009 0.6509421468 -0.3318998814 -0.7052563429 0.6232908964
0.03471662849 -0.1110771149 0.6195268035 -0.2618604898 -0.7257153988 0.6122071743
-0.07365254313 -0.1573022604 0.6526024342 -0.8075194955 -0.3316676319 0.4868421853
-0.07132808119 -0.1595740169 0.6578720808 -0.7993681431 -0.3296194375 0.5016807914
-0.04427717254 -0.181820035 0.672300756 -0.4419089258 -0.5312635899 0.7200208902
-0.03483026847 -0.1795155555 0.6795047522 -0.2977217734 -0.603346467 0.721180439
-0.03424447775 -0.1841424108 0.6757009625 -0.2791330218 -0.6086856723 0.7294654846
-0.05615637079 -0.1770827323 0.6661196351 -0.5814246535 -0.4386117458 0.6744789481
-0.05162804201 -0.1810588241 0.6700048447 -0.4954493344 -0.4692854285 0.7299833894
-0.01802170649 -0.1779644787 0.6821989417 0.02200530469 -0.6562730074 0.7481359243
0.0355479531 -0.139819175 0.6680955887 0.7804211974 -0.4247395694 0.4586182833
0.0222620517 -0.1514298767 0.6824291348 0.6574229002 -0.5331699848 0.5320841074
0.03052451834 -0.1499855667 0.6691277027 0.7590950131 -0.4478396773 0.47079283
0.03375243023 -0.1469969749 0.6640384793 0.7778794169 -0.4204139411 0.4663958251
0.0290625114 -0.1448501796 0.680233717 0.7335210443 -0.4761900604 0.482622087
0.03120993078 -0.1462926865 0.6745616198 0.76112324 -0.4477787614 0.4684619904
0.03341560066 -0.1402950138 0.6748274565 0.7655625343 -0.4485877156 0.4606482387
0.03124243952 -0.1625640094 0.6595773101 0.753803134 -0.4153355062 0.5087961555
0.0336555317 -0.1629997939 0.6546583176 0.7542473674 -0.4186736345 0.5054302812
0.03768889233 -0.1608605981 0.6506841779 0.7560727 -0.4274249971 0.4952789545
0.03439263627 -0.1572457105 0.6577329636 0.7665897012 -0.4208186865 0.4846088588
0.0374873355 -0.1503926367 0.658616364 0.7724899054 -0.4223075807 0.474016279
0.02932557277 -0.157946974 0.6635215878 0.7483896017 -0.4296036363 0.5004092455
0.0303592924 -0.170994997 0.6574090719 0.7188435197 -0.4374344647 0.5399347544
0.02607155591 -0.1655397862 0.6620983481 0.7182430029 -0.4378328621 0.5365795493
-0.0159255676 -0.04101293907 0.6471959352 -0.02620985173 -0.7763043046 0.6283038855
-0.02315971628 -0.04072182626 0.6477802992 0.09375013411 -0.770016253 0.6280266047
-0.01019988302 -0.04427385703 0.6453211308 -0.1245290264 -0.7389751673 0.6553655863
-0.009407527745 -0.04058651999 0.6493348479 -0.1427196711 -0.7553222179 0.6288804412
0.0293323379 -0.1081327349 0.6156933308 -0.4061360657 -0.6599408388 0.6195342541
0.03561685607 -0.1367000192 0.652692318 0.5733678937 -0.476634562 0.4815536737
0.03460408375 -0.1274577081 0.6416929364 0.2606592178 -0.5679501295 0.5148677826
0.03426791355 -0.1214905903 0.6344794631 0.07533660531 -0.6325855851 0.5405291319
0.03386366367 -0.1183405891 0.6293497086 -0.05207719654 -0.6725527048 0.5558492541
0.040433947 -0.1553110033 0.6495078802 0.7640763521 -0.4332789779 0.477722317
0.03257587925 -0.1528330147 0.6628448367 0.7763848305 -0.4163795114 0.4730922282
0.03784900159 -0.1036654413 0.6179917455 -0.1314268559 -0.6103056073 0.729850173
0.03251919523 -0.1022490337 0.6147741675 -0.2743352652 -0.5907004476 0.6952040195
0.0433646366 -0.1021396518 0.6199994683 0.04510847479 -0.6159379482 0.7668723464
-0.07628879696 -0.1534504592 0.6468111277 -0.8203424811 -0.3321048319 0.4655583501
-0.07630256563 -0.14799577 0.6496677399 -0.8274359703 -0.3225987554 0.4592905939
-0.0289315898 -0.1776423007 0.6781849265 -0.2047625631 -0.6368460655 0.7394143343
-0.03876489028 -0.1741189808 0.6801649332 -0.3768455684 -0.5754297972 0.7148982286
-0.07074151188 -0.09429667145 0.6359429359 0.574195385 -0.5149946213 0.5190817118
-0.0752427876 -0.1203341112 0.6491273046 -0.3160442412 -0.371990025 0.4693377614
-0.07074447721 -0.08961436152 0.6401219964 0.6157745123 -0.5125812888 0.5069547296
-0.07339114696 -0.1120180562 0.6415787339 0.02867804654 -0.4319981039 0.4959632158
-0.07655458152 -0.1309154928 0.6503132582 -0.6023416519 -0.3317919075 0.46254462
-0.07056561857 -0.1076732352 0.6316930056 0.3834436238 -0.5003612638 0.5320612788
-0.07234856486 -0.1009555236 0.6434117556 0.2755265534 -0.4613632262 0.4933225811
-0.07483778894 -0.1248960197 0.6451955438 -0.3339597881 -0.37804088 0.4818522036
-0.07146783173 -0.1038689762 0.6378000975 0.3344106674 -0.4809781611 0.5119405985
-0.07439144701 -0.1154340059 0.6471372247 -0.1534902304 -0.3974613249 0.4772977233
-0.06996714324 -0.1013544649 0.6315103769 0.5377300978 -0.520881772 0.5340991616
-0.07324023545 -0.1069799289 0.6451669335 0.09233467281 -0.433727324 0.4859506786
-0.07380346209 -0.1189189628 0.6415140033 -0.122553058 -0.4128591716 0.4951587319
0.005781902 -0.1818864644 0.6710042357 0.4244395196 -0.6124129295 0.6648460627
-0.001546786982 -0.182309702 0.6742309332 0.305986017 -0.6439114213 0.6972702146
-0.0662978217 -0.1017593816 0.6222702265 0.6164120436 -0.5480299592 0.5643072128
-0.07339182496 -0.1475384384 0.6586376429 -0.8290024996 -0.3270169795 0.4524338245
-0.06785392761 -0.08004052937 0.6438879967 0.6748613715 -0.533854723 0.5092417598
-0.07084313035 -0.0775065124 0.6517427564 0.6772992015 -0.5308735371 0.5092307329
-0.07114053518 -0.07460067421 0.6570420861 0.6731437445 -0.5351991653 0.5102257729
-0.0600110814 -0.104171209 0.6086162925 0.5678465366 -0.5618441701 0.6014944315
0.03780217469 -0.1487857997 0.6443380713 0.6065084338 -0.4737007916 0.4879550338
0.03407458588 -0.1289888471 0.6353388429 0.1645693928 -0.5978026986 0.5273817182
0.03481722623 -0.1353919804 0.640950501 0.3475737572 -0.5449364781 0.5087178946
0.03643256426 -0.1267926842 0.6299071908 0.1001790315 -0.6459884048 0.5479208827
0.03364700824 -0.1184261367 0.6232506037 -0.1714909226 -0.7004511356 0.5653692484
0.04087978601 -0.1115289554 0.623346746 -0.04990874231 -0.7895696759 0.6012200713
0.04018826783 -0.118445389 0.6270951033 0.06609769166 -0.7306513786 0.580050528
0.03794457391 -0.1431300491 0.6406042576 0.4882574379 -0.5214139223 0.5050020814
0.03673756123 -0.139776513 0.6622148752 0.7871243358 -0.4131598473 0.45753178
0.03843402117 -0.1470025927 0.6501509547 0.7021405697 -0.4555402994 0.4796603024
0.03861941397 -0.1350026876 0.6463313699 0.5194658041 -0.5355861783 0.506793797
0.03987552971 -0.118311502 0.6330882907 0.1577243209 -0.6969356537 0.5657727718
0.0393487066 -0.1309387237 0.6397429109 0.3857234418 -0.5960858464 0.5301631093
0.03963154182 -0.1367379427 0.6386301517 0.4338416457 -0.5760600567 0.5249738097
0.03754278272 -0.1428318173 0.6564155221 0.7417090535 -0.4354842603 0.4687588811
0.02737954818 -0.1514931023 0.673758328 0.7414277792 -0.4633029699 0.4844010472
0.005625920836 -0.1658726484 0.6839073896 0.4081710279 -0.6110439301 0.6774617434
-0.07041406631 -0.1638061255 0.6617658138 -0.7843570113 -0.3391818404 0.5167531371
-0.06110975519 -0.1638542265 0.6642905474 -0.7074972987 -0.3754278123 0.5918314457
-0.0713230744 -0.1535744816 0.6571547389 -0.8132016659 -0.3387176991 0.472366482
-0.06863289326 -0.1528564394 0.6635838151 -0.7953838706 -0.3534855247 0.4906216562
-0.05559641495 -0.1709010899 0.6713194251 -0.5834342837 -0.4677099288 0.6572090983
-0.03512579203 -0.1670437455 0.6856597662 -0.3166922927 -0.5916028023 0.7407870293
-0.03357417136 -0.1724189967 0.68282938 -0.2784146369 -0.6087454557 0.7397726178
-0.02911840379 -0.1663622409 0.6883913875 -0.2103162259 -0.6329200268 0.74004668
-0.02912457474 -0.1732139438 0.6861465573 -0.2005372196 -0.6545917392 0.7240381241
-0.03435977176 -0.1624003053 0.690880537 -0.3009207249 -0.6533174515 0.694449544
-0.03919634596 -0.1780581474 0.6742768288 -0.3666907251 -0.5740289092 0.727942884
-0.05102456361 -0.1748783141 0.6686899066 -0.5305515528 -0.4623797536 0.7017557025
-0.04551708326 -0.1765327305 0.6753591299 -0.4583318233 -0.5218249559 0.7181611061
0.01927485876 -0.05766481534 0.6487439275 -0.5726049542 -0.5744188428 0.5798519254
0.01352398284 -0.05359818041 0.6464939117 -0.4780087471 -0.6415115595 0.5983889699
-0.06280902773 -0.05813884363 0.6592555642 0.6261540055 -0.5761992335 0.5248651505
-0.06132510304 -0.05316278338 0.6630414128 0.605953455 -0.5871636271 0.5366493464
-0.06601049751 -0.05585807934 0.6653596759 0.6174266338 -0.5803343058 0.5308687687
-0.06670075655 -0.1367693543 0.6838469505 -0.7287259102 -0.4705581665 0.4962339997
-0.06610045582 -0.1304597855 0.6910738945 -0.6894400716 -0.5128350258 0.5062039495
0.0124775786 -0.1793212891 0.6677808166 0.5278337002 -0.5686838031 0.6283373833
0.00686828373 -0.1753513515 0.6738206744 0.4330458045 -0.5930659175 0.6725876927
0.009538431652 -0.1708094478 0.6777057648 0.4635919631 -0.5890219808 0.6606299877
0.01355508156 -0.1740207374 0.6716969609 0.5582493544 -0.5391489863 0.6303771138
0.01392553281 -0.167838484 0.6753948331 0.544796288 -0.5454711318 0.6300069094
0.04860562459 -0.09574505687 0.619104147 0.1789991111 -0.5698003769 0.7999614477
0.02689782903 -0.09999267757 0.6182881594 -0.5224249959 -0.6049384475 0.5973192453
0.02081322111 -0.09716258943 0.6126202345 -0.5500323176 -0.5297835469 0.6439570189
0.02831630409 -0.09234983474 0.6147092581 -0.3044550419 -0.5361623168 0.6972959638
0.04112782329 -0.09256467223 0.6176725626 -0.0009287834982 -0.5494359136 0.7737071514
-0.04215196893 -0.1471277624 0.6999700069 -0.443477571 -0.6190685034 0.6478948593
-0.04345297441 -0.1013370007 0.5980065465 0.3718522191 -0.5933224559 0.7131214738
0.01232751459 -0.09597946703 0.6051976085 -0.5211941004 -0.5506521463 0.6474875808
0.01037769113 -0.1001268253 0.6006674767 -0.47392416 -0.5882443786 0.653431654
0.007012594026 -0.0957563594 0.6022995114 -0.4087890685 -0.6288335919 0.6577771306
0.02270245552 -0.1015583128 0.6089711785 -0.4480930567 -0.5223905444 0.6921578646
0.02692683414 -0.09779249132 0.6127066612 -0.3101102114 -0.5709900856 0.7047805786
0.03183408827 -0.0962664187 0.6164844036 -0.1963870227 -0.5939445496 0.7322741151
0.01732453145 -0.1005122289 0.6055550575 -0.5335626006 -0.5264142752 0.6504253745
0.03769277409 -0.09758558869 0.618157804 -0.04972363636 -0.6173345447 0.7716655731
0.01638638228 -0.09405896068 0.6103876829 -0.5517239571 -0.5344668031 0.6401457787
-0.003178408835 -0.04191691801 0.6502620578 -0.258382231 -0.7202910185 0.643453598
0.003247417277 -0.04755519331 0.6459928155 -0.3545198739 -0.6719904542 0.6485233307
-0.001974537969 -0.04583274573 0.6454257369 -0.260242492 -0.7043243051 0.6544867754
0.003804751439 -0.1614399701 0.6877312064 0.3924541175 -0.6319561601 0.6606185436
-0.0005775979371 -0.1648812145 0.6879381537 0.3064697385 -0.6476972103 0.6939917207
-0.05992204696 -0.09643656015 0.6149086356 0.6093110442 -0.5414447784 0.5785031915
-0.03563409671 -0.04254443198 0.6496102214 0.310374856 -0.7110204101 0.6285885572
-0.01861635037 -0.05641048029 0.6324438453 0.009758947417 -0.6862697005 0.7220213413
0.05574049056 -0.07015185803 0.6352078319 0.4017383158 -0.6298826337 0.5805791616
0.04322973266 -0.07218845934 0.6342660785 0.03049473278 -0.580489099 0.580910027
0.03664029017 -0.07142507285 0.635179162 -0.1651440114 -0.5666096807 0.5792281032
0.02686778456 -0.0695823282 0.636828959 -0.4450760484 -0.5477503538 0.579053998
0.05033040792 -0.07208878547 0.6336660981 0.2545649409 -0.5976836085 0.5857338309
-0.06984847784 -0.169792369 0.658813417 -0.7531756163 -0.3662740588 0.5462080836
-0.06236049533 -0.1741641015 0.6642416716 -0.6702474952 -0.4071401656 0.6165350676
-0.06416130811 -0.1678089648 0.6615157127 -0.7138234973 -0.3828011751 0.5757730603
-0.06716182083 -0.1465131491 0.6729435325 -0.7809337974 -0.4141052365 0.4669999778
-0.06761372089 -0.151368916 0.6689932346 -0.7884506583 -0.371927619 0.484367162
-0.06904516369 -0.1588479728 0.6649997234 -0.7865512371 -0.3488750458 0.504696548
0.02831603959 -0.06030373648 0.6563897729 -0.554889977 -0.5406799912 0.6271120906
0.01931690983 -0.05232110992 0.6520320773 -0.5411860943 -0.5994356275 0.5888718367
-0.06144115701 -0.1289148778 0.7005639076 -0.6115473509 -0.5566148162 0.5618925691
-0.0586797893 -0.1366836429 0.6950354576 -0.6449791789 -0.5392968059 0.5403075814
-0.06306473166 -0.1365664601 0.6896834373 -0.6856554151 -0.5057518482 0.5208397508
-0.003771254793 -0.07451315224 0.6168586016 -0.2199700177 -0.6661085486 0.7112392783
0.003357107518 -0.07582862675 0.6179156899 -0.332031101 -0.6519382596 0.6795284748
-0.02932736836 -0.07646586001 0.6143430471 0.170685336 -0.6896727085 0.6990818977
0.01695110649 -0.05860285833 0.6439158916 -0.5320543647 -0.5904564857 0.6059085727
-0.0546290651 -0.05719817802 0.6490332484 0.5885705948 -0.5947358012 0.546312809
-0.05962286144 -0.05861286074 0.6533331275 0.6199869514 -0.5793648958 0.5280689001
-0.05597995594 -0.04979241267 0.6598896384 0.572586298 -0.6115528345 0.5428183079
-0.05426781252 -0.05300127715 0.6531592607 0.5824272633 -0.6037743688 0.5413396955
-0.05143611878 -0.04682467133 0.6555746198 0.5323853493 -0.6421924829 0.5506530404
-0.0769956708 -0.1385972649 0.6558719873 -0.8402950764 -0.303466022 0.4480981231
-0.073985219 -0.1394816339 0.6631966233 -0.8193861246 -0.3669334948 0.4366583526
-0.07097315788 -0.06478877366 0.665620029 0.6527611017 -0.5535202026 0.5168603659
-0.02079741843 -0.1671534479 0.6892516613 -0.04988982528 -0.654407084 0.749402225
-0.02402527817 -0.1786001623 0.6844363213 -0.09934257716 -0.6661134362 0.7361420989
-0.0223724544 -0.1723486334 0.6874873042 -0.07201466709 -0.6661064029 0.7381113768
-0.01659279317 -0.171237722 0.6855982542 0.03743503988 -0.6501184702 0.7568722367
-0.01251264662 -0.1672168672 0.6895432472 0.1069205925 -0.68043226 0.722266376
-0.01263830625 -0.1764262915 0.6802687049 0.1211793423 -0.6577561498 0.7416932583
-0.008945475332 -0.1827717423 0.6761859655 0.1877069771 -0.6599143744 0.7234675884
-0.005770037416 -0.1682917178 0.6869522929 0.2103825808 -0.652841568 0.7240065932
-0.01101846341 -0.1713938117 0.6848831773 0.1253298521 -0.6521472335 0.7427341938
0.01503837854 -0.07836207747 0.6232970953 -0.5347291827 -0.5786567926 0.6156662107
0.008841676638 -0.07450310886 0.6235587001 -0.4320842028 -0.6183831096 0.6466433406
0.01541420817 -0.07600262016 0.628508687 -0.538715899 -0.5765106082 0.5998569131
0.05164016783 -0.07704843581 0.6287692189 0.2608451247 -0.6183251739 0.5815146565
0.06279158592 -0.08233200759 0.6255595088 0.5235771537 -0.6119456291 0.5922323465
0.0618676804 -0.07284966111 0.6315755844 0.5196949244 -0.6188117862 0.588953495
0.03378784657 -0.07964394242 0.6266948581 -0.2016541362 -0.5879084468 0.5824357867
0.02702474967 -0.07999569178 0.626914978 -0.3896602094 -0.5713210106 0.5804435611
0.04956874251 -0.08054577559 0.6241798401 0.2476183921 -0.6115583181 0.6285633445
0.04369107261 -0.08418720216 0.6214923263 0.07653065026 -0.5597770214 0.7054114342
0.03610543162 -0.08523721248 0.6203448772 -0.1124294326 -0.5406544209 0.7200658321
0.03895630687 -0.08099865913 0.6232207417 -0.007874039933 -0.59808743 0.6255320907
0.04913973436 -0.08688051254 0.620124042 0.182177484 -0.5284481049 0.774730444
0.04409666359 -0.07856796682 0.6277931333 0.05356215686 -0.6062968969 0.5786185861
0.03040387668 -0.07743375003 0.6313632131 -0.3918233216 -0.5563921928 0.5654877424
0.05601201206 -0.08938902617 0.6205555797 0.3140365779 -0.5331522822 0.7740989923
0.06070605293 -0.09181731194 0.6224929094 0.3850086629 -0.5711345673 0.7190777063
-0.03998801112 -0.08973213285 0.6061196923 0.376618892 -0.6153808236 0.6882321239
-0.02897871844 -0.08611133695 0.6047448516 0.1757230312 -0.6531231403 0.7244140506
-0.03956542909 -0.09415764362 0.6022334695 0.363039583 -0.6046385765 0.7070578337
-0.03875397518 -0.09780874103 0.5977165103 0.3367877305 -0.6001918912 0.7248558402
-0.02830985002 -0.09615436941 0.59688586 0.1773859262 -0.639969945 0.738247931
-0.01311429683 -0.1007749215 0.5885104537 -0.03907794505 -0.6707524061 0.7063786983
-0.01429991797 -0.09607342631 0.5936241746 -0.01866737939 -0.67338413 0.7294770479
-0.02720365673 -0.1010137051 0.5929743052 0.1662597805 -0.6267346144 0.7196152806
-0.03422936797 -0.1009205654 0.595413208 0.2687929571 -0.6050696969 0.727203846
-0.01895828918 -0.09908557683 0.5915237665 0.0433735624 -0.6597076058 0.717767179
-0.005101446528 -0.053237468 0.637212038 -0.2049873918 -0.6903208494 0.6911119223
-0.004195320886 -0.05856866017 0.6318582296 -0.2243669182 -0.6726999879 0.7023655176
-0.01292198617 -0.05863691866 0.6293730736 -0.07852766663 -0.6840040088 0.7233896852
0.00933950115 -0.05478404462 0.6421548724 -0.4243781269 -0.645780623 0.6311358213
0.006153552793 -0.05667452514 0.6378878355 -0.3857498467 -0.6531980038 0.6501643658
-0.05587471277 -0.09037686139 0.6171199083 0.5896697044 -0.559030354 0.5792858601
-0.05183910578 -0.09109595418 0.6116544008 0.5328757763 -0.5808314085 0.6150201559
-0.04743931442 -0.09940099716 0.6022983789 0.4419013858 -0.6092566252 0.6581893563
-0.05091074109 -0.09587427229 0.6059473157 0.5127043128 -0.5764051676 0.6350063682
-0.05411974341 -0.1015656814 0.6054451466 0.532292366 -0.57035321 0.6246641278
-0.0222317446 -0.09353565425 0.5969997048 0.09072554111 -0.6656068563 0.738802433
-0.01801888272 -0.08800222725 0.6023280621 -0.007988235913 -0.6957759857 0.7099145651
-0.008640959859 -0.09579175711 0.5907782912 -0.1192057431 -0.681797564 0.7174142003
-0.01260731742 -0.08942517638 0.5987357497 -0.07098962367 -0.6986387968 0.7089048624
-0.005375115667 -0.08773516119 0.6035149097 -0.2063793689 -0.6915742755 0.6913050413
-0.01115892455 -0.08556413651 0.6044312119 -0.1044447348 -0.7023952007 0.7003198266
0.006025590468 -0.09087237716 0.6057941318 -0.3857890069 -0.6230269074 0.6771991253
0.01144680474 -0.09004347771 0.6089842319 -0.4749771953 -0.5742567778 0.6656188369
0.0004186092701 -0.08773370087 0.6056816578 -0.2988377213 -0.6476380229 0.6961550713
0.006613289006 -0.08184804767 0.6139816642 -0.3928822875 -0.6304845214 0.6659917235
0.005619249772 -0.08604297787 0.6095936298 -0.3769946992 -0.6176349521 0.6875509024
0.02544796467 -0.08723435551 0.6164978147 -0.3034709096 -0.5530788898 0.6843442321
0.01851700246 -0.08382836729 0.6191256046 -0.475119859 -0.5685990453 0.6348443627
0.03052616306 -0.08580197394 0.618891716 -0.2186354101 -0.5455899835 0.7037344575
0.01300889812 -0.08213311434 0.6183735728 -0.5168689489 -0.5828665495 0.6265692711
0.02652346715 -0.0903570354 0.626285255 -0.6099021435 -0.5667542815 0.5527992249
0.02154847048 -0.08388050646 0.6261816025 -0.6057587862 -0.5496039391 0.5751718879
0.02581803873 -0.09369727969 0.6215785146 -0.5910313725 -0.5572019815 0.5829365849
0.01579535007 -0.08872736245 0.6148575544 -0.5406387448 -0.5601504445 0.6269899011
0.02249642462 -0.08846439421 0.622508347 -0.5910724998 -0.5524476767 0.5874453187
0.02122960798 -0.1624042392 0.672693193 0.6516232491 -0.4864810705 0.5812498927
0.01264352165 -0.1637209952 0.6798389554 0.5233655572 -0.5637434721 0.628187716
0.02252806909 -0.1551177055 0.6770538092 0.6748600602 -0.507017374 0.5304655433
-0.06139472499 -0.09282641113 0.6206794977 0.630002439 -0.5439194441 0.5542371869
-0.06923118979 -0.09682452679 0.627753675 0.6425713897 -0.5374520421 0.5455027819
-0.06388080865 -0.102346465 0.6148346066 0.5996405482 -0.5413944721 0.5889818668
-0.05172876641 -0.08133748174 0.6211358309 0.539085269 -0.5934079289 0.5949892402
-0.04634837806 -0.08000082523 0.6178269386 0.4528106153 -0.6248981357 0.6310845613
-0.06435932964 -0.07168646157 0.646140933 0.6640253067 -0.5443654656 0.5125356913
0.025250623 -0.1621180773 0.6685095429 0.7104919553 -0.4487963915 0.5381035209
0.02750685252 -0.1557827443 0.6695857644 0.7400071025 -0.4420476854 0.5040123463
0.0203493014 -0.1755007207 0.664757669 0.6483083963 -0.5006411672 0.5634123087
0.01881620288 -0.1679711044 0.6714894176 0.6229783893 -0.5067089796 0.5917884111
0.02334156074 -0.1695262343 0.6658862829 0.6889394522 -0.4697694778 0.5511283875
0.0251874011 -0.172440812 0.6617551446 0.70410496 -0.4650841355 0.5364961624
-0.02996818908 -0.04327857867 0.6464878321 0.1976842433 -0.7402495146 0.6363307238
-0.04270602763 -0.06215601414 0.6332221627 0.4081395566 -0.6433535218 0.6427552104
-0.03621337563 -0.0618282184 0.6319052577 0.2940984368 -0.6632608771 0.6689940691
-0.03086453862 -0.059066277 0.6314240694 0.203026399 -0.6866897345 0.6951442361
-0.0105136903 -0.07341041416 0.6166412234 -0.1219929084 -0.6809853315 0.719113946
-0.02496012487 -0.07328039408 0.6169505715 0.09965804964 -0.6990046501 0.7071993947
-0.01619048975 -0.0743348524 0.6143846512 -0.03135890141 -0.6902512312 0.7212084532
-0.05666258186 -0.1339492202 0.7003356814 -0.5921379924 -0.5658204556 0.5716847777
-0.03426643461 -0.12323948 0.7272333503 -0.2514984906 -0.6466748118 0.7166288495
-0.03904913366 -0.12410786 0.7228847146 -0.3412764668 -0.6207697392 0.6893575788
-0.04500931874 -0.1263968498 0.7187016606 -0.4367104173 -0.6051912904 0.6613327265
-0.0273011215 -0.123550579 0.7294687629 -0.1477649808 -0.6549095511 0.74028337
0.03930041194 -0.1194073856 0.6393896937 0.2426128387 -0.6536028385 0.5535979271
0.0399969928 -0.1040950045 0.6383602023 -0.0005304636434 -0.7389883399 0.6087690592
0.04063851386 -0.1060477942 0.6294211745 -0.06552796811 -0.7820352912 0.6125817895
0.03982048854 -0.1122494414 0.636493504 0.1033918485 -0.7078774571 0.5822767019
0.03865520284 -0.1207536086 0.6467325091 0.340752095 -0.6029704809 0.540073216
0.03730134666 -0.1304453909 0.6587222219 0.6146557331 -0.4815053344 0.4915921986
0.05154173449 -0.1019034609 0.6231347322 0.2208135128 -0.6519339681 0.713799119
0.04118402302 -0.09727454185 0.6383095384 -0.06755143404 -0.757797122 0.6398880482
0.04677560925 -0.1064154878 0.6225352287 0.09461517632 -0.7177117467 0.6627981067
0.05316930264 -0.07116504014 0.6544779539 0.4232999384 -0.5548748374 0.7128947377
0.05810012668 -0.07056064904 0.6434928775 0.4896301925 -0.5842319131 0.6384543777
0.0613556765 -0.07874152064 0.6311471462 0.5148136616 -0.6067172289 0.6007877588
0.05898262933 -0.07836517692 0.6370020509 0.4827986658 -0.5880161524 0.642028749
0.05529953912 -0.07522663474 0.647317946 0.4413128495 -0.5653621554 0.6919258833
0.04447337613 -0.08849853277 0.6450542212 0.05670506507 -0.6977730989 0.6658695936
0.05763899907 -0.08454049379 0.6368929148 0.3915175498 -0.571099937 0.7173557878
0.05162613839 -0.08638111502 0.6405833364 0.2382534593 -0.6291239262 0.6937636733
0.05545344204 -0.08040761948 0.6436085701 0.3871297836 -0.5672413111 0.7201324105
0.05757006258 -0.09109967202 0.6296178699 0.3198841214 -0.6057350039 0.701628983
0.04903059825 -0.08367713541 0.646091938 0.2094853967 -0.6359936595 0.6918504238
0.05215936154 -0.09044555575 0.6355245113 0.2066613883 -0.6459439993 0.6858614087
0.06009624526 -0.08618829399 0.6308001876 0.4315146506 -0.5799375176 0.6869119406
0.04663788155 -0.07859648764 0.6527745724 0.186850071 -0.6302145123 0.707455337
0.0236970298 -0.1413966864 0.6910853982 0.6457013488 -0.5581253767 0.5195103288
0.02703157999 -0.1421550363 0.6855905652 0.6949080825 -0.5192382932 0.4957995117
0.02709905244 -0.1369455457 0.6899229884 0.6703668833 -0.5333560705 0.5134382844
0.03098998219 -0.1380450726 0.6808652878 0.7256436944 -0.490222156 0.4785586298
0.01179935597 -0.06194925308 0.6358594298 -0.4701192379 -0.6143789887 0.6334984899
0.007191013079 -0.06549504399 0.6300485134 -0.3915143907 -0.6288630962 0.668851018
0.006151626352 -0.06103507802 0.6335032582 -0.3692198396 -0.6409692764 0.6716037393
-0.06485841423 -0.1614326686 0.6694587469 -0.7344809175 -0.4127645195 0.5358284712
-0.06807352602 -0.1728529334 0.6628237367 -0.7340553403 -0.3753919303 0.5647017956
-0.06349284947 -0.1557566524 0.6706160903 -0.7432693243 -0.4132551253 0.522180438
0.02519337088 -0.0509727709 0.6607985497 -0.5262863636 -0.6020150185 0.5990846753
-0.06235866249 -0.1491485834 0.6801435947 -0.7190670371 -0.4712157547 0.5090281963
-0.06388200819 -0.1508728117 0.6746739745 -0.7455675602 -0.4429896772 0.4957984388
-0.06252095103 -0.1424852461 0.6856516004 -0.6914734244 -0.5022502542 0.5164185166
-0.05733789131 -0.1418781281 0.6916399598 -0.6406702399 -0.5334085226 0.5512884259
-0.05887751281 -0.1483405977 0.685505867 -0.6651799679 -0.5082972646 0.5418288112
-0.01536972262 -0.163217485 0.6937141418 0.05488955975 -0.6956015825 0.7137052417
-0.02532120049 -0.1591897607 0.6965972185 -0.1588592231 -0.6860898733 0.7093573809
-0.01844764873 -0.1593234241 0.6976059079 -0.01195608452 -0.700524807 0.7089027166
-0.02133947425 -0.1557125747 0.7006736398 -0.07787863165 -0.6939056516 0.7076056004
-0.008834965527 -0.1623922586 0.6932597756 0.1653908342 -0.6847547889 0.7050874829
-0.01250445005 -0.1590489298 0.6971739531 0.09659072012 -0.6989329457 0.7032654881
-0.00627005985 -0.1556046754 0.698756516 0.2047724426 -0.6916896105 0.6894987822
-0.07215968519 -0.1389124095 0.6696366668 -0.8050732613 -0.408134371 0.430287689
-0.07058168203 -0.1369083375 0.6759518385 -0.7808862329 -0.4287168384 0.4518014789
-0.0715482235 -0.1469964832 0.6654477119 -0.8204690218 -0.3312433362 0.4643892646
-0.06537974626 -0.1432286203 0.6800199747 -0.7374846935 -0.4633625448 0.4871590734
-0.003146567615 -0.1723848134 0.6823326349 0.2587020695 -0.6437918544 0.7164394259
0.001740285428 -0.1766702533 0.6771162152 0.3576588035 -0.6269664168 0.689884305
0.003024252364 -0.1710746586 0.6808190346 0.375634551 -0.6175870895 0.6906552315
0.02054597437 -0.07627286017 0.6317769289 -0.608313024 -0.5442460179 0.5757524967
0.01430867426 -0.06998378038 0.6316655874 -0.5099377036 -0.5859109759 0.624627769
0.03786206618 -0.108319506 0.648627758 0.1870004833 -0.6489886045 0.5792736411
0.03836549819 -0.1006915867 0.645170629 0.0357600525 -0.7085307837 0.6101136804
0.03603933752 -0.113278389 0.6267991662 -0.02974699065 -0.7416818738 0.5973377228
0.03640794381 -0.1264901459 0.646843195 0.4102902114 -0.5642214417 0.5225937366
0.03701525182 -0.1220340505 0.6544495821 0.4524462819 -0.5446224213 0.5246566534
0.03645646945 -0.1303347796 0.6515225768 0.5230419636 -0.5189589262 0.5027014017
0.03691440821 -0.1143556833 0.6450269222 0.2262400687 -0.6354453564 0.5645090938
0.03653541952 -0.1087959111 0.6321959496 -0.01724933833 -0.7344359756 0.6030454636
0.03716457263 -0.1156886816 0.6512314081 0.3261125386 -0.5944119692 0.5502298474
0.03707458824 -0.1080572456 0.642067492 0.1039568782 -0.6835674644 0.5895145535
0.05657836422 -0.08218763024 0.6236058474 0.4007495344 -0.5966178179 0.6731011868
0.02557878755 -0.07854189724 0.6355429292 -0.6607503295 -0.520581305 0.5398359299
0.05576613545 -0.09662651271 0.6250982881 0.2793436646 -0.6258042455 0.7059081793
0.04956176877 -0.0990877822 0.628235817 0.1562445015 -0.6723556519 0.696429193
0.04597492516 -0.09780975431 0.6331233978 0.0636107251 -0.7051471472 0.6774801016
-0.04382960126 -0.1577616781 0.6893422604 -0.429341048 -0.6124206185 0.6587277651
-0.03742541745 -0.1584172994 0.6926596761 -0.344902724 -0.6461198926 0.6772731543
-0.03396294639 -0.09444488585 0.5982340574 0.2760414481 -0.6193783283 0.7322459817
-0.02792164497 -0.08953265846 0.6002203822 0.1738814116 -0.6593607664 0.7259505987
-0.03523723036 -0.08788170666 0.602925241 0.262680918 -0.6371223927 0.7241981626
-0.02701996081 -0.08114568144 0.6100042462 0.1310034841 -0.6919586062 0.7058276534
-0.03440128639 -0.08350536972 0.6073532104 0.2515369654 -0.6572310925 0.7100678682
-0.03409279883 -0.07937441766 0.6117203832 0.2423039526 -0.6728087664 0.6981210709
-0.005089511164 -0.09266079962 0.5998463631 -0.2266728282 -0.6896972656 0.6817196012
-0.003766950453 -0.1001254097 0.5870871544 -0.1873035431 -0.6884510517 0.6984491348
0.001610969543 -0.09518802911 0.5998065472 -0.3294544518 -0.659391582 0.6738461852
-0.00137882377 -0.09653735161 0.5935707688 -0.2494421452 -0.6638578176 0.6965487599
-0.008400603198 -0.04754379019 0.6410333514 -0.1596053541 -0.7197501063 0.6737531424
-0.01477643661 -0.04823117703 0.6397876143 -0.04601142183 -0.7199436426 0.6913266778
0.01568006724 -0.06627159566 0.6358884573 -0.5254710317 -0.5873570442 0.6126134396
0.02161581814 -0.07310535759 0.6364293694 -0.6110618114 -0.5301457644 0.5824235082
0.02698273212 -0.07517296076 0.6412621737 -0.6773680449 -0.4912768304 0.5470852852
-0.05012269691 -0.08496806026 0.6165928841 0.5149371028 -0.5954549909 0.6106294394
-0.04580178112 -0.08832047135 0.6106564999 0.4594210684 -0.6045125723 0.6484840512
-0.04553800821 -0.09334972501 0.6036821008 0.4323854446 -0.6028852463 0.6704616547
-0.04055708647 -0.084349446 0.6104590297 0.3605912328 -0.6383429766 0.6734873056
-0.02189470641 -0.08121082932 0.6083653569 0.05318360776 -0.6933663487 0.7151601315
-0.006004485302 -0.0816758126 0.6095021367 -0.1788759083 -0.6806731224 0.7070888281
-0.02138490602 -0.07695686072 0.6127004027 0.04599550366 -0.6946612597 0.7138007283
-0.040653117 -0.169037506 0.6825614572 -0.4145262837 -0.5675377846 0.7092620134
-0.04042009637 -0.1644764394 0.6870479584 -0.40710783 -0.5929748416 0.6924245358
0.01810762659 -0.1580771953 0.6801858544 0.6033359766 -0.5497805476 0.575940907
0.01467276085 -0.1558553725 0.6872068644 0.5369809866 -0.5935979486 0.5987155437
-0.06279630214 -0.08963600546 0.6255521178 0.6451090574 -0.5411943197 0.5393252373
-0.05509466305 -0.0775853917 0.6290308833 0.5974479914 -0.567286253 0.5652917624
-0.05671960115 -0.08236762881 0.6259627342 0.6221952438 -0.5490495563 0.5578525662
-0.04568777606 -0.07464791089 0.6231339574 0.4480871856 -0.6316172481 0.6321908832
-0.05037990957 -0.07565071434 0.6261248589 0.5289712548 -0.6014082432 0.5951076746
-0.07078568637 -0.07074498385 0.6628459096 0.6653681993 -0.5424206257 0.5128363967
-0.0690144375 -0.0713064298 0.6518118978 0.6717467904 -0.5345525146 0.5127700567
-0.06351678818 -0.06388591975 0.6529696584 0.6466537118 -0.5552895665 0.5228427649
-0.05906696245 -0.06408965588 0.6466538906 0.6353285909 -0.5619103312 0.5289216042
-0.06683899462 -0.06351471692 0.6579261422 0.6478410363 -0.5550905466 0.5216684341
-0.05922066048 -0.06841359288 0.6434827447 0.6316046715 -0.5567509532 0.5387185812
-0.05221126974 -0.07006667554 0.6329892874 0.5539752245 -0.5925646424 0.5831320882
-0.05892131105 -0.07353355736 0.6385605335 0.6253385544 -0.5500784516 0.5533128381
-0.06056926027 -0.0793851316 0.6341889501 0.6417485476 -0.5369797349 0.5475267768
-0.05518251657 -0.06885162741 0.6385939717 0.5861861706 -0.571655035 0.5724790096
-0.02047802508 -0.05195333064 0.6366658211 0.04990796372 -0.7055855393 0.701624155
-0.02393612824 -0.04617153108 0.6428716779 0.1214147881 -0.7235044241 0.6757823229
-0.02535798587 -0.05405367166 0.6343470216 0.1389407218 -0.6953468919 0.7025119662
-0.04654537886 -0.0501290001 0.6487165689 0.4846970439 -0.6512389183 0.5813810229
-0.04865418747 -0.05518652871 0.6458278894 0.5100086927 -0.6290643215 0.5827323198
-0.03874748573 -0.06533251703 0.6275427341 0.3321055472 -0.6597566605 0.6687522531
-0.03300805017 -0.06398142874 0.6271541715 0.2256856561 -0.677000463 0.6965945959
-0.01413027663 -0.06935860217 0.6200301647 -0.06230557337 -0.6874656081 0.7231606841
-0.01019030064 -0.1267745346 0.7274955511 0.06283491105 -0.6677353382 0.7377877831
-0.005761335138 -0.1284004301 0.7237741351 0.1452665031 -0.6607880592 0.7297238708
-0.01015830785 -0.1326250285 0.7229977846 0.0944115445 -0.6616449952 0.7404840589
-0.01891174912 -0.1243231669 0.7298349738 -0.04366467893 -0.6634576917 0.7455908656
-0.01591067016 -0.1284082979 0.7268491387 0.02305378392 -0.6639701724 0.7464445233
0.01051155105 -0.1613318473 0.6858098507 0.4701183438 -0.5977864861 0.6459801793
-8.343816444e-05 -0.1567695141 0.695453465 0.305652976 -0.6701524854 0.6723127365
0.03441244364 -0.05507241562 0.6522468925 -0.2371658236 -0.6641536355 0.5745751858
0.0223635342 -0.04931144044 0.6561411619 -0.5335271358 -0.6039302349 0.5803436637
0.04337486997 -0.05912313238 0.6494089365 -0.01208267547 -0.7113308907 0.5702528954
0.03277484328 -0.05444625393 0.6581159234 -0.3557259738 -0.6315997243 0.5946960449
0.03941548243 -0.0578186214 0.6570820808 -0.211414665 -0.651724875 0.606300056
0.03278335929 -0.05549121648 0.6649484634 -0.4710182846 -0.5675383806 0.660779655
0.04580105469 -0.06071211398 0.653906405 -0.03429831564 -0.6857443452 0.6066572666
0.05171148106 -0.0658929199 0.6388759613 0.2485917062 -0.6621037722 0.5882014036
0.04184284434 -0.06558480859 0.6388049722 0.0502152741 -0.620197475 0.5896436572
0.03299862146 -0.06571005285 0.6389818788 -0.2045803517 -0.5921652913 0.5907748938
0.02674340829 -0.06438080221 0.6398482323 -0.3528562784 -0.5810465217 0.5983926058
0.02039612271 -0.06416663527 0.6401341558 -0.5288690925 -0.5627958179 0.6006664634
0.05470325798 -0.06628407538 0.6482853293 0.3230347037 -0.7114830613 0.609698832
0.05738184229 -0.06503195316 0.6434397697 0.3279258907 -0.7382078767 0.585185647
0.04789023101 -0.06849838048 0.6590231061 0.2369029224 -0.5425678492 0.7295590043
0.03990195319 -0.06488060206 0.6622903347 -0.1538995504 -0.5383772254 0.7620053887
-0.05880659074 -0.1625448465 0.669692874 -0.6815498471 -0.418076694 0.5970819592
-0.05463519692 -0.1633256674 0.6755952835 -0.5960777402 -0.4939484894 0.631719172
-0.05395651236 -0.1586732864 0.6799529195 -0.601339519 -0.5129075646 0.6089265347
-0.05943072215 -0.1542469412 0.6778550148 -0.679679811 -0.4874080718 0.5399267673
-0.0609075278 -0.1682896316 0.6690636277 -0.6691458821 -0.4306305349 0.6018586755
-0.06689941138 -0.08982890844 0.6316903234 0.6506066322 -0.5342355967 0.5396772623
-0.06795208901 -0.08360928297 0.639377892 0.6729303598 -0.5325690508 0.5132390857
-0.05442705005 -0.1402007192 0.6969797015 -0.5944438577 -0.5609979033 0.5743049979
0.02909045666 -0.08851409703 0.6321750879 -0.5934779644 -0.5935756564 0.533298254
0.03086466715 -0.09778224677 0.6262025237 -0.5030034184 -0.646050036 0.571272552
0.03540500998 -0.1027321815 0.6285867095 -0.2497883886 -0.7387592196 0.6016033292
0.03572605178 -0.09765658528 0.6337652206 -0.2642449737 -0.7285450101 0.6054218411
0.03251727298 -0.1049931422 0.6241114736 -0.3994337916 -0.7064231038 0.5785455704
0.03729723394 -0.09174267203 0.6417681575 -0.1974041462 -0.709690094 0.6388847232
0.03884777054 -0.08748441935 0.6467584372 -0.3040071726 -0.6305568814 0.6739691496
0.03356771916 -0.08316034824 0.643409133 -0.616609633 -0.4893424213 0.6132646203
0.03447081521 -0.09196797758 0.6368208528 -0.4679044187 -0.6448533535 0.5915866494
0.03731257096 -0.08126045018 0.6497486234 -0.5039804578 -0.5039844513 0.7000172138
0.02944429778 -0.08159533143 0.6386212707 -0.673084259 -0.5075276494 0.5352793336
-0.03128850833 -0.1538290679 0.6996911764 -0.2635702789 -0.6749194264 0.6865068674
-0.03740700334 -0.152867049 0.6970707178 -0.3734205663 -0.6464878321 0.6612674594
0.02910461277 -0.06152673066 0.6455059648 -0.3471053839 -0.6172593236 0.5851982832
0.03448460251 -0.06266903877 0.6442242861 -0.1944863498 -0.6555634141 0.5866861343
0.04087086767 -0.06317099929 0.6447880268 -0.04861884937 -0.6914447546 0.5793286562
0.0465287976 -0.0637941137 0.6448518634 0.08798629791 -0.7252366543 0.5747160912
0.02548080124 -0.06251042336 0.6511474252 -0.6140050888 -0.5264471769 0.5878211856
0.02421357669 -0.05710605532 0.6532475948 -0.5967377424 -0.5528795719 0.5813328028
0.03100850806 -0.05890839547 0.6504368186 -0.3755586743 -0.6109628081 0.5749704242
0.02851317078 -0.07030415535 0.6480201483 -0.6346630454 -0.493757844 0.5921571851
0.006664008368 -0.1309154928 0.7167621255 0.325034976 -0.658130765 0.678391993
-0.0221765656 -0.1512151659 0.7051149011 -0.08498597145 -0.7051145434 0.6989327073
-0.01662562974 -0.1522220671 0.7044581771 0.02538013645 -0.7059860229 0.7033389807
-0.04369870573 -0.1708595604 0.6775500178 -0.4249978662 -0.5546453595 0.7092584968
-0.04847898707 -0.171700567 0.6727309823 -0.5003253818 -0.5035724044 0.6958070397
-0.04988831282 -0.1630519778 0.6799589396 -0.5315331221 -0.5322678685 0.6552175283
-0.04806965217 -0.1589796692 0.6855412722 -0.488219142 -0.5809960961 0.6501605511
-0.04498970881 -0.1636252701 0.6832302213 -0.4418436885 -0.5724648237 0.6894136071
-0.05482511595 -0.154153809 0.6838853359 -0.6032434702 -0.5396451354 0.5857601166
-0.05367500708 -0.1470752507 0.6898103356 -0.5974832773 -0.5460578203 0.5781561136
-0.04986898229 -0.1541067809 0.6883698702 -0.517760396 -0.575255692 0.630189836
-0.04803216085 -0.1492516994 0.6939308047 -0.5067141652 -0.5900080204 0.627206862
-0.05060513318 -0.1445363015 0.6969609857 -0.5432478189 -0.5773006082 0.6091518998
-0.0446238406 -0.0559437722 0.642126739 0.4530580342 -0.6404448152 0.6146895289
-0.03790226206 -0.05287882313 0.6409472823 0.3306927681 -0.681751132 0.651120007
-0.0484627597 -0.06074661016 0.6402766705 0.529283762 -0.6060743928 0.5935055017
-0.03816308081 -0.05748275295 0.6360282898 0.341694653 -0.660995245 0.6611405611
-0.02680345438 -0.0506542325 0.639324069 0.1597791612 -0.7104782462 0.6818139553
-0.03103048727 -0.05436635762 0.6368237734 0.2179127783 -0.6922733188 0.6819170713
-0.03377112746 -0.04688195884 0.6436799765 0.2628102601 -0.7080309987 0.6549589634
-0.03059482388 -0.07063022256 0.6206026673 0.1826895326 -0.6884618402 0.696631074
-0.03553564847 -0.06806007028 0.6232881546 0.2586235702 -0.6737546921 0.6919648051
-0.04265862331 -0.06975098699 0.6252203584 0.4081108272 -0.6445882916 0.6456862688
-0.03957504779 -0.07243463397 0.6214806437 0.3325134814 -0.6608112454 0.6670839787
-0.04047152027 -0.07695192099 0.6170215011 0.3543644249 -0.6559790969 0.6621091366
0.0006279102527 -0.07058506459 0.6223455667 -0.2874349952 -0.6535381675 0.6940128803
0.004196874332 -0.06833165884 0.6263360977 -0.3611230254 -0.6435693502 0.6743934751
-0.003067032201 -0.06618836522 0.6252971888 -0.232052803 -0.6635949612 0.7053023577
-0.00693609193 -0.06998406351 0.6212961674 -0.1730370671 -0.6722398996 0.7138935328
-0.007231622469 -0.06296620518 0.6273918152 -0.171320349 -0.6730403304 0.712446928
-0.01290492434 -0.06467331201 0.6249079108 -0.07603380084 -0.6841920614 0.7231628299
-0.0225995928 -0.0645693168 0.6249382496 0.07393995672 -0.6807966828 0.7255572081
-0.02166282572 -0.0599537082 0.6284955144 0.07475376874 -0.6883819699 0.7209214568
-0.02816337347 -0.066641137 0.6235681772 0.1511537582 -0.6821883321 0.7122663856
-0.02060410567 -0.06894703954 0.6200867295 0.04146248475 -0.6823904514 0.7257031798
-0.02755428851 -0.1286967844 0.7241264582 -0.1649731994 -0.6510818601 0.7259103656
-0.0223748982 -0.1287317574 0.7268028259 -0.08046361059 -0.6610908508 0.7416514754
-0.02453799918 -0.1378585696 0.7177076936 -0.1364595145 -0.6737326384 0.7225017548
-0.03449336812 -0.1285612285 0.7228841186 -0.2813299298 -0.6474372745 0.7065827847
-0.02619645745 -0.1332151145 0.7209786773 -0.1547839046 -0.6622000933 0.7242541909
-0.03188437223 -0.1335896552 0.7206349373 -0.259173125 -0.6550335288 0.7072152495
0.01871617511 -0.1472084224 0.691044271 0.593590498 -0.5834264755 0.5490391254
0.02331163175 -0.1465460658 0.6860884428 0.6649512649 -0.5348928571 0.5173531771
0.01469692681 -0.1509996951 0.6912028193 0.5373924375 -0.6071896553 0.5836027861
0.05037971959 -0.06429583579 0.6521525979 0.1606189758 -0.7213793993 0.6102854609
0.03299197927 -0.07648634911 0.6484569907 -0.5785850286 -0.4800977707 0.6562089324
0.03208815306 -0.06864792854 0.6546494365 -0.5212857127 -0.5226467252 0.6686836481
0.0367086567 -0.06947773695 0.6602603197 -0.3791492581 -0.5222591162 0.7575532198
0.03322806582 -0.06444140524 0.6597841978 -0.4623409212 -0.5385587811 0.7018022537
0.04221187159 -0.0759350732 0.6573654413 0.08709038049 -0.549464941 0.8088112473
0.04243072122 -0.07146363705 0.6614460349 0.09067484736 -0.4706461728 0.8666695356
-0.008705398999 -0.1509796083 0.7037456036 0.1645371467 -0.7057609558 0.6848530173
-0.04805570468 -0.1343838871 0.7087585926 -0.4982021153 -0.6012276411 0.6244807839
-0.04116609693 -0.1334914416 0.7161639333 -0.4137491584 -0.6169305444 0.6645158529
-0.05145774037 -0.1270463914 0.7122401595 -0.4967873693 -0.5866730809 0.6394885778
-0.04590604827 -0.1307217628 0.7146045566 -0.4727934301 -0.5969476104 0.6479998231
0.008817619644 -0.1542159319 0.6919937134 0.4684645236 -0.6283808351 0.6193239093
-0.03513893858 -0.1421068609 0.7107755542 -0.3224972486 -0.6689299345 0.6665215492
-0.04156669229 -0.1388348192 0.7108578682 -0.4487601817 -0.6238014102 0.6396420598
-0.03572617471 -0.1373873204 0.7149820328 -0.3508312702 -0.6484228373 0.6747849584
-0.04525337368 -0.1403077245 0.7051275969 -0.4786554277 -0.6084424257 0.6322601438
-0.03997503594 -0.1439736187 0.7053948045 -0.4070526063 -0.6327826977 0.6556018591
0.001297374023 -0.1292980909 0.7206986547 0.2307322174 -0.6588459611 0.715908885
0.002129992703 -0.1357425004 0.7157732844 0.3086121976 -0.6508328319 0.6895931363
-0.007621395867 -0.1352236569 0.7184973359 0.1445927471 -0.6688925624 0.7251873612
-0.01145977434 -0.1403416991 0.7150939107 0.1135371476 -0.6809334159 0.720230639
-0.0141439233 -0.1448036283 0.71099931 0.07351177186 -0.7023887038 0.7064421773
-0.006560505833 -0.1457550675 0.7088519335 0.1981873065 -0.6951499581 0.6882192492
-0.02062994242 -0.1441684067 0.7130242586 -0.05704889074 -0.7027785778 0.7025279403
-0.02469915897 -0.1467897445 0.7096872926 -0.1295635104 -0.707426846 0.6944712996
-0.01747706346 -0.1358863115 0.7205802202 -0.001169859897 -0.6717572808 0.7381844521
-0.01793075167 -0.1400635093 0.7170577645 0.0037119505 -0.6868328452 0.7230263352
0.01792451739 -0.1426480711 0.6972281337 0.5741150379 -0.5926561952 0.5607574582
0.01047284808 -0.1422275901 0.7067038417 0.4439924955 -0.6433196664 0.6228211522
0.008559989743 -0.1462709904 0.7025188208 0.4342453778 -0.6496288776 0.6236860752
0.01935819723 -0.1376953274 0.7001732588 0.5669801831 -0.5835406184 0.5790221095
0.01396942232 -0.1419217736 0.7021512389 0.519485414 -0.6106401086 0.5969270468
0.02269423008 -0.1376630515 0.6954883337 0.6193699837 -0.5584312677 0.549441278
0.009707853198 -0.1507115662 0.6962735653 0.4700834453 -0.6376859546 0.6088913679
0.007854161784 -0.1360540092 0.7124263048 0.3812891841 -0.6464451551 0.6599308848
-0.0006966457586 -0.1419339478 0.711119175 0.2854211926 -0.674371779 0.6761600375
-0.003878967836 -0.1392804384 0.7149963975 0.2218874693 -0.678393662 0.6981348395
0.004993733484 -0.1414177418 0.7090311646 0.3768951595 -0.6552205682 0.6530793905
0.01349520031 -0.1357932538 0.7087237835 0.4537181556 -0.6293865442 0.6274510622
