# .PCD v0.7 - Point Cloud Data file format
VERSION 0.7
FIELDS x y z normal_x normal_y normal_z
SIZE 4 4 4 4 4 4
TYPE F F F F F F
COUNT 1 1 1 1 1 1
WIDTH 512
HEIGHT 1
VIEWPOINT 0 0 0 1 0 0 0
POINTS 512
DATA ascii
0.003881264245 -0.2124273926 0.7278031707 -0.03203408048 -0.5817400813 0.8090644479
-0.04576416686 -0.09585175663 0.7056936026 0.7221378684 -0.483476907 0.4941988885
0.06198266521 -0.09806260467 0.7055956721 -0.02433494292 -0.2717960179 0.9493882656
0.06513379514 -0.1028777584 0.7033585906 0.08754391223 -0.3764309883 0.8925845027
0.05786631256 -0.09333131462 0.704437077 -0.1653509587 -0.2314061522 0.9538337588
-0.04530486837 -0.1399047673 0.6640437245 0.7170628905 -0.4355051816 0.5420295596
-0.02380049974 -0.2043510228 0.7244098186 -0.4784493446 -0.5119526982 0.7112340331
-0.01815424673 -0.20200032 0.7274180651 -0.4098019302 -0.539439559 0.7346326113
-0.00778492121 -0.2117442042 0.727705121 -0.2027043849 -0.5855451822 0.7824558616
0.001099784742 -0.1315374523 0.6385607719 0.03070391901 -0.6480047703 0.7571305037
-0.005328320432 -0.1328788102 0.6378397346 0.09909723699 -0.6617972851 0.7423392534
0.04160691425 -0.07827082276 0.6969841123 -0.4789755642 -0.5866670609 0.652233541
0.04590018839 -0.1070379689 0.6790770888 -0.642574966 -0.4799418151 0.5941909552
0.06917022914 -0.1062015146 0.6716477871 0.2074272186 -0.5283145308 0.6619793177
0.05980142206 -0.1050155088 0.6743171811 -0.06388151646 -0.5200667977 0.6355193853
0.0585369058 -0.1056481898 0.6988091469 -0.3343459368 -0.3817623258 0.8386583328
0.06291603297 -0.1092420816 0.7024455667 -0.1380522251 -0.4051679969 0.9019927382
0.07096360624 -0.101685226 0.7013781071 0.3365995288 -0.4053386152 0.8035363555
0.01990427822 -0.1645424068 0.7619658113 0.216302678 -0.5917627215 0.7720403075
0.007456405554 -0.1600309163 0.7670767903 0.03397046402 -0.5962133408 0.7995199561
-0.002298356965 -0.1647022963 0.7633516192 -0.117204614 -0.5727205276 0.8055207729
0.002095515374 -0.1615352482 0.7660955787 -0.04882764444 -0.5880067945 0.8036897182
0.01164309215 -0.164738521 0.7646352053 0.08726322651 -0.6024874449 0.7910920978
0.01812746376 -0.1698533148 0.7598285079 0.2222285718 -0.5905518532 0.772525847
0.05016155913 -0.175582096 0.7272650003 0.7470741272 -0.4402834475 0.4963809848
-0.02405054495 -0.08185376227 0.6896512508 0.4667330682 -0.6128103733 0.6252599359
-0.02046900243 -0.1776273102 0.7454120517 -0.4515923858 -0.5660611987 0.6878190041
-0.0215896219 -0.182450667 0.7419478893 -0.4718510807 -0.5703041553 0.6721859574
-0.02799799852 -0.1793064028 0.7397530079 -0.5487169623 -0.5369715691 0.6399686933
-0.02406167425 -0.1914911419 0.7327244282 -0.4992798865 -0.5065095425 0.702172637
-0.02063379437 -0.1980867535 0.7302133441 -0.4388875067 -0.5184788108 0.7292374969
-0.01500506885 -0.2069009691 0.7270261645 -0.33558622 -0.5536099076 0.7602360249
0.0211450886 -0.1319100261 0.6380984187 -0.2448728532 -0.5875632167 0.7674606442
-0.01349144988 -0.1327468306 0.6383531094 0.2262111753 -0.6355978251 0.7350611687
-0.01961412653 -0.1321896017 0.6427376866 0.3456203938 -0.5968609452 0.7160121799
0.05875274166 -0.09179766476 0.6868415475 -0.06348307431 -0.5062370896 0.6477330327
0.04460117966 -0.0951982215 0.6851221323 -0.5909274817 -0.4810382426 0.6307284832
0.07327249646 -0.08883161098 0.6911827922 0.5222626328 -0.2527332902 0.7961299419
0.01213392429 -0.08122519404 0.6817044616 -0.1082741842 -0.6561422348 0.7435885668
0.007354369387 -0.07551421225 0.6854689121 -0.03830363229 -0.6545770764 0.7514483929
0.01441413816 -0.07636032254 0.685264945 -0.1550920308 -0.6648150086 0.7297394872
-0.00523645943 -0.08211772889 0.6814633608 0.1597912759 -0.6474323273 0.743650198
0.08355183899 -0.1013319045 0.6739525795 0.5820572376 -0.5415551662 0.6063039899
0.07931929827 -0.1048467085 0.6714625955 0.534989059 -0.5422695279 0.6456463337
0.04473425448 -0.08707949519 0.6914921403 -0.482021451 -0.4921087325 0.67320925
0.05763964355 -0.08799050748 0.6913284659 -0.01410988439 -0.3481026292 0.7440699339
0.05110134184 -0.08848071843 0.6897307038 -0.2340275645 -0.41300264 0.7026323676
0.07474721223 -0.0952032432 0.6945812702 0.5144813657 -0.4172414839 0.746981144
0.07896359265 -0.09722780436 0.6913595796 0.5648067594 -0.4744248092 0.6680464149
0.08190841228 -0.09677062184 0.6857665777 0.5927824974 -0.5014389753 0.623275876
0.08789905906 -0.1017086878 0.6796512604 0.6554832458 -0.4890272617 0.570638001
0.04209642857 -0.1029059738 0.6784390211 -0.5762014389 -0.5060114861 0.633911252
0.05131343007 -0.1677114666 0.7313816547 0.7407305837 -0.4371551275 0.5073424578
0.006517979782 -0.1657096446 0.7648746967 0.01177597418 -0.6038261056 0.7942970395
0.02629339881 -0.167323187 0.7559707165 0.3668282032 -0.5451657176 0.7515165806
0.02083832026 -0.1719814241 0.7546434402 0.2729002535 -0.5795732737 0.7592412829
-0.004390070215 -0.1700323224 0.7616702318 -0.1550588608 -0.5981231332 0.7856262326
-0.01475465298 -0.1659760028 0.7578542829 -0.337364763 -0.5517712235 0.7601474524
-0.008078207262 -0.1651866287 0.7615394592 -0.2158875465 -0.5638653636 0.7916964293
-0.02019970305 -0.1740422696 0.7502701283 -0.4251057208 -0.5559642911 0.7127473354
-0.02090297267 -0.169090867 0.7534600496 -0.4148584008 -0.5481117368 0.7215968966
0.03142836317 -0.1170670614 0.6579943895 -0.4264662862 -0.5770666003 0.6951820254
-0.02694769762 -0.1991143227 0.7232245803 -0.5262604952 -0.5027707219 0.6750896573
-0.0256427452 -0.1950606853 0.726493001 -0.5205996037 -0.5036473274 0.6821510196
-0.03175569326 -0.195745945 0.7219141722 -0.585375011 -0.483656019 0.6424322128
-0.02222188748 -0.1871239394 0.737806201 -0.4786670208 -0.5414687991 0.6895158291
-0.01238256507 -0.186902374 0.7448003292 -0.339833349 -0.5891437531 0.7330218554
-0.008367962204 -0.1827427894 0.7495203614 -0.2540064156 -0.6048025489 0.7506268024
0.03229667619 -0.2076149136 0.7234618068 0.4538968205 -0.5497506857 0.6710249186
0.03641570359 -0.2056161463 0.7182632089 0.5416665673 -0.5054866076 0.6221972704
0.04146696255 -0.2039776295 0.7146288753 0.6251336336 -0.4637776613 0.5824174881
0.0463646315 -0.2018361241 0.7118417025 0.7191340923 -0.4373530149 0.5329331756
0.06280077994 -0.1771219075 0.6984161139 0.8863428235 -0.2691535056 0.3579583764
0.0620752126 -0.1839897186 0.6993746161 0.831777513 -0.3409788907 0.4378856122
0.0389530696 -0.1957669258 0.7266581059 0.6272222996 -0.4966279864 0.5992444158
0.05379910022 -0.1812896729 0.7140969634 0.8132435679 -0.361495316 0.4535482228
0.05362294614 -0.1785016358 0.7189399004 0.8091127872 -0.368439734 0.4556874931
-0.01367972139 -0.1296950728 0.6446987391 0.2788106799 -0.6198622584 0.7219477296
-0.04116626456 -0.1950808316 0.7144041657 -0.6756483912 -0.4318612516 0.5963398218
-0.03633014858 -0.2034685165 0.7184793353 -0.6201236844 -0.4757189155 0.622878015
0.0448914282 -0.1966546327 0.714917779 0.7146245837 -0.4347322285 0.5399411917
0.05652662367 -0.1957615912 0.7027907372 0.7956459522 -0.3700327575 0.4779247046
-0.04359652847 -0.1896476001 0.7132906318 -0.7068357468 -0.4069998264 0.5774499178
-0.04120215774 -0.186864987 0.7201956511 -0.7237200737 -0.3950115144 0.565338552
-0.04682664201 -0.1918264925 0.7090703249 -0.7064366341 -0.404650867 0.5805405378
-0.01911132038 -0.1267932504 0.648483932 0.3846244216 -0.604873836 0.6918385029
0.02423810028 -0.08956948668 0.6782730818 -0.2965142429 -0.6046222448 0.7382625937
0.02655391023 -0.08055663854 0.6856682897 -0.3226084113 -0.6187620759 0.7125113606
0.02479571104 -0.08513626456 0.6813572049 -0.2909993529 -0.611885488 0.7350524664
0.01901240088 -0.08306468278 0.6815851331 -0.2076654732 -0.6398201585 0.7369051576
0.03493756056 -0.08649252355 0.6852678061 -0.4570676684 -0.5668514371 0.6841028333
0.0403118059 -0.09096249938 0.6854746938 -0.5519880056 -0.5164213181 0.6518092155
0.03479260951 -0.09389656037 0.6810573936 -0.4684584737 -0.5510821342 0.6762771606
0.03915730864 -0.09786757082 0.681245327 -0.5368956327 -0.5230957866 0.6435201764
0.03032167256 -0.08702872694 0.6827039123 -0.3895411789 -0.5875355601 0.7069550753
0.06025791913 -0.09702127427 0.6812309027 -0.03988867626 -0.5077621341 0.6184614897
0.05318308622 -0.09743881971 0.6808798313 -0.2449893653 -0.5078545809 0.6267719865
0.04573241621 -0.09813256562 0.6800172329 -0.4491256773 -0.5112038851 0.6363754272
0.07424601912 -0.1007473394 0.6756671071 0.429197073 -0.5369881988 0.6233792305
0.06488380581 -0.1004946381 0.6763302684 0.1453459263 -0.5316765308 0.6306484342
0.05579954758 -0.1014933661 0.6763724089 -0.1446180195 -0.5243138075 0.6368290782
0.04875194281 -0.1020919904 0.6768849492 -0.3682283759 -0.5159896016 0.6362810135
0.06915966421 -0.09545092285 0.682213366 0.2687501609 -0.5179591775 0.625208199
0.07361219823 -0.09248416126 0.6851919293 0.4379370809 -0.5229479671 0.6455798149
0.07865864784 -0.0935825184 0.6829242706 0.5617413521 -0.5298647285 0.6339769363
0.05644732341 -0.1094747931 0.6928033829 -0.5741565824 -0.3947559595 0.7157105803
0.07893837243 -0.09826808423 0.6777075529 0.588562429 -0.5353273749 0.6057168841
0.01120689604 -0.128511712 0.6435852051 -0.1202980131 -0.6349048018 0.7526741624
0.008642902598 -0.1298895925 0.6384313107 -0.0603498593 -0.6321852803 0.7691799998
0.00399989076 -0.1268860698 0.6427461505 0.005464847665 -0.6557000875 0.7543091178
0.002353068674 -0.07802570611 0.683226645 0.03996283561 -0.6526840925 0.7527567148
-0.00331367203 -0.07681234181 0.6851127744 0.1427422315 -0.6658856869 0.7297884822
-0.0004707316693 -0.08352316171 0.6789591312 0.07408182323 -0.645375371 0.7543309927
-0.006603798363 -0.07209747285 0.690022409 0.1790175289 -0.6789703369 0.7104973197
-0.01322505064 -0.0737337321 0.6911692023 0.3142459095 -0.6894057393 0.6465073228
-0.01197851356 -0.07940804958 0.6850353479 0.2933782041 -0.6390435696 0.7062208652
0.02700649947 -0.07422862202 0.6907673478 -0.3330757618 -0.6433686614 0.6883413196
0.03635910526 -0.08122417331 0.6911913753 -0.4731829166 -0.5745462179 0.6646531224
0.03328312933 -0.07595643401 0.6932010651 -0.4227492809 -0.6179106832 0.65873456
0.05549466237 -0.1006314158 0.6974058151 -0.3905790448 -0.3671881855 0.8279582858
0.05161436275 -0.09934908152 0.6931201816 -0.5675698519 -0.422439754 0.7042289972
0.05035025626 -0.1034373939 0.6878480315 -0.655725956 -0.4282271266 0.6199333668
0.0479426533 -0.09703683108 0.6893191934 -0.6152052283 -0.4505926371 0.6447070241
0.05296274647 -0.1081936955 0.6881529689 -0.6615905762 -0.4132047296 0.6235828996
0.07824076712 -0.1044909433 0.6914674044 0.4601697028 -0.4759408236 0.6557744741
0.07121355832 -0.116957508 0.6846478581 -0.009967594407 -0.6377989054 0.5598564744
0.07654187083 -0.1110702828 0.6855478883 0.2480646968 -0.5619156361 0.5877521634
0.07340539992 -0.1075269431 0.693413496 0.2896956801 -0.5144992471 0.6594631672
0.07627043873 -0.1018302292 0.6969293952 0.498327136 -0.440441519 0.7062904835
0.08096304536 -0.1073560491 0.684892416 0.4298431575 -0.5143324137 0.596177876
0.07097993046 -0.112445347 0.6903223991 0.1104307696 -0.5784522295 0.618616879
0.0823335126 -0.1027411669 0.6888380051 0.5818224549 -0.4540771544 0.6423417926
0.06223293766 -0.1159116477 0.6955913901 -0.3254465163 -0.5112639666 0.7470906973
0.0700416863 -0.1070663109 0.6981723309 0.2016019523 -0.4738954008 0.7407643199
0.06590108573 -0.1122857779 0.696965158 -0.04984055087 -0.5138484836 0.7488937974
0.0644344911 -0.1185094267 0.6907247305 -0.1879511923 -0.6449956298 0.6146623492
0.06072958186 -0.1747647077 0.7087500095 0.8349533081 -0.3421888947 0.4309238791
0.06111797318 -0.1903697252 0.70075804 0.8185159564 -0.3501710892 0.4553417265
0.05885469913 -0.1798708737 0.7079899311 0.8304681778 -0.343963474 0.438090235
0.05698221177 -0.17623429 0.7130509615 0.8360009193 -0.3420823514 0.429035902
0.06182063743 -0.1726309806 0.7031263709 0.8420153856 -0.3344469666 0.4232663512
0.05641508102 -0.1701084673 0.7184318304 0.8093035221 -0.3739663064 0.4508258104
0.0575745441 -0.1710163504 0.7123600841 0.8230811954 -0.3573701382 0.43927297
0.05379156396 -0.1717306525 0.7230524421 0.8011752963 -0.3806295693 0.4603531063
0.03409176692 -0.1674396396 0.7521393299 0.4726245999 -0.5227505565 0.7057592869
0.01635772176 -0.1912482083 0.7425566316 0.2154026926 -0.5850147009 0.7795069814
0.02477347665 -0.1912732422 0.7380433679 0.3464713395 -0.5626494884 0.7429324985
0.02783164382 -0.1739629209 0.7520652413 0.4013130367 -0.5551638603 0.7256466746
-0.0137515096 -0.1734510213 0.75438869 -0.3235740066 -0.5808484554 0.7448779941
0.00668119546 -0.1729903221 0.7596001029 0.02140581235 -0.626983285 0.7748989463
-0.0006570232799 -0.1732805818 0.7597138882 -0.09803133458 -0.6158263683 0.7788357139
0.01056883484 -0.1748650372 0.7552841306 0.103110753 -0.6039501429 0.7859230638
0.0117485486 -0.1700603813 0.7584834099 0.1121584997 -0.5797278285 0.797134161
0.002968582092 -0.1685219854 0.7602643967 -0.0283578895 -0.5787809491 0.8014836907
-0.02473790199 -0.132189557 0.6474948525 0.4554274678 -0.5576999187 0.6927673221
-0.01865403354 -0.07896101475 0.6871792674 0.392544806 -0.6420761347 0.6559872627
-0.01768333279 -0.08390842378 0.6835826635 0.3450949192 -0.6224431396 0.6976148486
-0.0197939612 -0.07596419007 0.692446053 0.431555897 -0.6667349935 0.5987998247
-0.05062877759 -0.1536018699 0.6920701265 0.06551935524 -0.4046338201 0.5295020938
-0.04970427975 -0.1425424814 0.6719318032 0.7034144998 -0.404302448 0.5189107656
-0.05056233332 -0.1466606557 0.6830617189 0.4031733274 -0.4018029571 0.5175747275
-0.05089111999 -0.1488995999 0.6881394982 0.2567483783 -0.4011470675 0.5182635188
-0.05083263293 -0.1620473266 0.7019202113 -0.3034208715 -0.4003507793 0.5376939774
-0.05116728321 -0.1667543501 0.7099441886 -0.563960433 -0.4003208876 0.5424706936
-0.05057833344 -0.158662349 0.6959058642 -0.1101488322 -0.3999123573 0.5340218544
-0.05098696426 -0.1688239276 0.704598248 -0.4512399733 -0.3852131665 0.5350133181
-0.05042530596 -0.1805254966 0.7042250633 -0.6348532438 -0.3932265937 0.5563059449
-0.05004180595 -0.160227716 0.6867016554 0.08798373491 -0.3987878561 0.5359609127
-0.04983782396 -0.1543842256 0.6811240315 0.303863138 -0.4010261893 0.5312228203
-0.04982317239 -0.1493242085 0.6772189736 0.4772596359 -0.401858896 0.5251829028
-0.05005633458 -0.1660374254 0.6913816333 -0.1167557985 -0.3976425529 0.5429160595
-0.05081535503 -0.1741305739 0.7075720429 -0.6159448028 -0.3856690526 0.5435854793
-0.0502765663 -0.1722020507 0.6981911659 -0.3699487746 -0.3943695128 0.5478239059
-0.05070117489 -0.08963490278 0.7152544856 0.721907258 -0.4750654697 0.5028933287
-0.02511391044 -0.1656703502 0.7532662153 -0.4658631384 -0.5350061655 0.7042866945
-0.02446762659 -0.1712444723 0.74737221 -0.47439605 -0.5549316406 0.6811978817
-0.05222981796 -0.1171900332 0.6965354681 0.7799015641 -0.4070366621 0.4751997888
-0.05306547508 -0.1223499626 0.6933168173 0.7849295735 -0.3998296261 0.4732192755
-0.05233446509 -0.1096188277 0.7031811476 0.7689951658 -0.4204294086 0.4810222685
-0.05162007734 -0.1037336737 0.7073992491 0.7629875541 -0.4292930365 0.483104229
-0.03374739736 -0.1787814647 0.7351924777 -0.6170675159 -0.5028235912 0.6041873693
-0.03070166335 -0.1701340377 0.7469937205 -0.541005671 -0.5371872187 0.645091176
-0.02687254921 -0.1755616814 0.7431481481 -0.5303041935 -0.5420460105 0.6490851045
-0.01670084707 -0.1945889294 0.734321475 -0.3816590905 -0.543577373 0.7452538013
-0.006202421151 -0.1876471788 0.7446528673 -0.2155726105 -0.6121546626 0.7582370043
-0.01036186423 -0.1912747473 0.7400645614 -0.2899453342 -0.5777673125 0.7560565472
-0.002585409442 -0.1845744401 0.7489781976 -0.1506665498 -0.6159102917 0.7702239156
0.001518135075 -0.1885256767 0.7455352545 -0.08971750736 -0.6201518178 0.7745464444
0.01863095351 -0.1957796663 0.7385938764 0.2453767061 -0.5706273317 0.7801253796
0.02218094841 -0.206251204 0.7327191234 0.2988910973 -0.5750320554 0.7612605095
0.02324107848 -0.2111905515 0.7287387252 0.3002010882 -0.5780303478 0.7576593757
0.03478918225 -0.201262936 0.7253510356 0.5595644712 -0.5405293703 0.6229589581
0.02678022906 -0.2057339549 0.7290298939 0.3772577345 -0.567591548 0.7290753126
0.04210740328 -0.2023288459 0.7210331559 0.6618967652 -0.4863489568 0.5685613751
0.05003632978 -0.1834457666 0.7217045426 0.7768341303 -0.4021672904 0.4840969145
0.0246434398 -0.1170986518 0.6550180316 -0.3257116377 -0.6070320606 0.7237238884
0.05134104192 -0.1861882359 0.7171936035 0.7976968884 -0.3740096092 0.4712549448
0.05249635503 -0.1898523867 0.7117885947 0.8162998557 -0.3452444375 0.462058723
0.04770903289 -0.1907960176 0.7198262811 0.7347536087 -0.4242151082 0.5213239789
0.04984851927 -0.1957196742 0.7123854756 0.7689581513 -0.3858828843 0.5021859407
0.05119154975 -0.2007959336 0.7062743306 0.7663660049 -0.3962692916 0.5038612485
0.05169500038 -0.1934485435 0.7068294287 0.787129879 -0.3785178661 0.4847348034
0.05633534864 -0.1877931058 0.7052164674 0.8145750761 -0.3547807336 0.4572530687
-0.002857665299 -0.1235727742 0.6444535255 0.09878228605 -0.6575118899 0.7409300804
-0.004127494525 -0.1292947978 0.6422713399 0.115377374 -0.6483861208 0.7510851622
-0.04927024245 -0.1805304885 0.7124212384 -0.7375558019 -0.3875571191 0.5522594452
-0.04967486486 -0.1853098422 0.7076573372 -0.7243481278 -0.3953071237 0.5644839406
-0.04519532993 -0.1822246313 0.7175914645 -0.7380965352 -0.3871730864 0.5521403551
-0.04927274212 -0.1751510501 0.7152150273 -0.7492203116 -0.3822371364 0.5408214927
-0.05122066662 -0.168305859 0.716098547 -0.7320592403 -0.4058558643 0.5471041799
-0.01944600046 -0.1216572598 0.652541399 0.3899351656 -0.6119226813 0.6826458573
-0.01363699697 -0.1225621179 0.6479750872 0.2780597806 -0.6359029412 0.7153669
-0.01047755498 -0.1270093024 0.6403488517 0.2139534205 -0.6403619647 0.7358492613
0.03302194923 -0.1021487713 0.6720494628 -0.4348827004 -0.5596661568 0.7020655274
0.03183987364 -0.0967958644 0.6744288802 -0.4241790175 -0.5596189499 0.7070989013
0.0296796374 -0.09162669629 0.6790812612 -0.3930870593 -0.5817667246 0.7110317945
0.02616026439 -0.09451241046 0.6745675802 -0.3199353516 -0.5980452895 0.7325351238
0.0228352081 -0.1217074096 0.6505428553 -0.3128218353 -0.6313309073 0.7074469328
0.01628939249 -0.1284365654 0.6400076747 -0.1769734174 -0.6199868917 0.7567657828
0.01830789261 -0.1243983507 0.6452974081 -0.2311159819 -0.6317037344 0.7341704965
0.01202074625 -0.09106650203 0.6733400822 -0.1045895889 -0.6285699606 0.7666494846
0.006163922604 -0.08909917623 0.6744952202 -0.004639226943 -0.6462125182 0.761890769
0.006115235388 -0.0840792954 0.6785908341 -0.0123033952 -0.6525827646 0.7572332621
0.01278402284 -0.08557828516 0.6777726412 -0.1146481186 -0.6387184858 0.7593737841
0.08674948663 -0.1083492488 0.6716625094 0.6161535978 -0.52170223 0.5834384561
0.0851252377 -0.1133094057 0.6686479449 0.5555106997 -0.5465373397 0.6194576025
0.07904348522 -0.1174178794 0.6761177778 0.2625852227 -0.5822460651 0.6095872521
0.07676239312 -0.1220331937 0.6738852859 0.1847040057 -0.6024845243 0.6482272744
0.08813584596 -0.1064626426 0.6777186394 0.5881724954 -0.5023113489 0.5496726036
0.0677812174 -0.1238435507 0.6811411977 -0.1552529782 -0.6805514097 0.5934560895
0.07930729538 -0.1130610183 0.6801253557 0.2638065517 -0.5795276761 0.5567711592
0.08334273845 -0.1168819815 0.6723200679 0.4259949028 -0.5449084044 0.6399882436
0.0807018131 -0.1094379798 0.6672672033 0.5171171427 -0.540474236 0.6569792032
0.07805576921 -0.1221228689 0.6650565863 0.379042089 -0.5474090576 0.7364772558
0.08320008218 -0.1187920868 0.6662024856 0.4809794128 -0.559664011 0.671259284
0.0511376746 -0.09422716498 0.6951532364 -0.5046364069 -0.3909038305 0.7672922611
0.05289246887 -0.09125968069 0.6999118924 -0.3875976801 -0.3468111455 0.8396991491
0.05059710145 -0.08334588259 0.7009425759 -0.3866696358 -0.4709495604 0.7644702792
0.04807208478 -0.08802874386 0.6964866519 -0.50020051 -0.4384633899 0.7419886589
0.0568061918 -0.08761470765 0.7059040666 -0.2424815297 -0.2607244551 0.9094080925
0.06528266519 -0.0887908414 0.6982926726 0.08639012277 -0.3357365727 0.9113089442
0.05964811146 -0.08483213186 0.6960955262 0.03296143189 -0.3521597087 0.7721204758
0.04760325328 -0.07986918092 0.6969730854 -0.308121711 -0.5156080723 0.6865975857
0.05165310949 -0.08371775597 0.6947402954 -0.2083115727 -0.4442536533 0.7122377157
0.0700225383 -0.09385129064 0.6993854046 0.2991801202 -0.3477116823 0.8507107496
0.06248274818 -0.09133345634 0.7065932155 0.02319373749 -0.1713102013 0.9535441995
0.06702274829 -0.09399004281 0.7037811279 0.198536858 -0.2621046305 0.8810216188
0.05853669718 -0.121336408 0.6865840554 -0.4212562442 -0.5965355039 0.6406344175
0.06004130468 -0.1275131404 0.6849929094 -0.2274811268 -0.7052660584 0.6406501532
0.05617542192 -0.1146089509 0.6877769828 -0.6469271183 -0.4545432925 0.600597322
0.04799326509 -0.1314895302 0.6620286107 -0.5863286853 -0.5325707793 0.6100079417
0.04825820401 -0.1265368164 0.6665571332 -0.5354927182 -0.5624278188 0.6267555356
0.05889596418 -0.1308119297 0.6801049113 -0.244950071 -0.7238717079 0.6254662275
0.05796758831 -0.1356192976 0.6745905876 -0.3137315512 -0.699736774 0.620002687
0.05623021349 -0.1217839196 0.6813026071 -0.4717016816 -0.6592060328 0.5684987903
0.0535207279 -0.1147495434 0.6833772659 -0.6589131951 -0.506201148 0.5417072773
0.07741256058 -0.1167332083 0.6656188369 0.3839108944 -0.4942871034 0.7778965831
0.05380449444 -0.1234877929 0.6754428148 -0.5150749087 -0.6210691929 0.5850266218
0.01498351432 -0.1788970381 0.7531419992 0.190621376 -0.6127832532 0.7645144463
0.01252553519 -0.1828405261 0.7500631213 0.1421681195 -0.6240220666 0.7646535039
0.007436432876 -0.1849621087 0.7486577034 0.02892970853 -0.6285349131 0.7723878622
0.007543738931 -0.1798453629 0.7524155974 0.05137692019 -0.6160126328 0.7821977139
0.04799212143 -0.1703067124 0.7352846265 0.6864199638 -0.4596818686 0.5617076159
0.03520710394 -0.1738776714 0.747800529 0.501734674 -0.5251902938 0.6869075894
0.03180659935 -0.1794814318 0.7449595332 0.4630062878 -0.5466119647 0.6951935291
0.02628231607 -0.1867651343 0.7410025597 0.3733413517 -0.5693542361 0.7294882536
0.01645109057 -0.1857209206 0.7463463545 0.2209345549 -0.6071490645 0.7620725036
0.02232185565 -0.183261618 0.7461832166 0.2967251837 -0.5833677649 0.7534658909
0.02056915686 -0.1783874333 0.7505600452 0.2600723803 -0.596283257 0.7542036772
0.02587018907 -0.1799174547 0.7481791377 0.3400610685 -0.5837977529 0.7348929048
0.002160654403 -0.1818841249 0.752291739 -0.05390330404 -0.6300798059 0.7700747252
-0.009859246202 -0.1706901044 0.7583992481 -0.2339271754 -0.591604948 0.7693020701
-0.01067807153 -0.1787791997 0.7524158955 -0.2933564484 -0.5945128202 0.7445647717
-0.00721685309 -0.1745867878 0.7553149462 -0.222962603 -0.5917146206 0.7719829679
-0.01445565745 -0.1799153537 0.7466876507 -0.3618543148 -0.5871682167 0.7166646719
0.000381017162 -0.176234588 0.7536067367 -0.07222032547 -0.598711729 0.7764345407
-0.03384834528 -0.1213908941 0.6642387509 0.6219408512 -0.5067555904 0.5925927758
-0.02992160618 -0.1256872714 0.6571621895 0.5637900829 -0.5390607715 0.6177068353
-0.03475290909 -0.1272701621 0.6608769894 0.6315670013 -0.4977341294 0.5883934498
-0.0340282768 -0.1310646236 0.6548010707 0.6254020929 -0.4899703562 0.6066355109
-0.028449554 -0.1285532266 0.6522902846 0.540591538 -0.5314529538 0.6497047544
-0.0417460911 -0.1367262155 0.6598682404 0.6903032064 -0.4594013393 0.5586019158
-0.04897954687 -0.1366345882 0.673350811 0.7628960609 -0.406545639 0.5021942854
-0.04064712673 -0.1305388361 0.6648939848 0.7070887685 -0.449726373 0.5442757607
-0.0449745357 -0.1347751617 0.6684787273 0.7357233763 -0.433347851 0.5195381641
-0.05030681565 -0.1096104309 0.6947948337 0.7706115842 -0.4191509783 0.4798002839
-0.05119147152 -0.09837699682 0.708547473 0.7455766201 -0.4528548419 0.4887203574
-0.04435371608 -0.09858508408 0.700119257 0.7271034718 -0.4757483006 0.4946959913
-0.03108945116 -0.1663224697 0.7509843707 -0.5134407878 -0.5486613512 0.6590535641
-0.03396921605 -0.1659172028 0.7450413108 -0.5983018279 -0.4985958934 0.6260591149
-0.04567232355 -0.09131921828 0.7089785933 0.7057662606 -0.500535965 0.5007857084
-0.04511719197 -0.08573271334 0.711853981 0.6934148669 -0.5147508979 0.5037237406
0.05898770317 -0.1467942148 0.680426538 0.006202519871 -0.589625001 0.5623473525
0.06070709601 -0.1343563795 0.6856970191 -0.04422297329 -0.7113208175 0.6117311716
0.06072419882 -0.1410063356 0.6873647571 0.09872764349 -0.6399922967 0.5772652626
0.0595199503 -0.140048489 0.6813675761 -0.07072859257 -0.6583048105 0.592577517
0.06000688672 -0.1499865353 0.6860700846 0.200056091 -0.5486213565 0.5370970368
0.06172982976 -0.1633518487 0.6975107789 0.6965277195 -0.3939682543 0.4532868862
0.05686317757 -0.1461198926 0.6700885296 -0.2712442279 -0.6110565662 0.5841202736
0.06071890518 -0.1569957286 0.6911523342 0.4366944432 -0.4687976539 0.4947936535
0.062137153 -0.1672195941 0.6868582964 0.6036842465 -0.3301100433 0.3733729422
0.06117748097 -0.1499257386 0.6731489301 0.03267957643 -0.6322317719 0.583851099
0.06170042232 -0.1626003981 0.6914979815 0.5812646747 -0.4322949052 0.4772582352
0.05918841064 -0.1579411924 0.6789717674 0.1830077767 -0.4463945329 0.4647417665
0.06162465736 -0.1679295003 0.6938919425 0.7107055187 -0.32698524 0.3987764716
0.06010620296 -0.1616621763 0.6848537922 0.3854146004 -0.403061837 0.4421570003
0.06274078041 -0.1737039536 0.69324404 0.8490421772 -0.2249739915 0.3036545515
0.04874243215 -0.1409597546 0.6563177109 -0.4904813766 -0.5430312753 0.6747617126
0.058284197 -0.138171494 0.6629452109 -0.2219207138 -0.6847305894 0.6606304646
0.06564921886 -0.1274636835 0.6633372903 0.07662356645 -0.5730799437 0.81406039
0.07344508916 -0.128472656 0.6649300456 0.2989573479 -0.6120191813 0.7167496085
0.0661399439 -0.1353782713 0.6658327579 0.0418039076 -0.7265127301 0.6577050686
0.07592052966 -0.1269061714 0.6702603102 0.2777789831 -0.6294894814 0.6783050895
0.06505772471 -0.1308067739 0.6780851483 0.01616912708 -0.7385521531 0.6289288402
0.07145684212 -0.1257187873 0.6761266589 0.06826615334 -0.6529657841 0.6561765075
0.06803998351 -0.1399541199 0.669336319 0.1949390173 -0.6797227263 0.6100161076
0.06743644923 -0.1512302309 0.6832000613 0.5800642371 -0.5172390938 0.5195931792
0.06308653206 -0.1547115743 0.6831024885 0.388708353 -0.5313329697 0.5324028134
0.06626924127 -0.1444080621 0.6732011437 0.2328727096 -0.6391929984 0.5892888904
0.0708200708 -0.1414463073 0.6741780043 0.4590183496 -0.614082098 0.5700754523
0.06327596307 -0.1427063048 0.6678658724 -0.05508589 -0.7113165855 0.6331050396
0.07339698821 -0.1340444088 0.6673704982 0.3687153161 -0.6870838404 0.6081001163
0.06554903835 -0.1487277299 0.6779979467 0.3439686298 -0.584495306 0.5594326854
0.06419074535 -0.1368511021 0.6820400953 0.1350865662 -0.6759503484 0.5961353183
0.06433800608 -0.1455048323 0.6858625412 0.3519412279 -0.581555903 0.5488355756
0.06742227077 -0.1447384506 0.6811748743 0.4368999004 -0.5826185346 0.5513458848
0.06779968739 -0.1380656362 0.6775379777 0.2861967385 -0.6542485356 0.5875521898
0.06222075596 -0.1511297822 0.6914545298 0.4184745848 -0.5254127979 0.5192899704
0.07065784186 -0.1348866075 0.672044456 0.3044731915 -0.682064116 0.6033498645
0.04155584797 -0.1080166548 0.673269093 -0.5720717907 -0.5120165944 0.6384096146
0.03907541186 -0.1105031446 0.6692965031 -0.5328404307 -0.5304855704 0.6553013325
0.04965236783 -0.121522665 0.6717652082 -0.5825873017 -0.5638386607 0.5803541541
0.0466299206 -0.1155930385 0.6730709672 -0.6283829212 -0.5052629709 0.5889849067
0.05055445805 -0.1149698868 0.6778572202 -0.6638015509 -0.5129879117 0.5419930816
0.07348096371 -0.1089150831 0.6682767868 0.3096207678 -0.530284524 0.6984376907
0.05534914881 -0.1107768044 0.669703722 -0.2111426741 -0.5210450292 0.6592589021
0.06367538869 -0.1097332835 0.669213295 0.02718121186 -0.5248504281 0.6771516204
0.04850117862 -0.1074126139 0.6737977862 -0.4253730476 -0.5081221461 0.6423392892
0.06134593859 -0.1218453795 0.6647467017 -0.03795028105 -0.5524504781 0.7541518211
0.0718299523 -0.1149612814 0.666093111 0.2631832659 -0.5436891913 0.7353149652
0.06453956664 -0.1157751009 0.6661342382 0.0581847243 -0.5400217175 0.713298738
0.05281686038 -0.1162973046 0.6663936973 -0.2705747485 -0.5321929455 0.6709473729
0.06803419441 -0.121803917 0.6645355821 0.1493354291 -0.557547152 0.7805815935
0.03322347254 -0.109364517 0.6655254364 -0.4530051053 -0.5594288111 0.6941021681
0.02998678759 -0.1127100438 0.6616859436 -0.4036614895 -0.5811674595 0.7050947547
0.0356040895 -0.1181450486 0.66189152 -0.4928840399 -0.5467531085 0.6714065671
0.04156958312 -0.1165841147 0.6663089991 -0.5597819686 -0.5276102424 0.6381859183
-0.03051549755 -0.1926680207 0.7275443673 -0.5822250247 -0.4887075722 0.6471393108
-0.03689524904 -0.1979241818 0.7195863724 -0.6498227119 -0.4515165687 0.6083309054
-0.03516948596 -0.1905768216 0.7243177891 -0.6585479975 -0.4476442933 0.6038383245
0.001474235323 -0.2077642083 0.7321505547 -0.07934257388 -0.5776592493 0.8107228279
0.009134902619 -0.2030636668 0.7335780859 0.06424687803 -0.5878557563 0.8033674955
0.005702082533 -0.1985521466 0.7378710508 -0.004126221873 -0.5971327424 0.8013057113
0.01361791138 -0.1987556368 0.7366909385 0.1462233365 -0.5741930008 0.8031765819
-0.003670128062 -0.2094992697 0.7315773368 -0.1466775835 -0.5745834708 0.8047056198
0.002770148683 -0.2030127645 0.7352641821 -0.05254575238 -0.5881758332 0.80491364
0.01035123598 -0.1945579946 0.7408449054 0.09303660691 -0.5900300741 0.7963044643
0.01615629159 -0.2123752087 0.7287376523 0.1672745645 -0.5871873498 0.7900548577
0.007568727247 -0.2093200088 0.7309964299 0.0261614453 -0.5845639706 0.8062430024
0.01837801188 -0.2026347816 0.7329643965 0.2282267511 -0.5667175055 0.786906302
0.0266141817 -0.2006926239 0.7316841483 0.3719477654 -0.5616623163 0.7376752496
0.01306223031 -0.2074560523 0.7314238548 0.1211752966 -0.5794711709 0.8009147048
0.02618803456 -0.126660943 0.6465826035 -0.3701317906 -0.5996350646 0.7076676488
-0.03803400695 -0.1838609129 0.7245881557 -0.6959604025 -0.4271005988 0.5767226219
-0.04245721549 -0.1705610454 0.7307167053 -0.7118755579 -0.4426244497 0.5448141694
-0.03753648326 -0.1745497733 0.734082818 -0.6705844998 -0.47034657 0.5723027587
-0.03304735571 -0.185278669 0.7278527021 -0.6278944016 -0.4616546333 0.6208337545
-0.03621279448 -0.1797602624 0.7293561101 -0.6725805998 -0.4489330053 0.5794917345
-0.02856625058 -0.1870612949 0.7309111357 -0.5607166886 -0.5007717013 0.6558253765
-0.02928460948 -0.1831137985 0.7353323102 -0.5597451925 -0.5283179879 0.6367501616
-0.03318083659 -0.1155942529 0.6690801978 0.5964775085 -0.5217579007 0.6067644954
-0.03310962766 -0.1091296375 0.6742739081 0.6070769429 -0.5172416568 0.6021525264
-0.03868962824 -0.1257222295 0.6666221619 0.7082890868 -0.4540866315 0.5392412543
-0.03962217644 -0.1206489578 0.6729780436 0.7083998322 -0.4549571574 0.5374794006
-0.03665105626 -0.1147759482 0.6744371057 0.6780423522 -0.4713286459 0.563085556
-0.02618450671 -0.1052256152 0.6714811325 0.501622498 -0.5516736507 0.6651453972
-0.03008140065 -0.1170107499 0.6643561125 0.5486654639 -0.5515825748 0.6275446415
-0.02947486006 -0.1116382331 0.6696239114 0.5630334616 -0.5302453637 0.6338502765
-0.02583771013 -0.1229819506 0.6552127004 0.5068843365 -0.5741118789 0.6428128481
0.01723564416 -0.1204724088 0.6496160626 -0.2247738391 -0.6445323825 0.7273740768
0.006356128491 -0.1146532968 0.6528080106 -0.03593588248 -0.645039022 0.7600439787
0.009238752536 -0.1197210178 0.6488875151 -0.07602027804 -0.6427889466 0.7584477067
0.01316055376 -0.1152768731 0.6529581547 -0.1514647156 -0.6486974955 0.7404747009
0.0123257516 -0.1226024106 0.6447594166 -0.1098965183 -0.6472709179 0.7531579733
0.01737235114 -0.1002911851 0.6662013531 -0.1955674291 -0.6238808036 0.7546588182
0.02239665389 -0.1045983285 0.6643313169 -0.2781297266 -0.6098483205 0.7392216325
0.02661126293 -0.09994544834 0.6703498363 -0.3509088159 -0.58703053 0.724717021
0.01701486483 -0.09398309141 0.6718409657 -0.1907991618 -0.6119276881 0.7656705379
0.01265783422 -0.1039408967 0.662453711 -0.1259162724 -0.6357677579 0.7587808967
0.008148548193 -0.09945935756 0.6649827361 -0.04071709514 -0.6448531747 0.7585748434
0.0128578376 -0.09654007852 0.6689920425 -0.1214771718 -0.6271303892 0.7660660148
0.007474370766 -0.09371229261 0.6705015302 -0.02704438008 -0.6379337907 0.7655465007
-0.005583899561 -0.1016340107 0.6654102206 0.1715831757 -0.635976553 0.7497563362
-0.01418478414 -0.1002824381 0.6694348454 0.3254389465 -0.6028588414 0.7204402089
-0.001320750453 -0.09647650272 0.6685028076 0.1067049801 -0.6378387213 0.7605545521
-0.0142209949 -0.1071306914 0.6614764929 0.2931696773 -0.6230121851 0.7250071168
0.008068968542 -0.106485337 0.6597685814 -0.05660155788 -0.6438912153 0.7596122026
0.01116676815 -0.1105193719 0.6569780111 -0.09916579723 -0.6448919177 0.7548595071
0.02089669555 -0.1123297885 0.6577570438 -0.2569313049 -0.6180324554 0.7385894656
0.01653561555 -0.1085605621 0.6596508026 -0.1794467121 -0.6367636919 0.7469614148
0.0253256876 -0.1100913063 0.6613355875 -0.3289577365 -0.6003626585 0.7285374999
-0.0249644611 -0.1115251258 0.6661720276 0.4891237319 -0.560483098 0.6591637731
-0.02023626119 -0.1108166426 0.6617674232 0.4036745131 -0.597556293 0.688631773
0.05440391973 -0.1328602582 0.6697197556 -0.4827979207 -0.6340219975 0.6027404666
0.05212844536 -0.1347220391 0.6653525829 -0.5207344294 -0.5954229832 0.6062183976
0.05265862495 -0.1273662746 0.6711344123 -0.512172699 -0.6103177071 0.6011320949
0.053700611 -0.1389095187 0.6596912742 -0.3478162885 -0.6198412776 0.6651812196
0.06068333611 -0.1333585382 0.662252903 -0.1086681485 -0.6217384934 0.7309351563
0.05600398406 -0.1327778697 0.6588000655 -0.2163804621 -0.5541767478 0.7504025698
0.0468804948 -0.1348324567 0.6537674665 -0.4530394971 -0.5172933936 0.6917046309
-0.02222690731 -0.1061428189 0.6671633124 0.4334594309 -0.5772541761 0.6918506622
-0.02421543561 -0.0975767076 0.6755641699 0.4730379581 -0.5554112196 0.6816866994
-0.02014840394 -0.1008339822 0.6717664003 0.4219082594 -0.5784316063 0.693002224
-0.02802540548 -0.1016390771 0.6750166416 0.5294270515 -0.5412879586 0.6513649821
0.04256739467 -0.1735533178 0.7419791818 0.6135637164 -0.4890440404 0.6198732853
0.04599152505 -0.1676346064 0.74015975 0.6298701763 -0.4715200961 0.6143195033
0.03818200156 -0.1773295701 0.7420544624 0.5787425041 -0.5050289035 0.6373292804
0.04010220617 -0.1685360074 0.7468291521 0.5616142154 -0.4866879284 0.6686416864
0.03883350641 -0.1817345172 0.7370752096 0.6086012125 -0.4981307685 0.6150801778
0.04745707288 -0.1808254272 0.7277322412 0.7148087621 -0.4573616683 0.5277602077
0.04416277632 -0.1806784123 0.7330453396 0.676019907 -0.4744824469 0.5633346438
0.04122551158 -0.1863164157 0.7319442034 0.641951859 -0.4854194224 0.5916674733
0.04577457532 -0.1864403188 0.7254580259 0.6973297 -0.4526382685 0.5547781587
0.04461256042 -0.1764780432 0.7363371253 0.6631515622 -0.4786036611 0.5737533569
0.0353394337 -0.1868648082 0.7354789972 0.5341131687 -0.5221633315 0.6645270586
0.03424300253 -0.1924944818 0.7318989038 0.5246181488 -0.5100759268 0.6800628901
0.03229014203 -0.1971141994 0.7301744223 0.4826847613 -0.5324756503 0.6910144091
0.03995345905 -0.189795047 0.7278764248 0.6096766591 -0.4775614142 0.6188567281
0.04180063307 -0.1922815144 0.7218490243 0.6648552418 -0.4545621574 0.573628068
-0.05235772207 -0.1303850412 0.6870420575 0.7842715383 -0.3978621364 0.4758670926
-0.05286716297 -0.1442721188 0.6996935606 0.251716882 -0.3982864916 0.4983708262
-0.05431873724 -0.1359025389 0.6933295727 0.6164491177 -0.3946925402 0.4789522886
-0.05230287462 -0.136626482 0.6871420741 0.6555524468 -0.3988687098 0.4925433993
-0.05169323459 -0.1516699642 0.7057076693 -0.07474675775 -0.4012400508 0.514847219
-0.05095301569 -0.1606244892 0.7129907608 -0.4615288973 -0.4042662084 0.5327422023
-0.05184781924 -0.1431108117 0.6879380345 0.4691394567 -0.3943290114 0.5011364222
-0.05127810687 -0.1403054595 0.6803402901 0.6408602595 -0.3954417109 0.4999386966
-0.05206576362 -0.146440357 0.6939918399 0.2812896073 -0.3962560296 0.506434679
-0.05196358263 -0.1505059451 0.6986872554 0.07489650697 -0.4000936449 0.5152698755
-0.0457425639 -0.1043907851 0.6970956326 0.7452196479 -0.4510686994 0.4910128415
-0.04971096665 -0.1031403989 0.7012066841 0.7547246814 -0.4400569797 0.4861451089
-0.04271611199 -0.102886118 0.6924937367 0.7320466638 -0.4614138603 0.5007557273
-0.04035175219 -0.09729728103 0.6940495372 0.7136351466 -0.4876198173 0.5024309754
-0.03964454681 -0.1023790762 0.6876736879 0.7133665681 -0.4721232951 0.5170360208
-0.03264319152 -0.1742712706 0.7389197946 -0.6045970321 -0.5042232275 0.61065346
-0.03906385973 -0.1687099189 0.7364970446 -0.6680367589 -0.4677458107 0.578392148
-0.04203107581 -0.08797006309 0.7057691813 0.6836107969 -0.5224299431 0.5090537667
-0.04029861093 -0.09119771421 0.7008577585 0.6985451579 -0.508115232 0.5037668347
-0.009217518382 -0.1961720437 0.7371141315 -0.2548092008 -0.5705160499 0.7757681012
-0.00777894957 -0.2037855238 0.7328919172 -0.2236314565 -0.5820195079 0.7796881795
-0.004038277082 -0.1933763623 0.7411751747 -0.1879125088 -0.5833210945 0.7889019847
-0.0006562978378 -0.1974426359 0.7384027243 -0.1078992561 -0.5910741091 0.7943831682
0.002846196992 -0.1937422007 0.7418408394 -0.05586159974 -0.5964764357 0.7967484593
-0.01265242416 -0.1992330402 0.7310885787 -0.3263555467 -0.5520015955 0.748203516
-0.003853884293 -0.1995709389 0.7337126136 -0.1753775775 -0.5720979571 0.7736708522
0.02934606746 -0.1212847754 0.6532530785 -0.4054567218 -0.5938901901 0.6929210424
0.03555962816 -0.1222235635 0.6568729877 -0.4881832302 -0.5519279242 0.674811542
0.02909796499 -0.132702291 0.6462135911 -0.4094778001 -0.5664997101 0.7040008903
0.03324154019 -0.1299448013 0.6499903202 -0.4656850696 -0.5521427393 0.6868841052
0.02118981443 -0.1305469722 0.6450610161 -0.2865473926 -0.600664258 0.7388960719
0.03583557904 -0.1266989857 0.6536188126 -0.4943154454 -0.5453836918 0.676692903
0.02707587928 -0.1329927146 0.6395118237 -0.3370692432 -0.5634326935 0.7486261725
0.03756989166 -0.1343810558 0.6491227746 -0.5079581738 -0.5269044638 0.6810363531
0.04277084768 -0.1386890113 0.6508435607 -0.5105368495 -0.5121856332 0.6903406978
-0.04553520307 -0.1756438762 0.7211703062 -0.7316781878 -0.407597363 0.5458450913
-0.04153132811 -0.1792957336 0.7259086967 -0.7285977602 -0.4105422497 0.547416687
-0.04730058834 -0.1693030298 0.7209954858 -0.7315692902 -0.4105110168 0.5442180634
-0.04552946612 -0.1080808118 0.6923527718 0.7566684484 -0.4320227504 0.4901567698
-0.04915522039 -0.1159089208 0.6912500858 0.774746716 -0.4069154859 0.4837581515
0.001832391368 -0.1217867285 0.647156179 0.04281089455 -0.6582937241 0.7476584911
-0.006041783839 -0.1186315492 0.650511682 0.167216599 -0.6454564333 0.7435312867
0.0006723472034 -0.1159688383 0.6512723565 0.0450135693 -0.6544393897 0.7517672777
-0.03491161764 -0.097447671 0.6863511205 0.6404628754 -0.5063576102 0.5738475919
-0.03067891486 -0.09783380479 0.6797995567 0.5775356889 -0.5258432627 0.6239019036
-0.02695549466 -0.09282575548 0.6818622947 0.5095633864 -0.5599000454 0.652001977
-0.03234506026 -0.09268677235 0.6879147887 0.6153288484 -0.5333026052 0.5696014166
-0.03667452559 -0.1030113995 0.68268466 0.6710515618 -0.4860053658 0.5589858294
-0.02587554976 -0.0773658976 0.6956113577 0.5283014178 -0.6500062943 0.5416770577
-0.03397681192 -0.08280766755 0.6994915009 0.6336240768 -0.5641413927 0.5242356062
-0.02887372859 -0.08494383097 0.6915427446 0.5521769524 -0.5751132369 0.584158957
-0.03342133388 -0.08626187593 0.6941969991 0.6383832693 -0.5519908071 0.5360685587
0.04134545848 -0.1324623227 0.6534156203 -0.5304871202 -0.5246675014 0.6656171679
0.04086054862 -0.1253860891 0.660482347 -0.555347383 -0.5260155797 0.6436747909
0.05088283122 -0.1266480386 0.6609299183 -0.3103626668 -0.5446832776 0.7171569467
0.05827529356 -0.1270286143 0.6620732546 -0.1166645586 -0.5570444465 0.7687817216
0.05138485506 -0.1211102083 0.6651853323 -0.3153760135 -0.5426266193 0.7068411112
-0.04134403169 -0.107807152 0.6848831773 0.7264377475 -0.4486629367 0.5201420188
-0.0441038534 -0.1131480262 0.6847417951 0.7493120432 -0.4242672026 0.5076310039
-0.04085797071 -0.1127169877 0.6800553203 0.7205014229 -0.4374881983 0.5374944806
-0.03661688045 -0.1079779118 0.6789967418 0.6632040739 -0.4794397056 0.5704416037
-0.05074477196 -0.1242088452 0.6878359318 0.7782628536 -0.4048534632 0.4799113274
-0.04869113117 -0.1187338606 0.6849312782 0.7720988393 -0.4109520316 0.4846663773
-0.04461561143 -0.1174603999 0.6807621717 0.7525099516 -0.4199376404 0.5064629912
-0.04644640163 -0.1308298111 0.6750700474 0.7613454461 -0.414593935 0.4984340668
-0.04476168007 -0.1254024655 0.67730546 0.7636956573 -0.4129672647 0.4961552918
-0.05026603863 -0.1336643696 0.6815630794 0.7754927874 -0.3982979953 0.4898553491
-0.04944255948 -0.1280800253 0.6821668744 0.7723166347 -0.4059804976 0.488440901
-0.02739459462 -0.1202225164 0.6602541208 0.5283585787 -0.5626330972 0.6283476949
-0.01632709987 -0.1127056405 0.6575197577 0.3300230205 -0.6218215227 0.7064390779
-0.02130839229 -0.1163954735 0.657798171 0.4389961064 -0.6030936837 0.6631621718
-0.0141983889 -0.1186319441 0.6521997452 0.2893862426 -0.6347007751 0.7121924162
-0.01070459466 -0.1139516383 0.6541981697 0.2224746346 -0.6432273388 0.7271852493
-0.006013582926 -0.1099315509 0.658000648 0.1602551639 -0.6417435408 0.7488167882
0.000878226012 -0.1094089448 0.6574631929 0.05487326533 -0.6477247477 0.7559172511
-0.001722964924 -0.1053566039 0.6619138122 0.1047698334 -0.64418751 0.7530918717
0.000434107671 -0.1001315191 0.6647878885 0.07676635683 -0.644387424 0.7581406832
-0.003771469928 -0.08761078119 0.6760271788 0.138185814 -0.6319063306 0.7619777322
0.001246890635 -0.09206113219 0.6713179946 0.05667773634 -0.641428113 0.7609003782
-0.007088701241 -0.09620212018 0.669977963 0.19675228 -0.6265816689 0.7487134337
-0.01376164611 -0.09470920265 0.673206985 0.2962933779 -0.6056788564 0.7366064191
-0.02113819867 -0.09214298427 0.678699553 0.431727916 -0.5750353932 0.6943128109
-0.02688282169 -0.08727534115 0.6858264804 0.5278369188 -0.5734266043 0.6210932136
