# .PCD v0.7 - Point Cloud Data file format
VERSION 0.7
FIELDS x y z normal_x normal_y normal_z
SIZE 4 4 4 4 4 4
TYPE F F F F F F
COUNT 1 1 1 1 1 1
WIDTH 512
HEIGHT 1
VIEWPOINT 0 0 0 1 0 0 0
POINTS 512
DATA ascii
-0.03260879964 -0.155493021 0.7068471909 0.656082809 -0.4170147479 0.5266283154
-0.03644188866 -0.1572096944 0.7109411359 0.6090880036 -0.3219767809 0.4691919684
-0.04106102884 -0.1599131674 0.7163687348 0.5137861967 -0.2028479576 0.3949137628
-0.04002206028 -0.1745066792 0.7269793749 -0.3908965886 -0.1194435805 0.2903555036
-0.03626119345 -0.1708541065 0.7240847349 -0.2040497214 -0.2346280217 0.354717344
-0.03490535915 -0.1649263352 0.7158889174 0.1170301512 -0.2988196015 0.4250267744
0.07340428978 -0.1303326339 0.6875246167 0.5606799126 -0.1707562059 0.7986766696
0.07078829408 -0.2033196092 0.7453479171 0.8361854553 -0.3083722293 0.4427892864
0.06258264929 -0.2098591477 0.7517513037 0.7302974463 -0.3842612505 0.5427969694
0.06763079017 -0.2060139775 0.749854207 0.7866043448 -0.3405608833 0.5064275265
-0.02089949697 -0.09762858599 0.7359693646 0.6964107752 -0.5123358369 0.5017457604
-0.01676105894 -0.09530711174 0.7325313687 0.6446840167 -0.5342084765 0.5460571647
-0.03192370385 -0.1442092061 0.7129439712 0.7560396791 -0.4207623005 0.4971578717
0.06358299404 -0.1094639823 0.7248399854 -0.6144011021 -0.3679457307 0.6973689795
0.007939085364 -0.08406079561 0.7241917849 0.2571640015 -0.6281940937 0.7267735004
0.01520808041 -0.07955168933 0.7271702886 0.1087769493 -0.7073049545 0.6955849528
0.003845772939 -0.08139746636 0.7291984558 0.3064685464 -0.6329747438 0.7031840086
0.06835444272 -0.09254311025 0.732291162 -0.2278895229 -0.1869326085 0.6589457989
0.07039462775 -0.09614070505 0.7269579768 -0.504299283 -0.3457610309 0.6123204231
0.07859779149 -0.1919474304 0.7302700281 0.9140063524 -0.1512888521 0.3557824194
0.08081718534 -0.1893617362 0.7257499099 0.9532656074 -0.03723597527 0.2985607088
0.0815429911 -0.1839504689 0.7290256619 0.9450485706 0.01003117207 0.3018991053
0.07909128815 -0.1803194582 0.7330767512 0.9444953203 0.02707182243 0.3193660378
-0.03558242694 -0.1034772694 0.7542880177 0.7955942154 -0.4002736807 0.4546319544
-0.03450370952 -0.1125566438 0.7446990013 0.8124625087 -0.3857333362 0.4370003045
-0.03711095452 -0.1104151085 0.7502087951 0.8091267943 -0.3903787136 0.4390891492
-0.03578098491 -0.1569787711 0.7597302198 -0.01136082504 -0.3736216724 0.4830376506
-0.03342728317 -0.1722869873 0.7607432008 -0.5398097634 -0.3372404575 0.508936882
-0.0326805599 -0.1780601442 0.7634017467 -0.7644165158 -0.3255678713 0.5004584193
-0.0392662473 -0.1525523514 0.7553741336 0.1130212918 -0.3227789402 0.4504507482
-0.03495902568 -0.1665782779 0.761405766 -0.3685089648 -0.3406104743 0.4798160791
-0.03954434395 -0.1453048587 0.7568498254 0.3645213544 -0.3598372638 0.4405797124
-0.04016136751 -0.1110398993 0.756356895 0.808070004 -0.3934394419 0.4382564723
-0.04278306663 -0.1284005344 0.7523040771 0.8268876672 -0.3763669133 0.4177606702
-0.03723933175 -0.1488997638 0.7205445766 0.621429801 -0.3916870654 0.4456267059
-0.03764197975 -0.1666230857 0.7281535268 -0.1553481072 -0.2336450666 0.3370247781
-0.03750341013 -0.1598684043 0.7276450992 0.08008244634 -0.2834253609 0.3750835657
-0.03697308525 -0.1497279108 0.7262973785 0.5021663308 -0.3870826364 0.4628006816
-0.03673925996 -0.1738697141 0.741342485 -0.537486434 -0.2184954882 0.3841457665
-0.03657884523 -0.1666111052 0.7386439443 -0.2302618176 -0.2812398672 0.4278654754
-0.03600886837 -0.1776211709 0.7491704226 -0.7151741982 -0.228565827 0.4323016107
-0.0403839983 -0.1538777202 0.7150756717 0.736564517 -0.2641074359 0.4297038317
-0.04053594545 -0.1835218221 0.7347146273 -0.9444861412 -0.04327974096 0.2106851786
-0.04040602595 -0.1650165021 0.722596705 0.09860225767 -0.1820121557 0.3469032943
-0.03896918148 -0.1564642936 0.7225605249 0.3330198824 -0.2807102501 0.3900586963
-0.03549219668 -0.1483000666 0.7150098085 0.7642915249 -0.4317281246 0.4788984954
-0.03600101918 -0.1853832304 0.7471938729 -0.8343238235 -0.2458815128 0.4782489836
0.01344709285 -0.2213976681 0.7698091865 -0.08579571545 -0.5347775221 0.8337522745
0.0581750609 -0.2137823403 0.756690681 0.6622520685 -0.4394168854 0.6027326584
0.0498592332 -0.2178214639 0.7596815228 0.5401397347 -0.5424646735 0.6430541277
0.05149197578 -0.2084191591 0.7639250159 0.5546431541 -0.4988826811 0.6596047878
0.0564481318 -0.2081849426 0.7613367438 0.6421163678 -0.4541603923 0.6135467291
-0.02831321582 -0.1532035023 0.7007533312 0.6956784129 -0.4468046427 0.5609831214
-0.02832154743 -0.1451653093 0.7077243924 0.7211157084 -0.4386182725 0.5360100269
-0.02560308017 -0.1472174972 0.701411128 0.6969565153 -0.4464143813 0.5607753992
-0.02074271999 -0.1451587081 0.6953942776 0.6376488209 -0.4666154087 0.609356761
-0.02364285104 -0.15057455 0.6959177852 0.6610098481 -0.4688435793 0.5841372609
-0.01498492807 -0.1382220089 0.6937741041 0.5838753581 -0.49617365 0.6421971321
-0.01895795017 -0.1399854571 0.6981037855 0.6314843297 -0.4743865728 0.6075354815
-0.01387498621 -0.1266455799 0.7017389536 0.565561235 -0.5150521994 0.6431583166
0.04836666957 -0.1123499572 0.7088388801 -0.4655448198 -0.5453215241 0.6963924766
0.05227601156 -0.1170953587 0.7071479559 -0.4904843271 -0.5475019813 0.6778358221
0.0723676905 -0.09532052279 0.7211946845 -0.2305117697 -0.3177717328 0.5858608484
0.06944074482 -0.09196971357 0.7159065008 0.624124527 0.3945901394 0.5709634423
0.07613160461 -0.09124619514 0.7061138153 0.7440875173 -0.04638628662 0.5251501203
0.07979185879 -0.09055967629 0.6975709796 0.785510838 -0.3603470027 0.5025408268
0.04132583737 -0.1490836889 0.6768823266 -0.3511731923 -0.5630499721 0.7310760021
0.07538275421 -0.1371885836 0.6975863576 -0.2657976449 -0.0160585884 0.6887411475
0.08014167845 -0.1275021434 0.6916200519 0.3830039501 -0.2339146882 0.6414752603
0.076933451 -0.1241198331 0.7058861256 -0.03435625136 -0.3054046333 0.6283752322
0.07445471734 -0.1234015375 0.7149571776 -0.3608144522 -0.3190535903 0.6267383695
0.07335115969 -0.1329108328 0.7181348801 -0.7471252084 -0.313541919 0.5258581638
0.07740058005 -0.1389128268 0.7028928995 -0.3321765065 -0.2855513096 0.4793328345
0.07583109289 -0.1430208385 0.7082369328 -0.6507453918 -0.2888141274 0.4318044782
0.07749073207 -0.1313578337 0.7032269835 -0.1344459057 -0.2939929068 0.5566385984
0.07613433897 -0.1359755695 0.7077518702 -0.4359312356 -0.2955541611 0.5046865344
0.07928333431 -0.1316461861 0.6966871023 0.1073124632 -0.2843945622 0.5601772666
0.0751632005 -0.1299223453 0.7118113041 -0.4223338664 -0.3077064753 0.5628557205
0.08470582217 -0.1147028506 0.6899037957 0.7049218416 -0.328574568 0.6169041395
0.07701316476 -0.119534485 0.7092183232 -0.0714687109 -0.3250968456 0.6372380257
0.0799825713 -0.121062696 0.6968023777 0.3775857985 -0.3011547625 0.650054276
0.08473069221 -0.1080433279 0.6932283044 0.7117314935 -0.3512272835 0.5492019057
0.08315545321 -0.1126077548 0.6969279051 0.4769185781 -0.344987452 0.5964927077
0.08021924645 -0.1151073724 0.7041580081 0.171142593 -0.3422422111 0.6117516756
0.07763537765 -0.1193725541 0.6869611144 0.6514970064 -0.3232055008 0.6842136383
-0.01979461499 -0.1499859989 0.68884027 0.6203907728 -0.4468612969 0.6432446837
0.0007851747214 -0.1322648078 0.6895718575 0.3407303691 -0.5972422361 0.7247925997
-0.001345147029 -0.1377836764 0.6863181591 0.3861679733 -0.5628355742 0.7244271636
0.003873458132 -0.1388882846 0.6807471514 0.2819938958 -0.5921344757 0.7512245178
-0.03146762773 -0.1612837613 0.7657715082 -0.1211896911 -0.42168957 0.52849859
-0.03096639737 -0.1668292582 0.7665342689 -0.3251074553 -0.4034482837 0.528249383
-0.04049779102 -0.1382752657 0.7561058402 0.6137501597 -0.3754580319 0.4341228902
-0.03595200181 -0.1485929638 0.7611567974 0.2905770242 -0.4022219181 0.4827628434
-0.02789265662 -0.1782260835 0.7698460221 -0.7104947567 -0.4035794735 0.5561181903
-0.02778042853 -0.1708771586 0.7701488733 -0.4314340353 -0.4351445735 0.5659546256
-0.0367856957 -0.122704424 0.7422022223 0.8252770901 -0.3760474622 0.421243161
-0.03840536624 -0.1241721064 0.7483655214 0.8239793777 -0.3759199977 0.4238056839
-0.03632287309 -0.1176567748 0.7472614646 0.8169746399 -0.3825992644 0.4312222302
0.02408456244 -0.1762881726 0.7973788977 0.09147342294 -0.526434958 0.8448073864
0.07004867494 -0.1108170375 0.7311421633 -0.6400303841 -0.3709570467 0.67274791
0.07458239049 -0.1088035852 0.7363162637 -0.6331778765 -0.3869010806 0.6699668765
-0.03213133663 -0.1053177565 0.7480940819 0.7865371704 -0.4097892344 0.46144256
-0.03197449818 -0.1839103401 0.7593031526 -0.79459548 -0.301035583 0.5213618875
-0.03380588442 -0.1863997579 0.7543252707 -0.8188614845 -0.273214817 0.5046782494
-0.03081030212 -0.2061634064 0.7514167428 -0.7237507105 -0.3029456735 0.6092143059
-0.02702523023 -0.2000085562 0.7558390498 -0.7442194223 -0.2965432405 0.5904909372
0.02052612789 -0.2202219516 0.7690000534 0.01572542079 -0.5474940538 0.8336651325
0.03162643686 -0.2148413658 0.7714179158 0.2357642502 -0.5700941086 0.7825124264
0.04588471726 -0.213297233 0.7655124664 0.4403886795 -0.5592906475 0.700872004
0.03977191448 -0.2151824087 0.7698958516 0.3484033942 -0.584625423 0.7309256196
0.04024048522 -0.1970761716 0.7824072242 0.3775308132 -0.5347539783 0.7532852292
-0.02184014767 -0.1361197233 0.7044014931 0.6898525953 -0.4564656317 0.5612232089
-0.02150237188 -0.1308757663 0.7083746195 0.688205719 -0.4521234035 0.5668641925
-0.02566768229 -0.1354749948 0.710817039 0.7165363431 -0.4413745999 0.5391448736
-0.02532559447 -0.1404898316 0.7059616446 0.7105713487 -0.4384676516 0.5500204563
0.0499061048 -0.1208727062 0.7031851411 -0.3972555399 -0.6215119958 0.6697468162
0.05462883413 -0.1241924018 0.7038289905 -0.3921375275 -0.6619412899 0.6371365786
0.06811210513 -0.1327008754 0.7128303051 -0.6693938375 -0.4759351611 0.5012580156
0.07052357495 -0.1382877529 0.7118223906 -0.7430829406 -0.4118159413 0.4550770819
0.06867746264 -0.1269170344 0.7188336849 -0.6688489318 -0.4146372676 0.5869069099
0.06522479653 -0.1267747283 0.7133658528 -0.5830814838 -0.5576840043 0.5461723208
0.0602719225 -0.1247912869 0.7079691887 -0.5092042685 -0.6794375181 0.5232287049
0.07101104409 -0.12127579 0.6864956617 0.552246511 -0.3723727465 0.7401220798
0.06638468057 -0.1262007505 0.6865491271 0.4762164354 -0.3999237716 0.7824218869
-0.02119879983 -0.1109283045 0.7224671245 0.6924698949 -0.4741357565 0.5421693325
0.01452595647 -0.08676142246 0.7199230194 0.1327269375 -0.6412252784 0.7546378374
-0.0261131376 -0.09726702422 0.7440319657 0.7438580394 -0.4570325315 0.4866492152
-0.03214032575 -0.09823962301 0.7516379356 0.7768606544 -0.4172777236 0.4702365994
0.05275176838 -0.174409762 0.7881937027 0.5392994285 -0.4118083119 0.7281306982
0.0589761883 -0.1763867885 0.7799523473 0.6653217673 -0.3902280927 0.6254577637
0.07745531201 -0.1129852161 0.6870880127 0.6467558742 -0.3497867882 0.6753579974
0.06278177351 -0.0964262411 0.7321869135 -0.5491988659 -0.4644605517 0.6899229884
0.06728422642 -0.09269434214 0.7401301861 -0.5477549434 -0.4415629208 0.7099651694
0.06530673802 -0.1029914245 0.7297805548 -0.6000294089 -0.4134659171 0.6822841763
0.06794977933 -0.09852837026 0.7369408011 -0.5786813498 -0.4173938334 0.6981173754
0.06987082213 -0.1043856964 0.7351109385 -0.6082977057 -0.395260334 0.6858088374
0.08185687661 -0.09948594868 0.7168970108 0.163931787 -0.3980180025 0.543505609
0.07562243193 -0.09919853508 0.727196157 -0.4194701612 -0.4311946929 0.59576267
0.07947149128 -0.1046685576 0.7232502699 -0.1324571967 -0.3907012343 0.5866693258
0.0814620927 -0.1011247337 0.7090262175 0.3577664495 -0.3896014988 0.5083119273
0.07745883614 -0.1083379015 0.7307372093 -0.4397145808 -0.3883089721 0.6320766211
0.08015088737 -0.1032423526 0.7357145548 -0.4383791983 -0.3991281688 0.6448737979
0.07635627687 -0.09538014978 0.7165573239 0.001792401075 -0.4062069952 0.5584391356
0.07870461792 -0.09510127455 0.7100204825 0.2911767662 -0.3956374228 0.523443222
0.08185985684 -0.09526524693 0.7015441656 0.6496385932 -0.3865059912 0.4742477536
0.07335837185 -0.0988053903 0.7335116863 -0.635035634 -0.4393647313 0.6331838369
0.07828370482 -0.103084743 0.7419098616 -0.6124936938 -0.4045434296 0.6787290573
-0.001809083507 -0.1998055428 0.7800838351 -0.3685789406 -0.5335520506 0.7605442405
0.03992694616 -0.218635112 0.7632277012 0.3780966997 -0.562667191 0.7051072717
0.03516151756 -0.2212051451 0.7671512365 0.3078021705 -0.5908958912 0.7411205769
0.02597102523 -0.2211030573 0.7702091932 0.1329198331 -0.5803094506 0.8007623553
0.07666971534 -0.200469926 0.7392316461 0.8672398925 -0.2847191393 0.4084059298
0.06294392049 -0.1504401714 0.6879320741 -0.5558905602 0.09486817569 0.8106664419
0.06652287394 -0.1452490538 0.6895962954 -0.4195102155 0.1291599721 0.8471671343
0.0614529103 -0.1131266356 0.7206277847 -0.6089655161 -0.3650348485 0.7035433054
0.06066570058 -0.1201224849 0.7131575942 -0.5683608651 -0.5575690866 0.5968800187
0.06466564536 -0.1213265732 0.7177273631 -0.5978735089 -0.4977805316 0.6147189736
0.07782585174 -0.172690317 0.7249107361 0.3607898951 -0.02935096994 0.3103337288
0.07836917788 -0.1807338148 0.7242700458 0.6321456432 0.002508745762 0.2868674994
0.07528796047 -0.1606390029 0.7128682137 -0.4786619246 -0.1428009421 0.3639678955
0.07256534696 -0.1558235884 0.7074795365 -0.5829162598 -0.2078705579 0.5783731341
0.07724139839 -0.1763124168 0.7194013 0.4570714235 -0.02291617543 0.3798913658
0.07609787583 -0.1683034599 0.7135760784 0.08655252308 -0.06056977063 0.4511037767
0.07810723782 -0.1645456702 0.7186044455 -0.1177670881 -0.05798658356 0.2956335247
0.08184497058 -0.1763782948 0.7294088602 0.8091730475 0.0789040029 0.2753967345
0.07630628347 -0.1568673551 0.718193531 -0.3456700444 -0.1818442941 0.3595169485
0.07556884736 -0.1496064067 0.7119114995 -0.7923288345 -0.2742360532 0.3740899861
0.08378202468 -0.171799466 0.738817513 0.8006216288 -0.0645924136 0.3617435098
0.08079473674 -0.1655571908 0.7290711403 0.2141820937 -0.1046254113 0.346820116
0.07875496149 -0.1712956429 0.7327245474 0.6465178728 -0.01661332324 0.3446542621
0.07883295417 -0.1586568356 0.7228404284 -0.1402103454 -0.1882482171 0.3693495691
-0.01366493478 -0.145839408 0.6869453192 0.5600124002 -0.4732736647 0.679923296
-0.006540681235 -0.1416503936 0.685886085 0.4813325703 -0.5200029612 0.7040036321
-0.008911624551 -0.1345830709 0.692542851 0.4851004779 -0.5431756377 0.6800185442
-0.01058565732 -0.1297563463 0.6963632703 0.5139642954 -0.5397884846 0.6650354266
0.06303683668 -0.1329794675 0.7049987912 -0.5663961768 -0.5735887885 0.5311885476
0.0661226958 -0.1384759992 0.7050973773 -0.6706195474 -0.4434014857 0.5120390058
0.0711779967 -0.1512297839 0.704882443 -0.7319190502 -0.249507457 0.624689579
0.06712767482 -0.1452194154 0.7033876181 -0.6397986412 -0.3603412211 0.6457871199
0.07382888347 -0.1439035982 0.7023942471 -0.5708127022 -0.08440900594 0.6274163723
-0.04028164223 -0.168679148 0.734297514 -0.3953818977 -0.151571691 0.2792741954
-0.04054428637 -0.177108407 0.7351509333 -0.7187430859 -0.08625272661 0.237175867
-0.03998090327 -0.1565589607 0.7334586382 0.0624599494 -0.2430175096 0.3378163874
-0.0381690003 -0.1425372213 0.7250980139 0.7274874449 -0.3959157467 0.4434215426
-0.03942767903 -0.1453151405 0.7312961221 0.5125515461 -0.3366749883 0.3992209733
-0.03956931457 -0.1392764896 0.7323495746 0.7137134671 -0.372857511 0.4208469987
-0.03553959727 -0.1775294691 0.7557592988 -0.7481392026 -0.2584371567 0.4875170588
-0.03892569244 -0.1607165188 0.7438748479 -0.1535929888 -0.2537921071 0.3903876841
-0.03875267133 -0.1805146337 0.7426868081 -0.8483181 -0.1260331124 0.3140707314
-0.03734500334 -0.1635601819 0.749897182 -0.2555743754 -0.2897854745 0.457208842
-0.04061789438 -0.1623443663 0.7369847894 -0.2083064616 -0.1836836785 0.2988012135
-0.04012607411 -0.1549012214 0.7396480441 0.05209149048 -0.2511658669 0.3553329408
-0.03561880812 -0.1720136404 0.7493656874 -0.487598002 -0.2901676297 0.4885234535
-0.03674282506 -0.1513069123 0.7321141958 0.3650497198 -0.3733658493 0.4637230337
-0.03681816906 -0.1468906999 0.7371470332 0.3913533986 -0.3667540848 0.4428392053
-0.0366804786 -0.1561218202 0.7473561764 -0.00976406876 -0.3215892613 0.4558683038
-0.03665108234 -0.1503927559 0.7423765063 0.2097584754 -0.3460523784 0.4439464808
-0.0373827219 -0.1406324208 0.7391588092 0.541103065 -0.3707897663 0.42810601
-0.03766114265 -0.134387508 0.7358221412 0.7634543777 -0.3907280266 0.4168860912
-0.03679769859 -0.1681827903 0.7548523545 -0.4238888919 -0.2845696509 0.4762893915
-0.04024197906 -0.1437209845 0.7507171631 0.4268836677 -0.3451783657 0.4351617396
-0.04049459472 -0.136604175 0.7418323755 0.691224575 -0.3660704792 0.422324419
-0.03923613206 -0.1389019489 0.7473261952 0.5613020062 -0.3559036553 0.4295297861
-0.03760261089 -0.1591391712 0.7533618808 -0.1222328395 -0.3062002361 0.4619990289
-0.04027444124 -0.132062152 0.746912837 0.7976361513 -0.3725398481 0.4181089997
-0.03784184158 -0.1491687894 0.7484961748 0.2083489746 -0.3308770955 0.4465219676
-0.03855032846 -0.1307367086 0.7406557202 0.8258793354 -0.3796657622 0.4167743325
-0.03479700536 -0.1325855106 0.7283979654 0.7984918952 -0.411829114 0.4379651546
-0.03595209867 -0.1264493465 0.7357618809 0.8148729801 -0.3871500492 0.4305023551
-0.02966748923 -0.1357244849 0.7156782746 0.7556357384 -0.4286325872 0.49412328
-0.04180672765 -0.1198892966 0.7515317798 0.8188344836 -0.3845112324 0.4258837104
0.02326297574 -0.1818303615 0.7948562503 0.07811041921 -0.5439581871 0.8336956501
0.0217445232 -0.1900628805 0.7904638648 0.06087173149 -0.5678570271 0.8187993765
0.01322170626 -0.1862697303 0.7941963673 -0.05935040861 -0.577986598 0.8137463927
0.06897122413 -0.1207795292 0.7236062288 -0.6515750289 -0.3907961547 0.6490544081
0.06995163113 -0.1156218871 0.7276425958 -0.6603797674 -0.3678638041 0.6536269188
0.0783944875 -0.1105911881 0.7174754143 -0.09843284637 -0.3708966076 0.6007233262
0.07906382531 -0.1055937782 0.7152849436 0.06325861812 -0.3851738274 0.5499821901
0.07469819486 -0.116120182 0.7229472399 -0.4473515749 -0.3548805714 0.6266598105
0.07884158194 -0.1120131761 0.7098127604 0.07082398981 -0.352276355 0.5797082782
0.07567492127 -0.1160727441 0.7164319158 -0.2613815069 -0.3445701897 0.6058697104
0.08137125522 -0.108421877 0.7058185935 0.3120597601 -0.3621008992 0.562487483
0.06094343588 -0.08787686378 0.7285820842 -0.09488901496 -0.2203143388 0.6516981125
0.06293016672 -0.08906393498 0.737654984 -0.4808269739 -0.4781322181 0.6994848251
0.05681123957 -0.08656262606 0.7333174348 -0.4583221376 -0.559586525 0.687735796
0.05810499936 -0.1056432202 0.7221965194 -0.5483515859 -0.4053117037 0.7301341891
0.04594294727 -0.08769188821 0.7254196405 -0.2562140524 -0.5437988043 0.6925930977
0.05770130828 -0.09131017327 0.7181050181 0.3076195419 0.0714084506 0.6346415281
-0.03653169051 -0.1939000189 0.7426852584 -0.8690757751 -0.1856399924 0.4016214013
-0.03848562762 -0.1878548563 0.7395125031 -0.9117947817 -0.1290712804 0.3284367621
-0.03039930947 -0.192496255 0.7531118393 -0.8092920184 -0.2746957541 0.5191222429
-0.03383650631 -0.1920379549 0.7471175194 -0.8431397676 -0.2284471393 0.4561050832
-0.03094799817 -0.2001681924 0.7508193851 -0.7458803654 -0.2954613864 0.5890697837
0.01161914505 -0.215389818 0.7708067298 -0.1213690192 -0.5408862233 0.8267084956
0.006894053891 -0.2198935598 0.7702569962 -0.1814074069 -0.5534791946 0.8080171347
-0.02004518732 -0.2129583657 0.759460032 -0.5868106484 -0.3525103927 0.7284346223
-0.03042713553 -0.2130144984 0.7552014589 -0.6842100024 -0.3109973967 0.6582351327
-0.03051600792 -0.127002269 0.7233749032 0.779977262 -0.4156582057 0.465808779
-0.02588441595 -0.1295114309 0.7149626613 0.7289720774 -0.4401656389 0.5235823989
-0.03076379001 -0.1326242238 0.7203361988 0.7617976069 -0.4299555421 0.4824743569
0.02376934886 -0.2085648775 0.7780438662 0.07248743623 -0.5607613325 0.8232833743
0.01763295755 -0.202142626 0.781552732 -0.04301982746 -0.5727546215 0.8143362999
0.02323795855 -0.2131955773 0.7729715109 0.05942954123 -0.5561434031 0.8263627291
0.02407706715 -0.2008774579 0.7827423811 0.06332008541 -0.5715326071 0.8157932758
0.0198395513 -0.1958569884 0.7857322693 -0.008202515543 -0.582988739 0.8053712845
0.02753547952 -0.1929117292 0.7881258726 0.137513712 -0.551853776 0.8206321597
0.03365902603 -0.1945383996 0.7856735587 0.2372311801 -0.5468837619 0.8022981286
0.03203061223 -0.2091470063 0.7750121355 0.231206581 -0.5682279468 0.7864258289
-0.01743529923 -0.187932387 0.7765603662 -0.6167079806 -0.4792171717 0.6244529486
-0.02381837554 -0.1779451966 0.7757344842 -0.6459361911 -0.4589601159 0.6082527637
-0.01893510111 -0.1804868132 0.7825891972 -0.5918366909 -0.4836477041 0.6410391927
-0.01488063391 -0.1773676276 0.789423883 -0.5097029805 -0.5027014613 0.6929438114
0.01648537256 -0.2186383754 0.7743560672 -0.03147248924 -0.537073195 0.8417171836
0.01685623638 -0.211035043 0.7778654695 -0.03582757339 -0.5493634343 0.8329514861
-0.01565640606 -0.1318768412 0.7008657455 0.6045969129 -0.493799299 0.6160789728
0.03446758538 -0.2004864067 0.7812555432 0.256331563 -0.5685029626 0.7800284624
0.02962426655 -0.2040343881 0.7793398499 0.1647204012 -0.5660610795 0.8037318587
0.03794837743 -0.208372876 0.7718753815 0.3360565305 -0.5566703081 0.7530719638
0.02837173454 -0.1972074658 0.7838795781 0.1524381489 -0.5621238947 0.8084677458
0.04389018193 -0.209237352 0.7722159028 0.4003524482 -0.5650359988 0.7189158797
0.04849603027 -0.2071306556 0.7698562145 0.4872595668 -0.5288135409 0.6874529719
0.06420328468 -0.1774491668 0.7714614272 0.74650383 -0.3653289974 0.5515242219
0.06264697015 -0.1819894612 0.7686339021 0.7581835389 -0.371018976 0.5352043509
0.07091498375 -0.1968768239 0.7459831238 0.8506960869 -0.2841662169 0.4416807592
0.05346978083 -0.2035272866 0.7667871118 0.5997815728 -0.4670599401 0.6478848457
0.05671346188 -0.1976869255 0.7667978406 0.6758274436 -0.4081538916 0.6069439054
0.06710361689 -0.1846222728 0.7609754205 0.8144733906 -0.3010092676 0.4944419265
0.06619302928 -0.1782589257 0.7650663853 0.7895178199 -0.3379442096 0.5106890798
0.03810906038 -0.113052845 0.7010487914 -0.1839631051 -0.5602419376 0.769829452
0.04758850113 -0.1100770086 0.7017056942 -0.1034899279 -0.5122734904 0.7332386374
0.06193499267 -0.1083845571 0.6956293583 0.2711566687 -0.4316720068 0.6787505746
0.05548385903 -0.1092734188 0.6980401874 0.1141875535 -0.4675518572 0.7032924891
0.03965321928 -0.109727338 0.706594646 -0.3075376451 -0.5655483603 0.7591436505
0.03497755155 -0.1060769856 0.7059780359 -0.2395617515 -0.5792277455 0.7755464911
-0.0007580466336 -0.1178796142 0.7017377615 0.3546513319 -0.5930274725 0.7165967226
-0.006934691221 -0.1187249869 0.7061569691 0.4736465514 -0.5486581922 0.6782224774
-0.02164537832 -0.1060588211 0.7284198999 0.7062195539 -0.4739501178 0.5251477957
-0.01673883945 -0.10469684 0.7237781286 0.6505368948 -0.5019495487 0.5687453747
-0.01615734585 -0.1108932048 0.7181299329 0.6130990982 -0.5056657791 0.6001512408
-0.01078669168 -0.1074137464 0.7156202793 0.5295495391 -0.5343840718 0.6539521813
-0.01205418259 -0.1131398678 0.7125732899 0.5333192945 -0.5276885033 0.658706367
-0.02235103399 -0.1242662147 0.7144002914 0.6983439922 -0.4546734095 0.5496326685
-0.02111238427 -0.1173886955 0.7167732716 0.682638526 -0.4708403945 0.5574021339
-0.01267583482 -0.117476806 0.7090005279 0.5441533923 -0.5210977197 0.6557916999
-0.01498532202 -0.1228193641 0.706428349 0.5808954239 -0.5057570338 0.6371657848
0.06732915342 -0.1066369638 0.6941133142 0.4209491313 -0.4007437825 0.6476221681
0.0610454008 -0.1031288877 0.7009329796 0.223330915 -0.4560711086 0.6363223791
0.07305324823 -0.1022389457 0.694082737 0.6088463664 -0.3775573373 0.588937223
0.06618346274 -0.1018589437 0.6986889243 0.3908569515 -0.4286679327 0.6076819301
0.0796501562 -0.09788905829 0.694177568 0.7675896287 -0.3576122224 0.5270417929
0.07932046056 -0.1056015193 0.6901597977 0.7272872925 -0.348004818 0.5898490548
0.0316773057 -0.1774517149 0.7961812019 0.2086920142 -0.4850789905 0.8454511762
0.03207064047 -0.1827855408 0.7933597565 0.2099316269 -0.5011178255 0.8362330794
0.03895850107 -0.182732597 0.791831553 0.3282637298 -0.4592151046 0.8223671317
0.04146559536 -0.1768818349 0.793000102 0.36695081 -0.4515966475 0.8093165755
0.04299933091 -0.1849303842 0.7878838181 0.4156117439 -0.4837401509 0.763617456
0.03689025342 -0.1888896376 0.7889506817 0.2750367224 -0.5183047056 0.8088638783
0.03077310324 -0.1883744895 0.7910609245 0.1906536072 -0.5303208232 0.8242859244
0.04706670716 -0.1800830513 0.787899673 0.4847382009 -0.4551199675 0.7407206893
0.05244665965 -0.1805173606 0.7826230526 0.5951433778 -0.435323447 0.6640294194
-0.01210008562 -0.1839817911 0.7858313322 -0.4977515936 -0.5153072476 0.6966027021
-0.0111438483 -0.1898343712 0.7815883756 -0.5042952299 -0.5210974216 0.6883404851
-0.006786241662 -0.1869111955 0.7855806351 -0.4435974061 -0.5356479287 0.7169764638
-0.004476140719 -0.1922390014 0.7831653953 -0.4037434161 -0.5499640107 0.7306947112
0.003419508925 -0.1950696111 0.7841451168 -0.2826408446 -0.58442837 0.7582682967
0.006504014134 -0.1424518079 0.6771155 0.2365527451 -0.6026934981 0.7606124878
-0.001086135395 -0.14306885 0.680961132 0.3844884336 -0.5469984412 0.7348948121
0.01518138964 -0.1307103187 0.6851021647 0.09077536315 -0.6606671214 0.744799912
0.007281107828 -0.1303658634 0.6866303682 0.2203150094 -0.6316602826 0.7419297695
0.009716387838 -0.1355796754 0.6811504364 0.1956811994 -0.6314943433 0.7487165928
0.01281764731 -0.1419298202 0.6753343344 0.1554366946 -0.6427426934 0.7495403886
0.07718963921 -0.1946152449 0.7407375574 0.87231493 -0.2632825971 0.4076395929
0.08279394358 -0.1793337613 0.73900038 0.922296226 -0.09134145826 0.3666904271
0.07330979407 -0.1897059977 0.7449686527 0.8599380851 -0.2694309056 0.4327594042
0.07743021846 -0.1874820292 0.7354056835 0.8747237921 -0.2555305362 0.4116226733
0.07692641765 -0.1837009043 0.7405776978 0.8828543425 -0.2082771361 0.4035397768
0.07179149985 -0.1383036673 0.692512989 -0.2444122732 0.1547126472 0.8791002631
0.07776235044 -0.1752598286 0.7474539876 0.8912242055 -0.1429959536 0.4137818217
-0.006912061945 -0.1118404046 0.7089501023 0.4604668319 -0.5458695292 0.6983980536
0.01304154471 -0.1786806136 0.7970642447 -0.06469647586 -0.5697509646 0.8141717911
0.006352766883 -0.1767187864 0.7974494696 -0.1883873641 -0.5532013774 0.8067173362
0.07375644892 -0.09261524677 0.7002216578 0.6405451298 -0.3805475831 0.5426447988
0.05623656511 -0.09267790616 0.7106688619 0.08729668707 -0.4867661595 0.651876092
0.06981920451 -0.08998701721 0.7040544748 0.5231133699 -0.3931790292 0.5620526671
0.06365717202 -0.09147900343 0.7069991231 0.3162819147 -0.434851706 0.6042067409
0.0494784005 -0.09341706336 0.7140840292 -0.1093935519 -0.5350670815 0.6934642196
0.04690251499 -0.09085930884 0.7186766863 -0.03826221451 -0.3683008552 0.6938352585
0.05515249446 -0.1118376106 0.7151663899 -0.5506163836 -0.4542591572 0.6917334199
0.05697094649 -0.09942498803 0.7254170179 -0.497803539 -0.4703010023 0.7228075266
0.05692306533 -0.09419236332 0.7284448147 -0.4899985194 -0.5103472471 0.7039772868
0.05084154382 -0.09385530651 0.7247383595 -0.3977383971 -0.5521035194 0.7290905118
0.0523025021 -0.08401001245 0.7317098379 -0.3783868253 -0.5887390971 0.6842434406
0.05571587756 -0.08616608381 0.7257781625 0.02719773725 -0.2210797071 0.6482627392
0.06119539961 -0.08856873214 0.7220276594 0.2888166308 0.07468868792 0.6176694036
-0.01428815722 -0.2091247737 0.7644611001 -0.5149219632 -0.4109960496 0.7476448417
-0.0129941944 -0.2158646286 0.7633373737 -0.4903829694 -0.4360997677 0.7433388829
-0.005139589775 -0.2204322219 0.7661194801 -0.3463461399 -0.5111480951 0.7734034657
-0.005491555668 -0.2135680616 0.7680611014 -0.3891725838 -0.5169725418 0.7613152862
-0.01827984676 -0.197249487 0.7693283558 -0.6251274943 -0.4218739271 0.6559997201
-0.01449494716 -0.1927488446 0.7741544247 -0.564882338 -0.4862147272 0.6606280804
-0.03016277403 -0.1832992285 0.7649198174 -0.7601912618 -0.3607893884 0.5357881784
-0.02297473513 -0.1839304268 0.7718738317 -0.6680383086 -0.4660949409 0.5791226029
0.01293015201 -0.1263840497 0.6894419193 0.1370420307 -0.6395449042 0.7541978955
-0.0006264198455 -0.2100636512 0.7708761096 -0.3104692101 -0.5117853284 0.7934293747
0.01144017 -0.2076065689 0.7770166993 -0.1271114498 -0.5525479317 0.8185091615
0.003985292744 -0.2053157389 0.7765771747 -0.2650722563 -0.5263272524 0.8062357903
0.004847666714 -0.2109506279 0.7729227543 -0.2254838049 -0.5331700444 0.8151729703
0.0004905164824 -0.2157940865 0.7708747983 -0.2767754197 -0.5386081934 0.7949613333
0.008657752536 -0.2004028559 0.7817876935 -0.1998153329 -0.560652554 0.7998501658
0.01379112527 -0.1976172775 0.7842451334 -0.1187132001 -0.5934906006 0.7943216562
0.04743216932 -0.1922778338 0.7810867429 0.506249547 -0.4904140532 0.7069956064
0.04823542759 -0.1864816397 0.7839493155 0.5107524991 -0.4775180817 0.7124543786
0.0412078239 -0.1906053275 0.7856384516 0.3706253469 -0.5089842677 0.771502316
0.0634156242 -0.2032260597 0.7545166612 0.7471325994 -0.3616991341 0.5458900928
0.06844230741 -0.1939680576 0.7524706721 0.8166421652 -0.2890629768 0.496725738
0.06816550344 -0.1999450177 0.7508310676 0.7995480895 -0.3166251481 0.5097587705
0.05317863449 -0.1884863526 0.7776350975 0.6163557172 -0.4457840323 0.6365461946
0.05819086358 -0.1828723401 0.7786656022 0.674151659 -0.4166006744 0.6084298491
0.05851810426 -0.1855830103 0.7733656168 0.7134364843 -0.4048072994 0.5704964995
0.05240466073 -0.1287832558 0.6990176439 -0.3640908003 -0.6259196997 0.6828400493
0.02954581194 -0.1102211028 0.702821672 -0.1333033293 -0.6020640731 0.7813219428
-0.005882509518 -0.09879352897 0.7189552188 0.4802335799 -0.5534745455 0.6762738228
-0.01136658899 -0.09816163778 0.7240838408 0.5736795664 -0.5468990803 0.6085162163
-0.02570795268 -0.1150824651 0.72719872 0.7578424215 -0.4319098592 0.4876439571
-0.03159402683 -0.1239822507 0.7313377261 0.8039628267 -0.400737226 0.437363714
-0.02833792008 -0.121479921 0.7255177498 0.7722187638 -0.422542721 0.4723775387
-0.03297803178 -0.1176315919 0.7378049493 0.8108112812 -0.3878275454 0.4379791915
-0.02525465935 -0.1061820388 0.7362369895 0.7566239238 -0.4453462362 0.4773735404
-0.02861824259 -0.1045815274 0.7417685986 0.7770377994 -0.419510901 0.4684491754
-0.03050544672 -0.1122187898 0.7398613095 0.8022409081 -0.3974913657 0.4441022873
-0.02805446647 -0.1133765504 0.7341532111 0.7913387418 -0.4135492742 0.4500252903
-0.007008805871 -0.08815413713 0.7291153669 0.4822922349 -0.6093021035 0.6261983514
-0.002558787819 -0.08374349028 0.729835093 0.4153485 -0.6171305776 0.6645171642
-0.005967432167 -0.09313866496 0.7238747478 0.4654271007 -0.587960124 0.6597296
0.01337177679 -0.09513545036 0.7143033147 0.1466871202 -0.5903534293 0.7917557955
0.009896009229 -0.0905636847 0.7174382806 0.2057112008 -0.6031130552 0.7688293457
0.006655835547 -0.0957666263 0.7146484256 0.2528051436 -0.5892009735 0.7665405273
0.01392853726 -0.1003883407 0.7111455798 0.1136630401 -0.5926244855 0.7968052626
0.008279550821 -0.1022721902 0.7105736136 0.2122399807 -0.5791704655 0.782420516
0.04162756726 -0.08330826461 0.7289281487 -0.2881949246 -0.6516527534 0.7004747391
0.0406033136 -0.08824251592 0.7227823138 -0.2770038545 -0.6302440763 0.7244665623
0.02109336294 -0.09995973855 0.7107058167 1.624124593e-06 -0.6000297666 0.7971770763
0.0004170514003 -0.1786222607 0.795784533 -0.3034947217 -0.5378580093 0.776522398
-0.009320274927 -0.1766392142 0.7919772863 -0.4438656867 -0.5127683282 0.7312096953
-0.00460172724 -0.1819096506 0.7903934717 -0.4259616435 -0.5298117399 0.7315240502
0.006058107596 -0.1873059422 0.7901678085 -0.2174745202 -0.5739962459 0.7827239633
0.00135757809 -0.1842026711 0.7910742164 -0.3108825088 -0.555568397 0.7657450438
0.006146731321 -0.182600677 0.7961207628 -0.2093842626 -0.561439991 0.7944196463
0.0133124413 -0.1912811399 0.7894069552 -0.08352603018 -0.5898502469 0.8019164801
0.008946793154 -0.1937042773 0.7861351371 -0.1984851956 -0.5945942998 0.7739067078
0.0243380703 -0.1396118701 0.6791397333 -0.07181158662 -0.6693485975 0.7236382365
0.01483215671 -0.1391703486 0.6803380847 0.09268560261 -0.6598569155 0.7335441113
0.0281345062 -0.1327010095 0.6859014034 -0.1318477243 -0.6490923166 0.7302854061
0.02362397127 -0.1264217049 0.6902611852 -0.06462672353 -0.6400395632 0.7575983405
0.02247793041 -0.1325160116 0.6862338781 -0.0395536162 -0.6428443789 0.7406527996
0.01917418279 -0.1348929554 0.6817200184 0.03480439633 -0.6751531959 0.7328910828
-0.00940277148 -0.2064810395 0.7690728903 -0.4634226561 -0.4704344571 0.7495077252
-0.006013414357 -0.2021390498 0.7737415433 -0.4405488968 -0.4958359003 0.7471656799
-0.008351158351 -0.1964382231 0.7778639197 -0.4688139558 -0.5093442202 0.7174205184
-0.02589361556 -0.1876349449 0.7653288245 -0.7168644071 -0.3802172244 0.5834743977
-0.01924487203 -0.1911533922 0.7706155777 -0.6314330101 -0.439564079 0.6309783459
-0.02284893394 -0.1949222982 0.7651608586 -0.6870423555 -0.3744338155 0.6215606928
-0.01146225631 -0.1984919012 0.7718978524 -0.5197346807 -0.4656791985 0.7081412673
-0.02896737307 -0.1894080341 0.7608863115 -0.7869090438 -0.3059693873 0.5303570032
-0.01393222343 -0.2026481628 0.7683714032 -0.5387542844 -0.4306655228 0.7217772603
-0.02504214086 -0.2031597197 0.7619700432 -0.6744463444 -0.3580997288 0.6430653334
-0.02646251954 -0.2078018486 0.758574307 -0.6808322072 -0.3220150471 0.6571871042
-0.01939385012 -0.2014584541 0.7633265853 -0.6200380325 -0.3728126287 0.6729973555
-0.02759164572 -0.196022734 0.7604609728 -0.7469480634 -0.3168328404 0.5766786933
0.01060514804 -0.1138245016 0.7007015347 0.1783732772 -0.617654264 0.762181282
-0.002488544444 -0.128341198 0.6941228509 0.3900119364 -0.5859692693 0.7089864612
0.003066052217 -0.126292184 0.6921946406 0.2905251384 -0.607776463 0.7351222038
0.008436083794 -0.119656451 0.6959995031 0.2024786472 -0.6136105657 0.7598891854
0.001395009924 -0.1218199432 0.6969543099 0.3144346774 -0.5978927016 0.7312961221
-0.00470464211 -0.1223672554 0.6999663711 0.4161459804 -0.5777817369 0.6989557743
0.04080822691 -0.2030755877 0.7746052146 0.3936370611 -0.536826849 0.7340818048
0.04661209136 -0.2010466009 0.7736203074 0.5013270974 -0.5036512613 0.6986851096
0.074904643 -0.1828917414 0.7471120358 0.8654457331 -0.2560643256 0.4300456345
0.07297495753 -0.1791222394 0.7524279356 0.859585464 -0.2398305982 0.4508363307
0.0646218732 -0.1979241073 0.7574241161 0.7651490569 -0.3334051967 0.5500316024
0.06084016338 -0.2020555139 0.7616036534 0.7208284736 -0.3824614584 0.5769829154
0.06202397123 -0.2075881064 0.7580765486 0.7195108533 -0.3887161911 0.5748933554
0.06258878112 -0.1943038702 0.7632033229 0.763251543 -0.3393156528 0.5493468642
0.06235667318 -0.1884446591 0.7675028443 0.7581122518 -0.3534817398 0.546864152
0.06249165908 -0.1448497474 0.6969957948 -0.5802483559 -0.3429219723 0.7153667212
0.05885401741 -0.1390968263 0.6959578991 -0.498616904 -0.4369158447 0.7295004725
0.05975909904 -0.133926779 0.7006071806 -0.493042618 -0.5442535281 0.6609048843
0.05879824981 -0.1454135627 0.6913724542 -0.5216540098 -0.2742372453 0.7954251766
0.04268646613 -0.1154918671 0.7035422325 -0.3621512353 -0.5608943105 0.7415420413
0.05074812844 -0.1123120487 0.6953650713 0.1249519065 -0.4903917611 0.7205226421
0.04400810599 -0.114648588 0.6962519288 -0.0211198125 -0.5279110074 0.7447189689
0.04666224495 -0.1270492524 0.6963128448 -0.3374158442 -0.6119552255 0.7131285071
0.04340190813 -0.1212051511 0.699452877 -0.3141683638 -0.6225031614 0.7129617333
0.04967814684 -0.1256158352 0.6911679506 0.0202943366 -0.530867219 0.7549983859
0.07005766034 -0.1154704839 0.6880745292 0.5404025912 -0.388369292 0.6887517571
0.05729543045 -0.1201710999 0.6921035647 0.09472948313 -0.499412775 0.6991513968
0.0593708232 -0.1260291934 0.6895294189 0.2153594047 -0.4666815698 0.7618727684
0.06371430308 -0.1189468578 0.6897467971 0.3271735609 -0.441036731 0.7050085068
0.0725492239 -0.1103148162 0.6885159612 0.5965952873 -0.3760803044 0.6455016136
0.06552890688 -0.1119669527 0.6904560328 0.404920876 -0.4239239693 0.6599222422
0.05751684681 -0.1141794249 0.6922807097 0.2210344374 -0.4695504904 0.6891439557
0.04899944738 -0.1185082346 0.6943786144 -0.04065354541 -0.5341403484 0.7156652212
0.03768660873 -0.1187614202 0.6985616088 -0.2652941942 -0.5925361514 0.7570033669
0.02358367667 -0.1041122898 0.7071745992 -0.03807415068 -0.5928964019 0.8030050993
0.01058536395 -0.1063791364 0.7066423297 0.1768426448 -0.5871683359 0.7850980163
-0.005662261974 -0.1062871367 0.7124273777 0.4409517646 -0.5511435866 0.7077865005
0.001392551349 -0.1050050184 0.7104660273 0.3290330768 -0.5690565109 0.7489284277
0.003988534678 -0.1129146814 0.7035117149 0.2818664014 -0.6038598418 0.7425067425
-0.001422776724 -0.1135223284 0.7068445086 0.3811499774 -0.5638567805 0.7173925042
0.00128367159 -0.09513011575 0.7176476717 0.3428941071 -0.5888174772 0.7279599905
0.0005136835971 -0.08670575172 0.7241923809 0.371201396 -0.6021648049 0.7050797939
0.003801075276 -0.09004464746 0.7206034064 0.3154741526 -0.6029536724 0.729880929
0.01800054871 -0.09197140485 0.7163031101 0.05744211003 -0.6180731058 0.7784762383
0.03033216484 -0.09915905446 0.7087086439 -0.1573784947 -0.5988190174 0.783853054
0.02499936335 -0.0837014094 0.7226296067 -0.06056781113 -0.6834065914 0.7257235646
0.0224747248 -0.07935600728 0.7282442451 -0.005077798385 -0.704536736 0.6926534176
0.03512745351 -0.08288451284 0.7266753912 -0.2001642883 -0.6696036458 0.7114545107
0.0291135665 -0.08011703938 0.7263820171 -0.1162606329 -0.6930239201 0.7078825831
0.02141599916 -0.08773306757 0.7189217806 -0.003816868411 -0.6517826319 0.7530955076
0.01869163662 -0.1418924481 0.6741017103 0.0359432511 -0.663529098 0.7366397381
0.02538760565 -0.1422192305 0.6732445955 -0.1215207651 -0.6827759147 0.7201328278
0.03507746384 -0.1451034099 0.6758703589 -0.2605508566 -0.6198090315 0.7253305316
0.0465788506 -0.1504190564 0.6809850931 -0.4237318635 -0.5205900073 0.7343236804
0.04291432723 -0.1308873147 0.6919180751 -0.3080131114 -0.5970249772 0.7400395274
0.04191321507 -0.1412311643 0.6830091476 -0.3336321712 -0.5964977741 0.7277724147
0.03068853728 -0.1377248615 0.6812333465 -0.1792318523 -0.6619755626 0.7192269564
0.03821970522 -0.1368923634 0.6823156476 -0.2896893024 -0.6208580732 0.7270297408
0.03557072952 -0.139834255 0.6770176888 -0.2630366087 -0.6343305707 0.7262078524
0.01808314398 -0.1234233528 0.6915847659 0.06130485982 -0.6376289725 0.762306869
0.01725782454 -0.1762185395 0.8000237942 0.02247624099 -0.5454521775 0.8337801099
0.03981326148 -0.09691636264 0.7158119678 -0.2678081095 -0.5891246796 0.7610152364
0.02618175372 -0.09234748781 0.7150319219 -0.09859845787 -0.6337743998 0.7642115355
0.03228753433 -0.09478989244 0.7147751451 -0.1820100993 -0.6111186743 0.7672380805
0.03625338897 -0.09151934832 0.7188298702 -0.23039864 -0.6192049384 0.7456935048
0.0303059984 -0.08975701034 0.7192046642 -0.1347128004 -0.6464490891 0.7473006845
0.05026750639 -0.1047783494 0.7156026959 -0.4545627236 -0.4937357605 0.7371793389
0.04918858409 -0.0996703282 0.719166398 -0.4076147377 -0.5230012536 0.7402784228
0.03891647607 -0.1025439277 0.7107567191 -0.2795601785 -0.5743843913 0.7665222287
0.0440277867 -0.1070170105 0.709456265 -0.3778138757 -0.5449763536 0.7432293296
0.0523064509 -0.1006196067 0.7093137503 -0.123587735 -0.5148994327 0.689871192
0.04576351121 -0.102274552 0.7126014829 -0.3609269857 -0.5485685468 0.732345283
0.05854569376 -0.09757381678 0.7069070935 0.1149888337 -0.4845567346 0.649407506
0.07258965075 -0.09778787941 0.6979808807 0.5929757953 -0.4077624977 0.5581398606
0.05277770758 -0.1988234073 0.7717980146 0.5771516562 -0.4671621621 0.6662812233
0.04977677017 -0.195773229 0.776853919 0.5475563407 -0.4829996228 0.6831472516
0.05750836805 -0.1918158382 0.7701388597 0.6907579303 -0.4158888757 0.5850622058
0.06550011784 -0.1511462927 0.6950489283 -0.6421913505 -0.08807162941 0.7529661655
0.06847630441 -0.138714686 0.6875733733 0.1215929165 -0.04616850242 0.8411164284
0.05351630226 -0.1346233487 0.6953231096 -0.4040120542 -0.5323473215 0.7274157405
0.02735760249 -0.1169596463 0.6973608136 -0.1183587089 -0.5979061127 0.7898138762
0.0326555483 -0.1157120913 0.699380815 -0.1960570067 -0.5884581804 0.7802417874
0.03017469309 -0.1218689308 0.6933220625 -0.160139814 -0.6126558781 0.7689858079
0.01678724587 -0.117834501 0.6961323619 0.07396014035 -0.6217261553 0.7768521905
0.02296231873 -0.1206582785 0.6943136454 -0.04880962893 -0.6269519329 0.7730891705
0.02139257267 -0.1124641299 0.7009788752 0.01223718654 -0.6206437945 0.7800574899
0.05414746702 -0.1407772005 0.690669477 -0.4193280339 -0.4197897315 0.793563962
0.04894491658 -0.136913836 0.6899673343 -0.3081199527 -0.5341764688 0.782322824
0.05280424282 -0.1350849718 0.6790903211 0.1457940638 -0.4994409382 0.7620519996
0.04448464885 -0.1399167329 0.6739875078 -0.0276671201 -0.5603859425 0.7500345111
0.04679804295 -0.1360822171 0.6820906401 -0.1366801709 -0.5546981096 0.748534441
0.03466903791 -0.1456997693 0.6682101488 -0.2431408912 -0.6325907707 0.7351284623
0.06034565344 -0.129820317 0.6838289499 0.3252340257 -0.4449152946 0.7755501866
0.04667062312 -0.1435608864 0.6791293025 -0.266135633 -0.5375587344 0.7366275787
0.06483397633 -0.1327155083 0.6869074702 0.02463995107 -0.1488353163 0.9431390166
0.036608316 -0.130752176 0.6894028187 -0.2940712571 -0.6211510897 0.7221286297
0.03544785827 -0.1249599084 0.6930767298 -0.2452754974 -0.6212929487 0.7438126206
0.05361241475 -0.1279640347 0.6867783666 0.1984793395 -0.4922581613 0.7660521865
0.04294399172 -0.1325660497 0.6859545708 -0.1707983464 -0.5790609121 0.7445967793
0.03002788872 -0.1266160905 0.6891799569 -0.1646004915 -0.6372122169 0.7489391565
0.04810312018 -0.1430462301 0.6848614812 -0.349858433 -0.5382669568 0.7636550069
0.05202100426 -0.1498550028 0.6840812564 -0.4641017914 -0.3524673581 0.798098743
0.0550166592 -0.1419465542 0.6833257079 -0.2690133154 -0.2910258174 0.853261888
