# .PCD v0.7 - Point Cloud Data file format
VERSION 0.7
FIELDS x y z normal_x normal_y normal_z
SIZE 4 4 4 4 4 4
TYPE F F F F F F
COUNT 1 1 1 1 1 1
WIDTH 512
HEIGHT 1
VIEWPOINT 0 0 0 1 0 0 0
POINTS 512
DATA ascii
-0.0301447995 -0.1981175989 0.6953286529 -0.9394156933 -0.04016827419 0.302447021
0.04118024185 -0.1496184319 0.6456028223 -0.1388859451 -0.5818842053 0.79457587
0.0964454338 -0.1425565034 0.6733458638 0.2111632526 -0.521643877 0.6301153302
0.09378179163 -0.1476022601 0.6683936119 0.4043571651 -0.599806726 0.6310294271
0.0924192667 -0.1432632357 0.6796528697 -0.06896517426 -0.5651971698 0.5699547529
0.08984340727 -0.1471227854 0.6768965721 0.03353602439 -0.6297902465 0.561768353
0.09201848507 -0.1402894855 0.6854561567 -0.2596915364 -0.568729043 0.5122137666
0.1005304009 -0.1358498335 0.6760748625 0.2801200449 -0.5137556791 0.5601172447
0.1041752622 -0.1356378794 0.6695498228 0.5653751493 -0.4775995612 0.6194181442
-0.01176603138 -0.2227252722 0.72582376 -0.6500332952 -0.4318597913 0.6232212186
-0.01874662936 -0.212189123 0.7194137573 -0.7832010984 -0.3856818974 0.480050981
0.03028018586 -0.08839635551 0.6973466873 0.05341005698 -0.712697506 0.6952040792
0.07560048252 -0.1358200014 0.6805286407 -0.6201796532 -0.5907707214 0.5078659654
0.05299885571 -0.1456505954 0.6518413424 -0.3394202292 -0.5850425363 0.7355865836
0.04925537482 -0.1407327652 0.6545216441 -0.2846438587 -0.6128402352 0.7334527373
0.05345410854 -0.1522680819 0.645291388 -0.3142647445 -0.5706536174 0.7585059404
0.04639934003 -0.1512915045 0.6451271176 -0.2299754024 -0.5634332895 0.7924323082
0.04806442559 -0.1474225521 0.6490508318 -0.257158041 -0.581762135 0.7692548037
0.05688272417 -0.1507431567 0.6492440701 -0.398547262 -0.5487866998 0.7315654755
0.07227088511 -0.09857535362 0.7079476118 -0.2812483311 -0.4029775858 0.8332433105
0.08645846695 -0.1373572946 0.6960660815 -0.6177401543 -0.490639478 0.5891215801
0.06185763329 -0.1017014608 0.6962992549 -0.3783974648 -0.5884084105 0.7141860723
0.08000294864 -0.1391030401 0.6834654212 -0.5299312472 -0.7009245157 0.4660505056
0.08343612403 -0.1398241818 0.6890463829 -0.5902815461 -0.672522366 0.4399011135
0.08197413385 -0.1333056539 0.6924912333 -0.6415063739 -0.4224415123 0.6368926167
0.07216421515 -0.1411629468 0.6722384691 -0.4945910871 -0.5990347862 0.6225414872
0.01528349053 -0.09292957932 0.6970761418 0.2995355725 -0.6697305441 0.6741197109
0.02898688801 -0.1488332748 0.6473850012 0.08529111743 -0.5804097652 0.8047785163
0.03492178395 -0.1488136202 0.646238327 -0.00744778011 -0.5900806189 0.8066136837
0.03883874044 -0.1449787915 0.6494612098 -0.08833519369 -0.6053891778 0.7845380902
0.1067374051 -0.1271334141 0.6707913876 0.6630705595 -0.4698005617 0.5807629228
0.109739244 -0.1147748008 0.6748993993 0.7319648862 -0.4271676838 0.5267068148
0.1059118062 -0.1201288179 0.6709148884 0.6655935645 -0.4666597843 0.5754162073
0.06284280866 -0.09634574503 0.7000864744 -0.3728301525 -0.6197211146 0.6904087067
0.09898905456 -0.1303335428 0.665499568 0.4632116258 -0.4042739868 0.7611317635
0.09896569699 -0.1413948536 0.6655033231 0.5109964013 -0.4678595066 0.7116675377
0.004394845106 -0.09545017034 0.7006131411 0.4795008898 -0.6288117766 0.6101538539
-0.001888872357 -0.09607948363 0.7054143548 0.5646085739 -0.618994534 0.543287158
-0.0001159814783 -0.1013011709 0.6995995045 0.5574956536 -0.5786699057 0.5844162107
0.00489974767 -0.09938941896 0.6962717175 0.4842652977 -0.6047865748 0.6297310591
-0.00638084393 -0.1048389673 0.7025619149 0.6509582996 -0.5433970094 0.5285642743
-0.001437623403 -0.1088308394 0.6922366023 0.57089746 -0.5634260774 0.5923342109
0.04174225032 -0.1829109639 0.768686235 0.1839779019 -0.5575080514 0.8068446517
0.08706910908 -0.1216390878 0.7056584954 -0.4115564525 -0.3215189874 0.8451107144
0.09123449028 -0.1266969591 0.706397295 -0.385179162 -0.3028611839 0.7994667292
0.09071032703 -0.1166509837 0.70456177 0.05934559926 -0.2584859729 0.8587702513
0.09708288312 -0.1301852763 0.693371892 -0.0876660049 -0.3803942204 0.7024427056
0.09758485854 -0.133072868 0.6869587302 0.001023292076 -0.4571496844 0.6144487858
0.092693232 -0.1335327178 0.6962824464 -0.3454328179 -0.4320404828 0.6528663039
0.09649500251 -0.1367022395 0.6824787855 -0.01231015846 -0.5407004952 0.5219982862
0.08875247091 -0.1402878761 0.6919232607 -0.5089434385 -0.5731899142 0.5009596348
0.03296266124 -0.1434361935 0.6504247785 0.008190026507 -0.6132943034 0.7851797938
0.02686908096 -0.1427939534 0.6503145099 0.09595949203 -0.6230397224 0.773270905
0.04343226925 -0.1365551949 0.6553102732 -0.1696162224 -0.6484516263 0.7394496202
0.03679306805 -0.1393595338 0.6530909538 -0.05841165036 -0.6361861229 0.7668383121
0.04855308682 -0.134962365 0.6587998867 -0.2748386264 -0.6364613771 0.7170192003
0.04418653622 -0.1312078834 0.6617641449 -0.2061034739 -0.646265924 0.7316567898
0.01634354144 -0.1508460343 0.6460946202 0.2398378402 -0.5735497475 0.7817822099
0.02283903956 -0.1508412212 0.6466671228 0.1755906641 -0.5660105348 0.8038047552
0.009430065751 -0.1465538293 0.6528276801 0.3668795824 -0.5716566443 0.7250289917
0.01003587525 -0.1512978226 0.6490373611 0.3334290385 -0.5566436052 0.7545573115
0.08696330339 -0.1073247194 0.7058702111 0.1834684312 -0.1598057449 0.9086454511
0.09249660373 -0.1110170484 0.7021384835 0.434535563 -0.1428357661 0.8778743744
0.07876007259 -0.102138564 0.7112091184 -0.1848769486 -0.2052244991 0.9468798041
0.08144698292 -0.1023302302 0.7033645511 0.04546732455 -0.2059667259 0.8870190978
0.08133450896 -0.1085197031 0.7087461352 -0.2633455396 -0.2673489451 0.9233358502
0.08101768047 -0.1127072349 0.7044121623 -0.3092815876 -0.3048523664 0.8991113305
0.07968851924 -0.1167677864 0.7009065747 -0.3831122816 -0.3091854453 0.8655899167
0.08267312497 -0.1233503819 0.7005842924 -0.4727554321 -0.309553504 0.8211499453
0.07701348513 -0.1223318651 0.6943787336 -0.5654437542 -0.3897204399 0.7194456458
0.04428082332 -0.09090742469 0.6958045959 -0.1749009788 -0.6905745864 0.700168848
0.0369819887 -0.08837160468 0.6970784664 -0.05385174975 -0.7119356394 0.6976413727
0.03637517244 -0.0931487605 0.69381392 -0.06465473771 -0.6769466996 0.7189430594
0.06448703259 -0.1065695956 0.6940712929 -0.4763257504 -0.5501237512 0.6851293445
0.09427212924 -0.1090456024 0.6961642504 0.5882767439 -0.1792109013 0.7666676641
0.09728509933 -0.1144671887 0.6954182386 0.4500619173 -0.3445660472 0.6833767891
0.1021653563 -0.119005762 0.6894160509 0.2502898872 -0.3741476834 0.6269333363
0.09850203246 -0.122316286 0.6952087879 0.001568401232 -0.3558381796 0.6787102222
0.1059194654 -0.112447232 0.6828730702 0.6930767894 -0.3910748363 0.5694390535
0.1000888273 -0.1281671971 0.6883262992 0.1131804436 -0.3968427181 0.6628833413
0.1046912447 -0.1306468993 0.6764686704 0.4741384685 -0.4529588223 0.6034777164
0.1038516685 -0.1239965484 0.6830803752 0.3499623835 -0.4109436274 0.6091530323
0.09454896301 -0.1280071288 0.7005716562 -0.2947161794 -0.3437794745 0.7367415428
0.1075376719 -0.1196108684 0.6781571507 0.5790839791 -0.4232174158 0.5562698245
0.09336052835 -0.1210539192 0.7024535537 0.002512997715 -0.3155456483 0.7552694678
0.08680116385 -0.1321089864 0.6998369694 -0.5897359252 -0.3724271655 0.7155699134
0.08174972981 -0.1282791197 0.6962245107 -0.5667963028 -0.339092344 0.7449436784
0.05406781286 -0.09521968663 0.6961733699 -0.344265312 -0.616345048 0.7075542808
0.0531270355 -0.09083851427 0.699667573 -0.318536371 -0.6502545476 0.6834201813
0.07057458907 -0.1342647374 0.6755824089 -0.5418420434 -0.6134876013 0.5670428276
0.07286266237 -0.1309595257 0.6819270253 -0.6129729152 -0.5776523352 0.529214263
0.06796332449 -0.1264866889 0.6804804206 -0.5710748434 -0.5572494864 0.5963488221
0.09367078543 -0.1352809221 0.6634890437 0.2990802824 -0.3310938776 0.8849430084
0.07741211355 -0.151632145 0.6588622928 -0.2452084273 -0.416593194 0.808560133
0.0902736038 -0.1462350935 0.6636450887 0.3290377557 -0.5094519258 0.6936070323
0.08358523995 -0.1490387172 0.6611577868 0.03038919158 -0.4610955715 0.7534642816
0.09158520401 -0.140578568 0.663713038 0.3277720809 -0.4026226401 0.8151749969
-0.02581170388 -0.1154190227 0.72576648 0.795787394 -0.4234115779 0.4327965379
-0.02441606298 -0.1182996929 0.7204738259 0.8000822067 -0.418481946 0.4296150208
0.07471859455 -0.1118568704 0.6984852552 -0.3891798854 -0.41851601 0.8114258051
0.06918428838 -0.1091523692 0.6953246593 -0.4457167685 -0.5163893104 0.7292113304
0.07065745443 -0.1037097275 0.7013710737 -0.3521125615 -0.5028479099 0.7745198607
0.07617603242 -0.1062955633 0.7055330873 -0.2944965065 -0.3259287477 0.881328702
0.02122080699 -0.1463811845 0.6500469446 0.1951020211 -0.5902955532 0.7796091437
0.01635420509 -0.1448252499 0.652377665 0.2638756037 -0.5953863263 0.7568386197
0.02986803837 -0.1311352998 0.6593098044 0.04058263078 -0.6643733382 0.7426257133
0.02118990943 -0.1398793012 0.6542609334 0.177700147 -0.6298617125 0.7510253787
0.01611193828 -0.1375693083 0.6574249268 0.2530388236 -0.6234022379 0.7388920188
0.03390012681 -0.1350971311 0.6564140916 -0.01357920188 -0.6562511921 0.753239572
0.02570623159 -0.1350895017 0.6570499539 0.1038185582 -0.6575193405 0.7450283766
-0.02537542954 -0.1417446285 0.7005581856 0.8130104542 -0.4002094567 0.4227308929
-0.02452514134 -0.1364340335 0.7050278783 0.8165171742 -0.4008225203 0.4153991044
-0.0274999924 -0.1389135122 0.7110168338 0.8221892715 -0.3920847774 0.4125030041
-0.0228326004 -0.1518726796 0.6847870946 0.7869007587 -0.4177507758 0.4535565674
-0.01898278669 -0.1543196589 0.675678432 0.7255601287 -0.4338168502 0.5312334299
-0.01719549671 -0.1585842818 0.6679207087 0.7032524347 -0.420927763 0.5639237165
-0.01371605601 -0.1589457989 0.6620079875 0.6495838761 -0.4634893537 0.595802784
-0.0191211272 -0.1607885361 0.6735474467 0.7560688853 -0.3823128045 0.5307043195
-0.02319995873 -0.1753460169 0.6819746494 0.08390213549 -0.1852713525 0.4470576346
-0.02885313146 -0.17875655 0.6815760732 -0.3365142643 -0.03465365246 0.2751165926
-0.02530775778 -0.1705741286 0.6783177257 0.1870034784 -0.1801707 0.3937720656
-0.02234853618 -0.1665539742 0.6759476662 0.4229877293 -0.2694480717 0.4533259273
0.06210725382 -0.1428927332 0.6609430909 -0.4269477129 -0.5647155046 0.7048523426
0.05677856132 -0.1431579739 0.6569794416 -0.3933942318 -0.5914348364 0.7032008767
0.06880057603 -0.1443009973 0.6660541296 -0.4775612652 -0.535361588 0.6925489902
0.06634619087 -0.2254441231 0.7258914113 0.5801780224 -0.4688335955 0.649733305
0.06325820833 -0.2301722169 0.7294623256 0.5343014002 -0.4942842424 0.6818480492
-0.003454051213 -0.1155838221 0.6875045896 0.5819428563 -0.5444267392 0.6034091115
0.00173643732 -0.1119727045 0.6877467036 0.5084904432 -0.5708830953 0.634016633
0.003123579314 -0.1053152904 0.6923174858 0.4888315797 -0.5948223472 0.6343813539
-0.005600309465 -0.1099843085 0.6961417198 0.6398046613 -0.5378422141 0.547106564
-0.01774854213 -0.1115163788 0.713180542 0.7758617401 -0.4363042712 0.4538995326
-0.01919052377 -0.1060712412 0.7188093662 0.7490907311 -0.4671284258 0.4681941867
-0.02321172692 -0.1111556664 0.7217947245 0.7833653092 -0.4299836755 0.4479956329
0.08782293648 -0.189353779 0.6989710927 0.9549731016 -0.08161361516 0.1906723529
0.01686423272 -0.1331748515 0.6622459888 0.250772655 -0.6360855103 0.7271119952
0.01062492654 -0.1363879144 0.6598470807 0.3465480208 -0.6071179509 0.7131421566
0.06415268779 -0.1085155904 0.6881285906 -0.3931045532 -0.5753801465 0.6818509698
0.0722521767 -0.102617003 0.6920666099 -0.1712191701 -0.6337896585 0.6616335511
0.07064991444 -0.09799500555 0.697522223 -0.2083884329 -0.6410445571 0.6727023721
0.08023029566 -0.1007321998 0.6925614476 0.0195403304 -0.6709860563 0.6429741979
0.08808943629 -0.1046712622 0.6951121688 0.3713550866 -0.08712816983 0.8752107024
0.08280793577 -0.09999408573 0.6977087855 0.01289159991 -0.6426107287 0.6884720922
0.09289287031 -0.1034363806 0.6895190477 0.3402186036 -0.5782823563 0.6659762859
0.07716885209 -0.09812478721 0.6979653239 -0.08699136227 -0.6510708332 0.6730580926
0.06745067984 -0.09524624795 0.7030704021 -0.3182715178 -0.6212567687 0.7027747631
0.07433038205 -0.1074956656 0.6875448227 -0.1563742012 -0.6192401648 0.654450357
0.07072974741 -0.1116548404 0.6861444116 -0.2966288328 -0.5904024839 0.6528392434
0.082590729 -0.1065142155 0.6872106791 0.03664609045 -0.655564487 0.6322194338
0.07863473147 -0.1334530264 0.6871501803 -0.6412364244 -0.554787159 0.5144543052
0.09314018488 -0.1256532669 0.6684966683 0.3649636805 -0.4335827231 0.7439669371
0.08767608553 -0.1329895407 0.6656067967 0.1702462435 -0.3669407964 0.848595202
0.08098144084 -0.1332537979 0.6671729088 -0.02975315601 -0.3960734904 0.8278557658
0.0797938779 -0.1245148554 0.6725936532 -0.02638875507 -0.5128064752 0.6741943955
0.07687288523 -0.128982529 0.6707292795 -0.1328938156 -0.4702497125 0.7394446731
0.08791398257 -0.1242410839 0.670666635 0.215988785 -0.4768771529 0.700147748
0.08460659534 -0.1286884397 0.6689134836 0.09809756279 -0.4364534914 0.7635937929
0.1019329801 -0.1237008721 0.6684576869 0.5988718867 -0.4897774756 0.6315901279
0.07612895221 -0.1280090511 0.6895911694 -0.6357542872 -0.4540440142 0.6211153865
0.07091604918 -0.1239460409 0.6864573956 -0.5987054706 -0.478622824 0.6370644569
0.05451341346 -0.1236010566 0.6723427176 -0.3558956385 -0.6095374227 0.7083163857
0.060044799 -0.1266406029 0.673496604 -0.4298408926 -0.5987800956 0.6709384918
0.05466643721 -0.1280926317 0.6683636308 -0.3673323989 -0.6077725887 0.7025242448
0.07670034468 -0.1173744574 0.6786435246 -0.07985087484 -0.5379238725 0.6523848772
0.07188158482 -0.1240726337 0.6748138666 -0.2529125512 -0.5527118444 0.644286871
0.06479506195 -0.1252895743 0.6758241653 -0.4598619342 -0.5660385489 0.6485556364
0.08298514038 -0.1198487058 0.6741330624 0.1224539503 -0.5354981422 0.6449763775
0.09251686186 -0.1193744168 0.6723216176 0.3751704395 -0.5157331228 0.6355330348
0.05956966802 -0.121104449 0.6775326133 -0.4426779151 -0.5876754522 0.6757132411
0.04657556489 -0.09997510165 0.6884040236 -0.246574074 -0.6227986217 0.7386088371
0.0501730442 -0.09812509269 0.6928011179 -0.2839609981 -0.6333547235 0.7134984136
0.04065213352 -0.09563993663 0.6905142069 -0.1306760162 -0.6672461629 0.7286167145
0.05380566046 -0.1129847169 0.6805625558 -0.3541328013 -0.5983021259 0.71849823
0.0532342419 -0.1079574823 0.6846731901 -0.35755077 -0.5883133411 0.7245932221
0.05937643722 -0.116274491 0.6823685169 -0.4383022785 -0.5715733767 0.6858992577
0.06500015408 -0.1196563169 0.6834384799 -0.5410832167 -0.5421964526 0.6407048702
0.05846149102 -0.110841617 0.6865301132 -0.4010618031 -0.5729747415 0.7124124765
0.05220222101 -0.1180808172 0.6758078933 -0.3154048026 -0.6153244376 0.7196213603
-0.02348682843 -0.1221689954 0.7153031826 0.8065326214 -0.4097163379 0.4261835515
-0.0220938921 -0.125331223 0.7092807293 0.8064809442 -0.4048291743 0.4308844805
-0.02655151673 -0.1333742738 0.7139502764 0.8196550608 -0.3954957128 0.4141787589
-0.0235823784 -0.1306272149 0.7088831067 0.8129589558 -0.397951901 0.4248072505
-0.006164485123 -0.1385510266 0.6726716757 0.6266857386 -0.50297153 0.5936108232
-0.002474583918 -0.1386732012 0.6683324575 0.5667252541 -0.5414241552 0.6176658869
0.01526218839 -0.09765080363 0.6927951574 0.3067205548 -0.6397200227 0.7000054717
0.02114365436 -0.09929651022 0.688384831 0.2156719267 -0.6386899352 0.7326761484
0.02691637911 -0.09725362808 0.6884258389 0.1158259884 -0.6525068879 0.7469788194
0.02861860022 -0.09334611148 0.6926653981 0.05969681963 -0.6760834455 0.7310994864
0.0108615933 -0.1032778099 0.6898063421 0.3604360819 -0.6211355329 0.6949622631
0.01140014175 -0.1082449257 0.6850943565 0.3469322622 -0.6164715886 0.7050071955
0.002096907236 -0.1169059873 0.6836854219 0.4927967489 -0.5704838634 0.653955698
0.07264321297 -0.1886284053 0.745829165 0.6326233745 -0.4863209128 0.6022008657
0.07682724297 -0.1880269498 0.7403934598 0.6761469245 -0.4708983898 0.5656277537
-0.02516264655 -0.2019737065 0.7100204825 -0.8670107126 -0.3305692375 0.3723953068
-0.02726425231 -0.1986446232 0.7044091225 -0.8910534382 -0.2183101922 0.3644524813
0.05877144262 -0.1376664937 0.6590890884 -0.2878388762 -0.5717332959 0.7325305343
0.0684594959 -0.1441161782 0.6587069035 -0.3073452413 -0.4692579806 0.7636941075
0.06623005122 -0.1381361783 0.6595450044 -0.1677223295 -0.4965643287 0.7915529013
0.06934741884 -0.1307603419 0.6710181236 -0.3456751704 -0.507058382 0.719814539
0.07523807883 -0.1347320974 0.6667835116 -0.176126942 -0.4429900944 0.7957110405
0.08371990174 -0.1374935359 0.6636134386 0.04432105273 -0.3430766761 0.8972149491
0.0693577081 -0.1358840317 0.665946126 -0.3044084907 -0.5202049017 0.7334034443
0.06259416789 -0.1340456605 0.6688807607 -0.4383930266 -0.6157240272 0.6510326862
0.06248833239 -0.1388747692 0.6651117802 -0.4293089509 -0.581956923 0.687176466
0.05647940934 -0.1334779263 0.6647960544 -0.3759386837 -0.6122906208 0.6949008703
0.06223041192 -0.1481050551 0.6563106775 -0.489144206 -0.5197572112 0.7001159191
0.07087518275 -0.153461799 0.6618310809 -0.4129745364 -0.5025128722 0.7552706599
0.06357830018 -0.1534619778 0.6535174847 -0.4443778098 -0.4791635275 0.7520474195
0.0693076849 -0.1562025994 0.6552805305 -0.4365539849 -0.470150739 0.7648397088
0.08389295638 -0.1424985379 0.6609650254 0.01414306834 -0.3324708045 0.9042286277
0.07879903167 -0.1444441676 0.6587058902 -0.08354795724 -0.3717614412 0.8667771816
0.07085932046 -0.1511378735 0.65564394 -0.3229700029 -0.44388026 0.7906383872
0.08520462364 -0.154852435 0.6651378274 0.08272878081 -0.624207139 0.6565263867
0.0814454779 -0.1601317972 0.6649727821 -0.2392163575 -0.640193522 0.676286757
0.07548011839 -0.1579696387 0.6597604156 -0.36919415 -0.5158839226 0.7370435596
0.08063940704 -0.1482788622 0.6753231287 -0.4729253948 -0.3842499256 0.6416022182
0.08030198514 -0.143095091 0.6787930727 -0.42961362 -0.648899138 0.5792324543
0.08463106304 -0.1618593782 0.6709545851 -0.637263 0.257384479 0.6994094849
0.08141802996 -0.1680034995 0.6741610765 0.02588858083 -0.3734223247 0.5614362359
0.08596358448 -0.1743059307 0.6850860119 0.3331390321 0.08611435443 0.3584578335
0.08350826055 -0.1704565734 0.6787286401 0.1300516278 -0.1486988366 0.4799648821
0.08617395908 -0.1791421473 0.6899582744 0.7433329821 -0.08907437325 0.222731933
0.08969582617 -0.1524397284 0.667186439 0.3231257498 -0.6529749036 0.6225060225
0.07427898049 -0.1514027566 0.6672735214 -0.4177261293 -0.5776801705 0.6948325038
0.07680102438 -0.1572042406 0.666742444 -0.3566666245 -0.5927420259 0.7173779607
0.07654894143 -0.1458450258 0.6715449095 -0.3490012586 -0.5795404315 0.7204968333
0.08913551271 -0.2009059191 0.7049293518 0.8812186122 -0.3227257431 0.3452809453
0.08696118742 -0.1965138018 0.7111561298 0.8926861882 -0.2893483639 0.3450786471
0.07224465907 -0.211474359 0.7246436477 0.7289872169 -0.4019128084 0.5494837165
0.07735457271 -0.2121016979 0.7189639807 0.7936779261 -0.3785763085 0.4706297517
0.04193836823 -0.1258274615 0.6668920517 -0.1451755315 -0.6585754156 0.7353164554
0.04832417518 -0.1278857142 0.6663609743 -0.2569901645 -0.6373139024 0.7219100595
0.03545057029 -0.1297160536 0.6594563723 -0.04233903438 -0.6706048846 0.7401954532
0.03574462235 -0.1262307018 0.6645352244 -0.04833828285 -0.6672685146 0.7415637374
-0.007316139992 -0.1550123096 0.6587169766 0.596789062 -0.4892321527 0.6344236135
-0.002320427913 -0.1492615044 0.6582068801 0.5721828938 -0.503251493 0.6471402645
-0.002113466151 -0.1426289976 0.6637413502 0.5540209413 -0.5417158604 0.6283192039
0.005932501517 -0.144160077 0.656981647 0.4239863157 -0.5743501186 0.6968358755
0.01124590635 -0.1421858519 0.6567146182 0.3357534409 -0.5957565308 0.7241938114
0.09675832838 -0.1046878546 0.6856817007 0.4349773526 -0.6512261033 0.5979588032
0.1014467552 -0.1162513345 0.6728577018 0.6137871146 -0.4990517795 0.6095858812
0.1025350168 -0.1083246693 0.6799740791 0.6535842419 -0.4969167411 0.5687187314
0.09894523025 -0.1101608053 0.6898936629 0.648278296 -0.3948393166 0.6427567601
0.0709354654 -0.1164412424 0.6923132539 -0.5299178958 -0.4712035954 0.6996160746
0.06665378809 -0.1143570989 0.6893979311 -0.5052173138 -0.5223633647 0.6861853004
0.07323234528 -0.1154811904 0.6823592782 -0.2265128791 -0.5496997237 0.6514223814
0.088262707 -0.1130625531 0.679843843 0.2151263058 -0.5769888163 0.6324489713
0.08228123188 -0.1142951101 0.6805754304 0.04118626192 -0.5622093081 0.6406023502
0.09253136069 -0.1145436093 0.6769660711 0.3551206887 -0.5532713532 0.6318994761
0.08972486109 -0.1082259491 0.6841906309 0.22716932 -0.6464310288 0.6203328967
0.0958250612 -0.1095547751 0.6808641553 0.4219378829 -0.6239706278 0.6177894473
0.07839886844 -0.1115068644 0.6846308708 -0.09582397342 -0.6046995521 0.6378853321
0.0471745804 -0.1051727831 0.6852362752 -0.2625123858 -0.6037275791 0.7498835921
0.05176150799 -0.1041420475 0.6886937022 -0.3221862614 -0.5974324942 0.7299771309
0.05647154897 -0.1030733734 0.692240417 -0.3835188448 -0.5910502672 0.7094400525
0.03216725588 -0.1148919985 0.6745346189 0.002573382575 -0.6387137771 0.766762197
0.03624324873 -0.1185870618 0.6721959114 -0.05189986899 -0.6551066637 0.7532529235
0.04278169572 -0.1164793 0.6751346588 -0.1684693396 -0.6316171288 0.7562524676
0.04403272644 -0.1217782348 0.6712597609 -0.1659973115 -0.6456427574 0.7448689938
0.03843898699 -0.1114780083 0.6779730916 -0.1130929291 -0.6260302663 0.7670383453
0.04514211416 -0.1100503281 0.680046618 -0.2212662548 -0.6203087568 0.7519999146
-0.01894322783 -0.1201675907 0.7090987563 0.8018884659 -0.4103901684 0.4341779351
-0.01748923957 -0.1223382875 0.7041617036 0.7993479371 -0.411609441 0.4370732307
-0.01606314071 -0.1147990823 0.7083377838 0.7775409222 -0.4287030399 0.4594608843
-0.02006879263 -0.1280704141 0.703359127 0.8085674644 -0.4055688083 0.4262220263
-0.008766602725 -0.1152940765 0.6956210732 0.6847246885 -0.4966777563 0.5286695361
-0.01156192925 -0.1112748832 0.7041308284 0.7165375948 -0.4925922155 0.4909253716
-0.01336145308 -0.1209033579 0.6955320239 0.7320067286 -0.4644936919 0.4948040545
-0.009597890079 -0.120337382 0.6906123757 0.6909857392 -0.4931961894 0.52815938
-0.01243632287 -0.1170506924 0.6999539137 0.7390859127 -0.4568049908 0.4923030734
-0.01808579452 -0.1294367313 0.6934964061 0.7749995589 -0.4349052608 0.4565865397
-0.01683322154 -0.1251414269 0.698059082 0.7791929841 -0.4284394979 0.4549687803
-0.01983459853 -0.1323972046 0.6995710135 0.7989601493 -0.4123069942 0.4369458854
-0.02254107408 -0.1453371942 0.6881818771 0.7814974189 -0.4235778749 0.4575768709
-0.01406924799 -0.1521581858 0.6707225442 0.6733882427 -0.4808267653 0.5611825585
-0.009902277961 -0.1477474272 0.668661654 0.6636306643 -0.4871581197 0.566501081
-0.01176757831 -0.154197365 0.6650139093 0.6501717567 -0.4918820262 0.5787358284
-0.01259067096 -0.1466357708 0.6735287309 0.6924180984 -0.4687307179 0.5478213429
-0.01226226427 -0.1341697872 0.6831944585 0.6998056173 -0.4592859745 0.5446520448
-0.01556945313 -0.1318223625 0.6882916689 0.7430465221 -0.4462660551 0.4945355952
0.01110443193 -0.1320120096 0.6660189629 0.3418698311 -0.6152101159 0.7040577531
0.005881621968 -0.130845055 0.6696549654 0.4221219718 -0.5944663882 0.6773246527
0.01912156492 -0.1259475201 0.6669475436 0.2120674998 -0.6473937035 0.7280803919
0.0231023524 -0.1301251799 0.6630244851 0.1524829715 -0.657964468 0.7364896536
0.02945198119 -0.1190130487 0.6711236835 0.04520564526 -0.6471824646 0.7574083805
0.02970556729 -0.1238929629 0.6677172184 0.0471801348 -0.6624382138 0.7430256009
0.01353759877 -0.1141720861 0.6790043712 0.3030579686 -0.6126240492 0.7286407948
0.008401410654 -0.1169453785 0.6804189086 0.3875339627 -0.592071414 0.6968052983
-0.00619155867 -0.1334025711 0.6771970391 0.6173517108 -0.4963652492 0.6091062427
-0.001377369044 -0.1327243 0.6734432578 0.5391827226 -0.5428289771 0.6382474899
0.03260460123 -0.1815903187 0.7698836923 0.0279236082 -0.5631909966 0.8175189495
0.02735923976 -0.18377693 0.7693530321 -0.06143026799 -0.5516179204 0.8285284042
0.03288591653 -0.190623194 0.7648586035 0.03809887171 -0.5682188272 0.8175059557
0.08184097707 -0.209795475 0.7139095068 0.8378536105 -0.365472436 0.4013213813
0.08084239811 -0.2028125376 0.7182273865 0.8402772546 -0.3484630287 0.4006644487
0.08698839694 -0.1915968955 0.7054249048 0.9495478272 -0.1737014204 0.2305557579
0.08519911021 -0.2034785599 0.7104631066 0.8809344172 -0.3235240281 0.3453140557
0.08768729866 -0.1698544174 0.6898694038 0.4357104897 -0.0448380895 0.2845411599
0.08681795001 -0.1685024202 0.682755053 0.0622285977 0.1325570047 0.4384055138
0.08544164151 -0.1600482762 0.6815857291 -0.177549988 -0.09656904638 0.4816458821
0.08462780714 -0.1578946263 0.6763452888 -0.4777493477 -0.002223961754 0.5975083113
0.08404941857 -0.149951607 0.6828725338 -0.3341046274 -0.4531159401 0.4763686657
0.08576923609 -0.1462607682 0.6907259822 -0.4183923304 -0.5765313506 0.4288891554
0.08730842173 -0.1550145298 0.6936265826 -0.07729241997 -0.3982690573 0.345069319
0.08701152354 -0.1617737114 0.6919516921 0.2763611078 -0.3107374012 0.2825527191
0.09054831415 -0.1612796932 0.6780634522 0.6242733002 -0.395082593 0.4342229068
0.08858255297 -0.1662267298 0.6954309344 0.4038817585 -0.1941148788 0.2392112017
0.08840680122 -0.1529434621 0.6868206859 0.01186908688 -0.4792137146 0.426451683
0.08937417716 -0.1723171622 0.6946077943 0.7127900124 -0.09810848534 0.1947578043
0.0906400606 -0.1548839658 0.673265934 0.4701729119 -0.5453383923 0.5276258588
0.08958975226 -0.1534388363 0.679248333 0.240195632 -0.5260128379 0.4879595935
0.08806922287 -0.146150589 0.6840795875 -0.2335986495 -0.61291641 0.50778234
0.0895844698 -0.1635826528 0.6867595911 0.5142161846 -0.3014860451 0.3368512988
0.02650261298 -0.1135622337 0.6760134697 0.08021514118 -0.632694006 0.7685834169
0.02157939039 -0.09557488561 0.6927270293 0.1674880981 -0.6603627801 0.7249470353
0.01792492531 -0.1094678417 0.6818245053 0.2394303828 -0.6252211928 0.7381311059
0.01824667118 -0.1041854694 0.6850757599 0.2497651279 -0.6240153313 0.7369770408
0.02458157018 -0.1085859761 0.6811566353 0.1213298663 -0.6305007935 0.7595696449
-0.02135135047 -0.1414475888 0.6953297853 0.7910371423 -0.4145632982 0.4469961524
-0.01618120633 -0.139804706 0.6840890646 0.7348487377 -0.4475518465 0.5086762905
-0.01989184693 -0.1376072317 0.6898177862 0.7773037553 -0.4285401702 0.4586823583
-0.01850124076 -0.1457530111 0.6822904348 0.7414901853 -0.4435116351 0.5032090545
0.004594484344 -0.1385177672 0.6629406214 0.4389500618 -0.5911207795 0.6741170883
0.01257093996 -0.1269322634 0.6680168509 0.3212123513 -0.6262083054 0.7074997425
0.01248435955 -0.1193588302 0.6754739285 0.314778924 -0.6089636683 0.721865952
0.007403476629 -0.1219642833 0.674849391 0.3969018757 -0.5955125093 0.6958481073
0.003509914037 -0.121901229 0.6793081164 0.4645414054 -0.5743634701 0.6679730415
0.01858394593 -0.1211707443 0.6717374921 0.2130868435 -0.6324784756 0.7407206297
0.01776730455 -0.1166455522 0.6754575372 0.2279846817 -0.6198325157 0.7471456528
0.02431119792 -0.1181162447 0.6729474664 0.1185370684 -0.6385946274 0.7601256967
-0.002226258162 -0.1267639548 0.6778100729 0.542095542 -0.5453571677 0.6392074823
-0.005436098203 -0.1230940521 0.6844169497 0.5974186063 -0.5248231292 0.6028496623
-0.01083301846 -0.1255311817 0.6867387295 0.6936577559 -0.4754497111 0.5398192406
-0.008339270949 -0.1289162934 0.6823145151 0.6460210681 -0.4862394035 0.5828363895
0.04789320752 -0.2311089635 0.7343210578 0.2687625289 -0.5529881716 0.780502677
0.04622359946 -0.2249508351 0.7365717888 0.2838822007 -0.5540164709 0.7812097669
0.05466645956 -0.2304510772 0.7315831184 0.3883657753 -0.5505054593 0.7363774776
0.01713735797 -0.2317580134 0.7366592884 -0.2030318975 -0.5436438322 0.809941113
0.01554487646 -0.2262441516 0.7350889444 -0.239744857 -0.5297557712 0.7962737679
0.02102528326 -0.2270904034 0.7364472151 -0.1480858475 -0.5466762185 0.813824892
0.05752377957 -0.2235776633 0.7313417196 0.5048443079 -0.4976358414 0.7018908262
0.0648771897 -0.2224756032 0.7307552695 0.5844439268 -0.4631972313 0.6634581685
0.05224018171 -0.1962594092 0.7555039525 0.3627439141 -0.5475669503 0.7500587106
0.03819866106 -0.1888146996 0.7648586035 0.1283301115 -0.5753709674 0.8049954772
0.04318119213 -0.191441521 0.7640910149 0.2276558429 -0.5598935485 0.7942185998
0.08676361293 -0.1846746355 0.7127286196 0.9158275723 -0.1572030187 0.2720605433
0.0893509835 -0.1848805398 0.702847302 0.9713515639 -0.05697605014 0.1550768018
0.08449720591 -0.1898719817 0.7223117948 0.8658341169 -0.30292207 0.385484606
0.08540837467 -0.1925517917 0.7158647776 0.8949532509 -0.2677980959 0.3384867311
0.03523799032 -0.1049185693 0.6827665567 -0.04898086935 -0.6220648885 0.7809960842
0.0317796208 -0.1085169539 0.6792289019 -0.001183877815 -0.631739378 0.774295032
0.02632364072 -0.1032353491 0.6843267083 0.11821796 -0.6387081146 0.7586578727
0.03395684436 -0.1000058949 0.6873804927 -0.02929642051 -0.6428559422 0.7576277852
0.04103357717 -0.1003781259 0.6867604852 -0.1512515098 -0.6333993673 0.7549086213
0.02545509301 -0.23323448 0.7386133671 -0.06830897182 -0.5675429106 0.8109778166
0.02785614878 -0.22712183 0.7374871373 -0.03741708025 -0.5598870516 0.8231838346
0.03235498816 -0.2324847281 0.7374628186 0.03135584667 -0.5655573606 0.8104918003
0.03769086301 -0.2316029221 0.7357005477 0.1118777022 -0.569434166 0.8115400076
0.05220877007 -0.2244216949 0.7355004549 0.3643325865 -0.5494863987 0.7501893044
0.05116572604 -0.217296049 0.7395943403 0.3661014438 -0.5418166518 0.7549312711
0.05879696459 -0.2122902125 0.7407412529 0.5021995902 -0.4969493449 0.703399837
0.05961636454 -0.2142743319 0.73508811 0.5090947151 -0.4895200133 0.6939071417
0.0647297278 -0.2154391557 0.7301617861 0.588665843 -0.4662000239 0.6498214602
0.06709590554 -0.1916691214 0.7481995225 0.5849912763 -0.5153728724 0.6248514652
0.06278698891 -0.1962070763 0.7480655909 0.5368468761 -0.521146059 0.6607123613
0.06620711088 -0.1869532019 0.7528511882 0.5455342531 -0.4984462559 0.6711853147
0.05798617005 -0.196589306 0.7514799833 0.4624047875 -0.5276358724 0.7103695869
0.06104087457 -0.191214323 0.7537543774 0.5143045783 -0.5047941208 0.689340651
0.05015555397 -0.2024350315 0.7527113557 0.3388534784 -0.574806273 0.742023766
-0.006409042981 -0.186145708 0.7507684231 -0.5644990802 -0.4961242974 0.6534366608
-0.002677766606 -0.1848292202 0.7584386468 -0.4904388785 -0.5123231411 0.7010018826
0.01225357689 -0.190085426 0.7628922462 -0.2959717512 -0.5399864316 0.7858944535
0.0553381443 -0.1906922609 0.7583771348 0.4039441645 -0.5134222507 0.7558948398
0.04654517025 -0.1831887513 0.765416503 0.259067446 -0.548278749 0.7852241993
0.05298117548 -0.1854625195 0.7620189786 0.3542920649 -0.5237808228 0.7658667564
0.04647216201 -0.1974024326 0.757533133 0.2757257521 -0.5779591203 0.7676767707
0.04881267995 -0.1916896701 0.7608913779 0.3090060651 -0.5395126343 0.7797915936
0.08147661388 -0.1974676996 0.7236967683 0.8295375109 -0.3592612743 0.4263131022
0.08395133913 -0.1975845844 0.717651844 0.8732682467 -0.3124466538 0.3699941039
0.08171442896 -0.1912388355 0.7281896472 0.8066160083 -0.3731110692 0.4546853304
0.06979665905 -0.2166358232 0.7282988429 0.6505239606 -0.4455920756 0.6134275794
0.06984288245 -0.1983808875 0.7398213744 0.6408901215 -0.4835333526 0.5923013091
0.07469515502 -0.1951798797 0.7364116311 0.6963943243 -0.4615280032 0.5475949645
0.07107850164 -0.1935748607 0.7433610559 0.636269927 -0.4885463417 0.5959475636
0.07045773417 -0.2038712502 0.7351751924 0.6582798362 -0.4716306329 0.5855790973
0.068821989 -0.2117976099 0.7324476242 0.6389238238 -0.4660755396 0.6107695103
0.07260817289 -0.2189671695 0.7230710387 0.6969293356 -0.4170537293 0.5813421607
0.07621286064 -0.2042253613 0.7251487374 0.768240273 -0.4147923291 0.4873123169
0.07270696014 -0.2062928975 0.7299965024 0.7028369904 -0.4423340857 0.5548622608
-0.01796959899 -0.2067566514 0.7225004435 -0.7756672502 -0.3726330996 0.5062621236
-0.02204763331 -0.2066380531 0.7171359658 -0.8340399265 -0.3538859785 0.4213666618
-0.01316129882 -0.2043795586 0.7301421165 -0.7261741757 -0.3682887852 0.5801211596
-0.007898540236 -0.2171672434 0.7285736799 -0.6181828976 -0.4450586736 0.6475251317
-0.01307698712 -0.2092282176 0.7267215848 -0.703632772 -0.3993489742 0.5787053704
-0.01422144938 -0.2151399106 0.7245749235 -0.714856267 -0.4051876068 0.5688719153
-0.009491330944 -0.2113402784 0.7320790291 -0.6536599398 -0.4210683703 0.6273706555
-0.02927731909 -0.1949794739 0.7010480762 -0.9039061666 -0.03006846085 0.3393505514
-0.02710403875 -0.1933918893 0.707357049 -0.898999989 -0.1262173653 0.3657428324
-0.02594957501 -0.1962495744 0.712613225 -0.8725000024 -0.3031370938 0.3830012679
-0.0235175509 -0.1727599204 0.6901853085 0.1333300024 -0.2898016274 0.4728622139
-0.02535634115 -0.1840100586 0.7018463612 -0.4728603363 -0.2090304345 0.4150779247
-0.02691624686 -0.1850739717 0.6901893616 -0.3777131736 -0.05477494746 0.3886063099
-0.02555563115 -0.1797105372 0.6890856028 -0.1419577301 -0.1444795281 0.4234901369
-0.02414468862 -0.1768807024 0.6948836446 -0.09381269664 -0.2651231885 0.4523996413
-0.02354986407 -0.1681499034 0.6946377158 0.1680853218 -0.3475381434 0.4509702325
-0.02294960991 -0.1665662378 0.6870641112 0.3812645376 -0.3356265426 0.482832104
-0.02408244088 -0.1756563336 0.7021772265 -0.1918694228 -0.3236791193 0.4364987314
-0.02937810682 -0.1731365323 0.685348928 -0.1933653057 -0.08762031794 0.2724834383
-0.02312134206 -0.1610991657 0.6782919765 0.6625951529 -0.3183524013 0.4795584381
-0.03224556148 -0.1928455681 0.6927841306 -0.9390974045 0.1592130363 0.2605848312
-0.02466724999 -0.1562649757 0.6980592012 0.4307206571 -0.3796865344 0.427544117
-0.02395395562 -0.1634457111 0.6971313357 0.2375711948 -0.3725844324 0.431099534
-0.02483076043 -0.1473334134 0.6947332025 0.7509472966 -0.4006928504 0.4307189882
-0.02354577929 -0.1553404778 0.6906676888 0.5896812081 -0.4010085166 0.4398232698
-0.02829963714 -0.1720166653 0.6982452869 -0.2531049252 -0.1780344993 0.3196339309
-0.02956214733 -0.1809172034 0.6986299753 -0.6064370871 -0.09440756589 0.2775075436
-0.02693246678 -0.1790360659 0.7061565518 -0.5039081573 -0.2250671685 0.3566134274
-0.03139356151 -0.1847588569 0.6946538091 -0.7741071582 0.003204034641 0.2211021036
-0.03253788501 -0.1806034744 0.6888919473 -0.629584074 0.04706453905 0.189258188
-0.03390418738 -0.1866226196 0.687501967 -0.8745725751 0.1281254441 0.1455424279
-0.0254786741 -0.1844661981 0.713552177 -0.6932569742 -0.2803947926 0.3969908953
-0.0311661046 -0.1754074693 0.690711081 -0.4158316553 -0.03210746124 0.232709825
-0.02845143899 -0.1876765639 0.7055854797 -0.8503752947 -0.1298563778 0.3070021868
-0.02622492239 -0.1695649326 0.703699708 -0.1354202032 -0.2836481631 0.3825471997
-0.02597986162 -0.1609193683 0.6860147119 0.344701767 -0.2713410556 0.3654177487
-0.02976527624 -0.1681486219 0.689912796 -0.1056726649 -0.1125258952 0.2746649384
-0.02781068534 -0.1587747037 0.6919353604 0.2694577277 -0.2318521589 0.3384477198
-0.02383383363 -0.149748832 0.7012194395 0.5405182838 -0.3839298785 0.4234373569
-0.02853275649 -0.1447029114 0.7136049271 0.7153871059 -0.3802504539 0.4119380116
-0.02712477557 -0.1637970358 0.7153134942 0.03392039612 -0.3386704028 0.4085143507
-0.0251456555 -0.1598968655 0.7027471066 0.2440192997 -0.3624544442 0.420787096
-0.02615244873 -0.1623606831 0.7093733549 0.118911013 -0.3490719199 0.4142771959
-0.02519825473 -0.175064519 0.7104161978 -0.3339422047 -0.3215251267 0.4120883346
-0.02759037726 -0.1566428393 0.7143394351 0.291190654 -0.3546675146 0.4101133943
-0.02590798587 -0.1776674241 0.7155089974 -0.4550428391 -0.309774518 0.4070179164
-0.02502728812 -0.1425908506 0.7057946324 0.7549589872 -0.3927723169 0.4198178351
-0.02432260476 -0.1539877355 0.7068580389 0.3524984121 -0.3679912984 0.4177170694
-0.02626456507 -0.1711869091 0.7153376937 -0.2331454754 -0.3232335746 0.4078175128
-0.02769666165 -0.1501591206 0.7136774659 0.5103663206 -0.3686326146 0.4113981426
0.04420470446 -0.2044341564 0.7540079355 0.246113658 -0.5893526077 0.7691404223
0.03960474208 -0.1958911568 0.7602238059 0.1568036079 -0.5804128647 0.7926927209
0.03009174392 -0.2171909511 0.7444366217 0.002413060516 -0.5636125207 0.8186775446
0.05703666806 -0.2080373615 0.7448692918 0.4669578373 -0.5201813579 0.7102532983
0.05297221988 -0.2060115784 0.7479985356 0.3931833804 -0.5546294451 0.7329759598
0.05236240849 -0.2119544148 0.7427336574 0.3959447443 -0.5414572954 0.7405570149
0.06313180923 -0.2068498135 0.7414278984 0.5578633547 -0.5125097036 0.6510537863
0.06434899569 -0.2089673579 0.7336204052 0.6024478674 -0.4629420638 0.6324977279
0.06307592988 -0.2006062418 0.7434545159 0.5482598543 -0.5116386414 0.6514158845
0.05764643475 -0.2018997669 0.7469860315 0.4735499322 -0.5441391468 0.6911268234
-0.02123336866 -0.1901830286 0.7251166105 -0.8138307333 -0.3318397105 0.467851311
-0.0165990591 -0.1901284903 0.7369223237 -0.7315427065 -0.3794113696 0.56591326
-0.02039273456 -0.1919331998 0.7320504189 -0.7739591002 -0.3286509812 0.5397575498
0.02177002281 -0.2128729224 0.7473279238 -0.1512228101 -0.55660218 0.8133365512
0.01974829473 -0.2211376578 0.7397369742 -0.1822557598 -0.5317336321 0.8184864521
0.009418376721 -0.2227701098 0.7392143011 -0.3474383354 -0.5149434209 0.7785203457
0.01017217897 -0.2286586016 0.7362699509 -0.3261300921 -0.5048263073 0.7963664532
0.04021248221 -0.2006116956 0.7555803657 0.1675867587 -0.5854320526 0.7858541012
0.02683965117 -0.1891463697 0.7661005855 -0.0693398118 -0.5514960289 0.8282424212
0.01766548678 -0.1931597888 0.762727201 -0.2191641927 -0.5571730137 0.7982286215
0.01521958318 -0.1864800155 0.7661157846 -0.2413204014 -0.5319600105 0.811072588
0.02035641298 -0.1889294237 0.7656176686 -0.1739993095 -0.5465062857 0.8153464794
0.008253761567 -0.1862186939 0.7615876794 -0.3410961926 -0.525167644 0.774872601
0.02555753663 -0.1950334609 0.7622528672 -0.09404928237 -0.5635422468 0.819157362
0.03176238388 -0.1963492781 0.7606115937 0.01622338407 -0.5832147598 0.8074627519
0.04748618603 -0.2090425938 0.7469321489 0.300667882 -0.571388185 0.763045013
-0.01905935444 -0.1973983943 0.7271037102 -0.7891654372 -0.3144113719 0.5267903805
-0.02119492553 -0.1997603625 0.7208678722 -0.8392329216 -0.3182317019 0.439244777
0.01702230424 -0.2090450376 0.7485072017 -0.2419605553 -0.5855810046 0.77169168
0.01061145402 -0.2118536085 0.7440692782 -0.3448272049 -0.5394591093 0.7647899389
-0.01331757195 -0.1983963847 0.7342907786 -0.7120408416 -0.3868022859 0.5853877664
-0.01135000587 -0.1956263334 0.7393657565 -0.6927685142 -0.4013291597 0.5985062718
0.01812473871 -0.2175527662 0.7448526025 -0.2060548365 -0.521412313 0.8241497278
0.01897963136 -0.2285948545 0.7432914376 -0.1739370525 -0.5478393435 0.8164160252
0.01082785334 -0.218381092 0.7424346209 -0.3304161727 -0.523134768 0.7785625458
0.005264081992 -0.2140341997 0.74037081 -0.4305734336 -0.5045015216 0.7467986941
-0.003704922507 -0.2166499943 0.7325025201 -0.5713788867 -0.4453130662 0.6884797215
-0.001979426946 -0.2235685587 0.730412066 -0.5372160673 -0.434281081 0.7226008773
0.003339464776 -0.2263713628 0.7322397232 -0.4444669485 -0.4604550898 0.7604221702
0.00315100071 -0.2181982994 0.7348988056 -0.4585124552 -0.4700796902 0.7510260344
0.03658287972 -0.207372427 0.7526341677 0.1133644506 -0.5993387103 0.7905301452
0.02953288332 -0.21199812 0.7500150204 -0.01098117325 -0.5941861272 0.8010962009
0.02827836201 -0.201524511 0.7563757896 -0.0459012948 -0.5933635831 0.7989037037
0.03424271196 -0.2010100186 0.7566041946 0.06175665557 -0.5935209394 0.800588727
0.02964167111 -0.2065059245 0.75323385 -0.01447776612 -0.6008368134 0.7949071527
0.0371536687 -0.2185993344 0.7433093786 0.1414039284 -0.5656713843 0.8089553714
0.04303229228 -0.2149857432 0.7446186543 0.2239902467 -0.5562458634 0.797891736
0.04591654614 -0.2199367732 0.7406693101 0.2618333995 -0.558604598 0.7847859859
0.0404138267 -0.2253951728 0.7378460169 0.1905515492 -0.560980022 0.8010031581
0.02761427686 -0.2225411981 0.7408152223 -0.03944326565 -0.5541516542 0.8265779614
0.03415019438 -0.2244504094 0.7398606539 0.09287267923 -0.5648820996 0.817686379
0.03834148124 -0.2120487243 0.74993366 0.1606289595 -0.5950607657 0.785502851
0.02546923235 -0.2281292677 0.7425960302 -0.05098790303 -0.5655881763 0.808554709
0.02251961082 -0.2225527465 0.745124042 -0.1178835705 -0.5478598475 0.8253044486
-0.02414196916 -0.1898561567 0.7194882631 -0.8540035486 -0.2960720062 0.4251268804
-0.001966213575 -0.2120800018 0.7366749644 -0.5469453335 -0.4688560069 0.6891941428
0.0009583339561 -0.208141908 0.7420240641 -0.5020472407 -0.4970714748 0.702413559
-0.004147104453 -0.2059726417 0.739802599 -0.5861872435 -0.4658041 0.6615666151
0.004225237295 -0.2007852346 0.7486273646 -0.4684908986 -0.5477723479 0.6837875843
0.01135544293 -0.2066089213 0.7482271791 -0.3401118517 -0.5698427558 0.7401778102
-0.008570649661 -0.2015471458 0.7380755544 -0.6620150208 -0.4125221968 0.6250383854
0.02411662042 -0.2090172619 0.7514500618 -0.1274775118 -0.6032989621 0.7806805372
-0.001732367906 -0.2006810158 0.7455087304 -0.5517402291 -0.5092160702 0.6597808599
-0.005922109354 -0.1964974105 0.7444037795 -0.5966052413 -0.4850713611 0.6354023218
-0.0007039012853 -0.1953849792 0.7495837808 -0.5199715495 -0.5387187004 0.6622018814
-0.006449994165 -0.1905380636 0.7467952967 -0.5790498257 -0.5049409866 0.6400119066
-0.01171789132 -0.1889178902 0.743439436 -0.6841309667 -0.4335487187 0.5847843289
-0.002608346986 -0.1899306774 0.7526894212 -0.5081570745 -0.5328862071 0.6757876277
0.007132988889 -0.1915446669 0.7593379617 -0.3813545108 -0.5408309698 0.7482354045
0.002296056831 -0.1925327182 0.7541392446 -0.4559628367 -0.5502139926 0.6985045075
0.02170067839 -0.2040190846 0.7543053627 -0.1597398221 -0.5920636058 0.7849072218
0.01700506732 -0.1996059567 0.7567282319 -0.2379885465 -0.5796591043 0.7758712769
0.01088901237 -0.1968349665 0.7565536499 -0.3322380185 -0.5677176714 0.7490473986
