# .PCD v0.7 - Point Cloud Data file format
VERSION 0.7
FIELDS x y z normal_x normal_y normal_z
SIZE 4 4 4 4 4 4
TYPE F F F F F F
COUNT 1 1 1 1 1 1
WIDTH 512
HEIGHT 1
VIEWPOINT 0 0 0 1 0 0 0
POINTS 512
DATA ascii
0.04069856182 -0.08329701424 0.6219010353 0.03054075316 -0.8626893759 0.4334020913
0.05004392937 -0.08875377476 0.6075476408 0.3370173275 -0.7269912362 0.588316381
0.04415708408 -0.08525776863 0.6151871085 0.1343595386 -0.8128385544 0.4854639173
0.02395592444 -0.1816097796 0.6191086173 0.8204907179 -0.4250712693 0.3821427524
-0.01191333029 -0.1986986101 0.6426050067 0.3391523659 -0.6647045016 0.6640004516
-0.06134757772 -0.2016980648 0.6371853948 -0.4824102223 -0.5512384772 0.6790759563
-0.02307434194 -0.05675793439 0.6247988939 -0.1218404844 -0.7713726163 0.6214615107
-0.05265307799 -0.09966143966 0.5808312893 0.3179625273 -0.6886363029 0.6411288381
0.0242101308 -0.1715171188 0.6162653565 0.8823141456 -0.3046111166 0.342453599
0.02762434073 -0.1716216803 0.6106760502 0.9037162662 -0.2626493275 0.3270004392
0.0263684392 -0.1763286591 0.6145228148 0.8573434949 -0.3533684015 0.3587144911
-0.02038649842 -0.200626567 0.6435346007 0.1930909604 -0.7034750581 0.675075531
-0.04503494129 -0.08506602794 0.5941205025 0.230825901 -0.723754108 0.6477552056
-0.05167132989 -0.0867768079 0.5951737761 0.3430378735 -0.70497787 0.617572546
-0.005226636305 -0.194993645 0.6416489482 0.4583969116 -0.6216577291 0.6341775656
-0.04158152267 -0.07171054929 0.6072160602 0.1650616676 -0.733469069 0.6591873765
-0.04584812 -0.07656013221 0.6036924124 0.2414053828 -0.7282132506 0.6401789188
-0.04347737506 -0.08009420335 0.5986423492 0.1891838908 -0.7275592089 0.6576489806
0.00865947362 -0.1871159673 0.6343917251 0.6955898404 -0.4960084558 0.5175962448
0.01372592431 -0.1875511855 0.6284617782 0.7581446171 -0.4564293921 0.4619027376
-0.05800764263 -0.09716350585 0.5869966745 0.4282709062 -0.674659133 0.5969972014
-0.06588660926 -0.09975299239 0.5914629698 0.5610743761 -0.6230885983 0.5416978002
0.0482025966 -0.1002872363 0.5976577997 0.2237731367 -0.7183275819 0.6574662328
0.006993674207 -0.1938213706 0.632148385 0.6510573626 -0.5148151517 0.5399404764
-0.007771156728 -0.2007834017 0.638828814 0.3904781342 -0.6589857936 0.6414822936
0.0003851441725 -0.198939085 0.6368926167 0.5299651027 -0.6002049446 0.5987574458
0.0004239688569 -0.1926099807 0.6404675841 0.543563962 -0.5923267603 0.5933731198
-0.05003194138 -0.0942568481 0.5852037668 0.3077301085 -0.7108892798 0.6318799853
-0.03967466205 -0.08643959463 0.5918647647 0.1375662982 -0.7292860746 0.66197896
-0.0441685766 -0.0904769972 0.5886358619 0.2074219882 -0.7267728448 0.6424201727
-0.05908771232 -0.09053246677 0.5953880548 0.4434658587 -0.6734999418 0.5893059969
-0.05002490059 -0.08130953461 0.600086987 0.3198827505 -0.706746757 0.6295251846
-0.06197040156 -0.06642608345 0.6253651977 0.4857984781 -0.6766480207 0.5495483279
-0.05955693871 -0.0614907667 0.6291467547 0.4327345788 -0.7025748491 0.562584877
-0.0556182079 -0.06421895325 0.6223616004 0.4051172733 -0.7104713321 0.5749802589
-0.05574122071 -0.07148034871 0.6143000126 0.3983166516 -0.6957776546 0.5974293947
-0.03423915431 -0.2033843845 0.64308846 -0.02498208545 -0.7106565833 0.6925143003
-0.02617827617 -0.2002452761 0.6449736953 0.08650042117 -0.7239481807 0.682066977
-0.06304379553 -0.1490019858 0.6832020879 -0.4871830046 -0.6310122013 0.5931106806
-0.09081489593 -0.1348608881 0.5989083052 -0.2003100514 -0.1500767022 0.3678021729
-0.09217187017 -0.1422141045 0.5998097658 -0.4426249266 -0.07179059088 0.3227737844
-0.09332663566 -0.1487594098 0.6007499695 -0.6555013657 -0.007034586277 0.2829385996
-0.09467083216 -0.1565739363 0.6019619107 -0.907828927 0.0670773536 0.2355385721
-0.09592832625 -0.1529875249 0.5965448618 -0.8913707733 0.2070054263 0.2486148328
-0.08716121316 -0.1214998513 0.6002824306 0.3002711535 -0.4006046653 0.4529155195
-0.0772619918 -0.1484640241 0.6671580076 -0.6719881296 -0.5595052242 0.4845449328
-0.06814847887 -0.06550384313 0.6338487267 0.541064024 -0.6584538221 0.5220558643
-0.03631809726 -0.06492383778 0.6146680117 0.06484798342 -0.7634093165 0.6398720145
-0.04199217632 -0.06699904054 0.6132015586 0.171431005 -0.7471156716 0.6391769052
-0.03752913326 -0.07961052656 0.5984408259 0.09066007286 -0.7340108156 0.6691014171
-0.01851936989 -0.09068913013 0.587885201 -0.2415632606 -0.71208781 0.6590094566
-0.01864891872 -0.0979802385 0.580417335 -0.2431580275 -0.6961606145 0.6750872135
0.02282844111 -0.1763129234 0.6236716509 0.8317154646 -0.4080265164 0.3759869933
0.02481343038 -0.1708436161 0.622453928 0.8354343772 -0.4020540416 0.3743042052
0.01796431839 -0.08840354532 0.6301143765 -0.4789136052 -0.6236432791 0.6166610122
-0.01573590934 -0.14808245 0.6967805624 0.1504002959 -0.6904777288 0.7063833475
0.003334436566 -0.06946074963 0.6257490516 -0.550780952 -0.6356281042 0.5393653512
-0.000688684464 -0.07087248564 0.6209051609 -0.4959374368 -0.643496871 0.5750422478
-0.003048132407 -0.06512353569 0.6250588894 -0.4336006343 -0.6816421151 0.5855369568
-0.08889458328 -0.1343741864 0.5924974084 -0.3817169666 -0.03275150806 0.1819420457
-0.08788748831 -0.1285701841 0.5951073766 -0.1107705534 -0.1765562892 0.2693645358
-0.08808404207 -0.1492806524 0.5866348743 -0.9549632072 0.2951385081 0.01312766783
-0.09184338152 -0.1394461691 0.5931655765 -0.5553156137 0.07742259651 0.1902641505
-0.09392239898 -0.1496796459 0.5907222033 -0.9468069673 0.2939908206 0.1243997812
0.01630403474 -0.1795981973 0.6315087676 0.7667144537 -0.4489306808 0.4577639699
0.01945635118 -0.1851239204 0.6234787107 0.7958745956 -0.450086236 0.4024851918
-0.05716080591 -0.1087272838 0.5733348727 0.4020207822 -0.6521870494 0.6379751563
-0.07025194168 -0.1109764948 0.5834925175 0.5725229383 -0.5910302401 0.5667430162
-0.06338311732 -0.1013937369 0.5859982371 0.5103147626 -0.6359343529 0.5784509182
-0.06536885351 -0.1059297696 0.5829797387 0.5324385762 -0.615726769 0.5800054669
-0.03846153617 -0.09390323609 0.5829803944 0.09688186646 -0.7346256971 0.6660003662
-0.04192079604 -0.0972295329 0.5791416764 0.1276498884 -0.7216246128 0.6768061519
0.0302362293 -0.1029296294 0.5948374867 -0.1053819358 -0.6321823001 0.6632637978
0.04312812909 -0.102279231 0.5959814191 0.1589250118 -0.6636102796 0.7174090147
0.03670957312 -0.1002067029 0.5963483453 0.007517601363 -0.6823830605 0.6449248791
0.03696139529 -0.1066666096 0.5938413143 0.06620292366 -0.5900274515 0.7689512968
0.02223711647 -0.1042945459 0.5937520266 -0.2614284754 -0.5988734961 0.6479321718
0.01197851729 -0.1020977348 0.5957280993 -0.5115599036 -0.6013938785 0.5565591455
0.02504085191 -0.1001569554 0.5982711315 -0.2627584338 -0.6461053491 0.5886554718
0.01812851988 -0.1004851907 0.5991750956 -0.4190002382 -0.6200754642 0.5619471073
-0.08271623403 -0.1096157581 0.6020755172 0.6354485154 -0.5776241422 0.5122013092
-0.0639083609 -0.08260571212 0.609829545 0.5077980161 -0.6474483609 0.5613082051
-0.05873258039 -0.0822378546 0.6053009033 0.4246999621 -0.6765335798 0.5959891677
0.0001063703603 -0.1514669657 0.6824569702 0.428570658 -0.6547475457 0.6217381358
-0.04416784272 -0.2032732666 0.6433704495 -0.1633116156 -0.6805666685 0.7116461396
-0.05030032992 -0.2033672929 0.640319109 -0.2911169827 -0.6439717412 0.6965179443
-0.06133409962 -0.1962101758 0.6387295127 -0.5151433945 -0.5445376039 0.6569533944
-0.07886983454 -0.1905179024 0.6280723214 -0.7486761808 -0.4178059995 0.5128677487
-0.06632921845 -0.1982972175 0.6343386769 -0.5502308011 -0.5022455454 0.6619220376
-0.07149606943 -0.1948757917 0.6315637231 -0.6268240809 -0.4637426734 0.6095866561
0.01060946565 -0.1829296052 0.6400647759 0.7065042257 -0.4878186882 0.5116025209
0.03652596474 -0.08132032305 0.6270010471 -0.1114407703 -0.9212933779 0.3600483239
-0.06770826876 -0.1446824819 0.6854093671 -0.51829952 -0.6059606075 0.5968633294
-0.07101618499 -0.1456561089 0.6795461774 -0.5758221745 -0.5946853757 0.5527261496
-0.05542029068 -0.1431085169 0.6947969198 -0.3585081697 -0.6516852379 0.6648977995
-0.06115329266 -0.1436889321 0.6915658116 -0.4255697131 -0.6409124136 0.6376384497
-0.02951202355 -0.07034177333 0.6081389189 -0.07404606789 -0.743955791 0.6630307436
-0.01224624552 -0.0708001405 0.6126210093 -0.3148218691 -0.6978561878 0.6412181258
-0.005812566727 -0.07116570324 0.6166708469 -0.4147478342 -0.6726728082 0.6123382449
-0.01601983234 -0.0579212606 0.6253462434 -0.2342118174 -0.7488457561 0.6190055609
0.05060243607 -0.09434755147 0.6020668745 0.2363553196 -0.7452018857 0.6233153343
0.02569635212 -0.1480987668 0.6031056046 0.219379276 -0.2167993337 0.6131033897
0.02606655285 -0.1649193913 0.6182352304 0.8279227614 -0.2900036275 0.3576316535
0.02450182475 -0.1552213728 0.6158307791 0.4618761539 -0.3351475298 0.5272512436
0.02769401856 -0.1619753093 0.6062620282 0.7307617068 -0.1622010022 0.3793774843
0.02414876036 -0.1342237294 0.5961675048 -0.2983839214 -0.2356577516 0.8453033566
0.02459367737 -0.1424425989 0.6007759571 -0.008680566214 -0.2482160628 0.7215892076
0.02586592734 -0.1627023369 0.6120967865 0.7127702236 -0.270925343 0.4109683931
0.02567884512 -0.1549147218 0.605247438 0.4314118028 -0.2383723557 0.5292161107
-0.02643611468 -0.1463581324 0.7008977532 -0.003337461269 -0.6758963466 0.7359157801
0.01346369181 -0.07559253275 0.6241444945 -0.4879978597 -0.6765443683 0.4976526201
0.01984856278 -0.07620814443 0.6252851486 -0.3868448734 -0.7567084432 0.4435506761
0.01333080512 -0.07282306254 0.6291828752 -0.4939223826 -0.6778991222 0.5006917715
0.02757807076 -0.07783966511 0.62628299 -0.2756199241 -0.8402943611 0.3911004961
0.0002936631208 -0.1866445839 0.6451205015 0.5290834904 -0.5874716043 0.608430326
0.004606787115 -0.1873369217 0.6411025524 0.6136482954 -0.5518161654 0.5581699014
0.01171895396 -0.1824600697 0.634013772 0.7186652422 -0.4796176851 0.4984577
-0.03132365271 -0.08981420845 0.5869832635 -0.02184429206 -0.7316467166 0.6766213179
-0.02610224672 -0.08667833358 0.5907688141 -0.1237352639 -0.7314907908 0.6683624387
-0.03239103779 -0.08451543748 0.592715621 -0.002634421224 -0.736174047 0.6694712639
0.05018364266 -0.1095120981 0.5956152678 0.2348457724 -0.6934282184 0.6809481382
-0.06769511104 -0.1152679846 0.5771566033 0.5210444331 -0.5961584449 0.6053976417
-0.06134356186 -0.1133987308 0.5730016232 0.4449669421 -0.6254298687 0.6316575408
-0.06426999718 -0.1101313531 0.5781551003 0.5187202096 -0.6081802845 0.5993149281
-0.05960618705 -0.1045842618 0.5795196295 0.4458322525 -0.6435854435 0.6187684536
-0.05050216243 -0.1120932549 0.5663207173 0.2823072076 -0.6776452661 0.6655177474
-0.03720036522 -0.1118100658 0.5582662225 0.02794890478 -0.7435736656 0.6585731506
-0.04260767624 -0.1122320965 0.5620506406 0.138418749 -0.7164304852 0.6622977257
-0.0669843927 -0.09141072631 0.6023690104 0.5352522135 -0.6307029724 0.557926774
-0.06368965656 -0.08629397303 0.6038837433 0.5089340806 -0.6404038668 0.5750001073
-0.06922858953 -0.08862610161 0.6070127487 0.5832569003 -0.6161901355 0.5252201557
-0.07093618065 -0.09621433169 0.6008132696 0.5898031592 -0.6077573299 0.5313016176
-0.06462007761 -0.09344701469 0.5969896913 0.5266304612 -0.6456580758 0.5520727634
-0.07317136973 -0.09269706905 0.6078671217 0.6097927094 -0.6004539132 0.5163051486
-0.08225289732 -0.1044830084 0.6077142358 0.6638633609 -0.5755386353 0.4763748646
-0.0777778849 -0.09884124994 0.6062930226 0.6309467554 -0.5875666738 0.5049112439
-0.01194890495 -0.08006522059 0.6032130122 -0.3208410144 -0.7020968795 0.6349336505
-0.02665208653 -0.08263134956 0.5960604548 -0.1204297245 -0.73406142 0.6583690047
-0.03097707964 -0.07962689549 0.598782599 -0.02857510187 -0.7358013988 0.6672919393
-0.02558803558 -0.07616470009 0.6025969386 -0.1208087131 -0.7383742332 0.6621882319
-0.06102366745 -0.07604190707 0.613389194 0.479634136 -0.6626955867 0.5727569461
-0.05617702752 -0.0761121735 0.6095889807 0.3958326578 -0.6869918108 0.607221067
-0.06293579191 -0.0728597492 0.6190311909 0.5020847321 -0.6637681127 0.5483369231
-0.07033694535 -0.07018025219 0.6312912703 0.5782740116 -0.6326491833 0.5149720907
-0.05562647432 -0.1605507284 0.6779181957 -0.4245916903 -0.6732925773 0.6039108634
-0.04744561762 -0.1613249332 0.6807359457 -0.2973832786 -0.6993454099 0.6413035393
-0.04825614393 -0.1468711644 0.6956279874 -0.2704035044 -0.6616604328 0.6984790564
-0.04750620201 -0.1422594637 0.6996356249 -0.2410012633 -0.6597390175 0.7113031745
-0.05225697905 -0.1488467306 0.6909621358 -0.3282710314 -0.6564374566 0.6736599207
-0.04481872544 -0.151305452 0.6931228638 -0.2456244379 -0.6676416397 0.7026665807
-0.04146803543 -0.1460472643 0.6982747316 -0.1656898111 -0.6652922034 0.7242736816
-0.03501381353 -0.1457787901 0.7014052868 -0.09572876245 -0.6728468537 0.7324498892
-0.05264057219 -0.1529201269 0.6870599389 -0.3410466611 -0.6680570245 0.6574989557
-0.03770298883 -0.1543861181 0.6923052073 -0.1553382427 -0.6781163812 0.7158389091
-0.04245103896 -0.157392472 0.6876798868 -0.2186871618 -0.6915351748 0.6833049059
-0.03390794992 -0.1499800533 0.6967787147 -0.07011561841 -0.6726847291 0.7352087498
-0.0611474961 -0.1908156276 0.6423709393 -0.5384882689 -0.5332756639 0.6475545168
-0.03464028612 -0.09650259465 0.5794499516 0.009778450243 -0.726205945 0.6859856248
-0.0290283449 -0.09577395022 0.5814979076 -0.09013542533 -0.7225765586 0.6800127625
-0.07189586014 -0.1034828201 0.594045341 0.6108186841 -0.5950515866 0.5221933722
-0.07704456896 -0.10602808 0.5968155861 0.6219977736 -0.5855673552 0.5197826624
-0.07797237486 -0.1033813208 0.6016089916 0.6257241368 -0.5837673545 0.517368257
-0.07644929737 -0.1768496186 0.6365433931 -0.7667988539 -0.3893951774 0.5066199303
-0.07223277539 -0.1791687757 0.641982615 -0.68660146 -0.4552828968 0.5659427047
-0.07425446063 -0.1824540794 0.6357207298 -0.7237683535 -0.4173475802 0.5467351079
-0.07969749719 -0.1750316918 0.6310032606 -0.8167224526 -0.3505578637 0.439787209
-0.05858808383 -0.1884551495 0.6484141946 -0.481382817 -0.56657511 0.66833359
-0.05624127388 -0.2018954903 0.6408984661 -0.4122431278 -0.6125125885 0.6737663746
-0.05314396694 -0.1908586174 0.6464444995 -0.4155664742 -0.5820410252 0.6930865049
-0.05620156229 -0.1956880987 0.6427916288 -0.4379453361 -0.5745441914 0.6885673404
0.01025183033 -0.1569330543 0.6663684845 0.6328340769 -0.5663383007 0.5219296217
0.003678558161 -0.1525379866 0.6780017018 0.4832958877 -0.6324951649 0.5968670845
0.01682246849 -0.1658654511 0.644187808 0.755756259 -0.4908151925 0.4325551093
0.01747292094 -0.1693006158 0.6384624839 0.7786177993 -0.4551220536 0.4268910885
0.016769832 -0.1740727872 0.6339698434 0.7770212889 -0.433401823 0.4553074241
0.01397400256 -0.1728322208 0.6433947682 0.7354329824 -0.4929971397 0.4638620317
-0.01851546951 -0.06633638591 0.6158092618 -0.213099584 -0.7284898758 0.6479682922
-0.01451294217 -0.06390745193 0.6201384068 -0.2990998924 -0.7173027992 0.6282925606
-0.02331396006 -0.06166775525 0.6198211312 -0.14616175 -0.7632731795 0.6261436343
-0.02537668496 -0.0661130324 0.614392519 -0.1137314215 -0.7486450672 0.6525467634
-0.03142839298 -0.0664755106 0.61278826 -0.02821527794 -0.7558660507 0.6502606869
-0.03245732933 -0.07438835502 0.6039854288 0.0029188646 -0.745262444 0.6619622111
-0.02307783253 -0.07219170034 0.6086631417 -0.151202783 -0.7351082563 0.658351779
-0.00997543335 -0.07691050321 0.608908236 -0.3285742998 -0.6933277249 0.634534955
-0.01531025022 -0.07545370609 0.6060085893 -0.2948346436 -0.7137867808 0.635216713
-0.02312101051 -0.09410533309 0.5849611163 -0.1822754145 -0.7204883695 0.6649426222
-0.01192054991 -0.09591436386 0.5858974457 -0.3233802021 -0.6859647036 0.6484443545
0.009228785522 -0.09974128008 0.6008692384 -0.6127426624 -0.5855980515 0.5303662419
0.0437480025 -0.09438413382 0.6016953588 0.1521338969 -0.7292047739 0.6151899695
0.03279714659 -0.09607711434 0.600075841 -0.06939966232 -0.6798111796 0.6170326471
0.03631865233 -0.09133429825 0.6049560308 0.02991103008 -0.7098639607 0.5743789673
0.02021254599 -0.09259596467 0.603640914 -0.3033706248 -0.6428120136 0.5632874966
0.01723940484 -0.08014923334 0.6217871904 -0.4542020261 -0.6952652335 0.4859292507
0.01314457785 -0.09551756084 0.6098948717 -0.6479722261 -0.5579001904 0.5181845427
0.03024658561 -0.08549504727 0.6125718355 -0.1234229058 -0.7196829915 0.5223817825
0.01281907689 -0.08248583227 0.6162657142 -0.5030014515 -0.6582639813 0.493938297
0.04325780272 -0.0880619213 0.6090732813 0.1672544032 -0.7565091848 0.5529515743
0.0270683486 -0.08148508519 0.6212520599 -0.2714142501 -0.8060695529 0.4163050056
0.02051362209 -0.08268497139 0.6172475815 -0.3611153662 -0.7172272205 0.4735732973
0.03216234595 -0.08288077265 0.6189785004 -0.1487195194 -0.8094705939 0.4396628439
0.03768168762 -0.08450929821 0.6162460446 -0.01313322317 -0.8098765612 0.4683609903
0.03617265075 -0.08736041188 0.6093677878 0.02481366508 -0.71682477 0.5566002727
0.001835924922 -0.1609015614 0.671115756 0.5119194388 -0.6316828728 0.5745559335
-0.07412494719 -0.1472920179 0.6730197668 -0.6353812814 -0.5821860433 0.5069451332
-0.076570943 -0.1514517516 0.6603412032 -0.697959125 -0.5456798673 0.4617452919
0.03551717848 -0.1020689905 0.6153963804 -0.06702177972 -0.7456481457 0.5855310559
0.0389001444 -0.09351877868 0.6252224445 0.03593884036 -0.8368039727 0.502029717
0.03673620149 -0.1106227338 0.6053912044 -0.03276545554 -0.6844892502 0.6714686751
0.0295120813 -0.1052620113 0.6119073629 -0.2468568683 -0.6806693673 0.6142399311
0.03459446505 -0.09759423882 0.6206413507 -0.09344040602 -0.7757830024 0.5404253602
0.04055150598 -0.104057461 0.6128897667 0.08260095119 -0.7624279857 0.6079876423
0.02798191272 -0.1000224128 0.6180658937 -0.2912009954 -0.7130206823 0.5611899495
0.04139704257 -0.116468057 0.5976125598 0.09327936172 -0.6601070762 0.7342662811
0.04130457714 -0.09913478047 0.618350029 0.1027568206 -0.8048121333 0.5599210858
0.04293369874 -0.1088525131 0.6049072146 0.1190902665 -0.7172812223 0.6630666256
0.04814233258 -0.1031877548 0.6056508422 0.1940866709 -0.7433043718 0.6240256429
0.04584307969 -0.1000142768 0.6120761633 0.1644987911 -0.7790635824 0.5842909217
0.05216393247 -0.1008362174 0.601647079 0.2733236253 -0.7209845185 0.6341430545
0.04480245709 -0.09297981858 0.6195905209 0.175977841 -0.8176320195 0.5290099978
0.04744369164 -0.09342867136 0.6137492061 0.2355141044 -0.776488483 0.5633832216
0.04937016964 -0.09555917233 0.6090347171 0.2602155507 -0.7513994575 0.5910015106
0.008953403682 -0.1768370569 0.6452530622 0.7090047002 -0.5086269975 0.4866049588
0.005868325941 -0.1814228594 0.6447918415 0.6375809908 -0.5426035523 0.5419741273
0.01241562143 -0.17727153 0.6382647157 0.7223314047 -0.476505816 0.4915864468
0.01095170435 -0.1715731323 0.6493049264 0.7082172036 -0.5297654271 0.4664534032
0.005028216634 -0.1150906458 0.5793077946 -0.5634251237 -0.6196613908 0.5459516644
0.04309850186 -0.1088890955 0.5941130519 0.1760601103 -0.6354115605 0.745681107
0.04692519829 -0.1142297238 0.5948838592 0.1742512584 -0.6690075994 0.7166582942
-0.03185603023 -0.1115636304 0.5613147616 -0.06204777956 -0.7664986253 0.6359965205
-0.02514972724 -0.1135373488 0.5577922463 -0.163007021 -0.7476868629 0.6228900552
-0.02570994198 -0.1113399342 0.5646751523 -0.1471390426 -0.77396667 0.6103551984
0.00654469151 -0.1211227104 0.5771733522 -0.5990304351 -0.595929265 0.5337102413
0.001814255491 -0.1211851016 0.5699291825 -0.5097416043 -0.6537030339 0.5472807288
-0.002775265602 -0.1203536391 0.5654317737 -0.4347750545 -0.6992980838 0.5590390563
-0.003281787969 -0.1177250892 0.5714408159 -0.4558832049 -0.6787509918 0.5566838384
-0.006359987427 -0.117300123 0.5601190925 -0.3767062426 -0.7279805541 0.5720300078
0.0009738939698 -0.1137490645 0.5750697851 -0.5270848274 -0.6464628577 0.545430243
-0.01548053697 -0.1122802049 0.5677598715 -0.2997374237 -0.7528054714 0.5821574926
-0.01867201179 -0.1111134887 0.5610176325 -0.2053863108 -0.7682962418 0.5943015218
-0.01241116133 -0.1143786907 0.5582136512 -0.3108727038 -0.7419825792 0.5845303535
-0.02332209796 -0.1058323458 0.5723576546 -0.1718778461 -0.7555269003 0.6281154156
-0.0208419133 -0.1083275899 0.5665152669 -0.1838155091 -0.7739020586 0.600818336
-0.04696170613 -0.1067562476 0.5702972412 0.2486987263 -0.7102407813 0.6538194418
-0.05436511338 -0.1045056581 0.5767487884 0.3455998898 -0.6744359136 0.6458728909
-0.04863242805 -0.1010040641 0.5764684081 0.2616502643 -0.7087857723 0.6508560181
-0.04368420318 -0.103449136 0.5730864406 0.1576881856 -0.7280682921 0.6636564136
-0.04245900363 -0.1103950217 0.5687702894 0.1838176399 -0.7156262398 0.6614175439
-0.030619625 -0.1095428914 0.5685126185 -0.0461056456 -0.7582107186 0.6276289821
-0.03801381961 -0.1005449966 0.5752967596 0.05741511658 -0.7244964242 0.6819832921
-0.02929002047 -0.1030662507 0.5705990791 -0.07419450581 -0.7383861542 0.6660427451
-0.02627113461 -0.09962487221 0.5770251155 -0.1341647059 -0.7150111794 0.6856955886
-0.06899906695 -0.07408406585 0.623272419 0.5747212768 -0.6354398727 0.5145445466
-0.06836596876 -0.08068457991 0.6160372496 0.5716578364 -0.627191186 0.5281258225
-0.07318075001 -0.08187100291 0.6202135086 0.6367840767 -0.6001407504 0.4837435782
-0.07092224061 -0.08536516875 0.6135210991 0.6160348058 -0.6072835326 0.4992473423
-0.07741116732 -0.09343132377 0.6120870113 0.6647219658 -0.585390687 0.463975817
0.01810578629 -0.09258978069 0.6250581145 -0.4708417058 -0.6418253183 0.6009435654
0.01688295975 -0.09400453418 0.6189522147 -0.5585916042 -0.5963355899 0.5648678541
0.02035171166 -0.1067049205 0.6095296144 -0.4230883718 -0.6685414314 0.5975480676
0.01608248614 -0.1044087037 0.6058357954 -0.5150551796 -0.6629001498 0.5402616858
0.01868312433 -0.1115237102 0.6024664044 -0.3874123991 -0.6876735687 0.6075137854
-0.01806691289 -0.08033303916 0.6018411517 -0.2528879344 -0.7191449404 0.6417403817
-0.006565993652 -0.08144448698 0.6055114865 -0.3975075185 -0.6742126942 0.620112896
-0.05423122644 -0.1576102376 0.6831738949 -0.38882339 -0.6736913919 0.6266341209
-0.06010917574 -0.1546227932 0.6821758151 -0.4663582742 -0.6481939554 0.5995422006
-0.04858542606 -0.1572766155 0.6856023669 -0.3071881533 -0.6828194261 0.6599984765
-0.05837298185 -0.1494001895 0.6870921254 -0.4016010463 -0.6524076462 0.6425466537
-0.02426548675 -0.1561913192 0.6915146112 0.08686351776 -0.7120019794 0.6944716573
-0.020976495 -0.1516756117 0.6930388212 0.1087108105 -0.6862727404 0.7105957866
-0.02670956403 -0.1501808017 0.6969248056 0.02150859684 -0.6684853435 0.7421334982
-0.02973247133 -0.1540986896 0.6931154728 -0.01577144675 -0.6857310534 0.721075058
-0.0367374979 -0.1594462395 0.6864140034 -0.1148615405 -0.7181912661 0.6827215552
-0.02638317272 -0.1607818455 0.6863182783 0.07016976178 -0.7251125574 0.6825967431
-0.07163704187 -0.1736114621 0.6469116211 -0.6863018274 -0.503295958 0.5168480277
-0.07184913754 -0.1696942151 0.6519751549 -0.6857622862 -0.5221424103 0.5062798262
-0.0619619675 -0.1761904061 0.6549007297 -0.5176466107 -0.5975721478 0.5957351923
-0.07683318108 -0.1640458405 0.6482342482 -0.7504329681 -0.4803029895 0.4496255219
-0.08617488295 -0.1290997416 0.6088546515 0.08962844312 -0.4516414702 0.4455127716
-0.08848240227 -0.1350706816 0.6058624983 -0.1321937591 -0.315990746 0.3921378553
-0.09069087356 -0.1569904089 0.6150230765 -0.8683512807 -0.1391485184 0.2985519469
-0.08929371834 -0.1409930587 0.607647121 -0.3337713182 -0.2572048008 0.3633444607
-0.08735962212 -0.1558462977 0.624889791 -0.789786458 -0.3132916987 0.3559993505
-0.08882883191 -0.1449994594 0.6121153235 -0.4574825764 -0.2694206238 0.3604348898
-0.0863962546 -0.1412193477 0.5973984003 -0.5273114443 -0.06268123537 0.2015691102
-0.08376239985 -0.1241939515 0.595938921 0.1868185252 -0.372500211 0.3930127621
-0.08752159029 -0.1463224292 0.5923724174 -0.8151745796 0.1392672658 0.07723654807
-0.08686068654 -0.1474575698 0.6060762405 -0.6789541841 -0.111750789 0.2312110811
-0.08683950454 -0.1510924548 0.6158789992 -0.7031869888 -0.2351104468 0.3066460192
-0.08235254139 -0.1158072576 0.5970486403 0.5633050203 -0.5616288185 0.5097268224
-0.08474186808 -0.1325832307 0.6018365026 -0.09510553628 -0.3232313991 0.3621366322
-0.08718761057 -0.1467257291 0.5988541842 -0.7449845672 0.01787790284 0.1517078727
-0.084423922 -0.1164496541 0.602473259 0.5207830667 -0.5559647083 0.5019859076
-0.08670636266 -0.1503697932 0.6218765974 -0.6044498086 -0.353812784 0.3789106905
-0.08606334776 -0.1447886527 0.6180837154 -0.4157653749 -0.3884670734 0.400573343
-0.08500354737 -0.1364168078 0.6121805906 -0.1314736903 -0.4409452379 0.433570683
-0.08517695963 -0.1230498478 0.6069420576 0.2977451086 -0.5150214434 0.4764069021
-0.08025125414 -0.1626792252 0.6431886554 -0.7939130664 -0.4344597459 0.4220406413
-0.07956530154 -0.1833316237 0.6274268031 -0.7966291308 -0.3664039671 0.462690711
-0.08259066194 -0.1768335104 0.6226550937 -0.8524442315 -0.3194934428 0.3731909096
-0.06906976551 -0.1882951111 0.6374034286 -0.6379175782 -0.4635043144 0.6147651672
-0.07389754802 -0.1880212724 0.6327313185 -0.6891077757 -0.4272998571 0.581700623
-0.06241064146 -0.1730372012 0.6600674987 -0.5359944701 -0.5937342048 0.5998185873
-0.04219799116 -0.1975217909 0.6476984024 -0.1554567218 -0.6784899235 0.7150060534
-0.0349364318 -0.195280835 0.6499822736 -0.07891011238 -0.6977568865 0.7108255029
-0.04896733537 -0.1961898059 0.6467474103 -0.2856564224 -0.6417881846 0.7041435242
-0.01432516146 -0.1654368341 0.6782493591 0.27924034 -0.6939230561 0.6628595591
-0.02111675963 -0.1632721722 0.6826323271 0.1612516195 -0.7171996236 0.6677574515
-0.005374417175 -0.1525355577 0.684974134 0.370578438 -0.6755122542 0.6357192993
-0.07832947373 -0.1564233452 0.6542707682 -0.7260593176 -0.5143097043 0.4554713368
0.01269213203 -0.1649116278 0.6508692503 0.7096689343 -0.5304757953 0.4605618119
0.01980579272 -0.1602913588 0.6427177191 0.7633693218 -0.4779510498 0.4326558113
0.02335472964 -0.09815347195 0.6243804097 -0.4630045891 -0.6437980533 0.6035875082
0.02839706093 -0.09349723905 0.6319445372 -0.2892234027 -0.7529217005 0.5309794545
0.0214739386 -0.1019150615 0.6164825559 -0.4841994941 -0.6473311782 0.5884575248
0.02198442258 -0.09275780618 0.6309657097 -0.4510552287 -0.6410879493 0.6207312942
-0.002036191989 -0.09617526084 0.5933533311 -0.4753952026 -0.6472622752 0.5906953216
0.006441393401 -0.1019066498 0.5944084525 -0.5944454074 -0.5854892731 0.5511476398
0.006084069144 -0.09423864633 0.6018963456 -0.5930313468 -0.58522439 0.5529565811
0.002970772563 -0.09651545435 0.5967904925 -0.5540360808 -0.6145537496 0.5615078211
0.004606962204 -0.07809378952 0.6174761653 -0.5902230144 -0.5931363106 0.54737252
0.01316515822 -0.08850747347 0.6192100048 -0.5757358074 -0.5866588354 0.5601623058
0.01011649985 -0.08015846461 0.6221900582 -0.580278039 -0.5879062414 0.5630253553
0.007200974971 -0.07497258484 0.6228516698 -0.5806289911 -0.6040771604 0.5455682874
0.0148289958 -0.08473449945 0.6245750189 -0.5610961914 -0.5832228065 0.5860032439
0.01360811852 -0.08081725985 0.6289395094 -0.533176899 -0.6136479378 0.5788074136
0.00755660329 -0.1633896679 0.6629478931 0.6247730851 -0.5810177326 0.5172449946
0.001628586673 -0.1649672091 0.666762352 0.5255535245 -0.6348153353 0.5610948205
-0.03751816973 -0.163635388 0.6822469831 -0.1425063312 -0.7243642807 0.6714084744
-0.04249892384 -0.16506432 0.6791172028 -0.2263679355 -0.716599226 0.6575194597
-0.0254200846 -0.1730092615 0.6733729243 0.04677085951 -0.7280782461 0.6821051836
-0.03371822089 -0.1721146107 0.6735343933 -0.08701580018 -0.7285954952 0.6761665344
-0.03367287666 -0.1676859409 0.6783854365 -0.09073974937 -0.7304343581 0.6720061302
-0.03043797985 -0.1644642949 0.6826931238 -0.01879477687 -0.7305029035 0.6771962047
-0.02479831688 -0.1683277339 0.6784197688 0.08285809308 -0.7228983641 0.6798622608
-0.0607467182 -0.169359073 0.6647697091 -0.5099674463 -0.6153770685 0.5979388356
-0.05808223784 -0.1651079953 0.6708523631 -0.4599838555 -0.6496916413 0.6014310718
0.02990148216 -0.09574783593 0.6258321404 -0.2069339305 -0.8051748276 0.4863478243
0.03502541408 -0.092509754 0.6297820807 -0.0499583669 -0.8706740141 0.4523797929
0.04011395574 -0.0881946981 0.6271231174 0.06869745255 -0.8797097802 0.4677596986
0.01960130222 -0.1229202449 0.5934016109 -0.4077983797 -0.5940211415 0.6580145359
0.02471620217 -0.1114895344 0.6049948335 -0.2863856554 -0.652757585 0.6663216949
0.03108583577 -0.1177557111 0.598271668 -0.1063285992 -0.6257275939 0.7422053814
0.0306470599 -0.1120997891 0.6040461063 -0.2041237503 -0.6361207962 0.6837231517
0.02727023698 -0.1080348492 0.5910564065 -0.1076307073 -0.5660623312 0.7425808907
0.01494572219 -0.1062313691 0.5902560353 -0.3730821013 -0.575940311 0.6437602639
0.0009505774942 -0.1013755277 0.589199245 -0.5213514566 -0.6129028201 0.5881202817
-0.005638514645 -0.09794600308 0.5874317884 -0.4141874909 -0.6623013616 0.6210174561
-0.00278295693 -0.1062869877 0.5806035399 -0.4745988548 -0.6484668255 0.5899019837
0.001611973275 -0.1057223156 0.584585011 -0.5354096889 -0.5971687436 0.5942387581
-0.002899051411 -0.1114607677 0.5710145831 -0.4803842306 -0.6689612865 0.5556092858
-0.008372463286 -0.117029272 0.56537503 -0.3697806001 -0.732349813 0.5700317621
-0.01736778021 -0.1028482839 0.5756490827 -0.2482040823 -0.7178168893 0.6482256651
-0.01672898605 -0.1080889702 0.5723872185 -0.2608727813 -0.7438047528 0.6102507114
-0.009103240445 -0.108515285 0.5722227693 -0.3629795015 -0.7142924666 0.59275949
-0.01102798246 -0.1112384275 0.5645688772 -0.3150539398 -0.7369514704 0.5952707529
-0.03703270108 -0.1045302376 0.5703253746 0.05031766742 -0.7419403791 0.6636868715
-0.03667075559 -0.107947953 0.5643747449 0.03154248372 -0.7449825406 0.661007762
-0.084909603 -0.09092539549 0.6341750622 0.668114841 -0.588075757 0.4558063149
-0.08259916306 -0.09597311169 0.6191529036 0.6730800867 -0.5810075998 0.4575387537
-0.07495952398 -0.08845728636 0.616109848 0.6500844359 -0.5928042531 0.475123018
-0.07809568197 -0.08935473114 0.6222091317 0.6566613913 -0.5888259411 0.4710074067
-0.08368650079 -0.09243433923 0.6264006495 0.6669889688 -0.5860575438 0.4599190056
-0.08200496435 -0.08767221868 0.6292170882 0.6514034867 -0.5927653313 0.473412931
-0.07478168607 -0.07321491838 0.6346407533 0.5953570604 -0.6226830482 0.5060486197
-0.07728839666 -0.07767040282 0.6331547499 0.614923358 -0.6164571047 0.4907176793
-0.08163270354 -0.08389250934 0.6341872811 0.6383163929 -0.6017785668 0.4794944823
-0.07360678166 -0.07766782492 0.6250728369 0.618558526 -0.6127886176 0.4915575087
-0.07658737898 -0.08309724927 0.6291757226 0.633947432 -0.6002316475 0.4860129952
-0.01477567293 -0.08305238932 0.5983660817 -0.2851811051 -0.7113388181 0.6417036653
-0.007022305392 -0.09252178669 0.5930956602 -0.4048682153 -0.6757500172 0.6127894521
-0.01196872722 -0.08838351071 0.594317317 -0.3266854882 -0.698256433 0.6315993667
-0.0009271124727 -0.09267344326 0.5979438424 -0.4935644269 -0.6381871104 0.5851543546
-0.08054952323 -0.1176303923 0.5905508399 0.6694357395 -0.471459955 0.5435600877
-0.08206122369 -0.1228569448 0.5891076922 0.4162497818 -0.3324885666 0.4592276812
-0.08472464234 -0.1288759559 0.5892846584 0.0451788567 -0.1795180887 0.3329015374
-0.08723572642 -0.1613815725 0.6256739497 -0.8946314454 -0.2906197608 0.3379870355
-0.08776430786 -0.1593343318 0.6005221605 -0.9447827339 0.04500830919 0.1340538561
-0.08759588003 -0.1656978875 0.609952867 -0.9388021827 -0.134420231 0.2057744265
-0.09150825441 -0.1622462422 0.6047382951 -0.9561983943 -0.1345653832 0.169863537
-0.08788681775 -0.1568636447 0.595444262 -0.9441365004 0.1282461584 0.1047346592
-0.08787564188 -0.1563355029 0.6066988111 -0.9360476732 -0.0289318841 0.1595644355
-0.08768554032 -0.1600730568 0.6183365583 -0.9167551994 -0.2029954195 0.2621293962
-0.08787119389 -0.1523450613 0.6016566157 -0.9355849624 0.06423578411 0.1204653382
-0.08968847245 -0.1665026397 0.6173295975 -0.9363319278 -0.2328423858 0.2452663481
-0.07515643537 -0.1129051745 0.5877313018 0.6001473069 -0.589140594 0.5409319997
-0.0798554942 -0.112222597 0.5936151743 0.6407598257 -0.5493420959 0.5317919254
-0.08443686366 -0.1584065706 0.639624536 -0.8218415976 -0.4070830941 0.3961080909
-0.08282125741 -0.1493839622 0.6543306708 -0.7558855414 -0.4990909994 0.4234454632
-0.08176547289 -0.1567375213 0.647364676 -0.7734296918 -0.4696912467 0.4245571494
-0.03783247247 -0.1904690564 0.6524624228 -0.1479577273 -0.6719167233 0.7157747149
-0.04352962598 -0.1886329353 0.6522417068 -0.2531455159 -0.6421903968 0.7110593319
-0.006308326498 -0.1907761693 0.6459915042 0.4331950545 -0.628986299 0.6408702731
-0.05674737319 -0.1755685061 0.6600804925 -0.4314405918 -0.6440873742 0.6313375235
-0.06363472342 -0.1625892073 0.6685063839 -0.5540779233 -0.6143369675 0.5575441122
-0.0255555436 -0.1937792897 0.6510044336 0.09627763182 -0.7194738984 0.6875049472
-0.03458483517 -0.1758754551 0.6689698696 -0.1115049198 -0.7263130546 0.6768468022
-0.0195793882 -0.1588587463 0.6879495382 0.175407812 -0.7101634145 0.6753777862
-0.01275169756 -0.1571051031 0.686675787 0.2922599614 -0.6907055974 0.6591653228
-0.0147216972 -0.154313907 0.6916172504 0.2611785233 -0.690099597 0.6741119027
-0.008966455236 -0.1498145163 0.6902223229 0.2547225058 -0.6900105476 0.6772091985
-0.0145074958 -0.1613393277 0.6826115847 0.2849731743 -0.6978345513 0.6557531357
-0.007638386916 -0.1587581933 0.6825988293 0.3869826794 -0.667177856 0.6352310181
-0.01850939356 -0.1730296314 0.6713587642 0.1866667271 -0.7198169827 0.6618841887
-0.02529889345 -0.1787543893 0.6674095392 0.07949471474 -0.7398670912 0.6673440337
0.02348116226 -0.1421183199 0.6089452505 0.03475561738 -0.2925872803 0.7100276947
0.02399872802 -0.151278764 0.6238673329 0.4716774225 -0.3452566862 0.5277527571
0.02408532985 -0.1584260613 0.6328645349 0.7659477592 -0.3810149133 0.4049808681
0.0245371405 -0.1640076339 0.6246960163 0.7816118002 -0.3836113513 0.3948822618
0.02397428453 -0.1468441933 0.6171265841 0.2727701068 -0.3211393058 0.6104667783
0.02433094755 -0.1579744965 0.6223651767 0.6073979735 -0.3622016907 0.4688001275
0.02370869555 -0.1483151019 0.6114908457 0.2163077891 -0.3148775995 0.6330191493
0.02223647013 -0.1683455408 0.6285853982 0.8430683017 -0.391095072 0.369160682
0.01988571323 -0.1658882052 0.6350300312 0.8087489605 -0.4143395722 0.416259259
0.0168702174 -0.1595287174 0.6520485878 0.7251569033 -0.5242922306 0.4460631311
0.01337031461 -0.1582071483 0.6607146859 0.6895032525 -0.5353307128 0.4872245193
0.02492272854 -0.08970547467 0.6384646297 -0.4473008811 -0.6153854132 0.642829597
0.02469765767 -0.08311805129 0.6458639503 -0.4320477247 -0.5964400768 0.658786118
0.01928693429 -0.08351111412 0.6360308528 -0.4736234546 -0.611744225 0.6321647763
0.02030290104 -0.07917672396 0.641584456 -0.473895818 -0.5973419547 0.6448081732
0.02610401623 -0.07933133841 0.6365022063 -0.3570254147 -0.7184166908 0.5318879485
0.02281359769 -0.07642980665 0.6317843199 -0.3690441549 -0.7415348291 0.5018908381
0.02992516756 -0.07929429412 0.6322005987 -0.2740348279 -0.8083478808 0.447207123
0.0166096352 -0.07555066794 0.6360716224 -0.484752357 -0.6277223229 0.6064239144
-0.008573998697 -0.1637756675 0.6767839789 0.3601798117 -0.6748744845 0.637352109
-0.008487147279 -0.1702508479 0.6715105176 0.413538456 -0.6803995967 0.6044763327
-0.003076962894 -0.1651967913 0.6719082594 0.4610083103 -0.6596293449 0.5931791067
-0.002851988189 -0.1604325026 0.6770067811 0.4427882433 -0.6570091248 0.6100538373
-0.06254771352 -0.1558811665 0.6775469184 -0.5198643208 -0.6386412978 0.5637255311
-0.06922727078 -0.1534159631 0.672521472 -0.6114188433 -0.6000884175 0.5143216252
-0.06806280464 -0.1512302607 0.6782969832 -0.574639082 -0.5987318754 0.555801034
0.03371123224 -0.08871693164 0.6349713802 -0.119994767 -0.804638505 0.5102850199
0.02771227807 -0.08347697556 0.6411383748 -0.3276298046 -0.690715611 0.580299139
0.0337154679 -0.08390490711 0.631864965 -0.1539315581 -0.8587303758 0.4322064221
0.002058791462 -0.08950549364 0.6030622721 -0.5337251425 -0.6130238771 0.579852581
-0.004724952392 -0.08635312319 0.6010465622 -0.4370404482 -0.6559056044 0.6136984229
0.005939451978 -0.08333490789 0.6133084297 -0.6110751629 -0.5802125335 0.5383483768
0.0111226337 -0.08693661541 0.6076615453 -0.4250539243 -0.6243070364 0.5711628795
0.004048092756 -0.08644223958 0.6078366041 -0.5613555312 -0.597702682 0.5704370141
0.02268139273 -0.085701406 0.6107310653 -0.2535825074 -0.6532593966 0.5525357723
0.01269365661 -0.09148146957 0.6042163968 -0.4360003769 -0.6182515025 0.5617360473
0.02834015898 -0.09132181853 0.604945004 -0.128935352 -0.6787506938 0.5639683604
0.01006967854 -0.08816736192 0.6136452556 -0.6182552576 -0.5643369555 0.5450192094
-0.07612847537 -0.1182824075 0.5837977529 0.6581225395 -0.462696135 0.5830298662
-0.08427731693 -0.1375205964 0.586278677 -0.3232198656 0.01742785238 0.2220914066
-0.08123404533 -0.1279675812 0.5850835443 0.25036484 -0.2107804716 0.43196702
-0.08832704276 -0.1436145604 0.5871159434 -0.7319442034 0.1847064942 0.07567939907
9.969368693e-05 -0.1719969958 0.6605886221 0.5430876613 -0.6293988824 0.5547798276
0.0008118756814 -0.1788634807 0.6525114775 0.5543770194 -0.6098147631 0.5661376119
0.008328331634 -0.1678465456 0.6548038721 0.6780197024 -0.5517163873 0.4835857451
0.004905891139 -0.1732032597 0.6534152627 0.6074116826 -0.5866320729 0.5338698626
-0.006364634261 -0.1842250079 0.6532607079 0.4478685558 -0.6383203268 0.6249455214
-0.01446440443 -0.1870504618 0.6544259787 0.2976033688 -0.6856540442 0.6636034846
-0.01607646421 -0.1911054701 0.6504752636 0.2810578346 -0.6816731691 0.6736650467
-0.01194613241 -0.1939070821 0.6463716626 0.3522618115 -0.6549494863 0.6642989516
-0.01321644615 -0.1747931093 0.6682178378 0.3095789552 -0.7067115307 0.6326577663
-0.002934182063 -0.1693787575 0.6666794419 0.4695729613 -0.6634555459 0.5820860267
-0.05314965546 -0.1659934968 0.6733759642 -0.393997848 -0.6772149801 0.6209793687
-0.05466302857 -0.1702177078 0.6677983999 -0.4277914762 -0.6508488655 0.620087266
-0.05215765163 -0.1739550084 0.6644453406 -0.380443722 -0.663005054 0.6399590373
-0.03876464441 -0.1695026904 0.67504251 -0.1814335138 -0.7203162909 0.6617424488
-0.06554812938 -0.1670787036 0.6617851853 -0.6105341911 -0.5722045898 0.5417022705
-0.06757197529 -0.1728064269 0.6543754339 -0.613219142 -0.5611107945 0.5516073108
-0.07422816008 -0.1637801975 0.6551446915 -0.7091519237 -0.5228434801 0.4728783369
-0.07476948947 -0.1582823098 0.6595538855 -0.6913138628 -0.5385633111 0.4805584848
-0.06871535629 -0.1597605199 0.6661659479 -0.6451542974 -0.5789291859 0.4980958998
-0.07027313858 -0.1636896729 0.6614327431 -0.6610853672 -0.5482799411 0.5116602778
-0.0731087625 -0.1545199454 0.6673594713 -0.6626161337 -0.5644837618 0.4917313755
-0.05632535741 -0.1810674518 0.6569051147 -0.4407506585 -0.6195617318 0.6445329785
-0.06522668898 -0.1788808107 0.6492871046 -0.5858465433 -0.5531870127 0.5808817744
-0.0552681759 -0.1842997521 0.6508011222 -0.4368824363 -0.5973091722 0.6597751379
-0.06539101154 -0.1843625456 0.6441643238 -0.6052396297 -0.5169658661 0.6043460965
-0.04974885657 -0.187401861 0.6537666321 -0.3233657479 -0.6432907581 0.6875603199
0.01669582352 -0.116508767 0.5928130746 -0.4481503665 -0.6682103276 0.59227705
0.00801009126 -0.1079234034 0.5899810195 -0.5556568503 -0.5897657275 0.5822121501
0.006638388615 -0.11112158 0.5844810605 -0.556376338 -0.5905929804 0.5827783942
0.03668612987 -0.1131453514 0.5925281048 0.0534359403 -0.5927969217 0.8012037277
0.03080062754 -0.1199193448 0.5913438201 -0.0883070007 -0.6215154529 0.7511631846
0.0371995531 -0.1209487244 0.5934752226 0.0384653993 -0.6188320518 0.783741653
0.01309040654 -0.1223563924 0.5835011005 -0.4909424186 -0.6410436034 0.5868058205
0.02774067409 -0.1140926033 0.5895465612 -0.1424663663 -0.5992821455 0.7291282415
0.01517082099 -0.1138073355 0.5852071643 -0.4120863676 -0.5953869224 0.6235987544
0.02172627859 -0.1150813252 0.5873380303 -0.2766587138 -0.6050669551 0.6768820882
0.01693403162 -0.1242197677 0.5874882936 -0.4397670925 -0.6135803461 0.6347863674
0.02393640392 -0.1245436594 0.5902398229 -0.2768397331 -0.5576694012 0.7267900109
0.02695933916 -0.1247071996 0.5959326029 -0.2300611138 -0.4604408145 0.8093297482
0.02346773446 -0.1191010922 0.5988889337 -0.2581754327 -0.5792561173 0.7349113822
-0.08154984564 -0.171012044 0.6357590556 -0.8199775815 -0.3671603799 0.4362111688
-0.08317408711 -0.1679974049 0.6302876472 -0.8548300862 -0.3268613219 0.3912366033
-0.07678978145 -0.1685070693 0.6443730593 -0.7592943311 -0.4489634931 0.4675135612
-0.08031637967 -0.1666194946 0.6389537454 -0.8105856776 -0.3979408443 0.4279070497
-0.08538779616 -0.1619922519 0.6324173808 -0.8667573929 -0.327860415 0.3738839328
-0.08813040704 -0.1714062095 0.6200933456 -0.9003753662 -0.2794886827 0.3076026738
-0.09145781398 -0.1713706553 0.6121478081 -0.9545004964 -0.211504519 0.1943666637
-0.08419923484 -0.182978645 0.6238788366 -0.8364915848 -0.343941927 0.4025621116
-0.08688943833 -0.1800171435 0.6182076335 -0.879306674 -0.3000024557 0.3174334168
-0.08229229599 -0.1881732494 0.6240127087 -0.8071839213 -0.3868547082 0.4366309643
-0.04678003863 -0.1773592681 0.6642318368 -0.2902117372 -0.6817500591 0.6684520245
-0.04410393164 -0.1839984953 0.6592871547 -0.2292100191 -0.6919596791 0.6832484603
-0.0490475148 -0.1814399511 0.6586369872 -0.313195169 -0.6662270427 0.6699725986
-0.04151723534 -0.179931879 0.6633765697 -0.205283016 -0.7029421926 0.6788210869
-0.01099010836 -0.1822863966 0.657536447 0.3485902846 -0.6827299595 0.6341596842
-0.006566357333 -0.174335584 0.6644099355 0.425146997 -0.6794443727 0.5963808298
-0.01140985359 -0.1785588264 0.6630385518 0.3417089283 -0.6958658099 0.6241130233
-0.004745318554 -0.178028509 0.6583501101 0.4579246938 -0.6571230292 0.5981878042
-0.01761581749 -0.1802354753 0.6642502546 0.2269084454 -0.7179355621 0.6531911492
-0.03222639486 -0.1813082397 0.663271904 -0.05733249336 -0.7203665972 0.6828863621
-0.03453226388 -0.1869085878 0.6572933197 -0.08650768548 -0.6955915093 0.7098710537
-0.02686696686 -0.1873089522 0.6572201252 0.06910852343 -0.7074545622 0.6965685487
-0.02334212698 -0.183660239 0.6619653702 0.1227294281 -0.7216790915 0.6778134108
-0.04107962549 -0.1746716648 0.6693620682 -0.2096974999 -0.7107887268 0.668548882
-0.04742025211 -0.1678777188 0.674505055 -0.3089036942 -0.6999295354 0.6423379183
-0.04827307537 -0.1720696986 0.6699889302 -0.3284723163 -0.6867750287 0.6461794376
