# .PCD v0.7 - Point Cloud Data file format
VERSION 0.7
FIELDS x y z normal_x normal_y normal_z
SIZE 4 4 4 4 4 4
TYPE F F F F F F
COUNT 1 1 1 1 1 1
WIDTH 512
HEIGHT 1
VIEWPOINT 0 0 0 1 0 0 0
POINTS 512
DATA ascii
0.03173742443 -0.03859932721 0.5395595431 -0.2194916606 -0.8134191632 0.4973117709
0.03491348028 -0.04508399218 0.5191701055 -0.06318257004 -0.7042114735 0.6937929392
0.03864973783 -0.04895439371 0.5224332213 -0.004306680523 -0.7538728714 0.6412415504
-0.03329237923 -0.05894606188 0.4872914851 -0.1469510943 -0.6304231286 0.7603136897
-0.04581763223 -0.08840928972 0.6216196418 -0.06069908291 -0.6630166769 0.7459571958
-0.0970217064 -0.09751418978 0.5658174157 -0.7960793972 -0.4006973803 0.4511641264
-0.09360486269 -0.05779644102 0.5361709595 0.3934919834 -0.4785881639 0.5263246894
-0.09506917745 -0.06984708458 0.5385668874 0.08026280999 -0.4522437155 0.5007136464
-0.09394862503 -0.04654399306 0.5411503911 0.5724185705 -0.4831281602 0.5469967127
-0.09343296289 -0.05199827254 0.5372647047 0.5088526607 -0.4850193262 0.5376380086
-0.09514155984 -0.05684809387 0.5444026589 0.2906621695 -0.4580616057 0.5247462392
-0.09971624613 -0.08846023679 0.5527885556 -0.5675036907 -0.3825637102 0.4564882815
-0.09660757333 -0.07958050817 0.5443227291 -0.2248456031 -0.421631217 0.478613317
-0.09782655537 -0.08541214466 0.5479890704 -0.4146486819 -0.4021106958 0.4651392996
-0.09512428194 -0.0631224066 0.5440909266 0.158078149 -0.4496374726 0.5123376846
-0.09204029292 -0.05684150755 0.5308942795 0.501883626 -0.4953818023 0.5307731032
-0.09196588397 -0.04949786514 0.5319726467 0.6496773362 -0.5038751364 0.5451210141
-0.0935171023 -0.06453917176 0.5363028646 0.2462809086 -0.4686577618 0.5128788352
-0.0969947204 -0.07913854718 0.5497239828 -0.2872033715 -0.4093514681 0.4775595963
-0.09629288316 -0.06943678856 0.5483273864 -0.04851059988 -0.4282612503 0.4977464378
-0.09457368404 -0.1304990351 0.5491138101 -0.7635738254 -0.3747348189 0.5256415606
-0.09429851919 -0.1229749098 0.5526554585 -0.784745276 -0.3870067298 0.4839477837
-0.03378945217 -0.05270253867 0.493565768 -0.1645210534 -0.6537454724 0.7376190424
0.03643151373 -0.05032621697 0.5159552097 -0.02685152926 -0.6789099574 0.7317885756
0.03041173145 -0.05592050403 0.5135405064 -0.053601861 -0.5243388414 0.8413914442
-0.04435776174 -0.05993138626 0.4870736301 0.01714545302 -0.6298225522 0.7725887299
-0.03887333348 -0.05634299666 0.4904461801 -0.07792206109 -0.6427510381 0.7550295591
-0.04503891245 -0.05365942046 0.4911489189 0.04501811042 -0.6610578299 0.7483674288
-0.03956684843 -0.05076311529 0.4944501519 -0.06557670981 -0.6639466286 0.7392759919
-0.02810068987 -0.06183495745 0.4878065288 -0.2321106493 -0.6198939085 0.7362034917
-0.1004876941 -0.1074513346 0.5491932034 -0.8045108914 -0.373082459 0.4620234966
-0.0998525992 -0.1038679332 0.5527178645 -0.812520206 -0.368802011 0.4510621428
-0.1006442755 -0.09850800037 0.5553258061 -0.8236995339 -0.3605312407 0.437561214
-0.09760861099 -0.1004084274 0.5602534413 -0.8135095239 -0.3799880743 0.4400136769
-0.08962441981 -0.1328371465 0.5527190566 -0.7021980286 -0.4303378761 0.559556663
-0.08603606373 -0.1342271566 0.5573032498 -0.6545805931 -0.4684966505 0.5920264721
-0.08130057156 -0.1407434791 0.5585568547 -0.5707873702 -0.52475667 0.6282712817
-0.03692995012 -0.1352626085 0.5783774257 0.0894324556 -0.6880465746 0.7176326513
-0.0752632916 -0.1278093904 0.5705605745 -0.5299769044 -0.5588190556 0.6330387592
-0.06938771158 -0.130851537 0.5718178153 -0.435483098 -0.5966641307 0.664945066
-0.07354386151 -0.1337948442 0.5661308765 -0.4983245432 -0.5762845278 0.6420034766
-0.07006759942 -0.1391302943 0.5666142106 -0.4449526668 -0.6110085845 0.6505821347
-0.07343365997 -0.1432200521 0.5622136593 -0.5061886311 -0.599955976 0.6192415953
-0.01756351069 -0.04426494613 0.5096814036 -0.4343549311 -0.6200984716 0.6525176167
0.02262188122 -0.1055171341 0.5270512104 0.7859373689 -0.08666243404 0.3839665353
0.01689995639 -0.09704651684 0.5210497975 0.3468100131 -0.06857744604 0.5754156113
0.0195778273 -0.07932687551 0.5154453516 -0.1222414747 -0.2988957465 0.8008244634
0.01863438264 -0.1026807129 0.5240468383 0.5744928122 -0.04244928807 0.473176837
0.02523673326 -0.08429232985 0.5200273991 0.2038684487 -0.3511071503 0.6618972421
0.01461788546 -0.08638836443 0.5158496499 -0.05355479196 -0.1362003088 0.757011652
0.01453076303 -0.08001835644 0.5133416653 -0.2540585697 -0.199874118 0.8504527211
0.0248770602 -0.0922017172 0.5229216218 0.438616097 -0.263523519 0.5514054894
0.01965167187 -0.08795934916 0.5188233256 0.1481332183 -0.2118009925 0.6747182012
0.02991872281 -0.0715366751 0.5172871351 -0.05012601614 -0.5670762658 0.7916022539
0.02307679504 -0.09937018901 0.5248520374 0.6065950394 -0.1572886854 0.4686911106
0.01409489289 -0.09324488789 0.5183294415 0.1483739018 -0.05780995265 0.6617116332
0.02419792488 -0.06927466393 0.5146584511 -0.1275681406 -0.4422327876 0.8810649514
-0.01601579413 -0.05892018601 0.4964900911 -0.4796470702 -0.5888652802 0.6504548192
-0.01853192411 -0.06336878985 0.4901881218 -0.4065780044 -0.5980866551 0.6894212365
0.006404557731 -0.06034711376 0.5204273462 -0.4237422943 -0.6158560514 0.663441062
-0.08159764856 -0.05809653923 0.5058645606 0.5759128928 -0.5523434281 0.6024430394
-0.08568260074 -0.04436268285 0.5259596705 0.6401779056 -0.526619494 0.558825016
-0.0890865922 -0.0489128083 0.5266891122 0.6544987559 -0.5189166069 0.5494768023
-0.09140431136 -0.04040125757 0.5398823619 0.6643784642 -0.4968216717 0.5578305721
-0.09188608825 -0.03226362914 0.5455880165 0.6367176175 -0.5175135136 0.5703867674
-0.0923031345 -0.02456515096 0.5523503423 0.6133859158 -0.5302578211 0.5849024653
-0.08749315143 -0.1240341589 0.563878417 -0.6947072744 -0.4545706809 0.5461978912
-0.08721912652 -0.1292043179 0.5599486232 -0.6830254793 -0.4553883672 0.5648090243
-0.02705718763 -0.1435571164 0.5688712597 0.2566339672 -0.659077704 0.7032654881
-0.02285705879 -0.1450128555 0.5640763044 0.3160896897 -0.6604812145 0.6617359519
-0.0170891732 -0.1450056881 0.5609771013 0.4183143675 -0.6505872607 0.6165027022
-0.03301610053 -0.1488520503 0.5670312047 0.1220456138 -0.7139911652 0.6768698692
-0.03269322962 -0.1429779083 0.5698866844 0.1657966822 -0.6819238663 0.7095137239
-0.05713289976 -0.08906634897 0.6192919612 -0.2355886847 -0.62571913 0.7420349717
-0.05314637348 -0.09212243557 0.6166605949 -0.1707623601 -0.6418235898 0.7389758229
-0.03527120501 -0.09821804613 0.6124900579 0.1263999343 -0.6632652283 0.7370424271
-0.05055316165 -0.1004327834 0.6119679809 -0.1155106872 -0.6587824225 0.7386299372
-0.04335253686 -0.09390728176 0.6186434031 -0.02046890929 -0.6688802838 0.7390840054
-0.04390267655 -0.09831315279 0.6142266393 -0.007434308995 -0.6726029515 0.7372224927
-0.07746070623 -0.09119820595 0.6048736572 -0.5047084093 -0.5852541924 0.6342670321
-0.007710407488 -0.104009755 0.5936818123 0.5555080175 -0.5515890121 0.6213094592
-0.01959028654 -0.1104005501 0.5955222845 0.3548389673 -0.6380952001 0.6775103211
0.01298585441 -0.1278811693 0.544084549 0.8052002192 -0.4334511757 0.4044199884
0.01543451846 -0.1240681112 0.5401009321 0.8085351586 -0.4369286895 0.39386186
0.009297091514 -0.1319280565 0.5480090976 0.7799602747 -0.4458027184 0.4267530143
-0.001875438029 -0.1385549605 0.5550156832 0.6334896088 -0.5474521518 0.5148744583
0.00416396698 -0.1350130588 0.551469326 0.7120807171 -0.4928034246 0.4685968459
-0.009005958214 -0.1426095814 0.558442235 0.5425444245 -0.6110318303 0.5652316809
-0.01448553801 -0.1367602646 0.5693911314 0.4361807406 -0.6231862903 0.6460205913
-0.02014328353 -0.1388174146 0.5699695945 0.360911727 -0.6381448507 0.6763893366
-0.05015809089 -0.04569412023 0.4999747574 0.1176659688 -0.6795964241 0.7185488343
-0.04534389824 -0.04254328087 0.5021589994 0.02715178207 -0.6963107586 0.716419518
-0.05049228668 -0.04084385931 0.504537344 0.1277487874 -0.6807710528 0.7146831751
-0.05683418736 -0.04601515085 0.5006325841 0.2424504608 -0.6625497937 0.7063783407
0.03666287288 -0.0579450205 0.5163609982 -0.02298778854 -0.6449007392 0.7566370964
0.02875589766 -0.0613707006 0.5138005614 -0.06630928069 -0.4822501838 0.8711684346
0.04004117474 -0.05303696543 0.5192887187 0.03055526875 -0.7398324609 0.669727385
0.0333654359 -0.06426918507 0.5179578066 -0.0377086699 -0.6408068538 0.7577180266
-0.02852346189 -0.05660013855 0.4925011992 -0.2554761767 -0.6385842562 0.71773386
-0.02187183686 -0.05726075917 0.4941146374 -0.3689773679 -0.6196846962 0.6885353923
-0.01554376818 -0.04315557703 0.5147396326 -0.4531012177 -0.6130462885 0.638712585
-0.007413141895 -0.04805348814 0.5176477432 -0.5378290415 -0.5773192644 0.6036953926
-0.003229411319 -0.04444188252 0.5231881142 -0.5906356573 -0.5523173809 0.5855242014
-0.01349363197 -0.03909997642 0.5189495683 -0.4824342728 -0.5997365117 0.6309784055
-0.00782895647 -0.04055050388 0.5222743154 -0.5444020629 -0.5721862912 0.6060612202
-0.008132379502 -0.05999775603 0.5022431016 -0.5514931083 -0.5438317657 0.6316427588
-0.01097690128 -0.05472498015 0.5036519766 -0.5347626209 -0.5702216625 0.6215730309
0.001434414415 -0.06312809139 0.5108367205 -0.5029640794 -0.5497289896 0.6667947769
0.005662306678 -0.06817346066 0.5118860006 -0.4173146784 -0.5524379015 0.7197049856
0.00877903495 -0.07631226629 0.5100681186 -0.393332243 -0.2768917382 0.8401696086
0.005066539161 -0.07298382372 0.5080074072 -0.4368773401 -0.4585121572 0.7406045198
0.009825665504 -0.1055388153 0.5322912931 0.410258323 -0.3046865463 0.5681646466
0.01064263377 -0.1089805216 0.538746953 0.5943736434 -0.3384478688 0.4941990674
0.01014700811 -0.08887679875 0.5210934877 -0.06752771139 -0.17851533 0.7701215744
0.01283339784 -0.1088924855 0.5489538908 0.8035425544 -0.3568614721 0.4153473079
0.01076033991 -0.09633156657 0.5296540856 0.2194545418 -0.2415647358 0.6521233916
0.009916768409 -0.09463253617 0.5228161216 0.06810256094 -0.2081460059 0.7099528909
0.01242681313 -0.1153242067 0.5382623076 0.8063060641 -0.2916561067 0.3929435015
0.01592931338 -0.1102430373 0.5310453773 0.7669478655 -0.1219151467 0.3955679536
0.01304702181 -0.1025176942 0.5268954039 0.4243138134 -0.1612122208 0.5494490266
0.009563481435 -0.08159831166 0.5120655298 -0.354604423 -0.1110536158 0.887221396
-0.09729715437 -0.1199777201 0.5480813384 -0.79105407 -0.3843249381 0.4758047462
-0.09299781173 -0.1107202619 0.561858654 -0.783846736 -0.3972753584 0.4755333066
-0.09642588347 -0.1073415354 0.5579918623 -0.7999556661 -0.3857449591 0.4585453868
-0.08355016261 -0.1184221581 0.5730811954 -0.6390581131 -0.5140562654 0.5703179836
-0.08636305481 -0.1146505773 0.5703600049 -0.7258438468 -0.4474847317 0.5130482912
-0.06583766639 -0.06071279943 0.4915491045 0.3929011822 -0.5977596641 0.6958364248
-0.07940220833 -0.06362850964 0.4986672699 0.5304741859 -0.5649385452 0.6315343976
-0.07254108042 -0.06225357577 0.4948820174 0.4641299248 -0.5727120638 0.6740734577
-0.05046540499 -0.06046604365 0.4872384369 0.1141736954 -0.6222897768 0.7712052464
-0.0548194088 -0.05433092639 0.4926044643 0.1911603212 -0.6551876664 0.7303741574
-0.06091875583 -0.05513625965 0.4930476248 0.2873112559 -0.6309407353 0.7194668651
-0.06090176478 -0.05929774418 0.4892785251 0.2666471004 -0.6232658029 0.7350077629
-0.05140089989 -0.05030182749 0.4957363904 0.1480098516 -0.6669977307 0.7270095944
-0.04590259865 -0.04926836863 0.495485574 0.04885073379 -0.6761965752 0.7337565422
-0.08510044217 -0.03839356825 0.5294599533 0.6322055459 -0.5203406215 0.5739200711
-0.08106157184 -0.05212534592 0.5110239387 0.5871298313 -0.5531548858 0.5900068283
-0.06048811227 -0.04246165603 0.5050472617 0.3190929592 -0.6486554742 0.6891337633
-0.09056079388 -0.06683792174 0.5116395354 0.6075238585 -0.5407408476 0.5814151764
-0.09069161862 -0.06170539558 0.516890645 0.6267747879 -0.5316171646 0.5682949424
-0.09081847221 -0.05662557855 0.5223127604 0.6482489705 -0.5214398503 0.5536594987
-0.09415116161 -0.09817824513 0.5717073083 -0.7813080549 -0.4234713316 0.4576121569
-0.09014650434 -0.1052320674 0.5727481246 -0.7685723901 -0.4364650846 0.4661426246
-0.06491626054 -0.1147479638 0.5891208053 -0.3891140223 -0.6408823133 0.6566055417
-0.06677698344 -0.1124315411 0.5938880444 -0.4029934406 -0.638440311 0.6518673897
-0.0782212615 -0.137823239 0.5633085966 -0.5331572294 -0.5495107174 0.6418884397
-0.07871937007 -0.1326962411 0.566671133 -0.5479307175 -0.5455882549 0.6315526366
-0.08209784329 -0.1263327152 0.5688042641 -0.5980711579 -0.5233951211 0.6059833765
-0.08143553138 -0.1338208616 0.5602396131 -0.6045914292 -0.5104579329 0.6109138131
-0.07027614862 -0.1173831224 0.5864536762 -0.4585954547 -0.6091428995 0.6434366703
-0.07617271692 -0.1144085154 0.583709538 -0.5449123979 -0.5753007531 0.6074181795
-0.07797888666 -0.1186816618 0.5788146853 -0.5608611107 -0.5592160225 0.6055784822
-0.02278951369 -0.1290469915 0.5782804489 0.3070293069 -0.6559096575 0.6879788637
-0.02679590508 -0.134642452 0.5756614208 0.2475507259 -0.6622548699 0.7062849998
-0.03211133182 -0.1369177997 0.5737812519 0.1749218255 -0.6688914299 0.7162516117
-0.02121617831 -0.1342507601 0.5737330317 0.3330043256 -0.6426831484 0.6858658791
-0.02615478449 -0.1391327828 0.5718300939 0.2781001031 -0.6524270773 0.7048155069
0.001515362761 -0.02092682943 0.5494217277 -0.5876361728 -0.5810508728 0.5625847578
0.00113980379 -0.02476584539 0.5443809628 -0.6085039973 -0.5658496618 0.5559034944
0.006995766424 -0.02193553932 0.556540966 -0.5826874375 -0.5790842772 0.5700857043
0.006094067357 -0.0365460217 0.5294703841 -0.500341475 -0.5760343671 0.5906023979
0.02541096509 -0.04323945567 0.5211294293 -0.2086897194 -0.6453709006 0.6735845208
0.0110673951 -0.04330082983 0.5210767984 -0.4236453176 -0.5968160629 0.620667696
0.004378520884 -0.04178641737 0.5232733488 -0.5286308527 -0.5721403956 0.5914517045
0.01575088315 -0.04008649662 0.5242100358 -0.3426605165 -0.6139628291 0.6376225948
0.02060144767 -0.04424031824 0.5192781091 -0.271871388 -0.6319504976 0.6613123417
0.002273151884 -0.03260097653 0.536919415 -0.6089115739 -0.5612149239 0.5468008518
0.01297764946 -0.03701002896 0.5301290154 -0.4242908359 -0.6016992927 0.6042866707
0.01527129207 -0.03423279524 0.5369167924 -0.4223518372 -0.6667382121 0.54451859
0.02663187496 -0.0356589891 0.5414453745 -0.3041675985 -0.7860093713 0.4890575707
0.02930743434 -0.03898771107 0.533344686 -0.220936358 -0.7536215782 0.5639237165
0.0248675961 -0.0373056978 0.5350197554 -0.287941128 -0.7297352552 0.5525571108
0.02052068338 -0.03407551348 0.5415096283 -0.3828518093 -0.7383449078 0.4949097037
0.008912640624 -0.03194663301 0.5389396548 -0.5160420537 -0.6300475001 0.5318470001
0.0269935485 -0.04084644839 0.52583915 -0.2052255869 -0.6858984232 0.6383628845
0.02160634473 -0.03940202668 0.526044488 -0.2754865587 -0.6448615789 0.642095685
0.02775053866 -0.03408329561 0.5471478701 -0.3242957294 -0.8324325085 0.4331773818
0.03239412978 -0.04295314848 0.5236157179 -0.1225977242 -0.7137266397 0.6539728045
0.01484337077 -0.03189261258 0.5449380875 -0.4950098395 -0.6816847324 0.4958319962
-0.02330058627 -0.1005652696 0.6072522402 0.2707635164 -0.631867826 0.7259951234
-0.04849063978 -0.1332308054 0.5804938674 -0.09519518167 -0.6825768948 0.7227377892
-0.04296889901 -0.135890156 0.5774772167 -0.01823109947 -0.684381187 0.7250438333
-0.04879967868 -0.1374476254 0.5759065747 -0.1098936126 -0.6822183728 0.7208838463
-0.04061255977 -0.08960740268 0.6183196306 0.01086289342 -0.6560149193 0.7465139031
-0.09005829692 -0.01895423234 0.5541846752 0.5976604819 -0.5487136841 0.5842790008
-0.01412037667 -0.107917659 0.5957705379 0.438521266 -0.6142855883 0.6554151177
-0.06414050609 -0.0948113203 0.6112087965 -0.3432664573 -0.615311563 0.7075999975
-0.0565168485 -0.09603636712 0.6139947772 -0.2237984687 -0.6353262663 0.7377599478
-0.06060652807 -0.0919893533 0.6155420542 -0.2828477323 -0.6155334115 0.7320396304
-0.05779643357 -0.1159574166 0.5928469896 -0.2725643814 -0.6647971272 0.6917959452
0.01776233129 -0.1118399352 0.5383439064 0.9081810117 -0.1361794323 0.3387109935
-0.03810475022 -0.04303752631 0.5026574135 -0.1076703444 -0.6911754608 0.7082527876
-0.03951864317 -0.0384994708 0.5064920783 -0.06965962052 -0.6852502227 0.7206143737
-0.08168742061 -0.04274260625 0.5222440362 0.6159459352 -0.5444354415 0.5688862801
-0.07579734176 -0.04399765283 0.513971746 0.535474658 -0.5873667002 0.606238246
-0.07329274714 -0.03846205771 0.5175238848 0.5118213892 -0.5901414752 0.6230050325
-0.07228273898 -0.03295558691 0.522046268 0.5209552646 -0.582300961 0.6217307448
-0.08083424717 -0.03812596947 0.5248368979 0.6137784123 -0.5358142257 0.5795448422
-0.08868478239 -0.02919984423 0.5418297648 0.6348822713 -0.5176690221 0.5730202198
-0.08909552544 -0.02633033693 0.5460363626 0.6161156893 -0.53525877 0.5775216818
-0.08620867133 -0.01860528439 0.5497589111 0.5872994065 -0.5544481277 0.5892938375
-0.04656644166 -0.01285628602 0.530475378 0.07053580135 -0.7207829952 0.6873669624
-0.04963858426 -0.01652954519 0.5271879435 0.1154985651 -0.7015653253 0.6987752914
-0.05423633382 -0.009389408864 0.5344887376 0.1844605058 -0.7281831503 0.6586514711
-0.0464329645 -0.00805287715 0.5344885588 0.0370773375 -0.7444426417 0.6635301113
-0.01404771954 -0.01372646913 0.5404351354 -0.4963977337 -0.649133265 0.5758540034
-0.0207020808 -0.01137485821 0.5394755602 -0.4010552466 -0.6647609472 0.629771769
0.02937941998 -0.04983483627 0.5349784493 -0.1555850804 -0.7579576969 0.5838549137
0.03180366382 -0.05187243596 0.5301058292 -0.1034665629 -0.7429792285 0.618457675
0.03442826495 -0.05307679996 0.5256484151 -0.05000301078 -0.7351214886 0.6453347802
0.0240155682 -0.04740563035 0.5440617204 -0.2647526562 -0.773748219 0.5292661786
0.02705015801 -0.05720541626 0.5320430398 -0.1780728251 -0.6945043206 0.6491913199
0.02300742269 -0.04342025518 0.5486503839 -0.2957073748 -0.8061639071 0.4817131758
0.0339739807 -0.05774159357 0.5224406719 -0.04484414682 -0.6958143115 0.692184031
0.03650572151 -0.04622289166 0.5292457938 -0.07138128579 -0.7823546529 0.5825192928
0.02773059532 -0.03979618847 0.5454708934 -0.2624402642 -0.8236493468 0.4706016481
0.03393616527 -0.04248645529 0.5353822112 -0.1495438665 -0.8030104041 0.5315924883
0.01342176832 -0.0558123216 0.52995646 -0.3589016497 -0.6778836846 0.6134579182
0.0275105536 -0.06354556233 0.5249979496 -0.1456902027 -0.6409825087 0.7217823267
0.02476993762 -0.0668483898 0.5194205046 -0.1628063917 -0.6059702635 0.7579690218
0.02004277892 -0.06404613703 0.5213666558 -0.2353961468 -0.6201732159 0.7191511393
0.02415928803 -0.06071349233 0.5275282264 -0.2014359087 -0.6584715843 0.6841926575
0.01799461991 -0.06041445583 0.5254998803 -0.2790975571 -0.6475447416 0.6735367775
0.01933739148 -0.05481873825 0.5336455107 -0.2908661366 -0.6996079087 0.608430624
0.02421601489 -0.05197210237 0.5394467115 -0.245029524 -0.7353161573 0.5801380277
0.01104553137 -0.05856522545 0.5252713561 -0.3743035793 -0.6484989524 0.6435136795
-0.0187332537 -0.05356071517 0.4990851581 -0.4211852849 -0.6125068665 0.6605280042
-0.02502333373 -0.05177742243 0.4963487387 -0.2961856723 -0.650379777 0.6989540458
-0.03017676994 -0.0500298366 0.4975556433 -0.2249771953 -0.662032485 0.7077777982
-0.03442877159 -0.04708105326 0.4990728199 -0.1562300771 -0.681542933 0.7124487758
-0.02185349725 -0.04784233496 0.5020591021 -0.3490540683 -0.6437789798 0.6759134531
-0.01633112878 -0.05098122358 0.5033596754 -0.4503854811 -0.6095907092 0.6464519501
-0.02738229558 -0.04282501712 0.5039020777 -0.2601326108 -0.6650134325 0.6997724771
0.004130771849 -0.05393789709 0.5227980614 -0.4959952533 -0.6016056538 0.6235654354
0.0005934786168 -0.04509432986 0.5272650123 -0.6238663197 -0.5365250111 0.5674826503
0.0139237754 -0.04706630483 0.5174114108 -0.3736770451 -0.5894572735 0.6520658135
0.01575694606 -0.05295197293 0.5149328113 -0.2906652689 -0.4879805148 0.7631713748
0.02799662948 -0.04653951898 0.51637429 -0.153665036 -0.6537671089 0.699113965
0.02293075435 -0.0512082316 0.5149847269 -0.1919775605 -0.5479801297 0.7611461282
0.006973523647 -0.04344017431 0.5362468362 -0.5989055037 -0.5512494445 0.5773491263
-0.005792510696 -0.05561653152 0.5089295506 -0.5403140187 -0.5627551675 0.6232706308
-0.01061956398 -0.04605268314 0.5135189891 -0.5148679018 -0.585875392 0.6231717467
0.0009313594201 -0.05669008568 0.516836226 -0.5200922489 -0.5618508458 0.6406469345
-0.01330997422 -0.0489378646 0.5081501603 -0.4819355607 -0.5983767509 0.6355630755
-0.007662412245 -0.05035839975 0.5119235516 -0.5461984277 -0.5701728463 0.6101031899
-0.001523226383 -0.05832480639 0.5109880567 -0.5323984623 -0.5510917902 0.6403782368
0.002504148986 -0.05273965746 0.511621654 -0.4954545498 -0.5251919031 0.6495633125
0.02502652258 -0.05734727159 0.5123826861 -0.1024568006 -0.4428571463 0.8777634501
0.001698323293 -0.04787328467 0.5170039535 -0.5593441129 -0.5488643646 0.6027852297
0.007299469784 -0.04957315326 0.5165557861 -0.455737114 -0.5259460211 0.6640867591
0.009561805986 -0.05441585928 0.5115927458 -0.3698413968 -0.4983670115 0.7229809165
0.005123591051 -0.05768379569 0.5071169138 -0.4127281904 -0.4976530969 0.7072401643
-0.0013708513 -0.05876734108 0.5053582788 -0.5255311131 -0.5145576596 0.6481634378
0.01747870632 -0.05776628852 0.5099261403 -0.2145146132 -0.4619710445 0.8168047667
0.008103087544 -0.06166928262 0.5054848194 -0.3724983633 -0.4748359025 0.7430770397
0.01445267163 -0.06449910998 0.5091879964 -0.2693572044 -0.5050031543 0.7865737677
-0.002186081139 -0.0657126978 0.5010379553 -0.5193071365 -0.5066084862 0.6684132814
-0.006850743201 -0.06499111652 0.4984028041 -0.5897760391 -0.4958922565 0.6373634934
0.0004871094134 -0.06788999587 0.5052813292 -0.5051062703 -0.5417020917 0.6690456867
0.01478888001 -0.07099626958 0.5115099549 -0.2640039027 -0.4373325706 0.8350637555
0.02009791881 -0.06509800255 0.5119187832 -0.1816481501 -0.4823651314 0.8383437395
0.01737445965 -0.1181514263 0.5359528661 0.8722922206 -0.3086244762 0.3529921472
0.02016530745 -0.1149614453 0.5315397382 0.9352778196 -0.03712783381 0.3043665886
-0.08253917843 -0.1268490255 0.5635411143 -0.6566081643 -0.4795582294 0.5750005245
-0.08977296203 -0.121850498 0.5576977134 -0.7480521798 -0.411651969 0.5162187815
-0.07811184227 -0.1216978654 0.573363781 -0.5833271146 -0.5403679013 0.6014746428
-0.08475291729 -0.1199517027 0.5672697425 -0.6989008188 -0.4572028518 0.5415901542
-0.08882893622 -0.1273002774 0.554706037 -0.724986732 -0.4227263033 0.5336009264
-0.06989680231 -0.05694484711 0.4989174306 0.4409878254 -0.5961520672 0.6650743484
-0.0624076575 -0.04934038222 0.4992280006 0.3440314829 -0.6355444789 0.6900445819
-0.07543826848 -0.02678540908 0.5304887891 0.5233906507 -0.5828256011 0.6196737289
-0.08335830271 -0.03369387984 0.5319653749 0.6150320172 -0.5260137916 0.5838968158
-0.07661513984 -0.0323731564 0.526008904 0.5561499 -0.5627903938 0.6084415317
-0.08179402351 -0.02825808898 0.5334149003 0.6087098718 -0.5374248028 0.583291471
-0.07577622682 -0.05974746123 0.4991573989 0.5117074847 -0.561612308 0.6493114233
-0.07437482476 -0.05494000763 0.5029983521 0.5109053254 -0.5795907378 0.6328538656
-0.08941960335 -0.04096050933 0.5331421494 0.6550767422 -0.5058206916 0.5609009862
-0.08689257503 -0.06140647456 0.5112515092 0.6055035591 -0.5440804362 0.5805428028
-0.08484635502 -0.05648388714 0.5136858821 0.6145897508 -0.5443949699 0.5705881715
-0.08440617472 -0.06289312243 0.5070360303 0.5656328201 -0.5511395931 0.6131939292
-0.08441491425 -0.05163845047 0.5190464854 0.6358360052 -0.5308859944 0.5586210489
-0.0795622468 -0.04803306609 0.5157968402 0.5965201259 -0.5519736409 0.5823068023
-0.0927548185 -0.1083427295 0.5675889254 -0.7854787111 -0.4160502255 0.4561598599
-0.09005355835 -0.1163319945 0.5658162832 -0.7551466227 -0.4138656557 0.5013431907
-0.09307292104 -0.1153186411 0.5586771369 -0.7847152352 -0.3886585236 0.4814494848
-0.09624780715 -0.1126818284 0.5548801422 -0.8009656668 -0.376047045 0.4654859304
-0.07284125686 -0.1086622626 0.5903174877 -0.5004140735 -0.6112135649 0.6108188033
-0.08028022945 -0.1100995094 0.5818436742 -0.6269468069 -0.5372821689 0.5542340875
-0.08152610064 -0.113615714 0.57695961 -0.6401219368 -0.5210520625 0.5524480343
-0.07734020054 -0.1085351482 0.586822629 -0.5843456388 -0.5706543326 0.576418817
-0.08687262237 -0.1060152203 0.5783734322 -0.7269507051 -0.4763699174 0.4904409051
-0.07096736878 -0.1194241792 0.581402719 -0.4737227559 -0.6034333706 0.6322401762
-0.07030594349 -0.1272917837 0.5776610374 -0.4548603594 -0.6005217433 0.6551017761
-0.06563289464 -0.1205480024 0.587913394 -0.3841857016 -0.6394367814 0.6639299989
-0.06623800844 -0.1275853366 0.581379652 -0.3901537657 -0.6338685155 0.6648026705
-0.05734505132 -0.1315042675 0.5810932517 -0.2322245836 -0.6659991145 0.7015568018
-0.06535824388 -0.1360230148 0.5735000968 -0.3692258298 -0.6459961534 0.6665344238
-0.06485171616 -0.1385742873 0.5679411888 -0.3576224148 -0.6423989534 0.6764340997
-0.0826613158 -0.1053407043 0.5858851075 -0.6336557865 -0.5430008173 0.5497744679
-0.07947572321 -0.1034293622 0.5911376476 -0.587644577 -0.5699194074 0.5737009048
-0.08121649921 -0.09276004881 0.5997579098 -0.5520944595 -0.5765759945 0.60197258
-0.08330276608 -0.09463077784 0.5950035453 -0.5802839994 -0.5691993833 0.5819433331
-0.09284973145 -0.09600087255 0.5790424347 -0.7571184039 -0.4498019814 0.4725046158
-0.08794880658 -0.09933397919 0.5837130547 -0.6760777831 -0.5203784704 0.5170620084
-0.08969689906 -0.1011818945 0.5775864124 -0.7354100347 -0.4672518969 0.48548311
-0.0853055343 -0.0985930413 0.5886146426 -0.6302441359 -0.5489891768 0.5474588871
-0.001319346949 -0.03917764872 0.5263109803 -0.6083145142 -0.5529995561 0.5687904358
-0.003155566519 -0.03436236084 0.5316638947 -0.6182442904 -0.5480057001 0.5626906157
0.0009785665898 -0.04140497744 0.5309934616 -0.6298559308 -0.5328211784 0.5636787415
-0.006438775454 -0.03621740267 0.5260788798 -0.575753212 -0.5618783832 0.5938760638
-0.005241533741 -0.04291982949 0.5178236961 -0.5442727208 -0.5766659379 0.6041808724
-0.004027018789 -0.02074133791 0.5456114411 -0.56118536 -0.5974586606 0.5720914602
0.004488618579 -0.02879742347 0.5496714115 -0.5906093717 -0.5782519579 0.5626835227
0.003181769978 -0.03836325184 0.5364074707 -0.6394766569 -0.5408040285 0.5455951691
-0.003015572205 -0.02480433509 0.5396586061 -0.6074848771 -0.5742437243 0.5485680699
0.00447114557 -0.03403188288 0.5443550944 -0.5940718055 -0.5790899396 0.5580940843
-0.004442223813 -0.02902091667 0.5354485512 -0.5998684168 -0.5686465502 0.5622805357
-0.009472764097 -0.02017827146 0.5386081934 -0.5450603366 -0.609742403 0.5750582218
-0.01936154813 -0.1054314151 0.5999939442 0.3555525541 -0.6280920506 0.6894263029
-0.04464656487 -0.1296152472 0.5838682055 -0.03819049522 -0.6835784316 0.7279039025
-0.0363964662 -0.1294215024 0.5829902887 0.1111658663 -0.6827674508 0.7202164531
-0.05909481272 -0.1400907785 0.5685532093 -0.2654401958 -0.6909828782 0.6721898317
-0.06292248517 -0.1441574544 0.5652918816 -0.3318354487 -0.668792963 0.6637765765
-0.06342365593 -0.1326484531 0.5785391331 -0.3455293179 -0.6521432996 0.6740791798
-0.05440506339 -0.1392625868 0.572702229 -0.194372803 -0.6782059073 0.7080690861
-0.03660653904 -0.1405365318 0.572372973 0.1027727276 -0.6857429147 0.7169874907
-0.04258041456 -0.1415906101 0.5721969008 -0.008718272671 -0.6860722303 0.7226107717
-0.03419065475 -0.09287174046 0.6156376004 0.1190981418 -0.6543610096 0.7422522902
-0.02733612061 -0.09463527799 0.6138144135 0.2401963025 -0.6264532208 0.7390488982
-0.03040260635 -0.09961922467 0.6098911762 0.1781635284 -0.6564930677 0.729162991
-0.006359799299 -0.1133042201 0.5825052261 0.5911996961 -0.5591108203 0.5805143714
-0.01174698677 -0.114465341 0.587757647 0.4930263758 -0.5990706682 0.629101932
-0.01567886211 -0.1135414019 0.5915549994 0.4361414611 -0.6238273382 0.6480266452
-0.00725362543 -0.1102613434 0.5871059895 0.560223937 -0.5698331594 0.5998934507
-0.0003475408594 -0.1107313409 0.5780837536 0.6603326201 -0.5156472921 0.5406309366
-0.04003766179 -0.1256969422 0.586635232 0.04325434566 -0.6834796667 0.7223181725
-0.03960474208 -0.1202101707 0.5916061997 0.03339284286 -0.6938201189 0.7152486444
-0.03702621162 -0.1164192781 0.5953772068 0.08689189702 -0.6881729364 0.7165071368
0.005021094345 -0.1298469305 0.5511604548 0.7738669515 -0.4462925196 0.4474444985
-0.02804379351 -0.1045609862 0.6050198078 0.2338545471 -0.6404976249 0.7286599874
-0.03950821981 -0.1023017764 0.6094769835 0.06587637216 -0.6732016206 0.7326419353
-0.07277829945 -0.09972917289 0.6014436483 -0.4792000949 -0.6145678759 0.6263102889
-0.06748387963 -0.09725415707 0.6069346666 -0.4060730338 -0.6224516034 0.6670957804
-0.07506959885 -0.1041307151 0.5944530964 -0.5181828141 -0.6111960411 0.5975114703
-0.07703047991 -0.09904707223 0.5970813632 -0.5322160721 -0.5987699628 0.5959333181
-0.06824924797 -0.1033021435 0.6005365849 -0.4264020026 -0.6324387789 0.6446431279
-0.07010485977 -0.1066976786 0.5965973735 -0.4475100636 -0.6300998926 0.630782187
-0.06298980117 -0.1035354733 0.6034239531 -0.3505497277 -0.6469365358 0.6756221652
-0.04546846822 -0.1058439612 0.6063218713 -0.03966099769 -0.6937811375 0.7178761363
-0.05684782565 -0.1034804806 0.6078026891 -0.2423591465 -0.6498794556 0.7156719565
-0.05982477963 -0.1083066687 0.602365315 -0.3152122498 -0.6587726474 0.6799719334
-0.06097665429 -0.09903094918 0.6079960465 -0.3056910634 -0.6448794603 0.688038826
-0.07361114025 -0.08994168788 0.6087844372 -0.4392167628 -0.606765449 0.6605768204
-0.07264202833 -0.09527037293 0.6057257056 -0.465905726 -0.597287178 0.6505769491
-0.06690927595 -0.08866497129 0.614377141 -0.3484971225 -0.6057505608 0.7141347528
-0.02356535196 -0.1153181046 0.593785882 0.2888565958 -0.6596910954 0.6906051636
-0.02572664991 -0.1113327071 0.5978829861 0.264095068 -0.6602925658 0.7027027011
-0.03065144829 -0.1178354472 0.5940811634 0.1792763025 -0.6815376282 0.7075194716
-0.02287377603 -0.119786799 0.5903475881 0.2878394425 -0.6634421349 0.6843442321
-0.01745562442 -0.1267351359 0.5796271563 0.383961916 -0.6409806013 0.6636738181
-0.05427659303 -0.03638270497 0.5087974668 0.1971782893 -0.6725493073 0.7128069401
-0.04567251354 -0.03709575534 0.5074841976 0.04213762283 -0.6869887114 0.7226734757
-0.08668665588 -0.03536387533 0.5384170413 0.6403151155 -0.5124186873 0.5690095425
-0.07712961733 -0.02425499074 0.5350615382 0.5446058512 -0.5761637688 0.60699296
-0.08273980767 -0.02611666173 0.5402681231 0.6110228896 -0.5340848565 0.5826283693
-0.0788756758 -0.0204973463 0.5400334001 0.5890796185 -0.5478867888 0.5939258337
-0.08364518732 -0.02072663419 0.5442125797 0.5916834474 -0.5514448285 0.587662816
-0.02182451636 -0.04036833346 0.5098772049 -0.3697778583 -0.6418298483 0.6686493158
-0.03389290348 -0.03791344538 0.507651329 -0.1661469638 -0.6762459874 0.7162662745
-0.03914981708 -0.01798589528 0.5257689953 -0.08538939059 -0.693782866 0.7063346505
-0.04445017502 -0.01953110099 0.5238770247 0.024304986 -0.6983901858 0.7135046124
-0.02964459918 -0.03527028114 0.5108213425 -0.2402734905 -0.6657021642 0.7050979733
-0.02274512872 -0.03204660118 0.5169222951 -0.353954196 -0.6388574243 0.6785250306
-0.03481502458 -0.02903862298 0.5160530806 -0.1638597399 -0.6764693856 0.7167447209
-0.02971250564 -0.02548657171 0.520373404 -0.2485665679 -0.6634449959 0.7029588223
-0.03492002562 -0.02489672787 0.519964695 -0.1649149805 -0.6773012877 0.7166315913
-0.0182348229 -0.02857835218 0.5237649083 -0.4210295975 -0.6197295189 0.6578577757
-0.0138621768 -0.03261695802 0.5230343342 -0.4858214855 -0.5990988612 0.636197567
-0.02392342314 -0.02716486529 0.5206906199 -0.3323850334 -0.6462325454 0.6847906709
-0.01812648587 -0.0332108885 0.5198506117 -0.4245711565 -0.61852777 0.6547592878
-0.02013403364 -0.03747119382 0.5153089166 -0.4017218351 -0.6311554313 0.6606711149
-0.02828167379 -0.0304654669 0.5168784261 -0.2691304684 -0.6584796309 0.6965051889
0.02494715154 -0.03543194383 0.5514416099 -0.3377301097 -0.8365055323 0.4311678112
0.01724602468 -0.02761738934 0.5564433336 -0.4851938486 -0.6791698933 0.5153574944
0.01985994726 -0.03152135387 0.5503229499 -0.4792870581 -0.6876379848 0.5053421259
0.01445050817 -0.03065942973 0.5505583882 -0.58053267 -0.5841087103 0.5607177615
0.01995134167 -0.03566242009 0.5547206998 -0.3892296851 -0.7832953334 0.4623479545
0.01738242619 -0.04382179305 0.5481334329 -0.4084988236 -0.7375897169 0.5057797432
0.01293624192 -0.05152303725 0.5356681943 -0.3951350152 -0.7022510171 0.5686947703
0.0142517658 -0.04780998453 0.5415748954 -0.4405064285 -0.6762480736 0.5606530309
0.007867443375 -0.0525056012 0.5293534398 -0.4952808321 -0.5893722177 0.6292580366
0.01102456544 -0.04188608751 0.5438032746 -0.5910713673 -0.5549784899 0.5835111141
0.008444830775 -0.04794612154 0.534127295 -0.5378409624 -0.5743795633 0.6085835695
0.01277817506 -0.0340693444 0.555236578 -0.5930147767 -0.5598397255 0.5785515308
0.01062024757 -0.02647051401 0.5582520366 -0.5868480206 -0.5703316927 0.5746461153
0.003147816984 -0.1247588322 0.5545654893 0.7647576332 -0.4473013282 0.4573813081
-0.01719718054 -0.1397757232 0.5649833083 0.4250238836 -0.6197413206 0.646823287
-0.01161703188 -0.137711525 0.5619515777 0.526617825 -0.5826515555 0.5907094479
0.007292339113 -0.1216230989 0.5469964743 0.7990151048 -0.4242723286 0.42094329
0.001960888738 -0.1283678561 0.558796227 0.7406050563 -0.4697775543 0.4788146317
-0.006435574032 -0.1368182451 0.5584703088 0.6176184416 -0.5552607775 0.5366376042
0.010037628 -0.07066830993 0.5150182247 -0.3044701517 -0.4964035451 0.7922356129
0.006795374677 -0.06551735848 0.5164166689 -0.4039761424 -0.5853805542 0.7007623315
0.01733379252 -0.07010095567 0.5163074136 -0.1873782277 -0.4756031334 0.8371833563
0.01293623075 -0.06560916454 0.51828444 -0.2931222022 -0.5535897017 0.7509543896
0.009424943477 -0.07735889405 0.5158995986 -0.2349113971 -0.5105606318 0.739171207
0.01168094948 -0.08134458214 0.5211529136 -0.029454289 -0.4324820042 0.7460772395
0.01170441136 -0.09645441175 0.5364226103 0.4097257555 -0.4184950888 0.5417752862
0.01223088708 -0.1031357944 0.5420551896 0.5791274905 -0.3222275078 0.5030298233
0.01047438383 -0.08971195668 0.5277850032 0.1276272237 -0.4046097398 0.6311528683
0.01795616746 -0.08201596886 0.5244520307 0.1204354092 -0.4189249277 0.7546796203
0.01554269344 -0.0777425468 0.5193134546 -0.02597554959 -0.3825795054 0.8410177827
0.02046510391 -0.09210792184 0.5354661345 0.431668222 -0.4596245289 0.5821681619
0.02278703265 -0.07706870139 0.5211818218 0.03344698623 -0.4847048223 0.7796370387
0.01544739958 -0.09053654224 0.5321257114 0.3331380785 -0.3878364861 0.6545386314
0.01998784021 -0.1051660925 0.5318268538 0.7773808241 -0.1581692696 0.39747715
0.02037492022 -0.09837304801 0.5337391496 0.5990083218 -0.3164151609 0.4921942651
0.02337907813 -0.08962122351 0.5288397074 0.3880098164 -0.4058799446 0.5905256867
0.02812877484 -0.07766796649 0.5202476978 0.1046814844 -0.4985437691 0.7187110782
0.02521896362 -0.08501073718 0.5255025029 0.2787866294 -0.4412612021 0.6398934126
0.01747586019 -0.09968391806 0.5416705608 0.6122277975 -0.4148519039 0.5006300807
-0.06859964132 -0.05134760216 0.5022616386 0.4388049245 -0.6078304052 0.6616222262
-0.07360956073 -0.05042241886 0.5059225559 0.49272874 -0.5926142335 0.6361547112
-0.07609836757 -0.04822990298 0.5100627542 0.5341143012 -0.5826909542 0.6121318936
-0.0683902055 -0.04489998147 0.5075207353 0.4266952574 -0.6227295995 0.654779315
0.007961537689 -0.02931845561 0.5457990766 -0.6057828069 -0.564835012 0.5601487756
-0.004150716122 -0.1051333845 0.587216258 0.579415381 -0.5498034954 0.5999866724
-0.01624409482 -0.09980312735 0.6036269665 0.3999397159 -0.6004064083 0.6922328472
-0.05867420882 -0.1261745691 0.583424747 -0.2774573267 -0.6585240364 0.6908476949
-0.05753266066 -0.1337519139 0.5763857365 -0.2522634864 -0.6663965583 0.6957759261
-0.04661849886 -0.1441582888 0.5692816377 -0.05572391674 -0.6953272223 0.7074742317
-0.04048603773 -0.1474491954 0.5682246685 0.03868525475 -0.7057535648 0.7067081332
-0.05410921201 -0.144454971 0.5675010681 -0.2065179795 -0.6859936118 0.6900351048
-0.03418685868 -0.1221310943 0.5898677707 0.1211914048 -0.6884621978 0.7133526802
-0.02324260771 -0.1239192635 0.5852219462 0.2883328199 -0.6666455865 0.6844658852
-0.02963349409 -0.1266888529 0.5834431052 0.211705327 -0.6747611761 0.7019633651
-0.0288504269 -0.1305382252 0.5802241564 0.2052051127 -0.6743676662 0.708919704
-0.02869817615 -0.1235335097 0.5884702206 0.2011398226 -0.6794722676 0.7046402097
-0.05097441748 -0.1200611144 0.5913920999 -0.1766007096 -0.677113533 0.7131422758
-0.0454332605 -0.124281019 0.5879901052 -0.05932310969 -0.6830568314 0.7259142399
-0.0556335859 -0.1209275573 0.5881424546 -0.2448478639 -0.6667937636 0.6970920563
-0.05031944439 -0.1253484786 0.5866491795 -0.1354264766 -0.6767882109 0.7180594206
-0.01112352777 -0.1252358705 0.5759772062 0.4874214828 -0.5965499878 0.6319708228
-0.01161941886 -0.1216257364 0.5805279613 0.4837166369 -0.597931385 0.6335164905
-0.01435862668 -0.1187523603 0.5856263041 0.4422054291 -0.6203127503 0.646463573
-0.03232065216 -0.1119615734 0.5987610221 0.1527199596 -0.6791278124 0.7141614556
-0.05018199235 -0.1087051705 0.6034606695 -0.1211330444 -0.6932941079 0.7052212358
-0.03481438756 -0.03307647258 0.5116913319 -0.1733110696 -0.6759091616 0.7162488103
-0.04041446373 -0.02796192095 0.5162374377 -0.05707097054 -0.6832975745 0.7221015692
-0.04204985127 -0.03175264597 0.5124522448 -0.01824411564 -0.681869328 0.7235073447
-0.04037855566 -0.02290075645 0.5212902427 -0.05956043303 -0.68629843 0.7175943255
-0.06990949064 -0.02084457874 0.5316092372 0.4366335869 -0.6194871664 0.6507024169
-0.0390914157 -0.01393046882 0.5300423503 -0.06712202728 -0.7136590481 0.6905691624
-0.03374309838 -0.01034920942 0.5341666937 -0.1625650227 -0.7221520543 0.6703033447
-0.02900274284 -0.008779500611 0.5371862054 -0.2449027002 -0.7084620595 0.6530086994
-0.02421821095 -0.01271803956 0.5346598029 -0.3378514051 -0.6633179188 0.6667064428
-0.02761418745 -0.02181232721 0.5244828463 -0.2809601426 -0.6635248065 0.6907063723
-0.03236703947 -0.01912669092 0.5258416533 -0.2162200809 -0.6797502041 0.6983210444
-0.02133410238 -0.02297997102 0.5268575549 -0.3775184751 -0.6404498816 0.6651806235
-0.02629622072 -0.01767388359 0.528950274 -0.3098190427 -0.668022871 0.6752262712
-0.03322113305 -0.01471727993 0.5301574469 -0.1910395175 -0.6964854598 0.6884369254
-0.0139986556 -0.1317957193 0.572508812 0.4495104849 -0.6093712449 0.6500360966
-0.009607403539 -0.132469669 0.5677803159 0.5372617841 -0.5660178065 0.6179492474
-0.005726013333 -0.131365478 0.5633819699 0.623781383 -0.5233547688 0.5624315143
0.00976351276 -0.1068857387 0.560490489 0.7877722979 -0.4146269858 0.4424502552
0.006626832765 -0.1060440317 0.5709994435 0.740220964 -0.4677097499 0.4794246852
0.004249630962 -0.1007945389 0.5769358873 0.6936055422 -0.4975374639 0.5171490908
0.008795595728 -0.1222434267 0.5536126494 0.8081098199 -0.4105085135 0.4203229547
0.004546203185 -0.1225827038 0.5598195791 0.7640706897 -0.4574252665 0.4542334974
0.003767085262 -0.1118638813 0.5724825859 0.7188927531 -0.4856704175 0.4964289665
0.00364658027 -0.1161485836 0.5669589639 0.7437092066 -0.4572643042 0.4826412499
0.007156753913 -0.1109185591 0.5661283731 0.7674896121 -0.4439007342 0.4608048201
-0.05716929585 -0.01322737336 0.5317486525 0.2239047885 -0.7022718191 0.6719101071
-0.05602028966 -0.01744021662 0.527792871 0.225233525 -0.6876593232 0.6871685982
-0.0617374219 -0.0170668792 0.5303353667 0.3304454684 -0.6648898721 0.6646347642
0.008455231786 -0.03093250655 0.5534086227 -0.5905959606 -0.5687119961 0.5723830462
0.009835303761 -0.03628775105 0.5496031046 -0.5939978361 -0.5691978335 0.5682072639
0.0147939669 -0.04031996056 0.5520516038 -0.5984865427 -0.5512852669 0.5812773705
-0.008333484642 -0.09788423777 0.5986492038 0.4921413362 -0.5805545449 0.6475756168
-0.003964105621 -0.09908695519 0.5923320055 0.5504235625 -0.5599423647 0.6167790294
-0.01159122493 -0.1032583266 0.5976981521 0.4578556418 -0.6034190655 0.6518163681
-0.001685655094 -0.1269632727 0.5640854239 0.6811085343 -0.4982583225 0.5331467986
-0.001646946766 -0.132772103 0.5597330928 0.6809097528 -0.5165692568 0.518253684
0.0009491087985 -0.1216646433 0.5658407807 0.7240934372 -0.4776430428 0.4935843945
-0.004521209747 -0.1246849 0.570743084 0.6077831388 -0.5351493955 0.5840829611
0.0003670119622 -0.1170567796 0.5717076063 0.6840548515 -0.502653718 0.525769949
-0.003811792238 -0.1193348318 0.5742174387 0.622425437 -0.5411524773 0.5644503832
-0.04754902422 -0.1122794002 0.5999772549 -0.07734610885 -0.693793714 0.7123368979
-0.05118549615 -0.1156699434 0.5957594514 -0.1486941129 -0.6808435321 0.7128068209
-0.06348989159 -0.1077438295 0.5979878902 -0.360327214 -0.6454257369 0.661193192
-0.05859562755 -0.1116337925 0.5968227386 -0.2731307745 -0.6615786552 0.684743464
-0.03667015582 -0.1082195714 0.6034271121 0.09616973251 -0.6815808415 0.7229107618
-0.03953602538 -0.1127734482 0.5991472006 0.03625931218 -0.6881135106 0.7202422023
-0.04432179779 -0.1161043867 0.5957983136 -0.04804911092 -0.687428236 0.7232284546
-0.058956597 -0.02748965658 0.5195398331 0.2852130234 -0.6573956609 0.6933563352
-0.04554767907 -0.02473217994 0.518930614 0.04153084382 -0.6897024512 0.7216770649
-0.05288800597 -0.02412321419 0.5207135677 0.171026051 -0.6767346859 0.7119693756
-0.0475146696 -0.02873118408 0.515075922 0.08110224456 -0.6832775474 0.722352922
-0.05293926969 -0.03125632554 0.5134984851 0.1772150993 -0.6782274842 0.710282743
-0.06999554485 -0.01157214027 0.5405198932 0.4612637162 -0.6618579626 0.5901015997
-0.07639762759 -0.01432842668 0.5432614088 0.5359615088 -0.5925244093 0.6010713577
-0.06671761721 -0.01433749404 0.5356146693 0.4205373824 -0.6518394351 0.6283989549
-0.07260059565 -0.01737952046 0.5377394557 0.5038577318 -0.5998314023 0.6119889617
0.01203920599 -0.1095794216 0.5561782122 0.8155450225 -0.3953695595 0.4175073802
0.01117804181 -0.1060124412 0.5663818121 0.7745129466 -0.4411645532 0.4481098354
0.008306938224 -0.1148009449 0.5590386391 0.7955793142 -0.4142698944 0.4383381307
0.009244960733 -0.1158604175 0.5529726148 0.8255747557 -0.3965251446 0.4010802507
0.01056196261 -0.1161799878 0.5459769368 0.8277559876 -0.3957915008 0.3971862197
0.01612862758 -0.1176674962 0.5414135456 0.820290029 -0.4169487953 0.3898659945
-0.0007693780353 -0.106325537 0.5822556615 0.6238783002 -0.5324374437 0.5695043802
0.003292519832 -0.1070397943 0.5764121413 0.6859697104 -0.5034791827 0.5231034756
0.0006279143272 -0.1001150236 0.5846365094 0.6230025887 -0.5323326588 0.5698598623
