# .PCD v0.7 - Point Cloud Data file format
VERSION 0.7
FIELDS x y z normal_x normal_y normal_z
SIZE 4 4 4 4 4 4
TYPE F F F F F F
COUNT 1 1 1 1 1 1
WIDTH 512
HEIGHT 1
VIEWPOINT 0 0 0 1 0 0 0
POINTS 512
DATA ascii
0.1279087216 -0.1097268537 0.6752505898 -0.2633503079 -0.2446552068 0.7288511395
0.1325101703 -0.1015225425 0.671615541 0.3090791404 -0.2002939433 0.6460781097
0.1269911975 -0.1045306623 0.6805319786 -0.08904265612 -0.1341183633 0.756010592
0.1348790973 -0.1036764979 0.666059494 0.3124892116 -0.2708349824 0.6045380831
0.1310980022 -0.1067763418 0.6716468334 -0.01077257097 -0.2382050902 0.6815561056
0.1340610683 -0.09380184859 0.6725600958 0.7551839948 -0.1347990185 0.6039177179
0.1222035885 -0.1120121256 0.6790230274 -0.5408812761 -0.3007285297 0.7778826952
0.1425777823 -0.0993886888 0.6525535583 0.7927471399 -0.405770123 0.4518335164
0.1394422948 -0.09600235522 0.6596550941 0.7770454288 -0.3263170123 0.5063103437
0.1415258497 -0.09405319393 0.6543290019 0.7639590502 -0.4350635111 0.4754355848
0.06106065214 -0.09508568048 0.661806047 0.1847635359 -0.6295532584 0.7510767579
0.05643323809 -0.09905288368 0.66089046 0.2525038421 -0.6309856176 0.7292060852
0.1182241812 -0.1130786538 0.672796607 -0.5231485963 -0.5283567905 0.6603220105
0.1267275512 -0.09344016016 0.6868582368 0.3625754416 -0.08688529581 0.8580387235
0.1246512309 -0.108603254 0.6842556 -0.3830149472 -0.1720864773 0.8526961803
0.130964756 -0.0931237191 0.6791159511 0.6511434317 -0.07584998012 0.6742608547
0.1284059584 -0.09913218766 0.6816852093 0.2511072755 -0.1161713973 0.7584946156
0.1181548387 -0.08109884709 0.6950630546 0.06011774018 0.1035273299 0.9873831868
0.1272329837 -0.08179213107 0.671884656 0.6114836931 -0.1983436942 0.7041356564
0.1236638129 -0.07980614901 0.6798248291 0.332778722 -0.2196048498 0.8073275685
0.1290406436 -0.07896281779 0.6673927903 0.5779812336 -0.480196476 0.6515458226
0.1170127168 -0.07920204848 0.6845691204 0.1289573759 -0.1227891445 0.9129205346
0.05443790928 -0.09409143031 0.6646839976 0.288071841 -0.6246629357 0.7248257995
0.07321608067 -0.1025874764 0.6538954973 -0.02101038955 -0.6254352927 0.777454555
0.1262426078 -0.1172910035 0.666834414 -0.3681831956 -0.501511991 0.5104190111
0.1302955002 -0.1166952625 0.6580071449 -0.1719231158 -0.2400871962 0.6457359791
0.1359920353 -0.1132954881 0.6497098804 0.17111516 -0.06024355814 0.7157172561
0.1266497672 -0.1202338934 0.6611316204 -0.4271965027 -0.2554112077 0.6648830771
0.1223113388 -0.1205719262 0.6710613966 -0.6294258833 -0.5571942925 0.5059735775
0.1317367852 -0.1184943467 0.6516427994 -0.1548556387 0.0001052881416 0.7881976962
0.1341360211 -0.1109241545 0.6579930782 0.1505664438 -0.3735468686 0.5297020674
0.1396057606 -0.1076406837 0.6498402953 0.5000883341 -0.2133949101 0.5934657454
0.1262264997 -0.1295378506 0.6597688794 -0.2667528689 -0.4145985842 0.6820397377
0.1261173636 -0.135352239 0.659284234 -0.1345113963 -0.5502353311 0.6752127409
0.1288742274 -0.1268558949 0.653285563 -0.2267533541 -0.1283324808 0.8038572073
0.1245198846 -0.1235614493 0.6649635434 -0.4734026194 -0.4318287671 0.6059597135
0.1306098253 -0.1239268407 0.647646606 -0.1589720547 0.1005630121 0.9078892469
0.1158323884 -0.1168440431 0.6673055887 -0.5695070624 -0.5732938051 0.5842021704
0.1286313236 -0.1118574515 0.6682661176 -0.1484992653 -0.4334804714 0.602406323
0.1239066571 -0.1153251901 0.6736412644 -0.4590107203 -0.4470953345 0.6519722939
0.1378132105 -0.1061656699 0.6567453146 0.4391517341 -0.4444412589 0.455227375
0.132310763 -0.1102686375 0.6629393101 0.07655270398 -0.4625971019 0.5098277926
0.1096490622 -0.08530079573 0.6830261946 -0.2249828875 -0.4293499291 0.846632123
0.1148270667 -0.08955482394 0.6852853298 -0.1899225265 -0.2375629246 0.9219399095
0.1149883866 -0.08396472037 0.6899295449 -0.07574166358 -0.1124245897 0.9371587038
0.01947917417 -0.08808165044 0.7053635716 0.751480341 -0.4591722488 0.4733541012
0.02641377598 -0.09425640106 0.6901023984 0.7409421206 -0.4639078677 0.4828279912
0.03085557744 -0.1031927317 0.6750513911 0.6794763207 -0.4956918061 0.5399488807
0.1103842482 -0.07918747514 0.6891306639 -0.1483767033 -0.2865038216 0.8616111279
0.1105040833 -0.07680942118 0.681879282 -0.08066792041 -0.4969433844 0.7608197331
0.1172229722 -0.07744146883 0.6760392785 0.1568092853 -0.530312717 0.6995878816
0.03515195101 -0.2057934403 0.7172166109 -0.4830729365 -0.4019198716 0.7576695681
0.0306125246 -0.2041516304 0.7149716616 -0.5506364107 -0.3722652495 0.7288470864
0.07112508267 -0.2046444863 0.7248829603 0.09947498143 -0.5789147615 0.8016055822
0.07314875722 -0.210580498 0.7215502858 0.1244029477 -0.5844568014 0.8008211255
0.06720729917 -0.209190622 0.7239199281 0.05176850781 -0.5865383744 0.8065171838
0.01775957271 -0.1930128336 0.709348917 -0.7588244677 -0.281146884 0.5857864618
0.1379200816 -0.1017289534 0.6486423612 0.7125194073 -0.4666075706 0.5220052004
0.1120974496 -0.1194930747 0.6619411111 -0.5867266059 -0.5624600053 0.5730044246
0.1237649098 -0.1337961853 0.6655115485 -0.2620329261 -0.7177590132 0.5689349174
0.1171130016 -0.1232346818 0.6647154689 -0.5914101005 -0.5799258947 0.5305178761
0.1226833984 -0.1281904131 0.6678935885 -0.4251562357 -0.6606169343 0.5368603468
0.08701342344 -0.2041291147 0.7207892537 0.3650107682 -0.5424053669 0.7528639436
0.05880136415 -0.2002223432 0.7297121286 -0.134379819 -0.5388640165 0.8307896852
0.009020847268 -0.1655626446 0.6851875782 -0.3179295659 -0.1625250727 0.3894540966
0.009015375748 -0.1802797914 0.6941147447 -0.88159132 -0.1289109886 0.4453254938
0.04566761851 -0.2089797109 0.7215549946 -0.3144599497 -0.4856088758 0.813724041
0.05120782927 -0.2009634376 0.7261809111 -0.2491255254 -0.5096267462 0.8229929209
0.03697149083 -0.1995643675 0.7185270786 -0.4726568758 -0.416064471 0.7638958097
0.04156740755 -0.2030080706 0.719135344 -0.3966844082 -0.4561010301 0.7799831629
0.08073992282 -0.1033275276 0.6542754173 -0.1463095695 -0.6111836433 0.7736438513
0.1134368554 -0.1133235097 0.6484594941 0.09522946924 -0.414623946 0.80528754
0.1048301607 -0.1127542928 0.6503304243 -0.1344018728 -0.5148545504 0.7482070327
0.1204300225 -0.1132662892 0.6470446587 0.2818337977 -0.3446292579 0.8413234949
0.1256431341 -0.1082468107 0.6469981074 0.4211603105 -0.4020499587 0.7691392303
0.1010614485 -0.1127343252 0.6568931341 -0.4410248399 -0.5834678411 0.677273035
0.131236583 -0.1144000441 0.644821465 0.6074386239 -0.439014554 0.6577363014
0.1314772069 -0.1089557484 0.6456047297 0.6216142178 -0.4273228645 0.6506621838
0.1138860136 -0.1264416873 0.6415848732 0.02957458794 -0.3809601665 0.8084378242
0.1188873872 -0.1237227693 0.6431947351 0.183046788 -0.3424521983 0.8206082582
0.1271495074 -0.1188201234 0.6450076699 0.291171968 -0.2326115221 0.8104815483
0.02278281003 -0.09156026691 0.7013230324 0.7491336465 -0.4628553689 0.4722565114
0.02972789295 -0.08116733283 0.6995183825 0.6876013279 -0.513292551 0.5133917332
0.02970841713 -0.09003403783 0.6891083717 0.7008343339 -0.4984038174 0.5091078281
0.02586337924 -0.09049077332 0.69470191 0.7337265611 -0.4763331115 0.4821320176
0.02561575919 -0.08581903577 0.6995719671 0.7193241119 -0.486317873 0.495141089
0.03186113015 -0.09298697859 0.6826124787 0.6878412366 -0.5005589724 0.5252454877
0.03292417154 -0.09730491787 0.6770877242 0.6418139935 -0.5134331584 0.5658253431
0.03915596381 -0.07832702249 0.6877103448 0.5810621977 -0.5744258165 0.5739659667
0.04515146837 -0.07238972187 0.6885655522 0.4759033322 -0.6297380924 0.6078767776
0.03999111056 -0.07413339615 0.6919628382 0.5483493209 -0.6076517701 0.5695784688
0.03390315548 -0.07815302163 0.6968258619 0.6314454079 -0.5503765941 0.5368998647
0.1401126981 -0.08849289268 0.6579328179 0.7434756756 -0.394964844 0.5307902098
0.1353399754 -0.08448975533 0.6621029377 0.6872388721 -0.3930490017 0.5851296186
0.0539152585 -0.1961511075 0.7295710444 -0.2120669484 -0.5224236846 0.8237704635
0.04910475761 -0.1930481344 0.7304306626 -0.3126143515 -0.5005896688 0.8026548028
0.05076152831 -0.2055951357 0.7224031687 -0.268017143 -0.5196664333 0.807618916
0.04178213701 -0.1968019903 0.7233021855 -0.4354297221 -0.4584566355 0.7698374391
0.04367579147 -0.1932282448 0.728196919 -0.4110750854 -0.4766226113 0.7745106816
0.04442814738 -0.2021502703 0.7238736749 -0.333304286 -0.4836176634 0.8069891334
0.05536994711 -0.2105141878 0.7207811475 -0.1565295607 -0.5475720167 0.8122839928
0.05604713783 -0.2065478563 0.7255671024 -0.1417770982 -0.5555183887 0.8165934682
0.06111408398 -0.2107678354 0.7229123712 -0.03553469852 -0.5888481736 0.8046794534
0.06282658875 -0.2058146298 0.726049602 -0.01224269718 -0.590890348 0.8044125438
0.07632270455 -0.1833331734 0.7409664392 0.1241266429 -0.6088146567 0.7821296453
0.1153428853 -0.1080655456 0.6726548076 -0.5471946001 -0.4047981203 0.7165813446
0.1116542816 -0.112668559 0.6660465002 -0.5444333553 -0.5593266487 0.6233635545
0.07579930872 -0.08477328718 0.6680213213 -0.05321393535 -0.6231620908 0.7788488865
0.1106462032 -0.1037625596 0.6707630157 -0.5766367912 -0.4002294242 0.7047466636
0.02155191451 -0.1284920424 0.6627405882 0.7494978905 -0.4572087526 0.4774751663
0.1211334541 -0.1717882007 0.7088940144 0.8307433128 -0.361723125 0.4230265021
0.0774782747 -0.2028796375 0.726246357 0.2142529637 -0.5770594478 0.7862414718
0.0825111568 -0.2072084248 0.7219771743 0.2919507623 -0.5595490932 0.774902463
0.0786563158 -0.2105985284 0.7199316025 0.2205608338 -0.5783962011 0.7782561779
0.08771179616 -0.2108197063 0.7181344628 0.3651355803 -0.5568632483 0.7416743636
0.09882739186 -0.2061346322 0.7129664421 0.5463551879 -0.5224835277 0.6401429176
0.1252620816 -0.1850195974 0.6878839731 0.8464303613 -0.3210238516 0.4073966444
0.03492521122 -0.07994022965 0.6919091344 0.6374849081 -0.5434830189 0.5431652069
0.03649541736 -0.1641011983 0.7447989583 -0.4568372965 -0.5207259655 0.7196481228
0.03784343228 -0.09491386265 0.6735989451 0.5620483756 -0.5443533063 0.6182024479
0.0689028129 -0.08222478628 0.6705015302 0.07669617236 -0.6323076487 0.7641718388
0.1261701882 -0.08509662002 0.6765030622 0.6543272734 0.08981752396 0.7496129274
0.1218624711 -0.08299548179 0.6863821745 0.339780122 0.1006852835 0.8765738606
0.1382981539 -0.0898578018 0.663289547 0.753764689 -0.3022698462 0.5569491982
0.1330812722 -0.08781510592 0.6727949381 0.7259106636 -0.007436780259 0.6604806185
0.1326321959 -0.08484397829 0.6682795286 0.74033916 -0.05235341191 0.650236547
0.1269517988 -0.08678667247 0.6834866405 0.5062901378 0.03673477843 0.7768234611
0.01958842948 -0.1939546466 0.7161758542 -0.7051798105 -0.3170996606 0.6326988339
0.02017098293 -0.1799208522 0.7192371488 -0.7257285118 -0.325134933 0.6043576002
0.01873842254 -0.1999721378 0.7132173181 -0.7062449455 -0.3001592755 0.6408435106
0.01895507053 -0.1878940314 0.7151260972 -0.7284878492 -0.3010077178 0.6145365834
0.0401619561 -0.1715554595 0.7378612161 -0.4255905151 -0.5285626054 0.7153481245
0.07373634726 -0.1893350631 0.7369448543 0.1051877365 -0.5896846056 0.7994832993
0.06927712262 -0.1920799464 0.7349901199 0.03586091846 -0.5787896514 0.8111619949
0.0644672811 -0.1958671212 0.7316254973 -0.03586453944 -0.5612364411 0.8182319403
0.07105393708 -0.198472634 0.7283414602 0.09716755897 -0.5668887496 0.7956971526
0.0665261969 -0.2016437501 0.7277357578 0.03367158026 -0.5800477862 0.8025961518
0.1175920069 -0.09767225385 0.6556015015 0.2454908043 -0.5150390863 0.633683145
0.1318040341 -0.09627604485 0.6519168019 0.6356317401 -0.4893964827 0.577162683
0.1260838956 -0.08970956504 0.6592416763 0.487211436 -0.4974369109 0.6238414645
0.1197744384 -0.09263575822 0.6589874625 0.3112232089 -0.5095587969 0.6411914825
0.1077013165 -0.09366138279 0.6622490883 -0.02000807412 -0.5312908292 0.6897442937
0.1287461519 -0.08395180851 0.6630556583 0.5669295192 -0.4908752441 0.6317045689
0.1277178228 -0.09441890568 0.6548271775 0.5261859894 -0.4960466921 0.6009953022
0.1139532328 -0.09470514208 0.6592694521 0.1496147513 -0.5205409527 0.65931499
0.1192468181 -0.08642456681 0.6642568707 0.3043002486 -0.5085072517 0.6643147469
0.1139281169 -0.08782117069 0.6649194956 0.1572387218 -0.5183833241 0.6825326681
0.1234553605 -0.09820000082 0.6531767845 0.405115813 -0.5048130155 0.6066595316
0.1339722872 -0.09174207598 0.6552336812 0.6568669677 -0.4800606072 0.5792533159
0.1144049689 -0.1079967469 0.6500560045 0.1292562485 -0.4672324359 0.7487632036
0.09690354019 -0.1122632995 0.6524678469 -0.3412025273 -0.5741373301 0.7224151492
0.09437575936 -0.1068324745 0.6562010646 -0.3848410249 -0.5570844412 0.7322274446
0.1038328111 -0.1078264341 0.6530509591 -0.143889159 -0.51704669 0.7390345931
0.08149694651 -0.09447095543 0.6618086696 -0.1639392078 -0.6020106673 0.7775665522
0.07451369613 -0.09391320497 0.6614515781 -0.04692699015 -0.6201793551 0.7822238207
0.07224027067 -0.09800595045 0.6572069526 0.002740457188 -0.6257523894 0.7772724032
0.06719264388 -0.09612856805 0.6598132849 0.09007706493 -0.6319989562 0.7669004798
0.0685306266 -0.09108698368 0.6632432938 0.07367383689 -0.6225100756 0.775151968
0.08366902173 -0.08920712769 0.6661346555 -0.1829408258 -0.6044851542 0.7742161155
0.07792461663 -0.08975113183 0.6647757888 -0.09692081064 -0.611431241 0.7809478045
0.08418510109 -0.08044732362 0.6730185747 -0.1862100363 -0.6240070462 0.7576982379
0.07886303216 -0.07851459831 0.673364222 -0.09542168677 -0.6357024312 0.7621502876
0.07935002446 -0.07110940665 0.6805690527 -0.07790023088 -0.67162323 0.7311121821
0.08441673219 -0.07561580837 0.6768309474 -0.1802491397 -0.6368106008 0.7486319542
0.07635653764 -0.07453405857 0.6763903499 -0.03641033545 -0.6519703269 0.7542497516
0.1089130938 -0.09162211418 0.6782686114 -0.3528641164 -0.3948441148 0.827868402
0.02402481437 -0.123678416 0.6648179889 0.7327051163 -0.4762045741 0.4805714488
0.08046504855 -0.1086605787 0.6502643228 -0.1447045952 -0.6147071719 0.7676944137
0.08680703491 -0.1106535867 0.6501159072 -0.2642522752 -0.5962890387 0.7560324073
0.02349177748 -0.1200054884 0.6707951427 0.7586842775 -0.4637695849 0.4532982409
0.01854505762 -0.1751614213 0.7139830589 -0.7900341749 -0.2712078691 0.5487959385
0.0477058813 -0.1807178408 0.7385829091 -0.3418723941 -0.5602541566 0.7478174567
0.01205598656 -0.1277297586 0.6872394085 0.8473085761 -0.3837361932 0.3670908809
0.09204309434 -0.2008099854 0.7204101086 0.4566154778 -0.5322962999 0.7120947838
0.02716895938 -0.1974601597 0.7188382149 -0.6173487902 -0.3726989627 0.6821918488
0.0830366537 -0.2015037239 0.7248099446 0.3043913841 -0.5528404117 0.7744107246
0.0759401843 -0.1942602098 0.7323832512 0.1732119322 -0.5692203641 0.8006975055
0.08311980963 -0.1842601895 0.7377130389 0.2445172369 -0.6083191633 0.7500587702
0.1189424843 -0.1712007523 0.7143457532 0.7987090349 -0.4069607556 0.4415293932
0.1171035767 -0.1895699203 0.7000072002 0.7853417397 -0.3894188404 0.4777471423
0.1159881577 -0.185990423 0.7065735459 0.801815331 -0.3762258887 0.4607981741
0.1113932282 -0.1913627684 0.7099884748 0.7335339189 -0.4253187776 0.52967453
0.1115720719 -0.2003005445 0.7048600912 0.7170004249 -0.4459013939 0.53499192
0.01407181472 -0.1879520118 0.7026333213 -0.8188111186 -0.2292995751 0.5170525908
0.01286274381 -0.1441952437 0.6678774953 0.7396144271 -0.3594339788 0.3956170678
0.01129147969 -0.1505897641 0.6694752574 0.2363935113 -0.282605052 0.321033448
0.00394044444 -0.1660217941 0.6808472872 -0.7569423318 -0.02472659573 0.117952548
0.007661270443 -0.1549062282 0.6759803295 0.0563335456 -0.1784250736 0.2540194988
0.005953909364 -0.1604450047 0.6788511872 -0.3617504239 -0.08357337117 0.1785865426
0.08673681319 -0.1315383464 0.6313589215 -0.2723869383 -0.6298016906 0.7160686851
0.109306246 -0.1237151921 0.6551347971 -0.4211378694 -0.548489213 0.6975836158
0.1096820086 -0.1319730282 0.6501682997 -0.3529880345 -0.448443085 0.8201049566
0.1257151514 -0.1707849801 0.6833333969 0.8130406737 -0.2394025773 0.3307236731
0.1199992299 -0.154228583 0.6657178998 0.1757793427 -0.434446007 0.5696686506
0.1237388551 -0.1657382697 0.677827239 0.6176133752 -0.293250531 0.4077525437
0.1245928854 -0.1552414447 0.671563983 0.3450012505 -0.5126048923 0.4880123138
0.1181550771 -0.1449699849 0.6573534012 -0.1406594366 -0.5723907351 0.6817993522
0.1193781868 -0.1497541815 0.6619995832 0.03211579099 -0.5067427158 0.6196706295
0.1253564507 -0.1602721065 0.6755551696 0.49603948 -0.434035182 0.4297261238
0.1250404269 -0.1504689902 0.6686119437 0.214750424 -0.6144579053 0.52289325
0.1241457537 -0.1400831193 0.6619039178 -0.08652442694 -0.7741318941 0.6102501154
0.1197929531 -0.1315368861 0.6624298096 -0.3462198377 -0.6705886126 0.5734916329
0.1163865998 -0.1339537203 0.6575181484 -0.4083818197 -0.5950801969 0.651050508
0.1126835346 -0.1306951344 0.6548438072 -0.4439807534 -0.5038805008 0.7121903896
0.1149923131 -0.1269855797 0.6601371169 -0.5534709692 -0.5591838956 0.591219306
0.1122073457 -0.1387423724 0.6479668021 -0.2862353623 -0.5267694592 0.7754255533
0.1103856191 -0.1332155466 0.6425575614 -0.1186130568 -0.4285642505 0.821349144
0.1174474359 -0.1347901076 0.648109138 -0.001405339688 -0.4746111631 0.8044856191
0.1156303734 -0.1408944279 0.6517364383 -0.2830852866 -0.5725030899 0.7559758425
0.120505929 -0.1406992227 0.6548708677 -0.2103372365 -0.6637496352 0.6868446469
0.1225088611 -0.1353402883 0.6517754793 0.07845667005 -0.5350738764 0.7659311891
0.09550803155 -0.1317872852 0.6371049285 -0.4048772752 -0.5406484008 0.7361667752
0.1020563245 -0.1246067435 0.6417995691 -0.1861903965 -0.4624566436 0.7962118387
0.1065647006 -0.1289735436 0.6407722235 -0.186913237 -0.3706683815 0.8541467786
0.03407259285 -0.08446336538 0.6880606413 0.6584130526 -0.5274360776 0.5359868407
0.02983001433 -0.08537074178 0.6930485368 0.6945114136 -0.511605978 0.5057550669
0.05275465921 -0.07189162821 0.6837474704 0.3696404696 -0.6383556724 0.6739872694
0.05143390223 -0.07674212754 0.6801275611 0.3704616427 -0.631930232 0.6800717115
0.04641374573 -0.1710414439 0.7453593016 -0.3356184065 -0.5492337346 0.7633827329
0.04646179825 -0.1608854085 0.749843061 -0.3042814732 -0.5268301368 0.7932323217
0.05296139047 -0.1773118675 0.7403277159 -0.2401646972 -0.5640374422 0.789598763
0.03278262541 -0.1662781388 0.7385995388 -0.5261977911 -0.5064539313 0.681616962
0.04693556577 -0.1737928391 0.7403728962 -0.3306512237 -0.5483590364 0.7556843162
0.04170915484 -0.1669593751 0.7443217039 -0.407414645 -0.5324029922 0.7358285785
0.04861757159 -0.1666081995 0.749492228 -0.2754880488 -0.5439500213 0.7897515893
0.03854252025 -0.16137214 0.7498958707 -0.4152044356 -0.5336511135 0.736318171
0.02308643423 -0.09933578968 0.6895619631 0.7602630258 -0.4457704127 0.4693999887
0.02725251764 -0.104130581 0.6794641018 0.7263969183 -0.4692887366 0.4993452132
0.02700676583 -0.09852320701 0.6841896772 0.7185266018 -0.4811604619 0.5013716221
0.05391874164 -0.1709492654 0.747908771 -0.2238049656 -0.5573258996 0.7992685437
0.05328220502 -0.1596328318 0.7520922422 -0.2239988446 -0.5413357019 0.8017734289
0.05551281199 -0.1667878479 0.7522733212 -0.2248957157 -0.5519968867 0.8027424812
0.1126620397 -0.0778927356 0.6725004911 0.1785191596 -0.5451576114 0.6901823282
0.1052560657 -0.07503275573 0.6787772775 -0.04501786456 -0.5994643569 0.6883777976
0.09882316738 -0.07721368968 0.6767839193 -0.1586310565 -0.5901944041 0.7284532189
0.1226809993 -0.07811164856 0.6718702912 0.3533983827 -0.5128042698 0.6742624044
0.1065923721 -0.07974886149 0.6726951599 0.02670464851 -0.5554274917 0.7141923904
0.0894420594 -0.07393201441 0.6803979278 -0.2302809954 -0.6446995139 0.7264529467
0.09367053956 -0.08145163953 0.675093472 -0.2854898274 -0.5920697451 0.7530245185
0.1051419899 -0.08000214398 0.6830932498 -0.270370543 -0.5614112616 0.7804738879
0.09713832289 -0.07471295446 0.6832599044 -0.2907800376 -0.6305246949 0.7178376913
0.1048585251 -0.08489189297 0.6790035963 -0.333781749 -0.5361407399 0.7714596391
0.1186018214 -0.09638036042 0.6866596341 -0.3245514929 -0.2130267322 0.8669053912
0.1205834225 -0.09104989469 0.6912636757 -0.02410032041 -0.07122386992 0.9470210075
0.1239147633 -0.1007916406 0.6877624989 -0.05432576314 -0.2383101434 0.9111876488
0.1158414781 -0.09787524492 0.6817901731 -0.3764964938 -0.3089196086 0.8598457575
0.1150071919 -0.1026004404 0.6776133776 -0.5170100927 -0.3376866579 0.7824121118
0.1095571741 -0.09720912576 0.6758571267 -0.4615010321 -0.4095349014 0.7837147713
0.120128043 -0.1029779688 0.6841448545 -0.4725828469 -0.3313758671 0.8160289526
0.1191102043 -0.1065731719 0.6789404154 -0.5158602595 -0.293196857 0.8041212559
0.08778209239 -0.09307259321 0.6638426185 -0.2565917969 -0.5883024931 0.765629828
0.06956975907 -0.0772388801 0.6745009422 0.07614712417 -0.6527876854 0.7470749617
0.06835667789 -0.07222498953 0.6794009209 0.1018999517 -0.6679149866 0.7325880527
0.05862450972 -0.07321284711 0.6808212996 0.2768208683 -0.6437265277 0.7071438432
0.009455815889 -0.1289059818 0.6935089827 0.8498052955 -0.3796419203 0.3655045927
0.01205178723 -0.121714592 0.6968351007 0.8407849669 -0.3818036914 0.3832679987
0.01473147143 -0.1128074825 0.7003542781 0.8294630647 -0.3861366212 0.4033877254
0.01813507825 -0.1094767004 0.6942092776 0.8096020222 -0.4049848616 0.4226876795
0.02306844667 -0.1047763005 0.6848074198 0.7841071486 -0.4302950501 0.4466290772
0.01886801794 -0.1066871583 0.689142406 0.8178008795 -0.3951439261 0.4181724489
0.06472161412 -0.1888490319 0.7370342612 -0.05490175262 -0.5742425919 0.8167146444
0.05881886929 -0.1932798624 0.7327584624 -0.1280141175 -0.5464964509 0.8248797059
0.08685819805 -0.09945134819 0.6587502956 -0.2537665665 -0.5880100131 0.7642408013
0.09366941452 -0.102034919 0.6597425938 -0.3757529259 -0.5590717196 0.7377101183
0.1022863761 -0.09643695503 0.6618466973 -0.1719978899 -0.5417406559 0.7040165067
0.1060470119 -0.1028756052 0.6563411951 -0.09127350897 -0.5352047086 0.6835051179
0.100963667 -0.1026976928 0.6589772701 -0.2477717251 -0.543585062 0.7083861232
0.1195563674 -0.1028779522 0.6510944963 0.2931216061 -0.4968683422 0.648265779
0.1105025262 -0.1040514633 0.6530523896 0.05076467991 -0.5205897689 0.6741494536
0.1295700222 -0.1017790437 0.6488376856 0.5598936081 -0.4677354693 0.6248562336
0.08796805888 -0.1048151106 0.6552388072 -0.2717044353 -0.5882706642 0.7566159964
0.1018367484 -0.1003381982 0.6664766669 -0.4793783724 -0.4904511869 0.7222673297
0.1089777648 -0.1079446599 0.6657813191 -0.5746511817 -0.5193657875 0.6303725839
0.1022220924 -0.1075443551 0.6621748209 -0.4730286598 -0.5584272742 0.6760196686
0.105953075 -0.1124041006 0.6615719795 -0.507539928 -0.5782038569 0.6358043551
0.1022267193 -0.09448517114 0.671408236 -0.4343654513 -0.4850708842 0.7517929077
0.1228534803 -0.08136168867 0.6668673754 0.4226304293 -0.5023787022 0.6641889215
0.09771092236 -0.09387625009 0.6653468013 -0.2880776525 -0.5497976542 0.7314366698
0.0996138677 -0.08799929917 0.6671233177 -0.1247346327 -0.5589524508 0.7308254838
0.1051325202 -0.08637293428 0.6670794487 0.006361277774 -0.5456476808 0.7150470018
0.1138847023 -0.08248088509 0.6683863997 0.2098990083 -0.5280600786 0.6925501823
0.1012385562 -0.08420826495 0.6714311838 -0.1276028007 -0.5640070438 0.7337657213
0.09646359086 -0.0993154645 0.6642000675 -0.3894482255 -0.549492538 0.7389390469
0.09590874612 -0.08605898172 0.673122406 -0.3174224794 -0.5729218125 0.7548284531
0.1019889936 -0.08892778307 0.6746537685 -0.3905053437 -0.5248106122 0.7553635836
0.08678159863 -0.08579096943 0.6695007086 -0.2307753712 -0.6049125791 0.7605987787
0.09196292609 -0.0918854028 0.6677132249 -0.2980159223 -0.5664312243 0.7640975118
0.05429966003 -0.1213958263 0.6412684321 0.2443068177 -0.671315372 0.6989910007
0.05764507502 -0.1178794652 0.6434488297 0.1776900589 -0.664360106 0.7211182117
0.05226404965 -0.1259803027 0.6357489824 0.2631569803 -0.6764023304 0.6878457665
0.02801562101 -0.1147956923 0.6684268713 0.6984438896 -0.4990917146 0.5098460913
0.02753654495 -0.1084286794 0.6751414537 0.7092242837 -0.4815934598 0.5144331455
0.02523493953 -0.1136957631 0.6738800406 0.7323517799 -0.4773841202 0.4848955274
0.05926628783 -0.1032824144 0.6558348536 0.2010283768 -0.6244440079 0.7493594289
0.08176124096 -0.1145168766 0.6458957791 -0.1804978102 -0.6210432649 0.7606919408
0.0755475089 -0.1147778109 0.6446412802 -0.09649013728 -0.6430806518 0.7593063712
0.07350761443 -0.1104732379 0.6476268768 -0.0300425496 -0.6354861856 0.7690376043
0.06708916277 -0.1131214872 0.6458275318 0.06266004592 -0.6471031308 0.7561472654
0.05321395397 -0.1152099818 0.646821022 0.2553441823 -0.6315767169 0.7279227376
0.04830027744 -0.1134856194 0.6504167914 0.3614653945 -0.6183105111 0.6965568662
0.01217014063 -0.1364630163 0.6774725318 0.8546860814 -0.3533174396 0.3734449148
0.01273902226 -0.1326827705 0.6810335517 0.8444808125 -0.3791886866 0.3750256002
0.009709284641 -0.1378902197 0.6831250787 0.8714598417 -0.3256996274 0.3621088862
0.01146138739 -0.1426419616 0.6742095351 0.886097014 -0.2795007229 0.3688021004
0.0147902295 -0.1362680048 0.6710394621 0.8257013559 -0.3937464058 0.3983710408
0.01512836851 -0.1392245591 0.6653606296 0.8050146103 -0.396379441 0.4309368134
0.01773683541 -0.1318106651 0.6658934355 0.784972012 -0.4341318607 0.4407577515
0.04231581092 -0.1785219759 0.7379046082 -0.4258648157 -0.5496822596 0.7176886797
0.03587483987 -0.1770033389 0.7346461415 -0.5103878379 -0.5117527843 0.6903460622
0.04130260646 -0.1820276231 0.7328465581 -0.4380758405 -0.5109609962 0.7246366739
0.03610128164 -0.188567698 0.7268186808 -0.523075521 -0.462992847 0.7123862505
0.0366431959 -0.1939039379 0.7242595553 -0.5077982545 -0.4486265182 0.7314017415
0.01514769346 -0.1136414558 0.6902622581 0.8291352987 -0.3897951245 0.3993840516
0.01149686798 -0.1217307523 0.6908448339 0.8429796696 -0.384337157 0.3749263883
0.01861602813 -0.1111408174 0.6855540276 0.8167490363 -0.4000864923 0.4157046974
0.09984622151 -0.1830354333 0.730156064 0.5147628784 -0.5782771707 0.6308745146
0.08046450466 -0.1905613542 0.7324703932 0.2387934029 -0.5797968507 0.7650459409
0.07917000353 -0.1972329021 0.7281596661 0.2433075756 -0.58158952 0.7721248865
0.02552781627 -0.1796836257 0.7215328813 -0.6724168062 -0.3820134103 0.6301484108
0.02231760323 -0.1747918874 0.7201095819 -0.7201429605 -0.362002492 0.5830705762
0.0915395245 -0.1962223202 0.7251293659 0.4323289096 -0.557656467 0.7077988982
0.0855364874 -0.1925851554 0.7305934429 0.3405216932 -0.5673678517 0.748387754
0.08584167808 -0.1879001409 0.7340527177 0.313957572 -0.5950914025 0.7386517525
0.1230989769 -0.1758349985 0.6991589069 0.8330273628 -0.3516068459 0.4271044731
0.1201840788 -0.1812957525 0.7022243142 0.8305386901 -0.35167557 0.4318168163
0.1204181984 -0.1767781824 0.7059125304 0.8326232433 -0.3552457988 0.4248752892
0.1210524589 -0.1845222712 0.6958297491 0.8171346188 -0.3648653328 0.4458092451
0.1251503825 -0.1797516048 0.6925595403 0.8236896396 -0.3588851094 0.4385177493
0.1150743142 -0.194036603 0.7026324272 0.768597126 -0.3928549886 0.5038206577
0.1207061261 -0.1913764775 0.6951900125 0.8093773127 -0.3699611723 0.4559812546
0.1237617433 -0.1912035197 0.689748466 0.8085618615 -0.3737655282 0.4544524848
0.1071067601 -0.1963727027 0.7114096284 0.6746717691 -0.4545178711 0.5793673992
0.1049605161 -0.203065455 0.7101495862 0.6410709023 -0.4938943386 0.5859950781
0.1039027274 -0.1824983805 0.7254108191 0.5990380049 -0.5425296426 0.5792217255
0.09458251297 -0.1863850802 0.7286986709 0.4660120904 -0.5747298002 0.667324841
0.05858325586 -0.125177443 0.636872232 0.1670523584 -0.7002795339 0.6896339059
0.06504368782 -0.1192704514 0.6402398944 0.07681190223 -0.68317312 0.724386394
0.02368655428 -0.1940665394 0.7103578448 -0.6972611547 -0.3021643162 0.637701571
0.02622478083 -0.1993361115 0.7129599452 -0.6371297836 -0.3292651474 0.6877426505
0.01795880124 -0.1812092811 0.7092444897 -0.7929361463 -0.273106426 0.5428916812
0.01981462911 -0.1865925342 0.708453536 -0.7699785233 -0.286228627 0.5695257783
0.01482574455 -0.1769824624 0.7059705257 -0.8360207677 -0.2395091802 0.4925572872
0.01194180921 -0.1784059405 0.7000904083 -0.8510984778 -0.2158564776 0.4755879045
0.008639519103 -0.1350039989 0.6903820038 0.7194985747 -0.3390498459 0.3423416018
0.005435264204 -0.1540800035 0.686029613 -0.2564128339 -0.1394290328 0.1932688653
0.008108924143 -0.1467292309 0.678861618 0.6290884614 -0.2450441122 0.3219287694
0.007741329726 -0.1442784816 0.6842108965 0.4785770178 -0.2551512718 0.3025133908
0.01097697485 -0.1739914715 0.6947743297 -0.6166396141 -0.2510537505 0.4690514207
0.01034247596 -0.1583506614 0.6861332655 0.1759631783 -0.2580240667 0.4108389914
0.004758922383 -0.1731174439 0.6853706837 -0.955814302 -0.001915874658 0.2646092474
0.007170089986 -0.1765692085 0.6900210977 -0.9159644842 -0.04459128901 0.3856057525
0.02052260377 -0.1331686974 0.6598619819 0.7506123781 -0.447196424 0.4857300222
0.1036284491 -0.1208656058 0.6520119309 -0.3507935703 -0.5649681687 0.7450137138
0.09532362223 -0.1181415319 0.648978889 -0.3686604798 -0.5742048621 0.7304896116
0.09653352946 -0.1240818799 0.6448386908 -0.3622755408 -0.5588020682 0.7458723783
0.1126594469 -0.1203378588 0.6457260847 0.08251408488 -0.3144253492 0.8993439674
0.1056104153 -0.1199085414 0.6461726427 -0.08249350637 -0.4092330337 0.8382971287
0.1059471443 -0.1258826852 0.6502177119 -0.3414980769 -0.5369673371 0.7695655227
0.1264992952 -0.1782478839 0.6870449781 0.893129468 -0.253731966 0.3468774557
0.06471189857 -0.125196591 0.6373488307 0.05943052471 -0.7132239938 0.6974117756
0.06263121963 -0.07702957094 0.6760960817 0.2012317479 -0.6487083435 0.7310979366
0.04349615797 -0.08220075816 0.681090951 0.486540556 -0.5953171253 0.6373973489
0.049515903 -0.08165662736 0.6780865788 0.3923191726 -0.6078877449 0.6805449724
0.05424237624 -0.08340628445 0.6738063693 0.3056051433 -0.6186285615 0.7225645781
0.05712109432 -0.07846914977 0.6761264205 0.2848340571 -0.6281668544 0.7225726247
0.06070335582 -0.08342298865 0.6714814305 0.2118151486 -0.6262540817 0.7471756935
0.06419590861 -0.08662538975 0.6674979329 0.1509649158 -0.6220846772 0.7667819262
0.04631926119 -0.08624605834 0.6754469275 0.4395253062 -0.5865285993 0.6788217425
0.04502719268 -0.0914561972 0.6713110805 0.433724314 -0.5903360248 0.6779275537
0.05232556909 -0.08904353529 0.6695610881 0.3256256878 -0.6120860577 0.7150898576
0.01905014552 -0.102553457 0.6933835745 0.8036240935 -0.4068178236 0.4336406589
0.01639110968 -0.1063822433 0.7000643015 0.8162783384 -0.3978147805 0.4180931449
0.0220159553 -0.0964557305 0.6956869364 0.7762802243 -0.4358975887 0.4547222555
0.01831480861 -0.09710814804 0.7018007636 0.7878373861 -0.4236551523 0.4466192126
0.06476800144 -0.182652846 0.7412282825 -0.06320466101 -0.5896261334 0.8047498465
0.05371118709 -0.1898651719 0.7335697412 -0.2334624827 -0.5451524854 0.7995193601
0.04222245142 -0.1880101115 0.7301319242 -0.4465078712 -0.4936751127 0.7436129451
0.05395314097 -0.1837789863 0.7373000383 -0.2463026196 -0.5686696768 0.7835241556
0.0472519286 -0.1845331639 0.7334917188 -0.3567078412 -0.5217789412 0.7625524402
0.047547061 -0.1313046515 0.6312401295 0.3381325901 -0.6497955918 0.6757445335
0.05301136523 -0.1294747591 0.6311168075 0.2409103811 -0.6843566298 0.6857391596
0.05906192586 -0.1311642826 0.6325729489 0.1457283497 -0.7087154984 0.6862373352
0.06282714754 -0.1312047541 0.6270914078 0.09498422593 -0.7313526273 0.663095057
0.03717535362 -0.1266894937 0.6483238935 0.5614791512 -0.5580778718 0.6089295745
0.03715515509 -0.1291456223 0.6425830126 0.5376517773 -0.5632288456 0.6196219325
0.02883713134 -0.1346298605 0.6475914121 0.637771666 -0.5161906481 0.5696333051
0.03894722834 -0.1326292008 0.6371931434 0.483141005 -0.5903989077 0.6317145824
0.03269154206 -0.130620122 0.6466275454 0.6017467976 -0.5326247811 0.5923806429
0.03479043767 -0.1338533759 0.6411782503 0.5449919105 -0.5608134866 0.606145978
0.04110384732 -0.1213440523 0.6493753791 0.5012713075 -0.5919766426 0.6292355061
0.04621751234 -0.1197246537 0.6459621787 0.3825744987 -0.6219442487 0.6830378771
0.04769012704 -0.1239945069 0.6405820847 0.3481748104 -0.6466110349 0.6774516106
0.027296165 -0.1258772016 0.6568135023 0.674236238 -0.4948452711 0.5468202829
0.03024566919 -0.1177908406 0.6604366899 0.6528251767 -0.5222254395 0.5485845804
0.02635143511 -0.1305129826 0.6541720033 0.6881594658 -0.4804240763 0.5420054197
0.02503716387 -0.1363001019 0.6514310837 0.6932179332 -0.476406306 0.5384421349
0.03143903986 -0.1270422786 0.6519122124 0.6315774918 -0.509411037 0.5838257074
0.0312170852 -0.1099537015 0.6692677736 0.6430432796 -0.5215419531 0.5497157574
0.04307355359 -0.1140541062 0.6532945633 0.4371913075 -0.5954987407 0.6717549562
0.03585474938 -0.1149782464 0.6580424905 0.5717362165 -0.5598212481 0.596039176
0.03759029135 -0.1185233817 0.6534582376 0.5433273315 -0.574162662 0.6120858788
0.03268877789 -0.121702224 0.6550850272 0.6166062355 -0.5264292359 0.5843118429
0.05064190924 -0.1079689488 0.6538903713 0.3326840997 -0.6173313856 0.7107423544
0.05272990838 -0.1028815955 0.6577317119 0.299715817 -0.6192436218 0.7213653922
0.03987647593 -0.1106210127 0.659270227 0.5166666508 -0.5666837096 0.6256580949
0.04739344493 -0.09752944112 0.6645087004 0.3898289502 -0.6002483964 0.6964313984
0.0883981064 -0.1229122207 0.6414422989 -0.3193484843 -0.6215881705 0.7135242224
0.09326040745 -0.1268473268 0.6406334639 -0.3590969741 -0.5709747076 0.73580724
0.05987956002 -0.1129452065 0.6468313932 0.1595286131 -0.6385043263 0.7496528625
0.05899558589 -0.1081816107 0.6504955888 0.19588162 -0.6231031418 0.7558165193
0.06444241852 -0.1060264781 0.651669085 0.1138349697 -0.6268072128 0.7701070309
0.01898190938 -0.1261101812 0.6712674499 0.8048835993 -0.4258016348 0.4118422866
0.02192028239 -0.1134731099 0.6792980433 0.7929120064 -0.4306307733 0.4291815758
0.01809517853 -0.1172267199 0.6843245625 0.8195789456 -0.4073919058 0.4012074471
0.01888986677 -0.1191221103 0.6789062023 0.8147402406 -0.4227989316 0.3965517879
0.01463878807 -0.1237973645 0.6837596297 0.8398453593 -0.3921830356 0.3748416603
0.01647793688 -0.1249632612 0.6778607368 0.8319770098 -0.4035587907 0.380425483
0.02615494281 -0.1884823292 0.7147920728 -0.6828334928 -0.3265938461 0.6464401484
0.0323750414 -0.1913545132 0.719509542 -0.5827524662 -0.3755461872 0.7186544538
0.02645583637 -0.1845870614 0.7190386057 -0.6689832807 -0.3563275337 0.6483422518
0.02695582248 -0.190936029 0.7202299833 -0.6366276741 -0.3778522313 0.6683270931
0.03088036552 -0.1862161309 0.7230601311 -0.6071193814 -0.410741359 0.6785353422
0.0352072157 -0.1819268614 0.7303254604 -0.5332375765 -0.4852993488 0.6914677024
0.02793115191 -0.1733136624 0.7292732 -0.61542207 -0.4605962932 0.6388995051
0.03030431457 -0.1812891215 0.7258838415 -0.5959314108 -0.4326022267 0.672750175
0.01988137141 -0.1674299687 0.7235968113 -0.714815259 -0.3757474124 0.5879439712
0.01782477461 -0.1703861207 0.7172785401 -0.7579141259 -0.3409931362 0.5554795265
0.01252146065 -0.1462231725 0.7022306919 0.1858036667 -0.3672042489 0.4367899001
0.0138399126 -0.1522421688 0.7057828903 -0.07063586265 -0.362388432 0.4650247395
0.006050479598 -0.1691034734 0.6893777847 -0.946515739 -0.0623223111 0.1804246306
0.007396336179 -0.1555680335 0.6913276315 -0.3120835125 -0.1808410883 0.253319025
0.006560473703 -0.1492505521 0.6886693835 -0.03566939384 -0.1985536218 0.2397411466
0.00764312502 -0.1646214873 0.6928302646 -0.7216910124 -0.131025359 0.2417127341
0.01636431366 -0.1662703604 0.714148283 -0.6732882261 -0.3448381424 0.522988379
0.01458057575 -0.1656273156 0.704916656 -0.4511573911 -0.3009301126 0.4886111319
0.01256448217 -0.1604031771 0.6951695681 -0.06631495804 -0.2787766755 0.444193095
0.01340492722 -0.1721667349 0.701595664 -0.6607043147 -0.2321495265 0.468498379
0.01266655792 -0.166689679 0.6971474886 -0.3584237099 -0.2448044121 0.4500786662
0.01506454125 -0.1710799485 0.7082914114 -0.7336140871 -0.2817804217 0.5018092394
0.0141804358 -0.158981353 0.7024387121 -0.1616798788 -0.3283556402 0.4752941728
0.01296317205 -0.1521789134 0.6978605986 0.1284890473 -0.3339654803 0.4433444142
0.01185648423 -0.1412828267 0.6956508756 0.4540863633 -0.363312155 0.4073188603
0.01196092926 -0.147724241 0.693616271 0.3523709476 -0.332686156 0.4187358916
0.01523550786 -0.1588867009 0.7088893652 -0.334624052 -0.3543221653 0.4941142797
0.01077367645 -0.1504770666 0.6852608323 0.5122782588 -0.2898482382 0.4014773071
0.08315699548 -0.1679238826 0.749475956 0.1911440641 -0.5972661972 0.7757929564
0.07624372095 -0.1594212055 0.7557328939 0.05277145654 -0.581784904 0.8036483526
0.0690215826 -0.1630899012 0.7537361979 -0.02835975029 -0.5779308081 0.8129317164
0.07441993058 -0.166291967 0.7519014478 0.04802464321 -0.5872141123 0.8038653731
0.05762038007 -0.175001055 0.7446856499 -0.1911662072 -0.5685020685 0.7982304096
0.07497037947 -0.1779387742 0.7450336218 0.07650367171 -0.6063664556 0.7912602425
0.08122639358 -0.1796389967 0.7433304191 0.2025369257 -0.612229526 0.7617775798
0.08287580311 -0.1753605008 0.7463369966 0.2262936532 -0.6049961448 0.7631044388
0.07768920809 -0.1719507128 0.7485592961 0.1095163003 -0.5947988629 0.7913953066
0.1125118658 -0.1841673851 0.7140328884 0.7484079003 -0.4270564318 0.5054813027
0.1096204072 -0.1825566888 0.719352901 0.696978569 -0.473914355 0.5339255333
0.1023763865 -0.1960285455 0.7171439528 0.5806097984 -0.5067048669 0.6352058649
0.09986341745 -0.1881850362 0.7254057527 0.5230367184 -0.5572937131 0.6424199343
0.1006373316 -0.2008164823 0.7141002417 0.5648653507 -0.5135348439 0.6416308284
0.1039459109 -0.1865864545 0.7210451961 0.6048157215 -0.5051188469 0.6043244004
0.1052464321 -0.1913570464 0.7162614465 0.6316623092 -0.4736618102 0.6086578369
0.09592661262 -0.2068222463 0.7174169421 0.4732861221 -0.5288740396 0.7031276822
0.09712307155 -0.1935734749 0.7225197554 0.5070974827 -0.5209783316 0.6855895519
0.09742138535 -0.2012087554 0.7190226912 0.4967313111 -0.5234097242 0.6903253198
0.1137458533 -0.1757020354 0.7191823721 0.7374500036 -0.4664313495 0.4843681753
0.1099289805 -0.1777198017 0.723459959 0.6909607053 -0.5028264523 0.5172751546
0.08899699897 -0.1817366034 0.7373062968 0.3325593472 -0.6013035774 0.7226883173
0.09417547286 -0.1791474819 0.7367454767 0.4041286707 -0.5919457674 0.694588542
0.09073989838 -0.1751713902 0.7423595786 0.3386411667 -0.5891804695 0.7287964821
0.01833263598 -0.1396326125 0.6593034863 0.7416124344 -0.4474467039 0.4993818998
0.1230548322 -0.1258645654 0.6461636424 0.2070115805 -0.182576701 0.9351140857
0.1035574749 -0.1337382048 0.6388779283 -0.3288632035 -0.4084015191 0.8250064254
0.07373247296 -0.1204615161 0.6396400928 -0.04383616149 -0.6906663775 0.718711257
0.06946457922 -0.124835521 0.6324599385 0.002618534723 -0.6962586045 0.7148993015
0.04622364044 -0.1282901317 0.6363965869 0.3617994487 -0.649800539 0.6682263017
0.04272931814 -0.1254531443 0.6436545253 0.4329906106 -0.6067665815 0.6612299681
0.03610819206 -0.1092861369 0.6637528539 0.5797085762 -0.5466882586 0.5941109657
0.04561531171 -0.1059926823 0.6580468416 0.4085921943 -0.6010278463 0.6864005923
0.0432882607 -0.1030259281 0.6629540324 0.4277013242 -0.5923281312 0.682742238
0.04014525935 -0.1007885709 0.6676911712 0.5102760196 -0.5604354143 0.6374803782
0.03532784805 -0.1042196527 0.6684604287 0.5936412215 -0.5418524146 0.5933372378
0.08804233372 -0.1277609468 0.6363699436 -0.3251666725 -0.6187699437 0.7113022208
0.08009364456 -0.1322662234 0.6265876293 -0.1570922434 -0.6838464141 0.7112016082
0.07932926714 -0.1259599328 0.6366522908 -0.1773195267 -0.667485714 0.7098935843
0.0834794417 -0.1190286651 0.6426331401 -0.2169554234 -0.6298122406 0.7427238822
0.06729850173 -0.1694985926 0.7509004474 -0.06626214087 -0.5764201283 0.8124393821
0.07239547372 -0.1600811779 0.759896338 -0.0001028908591 -0.5732419491 0.8173988461
0.06616004556 -0.1601969451 0.7579405904 -0.06659340113 -0.5651986599 0.816680789
0.05931287631 -0.1594778895 0.7556414604 -0.1413680166 -0.5569685102 0.8160110712
0.06170749292 -0.1652857959 0.7540178895 -0.1261286736 -0.5634602308 0.8129674792
0.06601873785 -0.1765669584 0.7452954054 -0.07166235894 -0.5866304636 0.7992103696
0.05866017938 -0.18053855 0.7423651814 -0.1728964299 -0.579102397 0.7949700952
0.06047751755 -0.1722442657 0.7490897775 -0.1609497517 -0.56971246 0.8044832349
0.07018445432 -0.1826332659 0.7414397001 0.02184062824 -0.6001700759 0.7953202724
0.1043938771 -0.1750698537 0.7335403562 0.5577408671 -0.5504742265 0.6206108332
0.1014764905 -0.1723687351 0.7403056026 0.4549934566 -0.5598448515 0.6918480992
0.09916330874 -0.1760811508 0.7362266779 0.4730765522 -0.5731182694 0.6656216979
0.06756865978 -0.131526798 0.6321725845 0.02067912929 -0.7139902115 0.6927693486
0.06998641044 -0.1310864091 0.6255291104 -0.002485039411 -0.7535841465 0.6557936072
0.08003450185 -0.1305092722 0.6317379475 -0.1614275426 -0.6796963811 0.713620007
0.07379483432 -0.1311262846 0.6330907941 -0.08988355845 -0.6911776066 0.6966565847
0.09916943312 -0.1659594923 0.7451546192 0.4493820965 -0.5331445336 0.7159648538
0.09575495124 -0.1715862751 0.743078053 0.407951653 -0.5627093315 0.7179269791
0.08663097024 -0.1604448557 0.752764225 0.2268376797 -0.5839449167 0.7735359669
0.09401299804 -0.1635305136 0.7487338781 0.3409627378 -0.5635432601 0.7429699302
0.08995657414 -0.1690026075 0.7480331659 0.2991170287 -0.5705240965 0.7644451857
0.08108703047 -0.1658206433 0.7546476722 0.1564374864 -0.5860019326 0.7910608649
0.113643162 -0.168157354 0.7277770042 0.6959354877 -0.4849554598 0.5284097195
0.1082952991 -0.1719903201 0.7311457396 0.624276042 -0.5195347667 0.5772640109
0.1111429185 -0.1663221121 0.733235836 0.6584704518 -0.4939400852 0.5658148527
0.1057619452 -0.1697706133 0.7362899184 0.5597056746 -0.53083992 0.6305484772
0.1057360321 -0.1653576195 0.7400742769 0.5333021283 -0.5205536485 0.6595476866
