# .PCD v0.7 - Point Cloud Data file format
VERSION 0.7
FIELDS x y z normal_x normal_y normal_z
SIZE 4 4 4 4 4 4
TYPE F F F F F F
COUNT 1 1 1 1 1 1
WIDTH 512
HEIGHT 1
VIEWPOINT 0 0 0 1 0 0 0
POINTS 512
DATA ascii
0.005639689043 -0.1287648976 0.6323165298 0.1802190542 -0.6165223122 0.7651953101
0.008763414808 -0.1319176257 0.6282820106 0.1154788285 -0.5967723131 0.7875998616
-0.02317748591 -0.1434194446 0.6395338774 0.6145586371 -0.455933243 0.6427337527
-0.02287504077 -0.1371179372 0.6433938742 0.6196325421 -0.475097239 0.6223487258
0.08043673635 -0.1544488966 0.6623625755 0.5292539597 -0.6317030787 0.4856990576
0.07921118289 -0.1704436839 0.6762705445 0.7371672392 -0.430754602 0.414334625
0.0798496455 -0.1672362536 0.6703199744 0.6849726439 -0.4713236094 0.4130831361
0.07819997519 -0.1677387357 0.6645092964 0.7366774082 -0.3474810719 0.3171527684
0.07934068143 -0.1763527393 0.6757578254 0.7985115647 -0.351087749 0.3570011556
0.07824192941 -0.1729317456 0.6688573956 0.7920513153 -0.3029804528 0.3042072654
0.08044926077 -0.1783285439 0.6815292835 0.7889584899 -0.4131345153 0.4146294892
0.078744784 -0.1612740308 0.6613461375 0.6510108113 -0.4460352361 0.3674497306
0.07791808993 -0.1492457539 0.6619820595 0.484903276 -0.6024374962 0.492289722
0.07330245525 -0.1460817605 0.6704693437 0.3406202793 -0.5719922185 0.5797966123
0.0737658143 -0.1585127264 0.6768036485 0.5715149641 -0.4121108651 0.4749972224
0.0744368732 -0.1427648515 0.6659542322 0.3029308319 -0.6345511675 0.590744257
0.07512001693 -0.1381817758 0.661701262 0.234040767 -0.707003653 0.6178315878
0.07955811918 -0.141580224 0.6537517905 0.3791368008 -0.7314872146 0.5308676362
0.07735611498 -0.1578534096 0.6683505774 0.6279979348 -0.4777664542 0.4316633642
0.0747557804 -0.1518305838 0.6706164479 0.4709575772 -0.5176510811 0.5145727396
0.07599438727 -0.1633251011 0.6746544838 0.6998615861 -0.3826280832 0.4067106545
0.07748804986 -0.1434325874 0.6594989896 0.3728721738 -0.6738290787 0.5441833735
-0.02928020246 -0.1035140157 0.6802743673 0.7175242305 -0.4580417871 0.5242505074
-0.01670191437 -0.2156787366 0.7115510702 -0.453291446 -0.4937163591 0.7315230966
-0.001644713804 -0.2196443379 0.7128881812 -0.2302904427 -0.5589036345 0.7910442352
-0.04098521546 -0.1539701521 0.6856265068 0.1027848795 -0.3642683923 0.4678897858
-0.04240431264 -0.1391968131 0.6770949364 0.6825349927 -0.4238435924 0.4243211448
-0.006114854943 -0.1164557934 0.6475548744 0.3614844978 -0.6274269223 0.6881948709
-0.005144746043 -0.1211231649 0.6433881521 0.3465298414 -0.6295899153 0.6952891946
0.08124299347 -0.1314059645 0.6611317992 0.1186183989 -0.7033849955 0.6069680452
0.08689681441 -0.1278826892 0.6584045291 0.2761442959 -0.6743895411 0.5903519988
0.07820594311 -0.1297918558 0.6659505963 -0.02228773758 -0.7454659939 0.5688151121
0.07210225612 -0.1340936422 0.6663245559 0.1039026082 -0.7102038264 0.6927971244
0.08781910688 -0.1329072714 0.652317822 0.4037077725 -0.6470056176 0.6305766702
0.09142879397 -0.1278629154 0.6512772441 0.4633041918 -0.6211953759 0.6310909986
0.0145163741 -0.219158411 0.7158233523 -0.002529123332 -0.6298831701 0.7709543109
0.007875051349 -0.215557918 0.7150884271 -0.09999255836 -0.5973740816 0.7846657038
-0.03333774954 -0.2053959817 0.7003301382 -0.7233415246 -0.3313439488 0.6036186814
-0.04364012182 -0.1837529689 0.690293014 -0.8009177446 -0.2730616927 0.5327579975
-0.03113955632 -0.2110383362 0.7035749555 -0.6520862579 -0.4058816731 0.6395872831
-0.03905970603 -0.2016951889 0.6977316737 -0.7534039617 -0.293895036 0.5845267177
-0.03100528196 -0.1998414248 0.7073604465 -0.7024428248 -0.3534357846 0.6140991449
-0.02897632495 -0.1426680833 0.6461241245 0.669752717 -0.4655263126 0.5734980106
-0.03816163167 -0.1481011808 0.6563053131 0.7328722477 -0.4714100659 0.4890340269
-0.034050446 -0.1474324018 0.6511904001 0.6989497542 -0.4627239108 0.5396742821
-0.03627739847 -0.1360356361 0.6616905928 0.760124445 -0.4660178125 0.4523892105
-0.04108698666 -0.150879845 0.6620232463 0.6739949584 -0.4558368325 0.4827069342
-0.04126998782 -0.1532024443 0.6768382192 0.3057517409 -0.3975248039 0.4734247625
-0.04067029431 -0.1636599898 0.6871933341 -0.1926691532 -0.3395837247 0.4977960885
-0.04009034485 -0.1746935397 0.6927370429 -0.6191990376 -0.2962308526 0.5289219022
-0.0400615707 -0.1695806086 0.6853615046 -0.331985265 -0.3323422372 0.5197501183
-0.04363555461 -0.1577998698 0.6742311716 0.2410359979 -0.3909536302 0.4842570424
-0.04370702803 -0.1493321061 0.6690377593 0.5989353657 -0.4285805821 0.4619733691
-0.04316447303 -0.146380499 0.6741799712 0.5527206063 -0.4170412123 0.4485549927
-0.04308002442 -0.158285439 0.6812849641 0.05437657982 -0.3648377359 0.4800436199
-0.04296991602 -0.1677073538 0.6728836894 -0.0003381683491 -0.3717821836 0.5046591759
-0.04348267987 -0.143177256 0.668520689 0.7776525021 -0.4442702234 0.4432858229
-0.04184483364 -0.1759396493 0.6867676973 -0.5333619714 -0.3066217601 0.5209377408
-0.04140040651 -0.1659600139 0.6785641313 -0.1250708997 -0.358094126 0.5097014308
-0.04050859064 -0.1611031443 0.668718636 0.2467083931 -0.4049635231 0.4994699359
-0.04108015448 -0.1569980383 0.6636686921 0.4623785317 -0.4321525991 0.4935346246
-0.0429872945 -0.1785840541 0.6818381548 -0.4899404049 -0.3120958209 0.5197427869
-0.04130815342 -0.172670722 0.6793160439 -0.2637660503 -0.3406091332 0.513518393
-0.04294144735 -0.1448977292 0.6625771523 0.7596509457 -0.4523133337 0.4667390287
-0.03994515166 -0.1355763674 0.6695882678 0.7828043103 -0.4479698241 0.4309704602
-0.03909387067 -0.1405735165 0.6661031842 0.7705001831 -0.4512189031 0.4478203356
-0.01666885056 -0.1392585933 0.6356716156 0.4889100492 -0.5512225628 0.6754183769
-0.01744120382 -0.1337639093 0.6412577033 0.5164703131 -0.5461809039 0.6587876678
0.08377066255 -0.1249012128 0.6668239832 0.2188467085 -0.6795500517 0.5817154646
0.08355831355 -0.1214176118 0.6735707521 0.2830694914 -0.6467770934 0.59226197
0.08849067241 -0.123045586 0.6638630629 0.3891324103 -0.6382815838 0.5916992426
0.0776289627 -0.126008749 0.6731000543 0.02360890247 -0.7205601335 0.5727534294
0.08374518156 -0.1183854863 0.6789390445 0.3494342268 -0.616420269 0.6017774343
0.07313866168 -0.1894389391 0.6889840961 0.8278058767 -0.3921487927 0.4007739723
0.07142769545 -0.185673669 0.6836864948 0.869685173 -0.3184810579 0.3599751294
0.07500117272 -0.1813066155 0.6781640649 0.9530816674 -0.1256584078 0.2417027652
-0.03914356604 -0.1783048958 0.6990912557 -0.7988363504 -0.2780977488 0.5332643986
0.0004454535374 -0.1161222905 0.645403564 0.2455492467 -0.6494690776 0.7128456831
0.01894366369 -0.07773450017 0.6777115464 -0.009826246649 -0.7248784304 0.6822115779
0.02435627766 -0.08341729641 0.6732705832 -0.08565693349 -0.6882110834 0.7193574905
0.06953918934 -0.1617807299 0.6588666439 0.2131110132 -0.5688575506 0.3996912241
0.07490666956 -0.1782878637 0.6838783026 0.93735677 -0.1572114378 0.2898533046
0.07220491767 -0.170536086 0.6687998176 0.5688315034 -0.3504268825 0.3238630295
0.07165199518 -0.1695006341 0.6632529497 0.4894837439 -0.3761362731 0.3097828627
0.07059896737 -0.1641574502 0.6677468419 0.3623999953 -0.5097370744 0.4117054045
0.07426718622 -0.178400442 0.6716112494 0.8362469077 -0.1540530324 0.2235374749
0.07516142726 -0.1586268842 0.6577316523 0.4531210065 -0.5147225857 0.3839963675
0.07483893633 -0.1479587108 0.6534774303 0.2211791426 -0.7296079993 0.4961135089
0.07383437455 -0.1754467934 0.6642702222 0.7190222144 -0.2135488242 0.2221627086
0.07581078261 -0.1812761128 0.6667605042 0.9436288476 -0.05923024192 0.1462515444
0.0685986951 -0.1557189822 0.6559760571 0.03789183125 -0.7060160637 0.467241317
-0.02780182101 -0.0946155414 0.6862750053 0.6903978586 -0.4842452407 0.5357772708
-0.03712571412 -0.195767045 0.7012053132 -0.7664890885 -0.286221832 0.5737376213
-0.03166223317 -0.1931680143 0.7041822076 -0.7743783593 -0.2713117301 0.5702041984
-0.02832818776 -0.2050022185 0.7042485476 -0.6690138578 -0.3728370368 0.6386064291
-0.04120314121 -0.1865310967 0.698569417 -0.7915033698 -0.27817747 0.5431958437
-0.03752646968 -0.1806019843 0.7042629123 -0.8042122126 -0.2817950845 0.5231015086
-0.03576696664 -0.1862068474 0.7028878927 -0.8009527922 -0.2726737559 0.5327699184
-0.03883394226 -0.1414864957 0.6852338314 0.4665170312 -0.4021780491 0.4379885197
-0.03841357678 -0.1529702097 0.6915444732 0.05785089731 -0.371281147 0.4657680094
-0.03826889768 -0.1720728874 0.7007037997 -0.6199284792 -0.3134027719 0.5135607123
-0.01428066287 -0.1045320705 0.6653077006 0.4724427462 -0.6052809954 0.6393902302
-0.03259203583 -0.1258813888 0.6698088646 0.7523967028 -0.4680829048 0.4596787989
-0.03721513972 -0.130904302 0.6735045314 0.7856189013 -0.4459240735 0.4272015989
-0.03521163017 -0.1305336803 0.6657447815 0.7658327818 -0.4649248421 0.443264991
-0.03339271247 -0.1191796958 0.6725738049 0.7671082616 -0.4443661571 0.4620035589
-0.009317301214 -0.1271658689 0.6408154368 0.4066118002 -0.6029218435 0.6827284694
-0.01460252423 -0.1277897507 0.6437107921 0.4871985316 -0.5695955753 0.6618913412
-0.01092277467 -0.1211348251 0.6461680532 0.4297902584 -0.6053355932 0.6681473255
-0.01607204974 -0.123264268 0.6489234567 0.5005725026 -0.5803690553 0.6418039203
-0.003975534346 -0.136243999 0.6293905377 0.3242625892 -0.5745850801 0.7483836412
-0.01078616083 -0.1385638267 0.6325752735 0.4195939302 -0.5637100339 0.7062462568
0.05347471684 -0.1392015368 0.6392492652 -0.4340707362 -0.4994854927 0.705096364
0.06575042754 -0.1336485147 0.6432751417 -0.08513405919 -0.5979838967 0.6782855988
0.0607127659 -0.1387990415 0.6423316598 -0.2855950892 -0.5524171591 0.6947261691
0.08987668902 -0.116828233 0.6723831892 0.5445558429 -0.5755925775 0.6072603464
0.09149996936 -0.1156987399 0.6657447219 0.561512053 -0.5826861858 0.5840776563
0.09302780777 -0.1219129339 0.6576596498 0.5227434635 -0.6135105491 0.5900286436
0.07312757522 -0.1770752817 0.6906145215 0.8775374293 -0.2816134393 0.3693518341
0.07841641456 -0.182674408 0.6885319352 0.8315392733 -0.3763041496 0.4081389606
0.07464694977 -0.17780599 0.6958661675 0.8134909868 -0.3797268569 0.4392588735
0.07497612387 -0.1844532341 0.6941999197 0.8305984139 -0.3764825761 0.4097611606
0.07782776654 -0.1854476333 0.6807126403 0.8472775817 -0.3460648954 0.3711046875
0.07439348102 -0.1883627176 0.6729205251 0.8971421719 -0.2292809188 0.2734428048
0.0680764541 -0.1976841688 0.686545074 0.8052895069 -0.4106510878 0.4263113439
0.07335438579 -0.1911552548 0.6798217893 0.8222429156 -0.405908972 0.3987807035
0.01879462227 -0.2138781697 0.7164194584 0.09061646461 -0.6127289534 0.7785170674
0.04900103062 -0.211935252 0.704508841 0.59431988 -0.5208357573 0.6099507213
0.0571808517 -0.2078440338 0.6987507343 0.7158471346 -0.4494226277 0.5321872234
0.06908775866 -0.1841669828 0.6910696626 0.8272708654 -0.3841814995 0.40976125
0.03857694939 -0.1415462643 0.625025332 -0.3952526152 -0.5522676706 0.7327296138
0.03714964911 -0.135895744 0.6296485066 -0.347864598 -0.5940620303 0.721014142
0.02110143937 -0.08757285774 0.6688009501 -0.04776412994 -0.6687061787 0.739373982
0.01639886387 -0.08379592746 0.6720858216 0.02011433616 -0.6942903399 0.7176297903
0.02815451473 -0.08821344376 0.669716537 -0.1546697021 -0.6554826498 0.7308974862
0.004717742559 -0.124636963 0.636957407 0.1882255375 -0.6495777965 0.7361505032
-0.00126009481 -0.1241406575 0.6390615702 0.285543561 -0.6342443228 0.7094290257
0.0009994042339 -0.1326944679 0.6301286221 0.2667176425 -0.5953867435 0.7570387125
-0.01220994443 -0.1337358356 0.6379022002 0.4476884007 -0.5704690218 0.6834311485
-0.006247811485 -0.1315849274 0.6345973015 0.3871237636 -0.5947808623 0.7037469745
-0.03219311312 -0.1363755763 0.6539394259 0.7199949622 -0.4754112661 0.5044742823
-0.02683891729 -0.1360968947 0.6482929587 0.6675259471 -0.472705096 0.5723962784
-0.03162192926 -0.1306938082 0.658551991 0.7334792614 -0.4782924354 0.4811069071
-0.0365543887 -0.141639173 0.6567795873 0.7416005135 -0.4786708057 0.4696440697
-0.03351081908 -0.141617924 0.6508043408 0.7117681503 -0.4710496664 0.519348681
0.04296012595 -0.1395576745 0.6313160658 -0.4758232236 -0.5291606188 0.6996753812
0.0285601411 -0.1350589395 0.6294160485 -0.2239039391 -0.612462461 0.747230649
0.04768127576 -0.1746706963 0.7356091738 0.5831019878 -0.4648220241 0.6650626659
0.05062330514 -0.1689252406 0.730522573 0.6319720745 -0.4446817636 0.633318007
-0.009728716686 -0.08154357225 0.6835053563 0.4444357157 -0.6186148524 0.645115912
-0.01765774749 -0.08077222109 0.6896809936 0.5284072161 -0.568962574 0.6290345192
-0.04334283993 -0.1900342256 0.6886080503 -0.7923825383 -0.2728427052 0.5453596711
-0.03931663558 -0.1965343505 0.6946515441 -0.776911974 -0.2690493166 0.568795383
-0.03660799935 -0.1902016848 0.6983161569 -0.7941502333 -0.2669333518 0.5455637574
-0.02474046685 -0.1996617317 0.7094076872 -0.6625219584 -0.3611093163 0.6450953484
-0.02580483817 -0.1887167841 0.7171462178 -0.6920515299 -0.41852507 0.5842093229
-0.0221123267 -0.2008723915 0.7157822251 -0.5903468728 -0.4433247149 0.6710855961
-0.0202402696 -0.1953983009 0.7191106677 -0.5953705311 -0.4536022544 0.6613960266
-0.02434081957 -0.2059024274 0.7113699317 -0.5895555019 -0.4315880537 0.678591013
-0.02330981381 -0.2120411843 0.7103124857 -0.5538026094 -0.4564397335 0.6930786967
-0.01357107796 -0.2068924457 0.7172308564 -0.4291672707 -0.5125750303 0.7396230698
-0.01064596977 -0.2136403769 0.7137138844 -0.3733065128 -0.5123502016 0.7645985484
-0.01850016229 -0.1700163484 0.7386706471 -0.491520077 -0.5000972748 0.704646647
-0.03144640848 -0.1883684546 0.7077463269 -0.767893374 -0.3123246133 0.5536978841
-0.02790544927 -0.1916511059 0.7117556334 -0.7337115407 -0.3514195681 0.5766634345
0.01597934775 -0.1704360545 0.7537841797 0.03914321586 -0.5948813558 0.802355051
-0.002568290336 -0.167198807 0.7513092756 -0.2411971688 -0.5739625096 0.7816428542
-0.01250713505 -0.1679590791 0.7407940626 -0.3948179781 -0.5270417929 0.7317693233
-0.006733797491 -0.1732114702 0.7453584671 -0.3471526802 -0.5526143909 0.7547979355
-0.009660514072 -0.1684009284 0.7471723557 -0.3406986296 -0.5464087129 0.7601414919
-0.0427085124 -0.1489623189 0.681879878 0.2950768471 -0.3837298453 0.4509640336
-0.03991819173 -0.1474225521 0.6890955567 0.2276861966 -0.3799819052 0.4510236681
-0.04084850848 -0.1567863524 0.6947029829 -0.1240597889 -0.3499652445 0.4724080861
-0.042086225 -0.1701241285 0.6966844797 -0.578764379 -0.3013364673 0.5074688196
-0.04244631901 -0.1628438979 0.6930423379 -0.3039476871 -0.3244498372 0.4893801212
-0.04141048715 -0.1634555906 0.6984634995 -0.3734102249 -0.3284420371 0.4879003167
-0.01974488981 -0.1221391633 0.6529762745 0.5476296544 -0.5718051791 0.6085969806
-0.0243873857 -0.1226795912 0.6569977403 0.6244091392 -0.540161252 0.5604936481
0.007566925138 -0.08449859172 0.6725098491 0.1561070532 -0.6867642403 0.7052757144
0.009540230036 -0.08857169002 0.668165803 0.118033804 -0.6704610586 0.7302128673
-0.02855722234 -0.1204863042 0.6656478643 0.7197485566 -0.4886981249 0.4922529459
-0.02614775486 -0.1152162626 0.6667378545 0.6683561802 -0.5139580369 0.5342254043
-0.0075635463 -0.09669473022 0.6676185131 0.4007402062 -0.62752074 0.6661622524
-0.007383475546 -0.1022457704 0.6624705195 0.4040650427 -0.6324736476 0.6605839729
0.06799995154 -0.157526359 0.6639484763 0.09119666368 -0.7153257132 0.4999193549
0.06740253419 -0.1471861303 0.6595810056 -0.1984049678 -0.7835962176 0.527422905
0.06800309569 -0.1507932991 0.6641538739 -0.06798751652 -0.7276780009 0.5125560164
0.06926877797 -0.1431076974 0.6742019653 -0.155103609 -0.6384621263 0.5100124478
0.06854405254 -0.1401048303 0.6686474681 -0.2805181742 -0.7034124732 0.5254105926
0.06901349872 -0.1350141615 0.6724345088 -0.365867883 -0.6745172739 0.5286853909
0.07104212046 -0.1715330034 0.6872270703 0.6508327723 -0.4400586486 0.4326433539
0.06916295737 -0.1600986719 0.6729225516 0.2392647266 -0.6153030992 0.4794394672
0.07023976743 -0.1626882702 0.6812258959 0.3812812269 -0.5223048925 0.460085988
0.0692641288 -0.1503296196 0.6739717126 0.01554270927 -0.6253173351 0.4964753985
0.06871153414 -0.1544019133 0.6695654988 0.07054854184 -0.6629266143 0.4962362051
0.06996923685 -0.1531042755 0.6793798804 0.1340837479 -0.5624001026 0.4817706943
0.0716362223 -0.1705753356 0.6807621121 0.6195657253 -0.4132785499 0.4043970108
0.07143255323 -0.1675393879 0.6745982766 0.5101307034 -0.4440541267 0.4035952091
0.07110539079 -0.1663475931 0.6907328963 0.5450915694 -0.4376211464 0.4499244392
0.07062838227 -0.159904778 0.6885820031 0.362716943 -0.4853777587 0.4725014567
0.07027027756 -0.1485665143 0.6838209629 0.07290750742 -0.5839090943 0.509531498
0.07032918185 -0.142763719 0.679751873 -0.06665579975 -0.6387450099 0.5214719772
0.07159837335 -0.1541853547 0.6869396567 0.309679985 -0.5775157213 0.500031054
0.07166822255 -0.1710046381 0.6943769455 0.7063447237 -0.4160517752 0.4449142516
0.07135909051 -0.1742454171 0.7008413076 0.7884039283 -0.3862780035 0.457778126
0.07029301673 -0.1449431926 0.6486881375 0.009300911799 -0.6906428933 0.6322663426
0.06379435211 -0.146587804 0.6468497515 -0.2203513533 -0.6398406029 0.6908711791
0.07072033733 -0.1384684145 0.6476640701 0.06138086319 -0.708244741 0.6214486957
0.08276520669 -0.1336638778 0.6486688852 0.4328349233 -0.6554300785 0.6138510704
0.09281659126 -0.1148668081 0.6564384103 0.5797672272 -0.5894198418 0.5597742796
0.07009591162 -0.1219796911 0.6793694496 -0.3950731158 -0.5665500164 0.6707210541
0.07101271302 -0.1277476102 0.6748751998 -0.3080798984 -0.7110445499 0.5973408222
0.05293474346 -0.1771883518 0.7228111029 0.6494951844 -0.45487082 0.6005411744
0.04881826416 -0.1814715713 0.724773109 0.5993651152 -0.4904602766 0.6319115162
0.05514073744 -0.171339348 0.7267984152 0.6713452339 -0.421377033 0.6078330874
0.05963865295 -0.1737286597 0.719183743 0.7244101763 -0.3972547054 0.5597202182
0.02134672366 -0.2195929736 0.7163689137 0.1464964747 -0.618565917 0.7682461739
0.04499137402 -0.2097394317 0.7084983587 0.5162966847 -0.5434741974 0.6567467451
0.03832833841 -0.2138735205 0.7107793093 0.4312081635 -0.5803390741 0.6860114336
0.04212143272 -0.2081949115 0.7144345641 0.4570210874 -0.5712496042 0.6816265583
0.04369371384 -0.2018694282 0.7145616412 0.5014876127 -0.54367733 0.6672970057
0.05547265336 -0.2030863166 0.7031932473 0.7017500401 -0.4627811909 0.5390749574
0.06274344027 -0.2039804459 0.6950868368 0.7816592455 -0.415276438 0.4644966424
0.05138745904 -0.1919761896 0.7159375548 0.6239207387 -0.4874598086 0.6104232669
0.05286393687 -0.1847135872 0.7228045464 0.6548876166 -0.4555599391 0.6016931534
0.05172075331 -0.1023928449 0.6694755554 -0.5603017211 -0.5365259051 0.6298902035
0.04944466799 -0.09573599696 0.6738462448 -0.5191406012 -0.5496952534 0.652487874
0.04372179881 -0.09723956138 0.667805016 -0.438912183 -0.5836414695 0.6827464104
0.0306933783 -0.07994900644 0.6772974133 -0.2173858434 -0.6916428208 0.6847727299
0.03560860455 -0.08707501739 0.6724199057 -0.2878879607 -0.6460478902 0.7058207393
-0.030655751 -0.0953894183 0.6940362453 0.6856866479 -0.4834641516 0.5363585949
-0.02427289076 -0.0893048346 0.6875172257 0.6303257346 -0.5193324089 0.5745931864
-0.02986888401 -0.08993142098 0.6959145069 0.6994875073 -0.4679564238 0.538636446
-0.02651216276 -0.08642176539 0.6929887533 0.6825957298 -0.4788703918 0.5518172383
-0.04311349988 -0.1111451611 0.7013574839 0.792530477 -0.3993557096 0.4607574046
-0.03979297727 -0.104938671 0.6990253925 0.7686263323 -0.4223909974 0.4795000851
0.03747640178 -0.08302577585 0.6773199439 -0.3196572959 -0.6571955085 0.6770401597
0.04319325835 -0.08264128119 0.6808865666 -0.4109843373 -0.6389501691 0.6436674595
-0.01391853113 -0.08592139184 0.6816019416 0.4827017486 -0.5898720622 0.647129178
-0.01760004461 -0.211947158 0.7067532539 -0.475184083 -0.4629561305 0.7265541553
-0.02331347577 -0.2114219666 0.7043563128 -0.5562619567 -0.4242933691 0.6835153103
-0.01822679304 -0.205255881 0.7118802071 -0.5157313347 -0.4672498107 0.7119302154
-0.01040607784 -0.2162548006 0.7083685994 -0.3460849226 -0.5189587474 0.7814214826
-0.007363534532 -0.2089962363 0.7158229351 -0.3140420318 -0.550543189 0.7710825205
-0.01951937936 -0.1854842454 0.7266679406 -0.5833791494 -0.4872814715 0.6467097402
-0.04124916717 -0.1138589233 0.6961373091 0.7990064621 -0.3944612145 0.4538002014
-0.03944277763 -0.1753020436 0.7065529823 -0.7992690206 -0.303927511 0.5176618695
-0.0328357555 -0.1817146987 0.7115210295 -0.7703083754 -0.33862257 0.5397974849
-0.03530708328 -0.1749729812 0.7122602463 -0.7745217681 -0.3570312858 0.5207888484
-0.02852968685 -0.1807820052 0.7197374701 -0.703802824 -0.4163898528 0.5710418224
0.04165580124 -0.1794196367 0.7306097746 0.4563190341 -0.5487215519 0.6850777864
0.03629475459 -0.1858689189 0.7324185967 0.3912872076 -0.5782103539 0.7095530629
0.03874748573 -0.198761642 0.7207329869 0.4207089543 -0.5643430352 0.7006042004
0.0365713723 -0.1912853718 0.7284088731 0.3704051673 -0.608977437 0.6908951998
0.0483744666 -0.1893881708 0.7208787203 0.5978953242 -0.5059144497 0.6167324185
0.04366224632 -0.1896932125 0.7245511413 0.5106810331 -0.5439174175 0.6467670202
0.04130301252 -0.1954275668 0.7247219086 0.4811110497 -0.5629993081 0.671825707
-0.008627811447 -0.2040748149 0.7200759053 -0.350911051 -0.5440868735 0.7585824132
-0.003618079703 -0.2071072906 0.7207224369 -0.2615343928 -0.5642783642 0.7818979025
0.002323830267 -0.2170790285 0.7171233296 -0.166917786 -0.5849653482 0.7913584709
-0.03674345091 -0.1252526492 0.6747404337 0.7784310579 -0.450009048 0.4374538362
0.04761354998 -0.1807713211 0.7317189574 0.5866679549 -0.4784692824 0.6503371596
0.05162755027 -0.1771559268 0.7299428582 0.627330482 -0.4519711137 0.6331897378
-0.01438903343 -0.1169648767 0.6524288654 0.4822492301 -0.5955280066 0.6403380036
-0.01205488481 -0.1115198806 0.6565127373 0.4482956529 -0.6111422181 0.6505392194
-0.0170985572 -0.1137049496 0.6580411196 0.5221840739 -0.5855497122 0.6190088391
-0.02198974602 -0.1161461025 0.6607760787 0.5978703499 -0.5530722737 0.5762059093
-0.03061366081 -0.1102647558 0.679846108 0.7140362263 -0.4562936723 0.5156277418
-0.02574482001 -0.1061201841 0.6749596 0.6432440877 -0.5056838989 0.5714044571
-0.03078100458 -0.1126879975 0.6744605303 0.7430580854 -0.4478382766 0.4954054654
-0.03501453623 -0.1123291254 0.6844863296 0.784530282 -0.4077500105 0.4647879899
-0.037984211 -0.1274976134 0.680057466 0.7972162366 -0.4263081849 0.4267460704
-0.03726045415 -0.1217974871 0.6825208068 0.7988598943 -0.4121643007 0.4373870492
0.05067515001 -0.1155384332 0.6587930322 -0.5491610765 -0.5491611362 0.6294178963
0.06100273132 -0.1089171916 0.6634562612 -0.3119620979 -0.5415586233 0.6227471232
0.05924373493 -0.1151508763 0.6587674022 -0.344647646 -0.547814548 0.6228352189
0.06680868566 -0.1139953882 0.6589763165 -0.1237977147 -0.5503861308 0.6261985302
0.0805496946 -0.1163250059 0.6559109092 0.2912132442 -0.5601456165 0.6329537034
0.07498057932 -0.1125980765 0.6593180299 0.1143048108 -0.5529927611 0.6298099756
0.07527398318 -0.1231637076 0.6516468525 0.1554887444 -0.6238241792 0.6455852389
0.08655278385 -0.117083177 0.6548419595 0.4716388583 -0.5710728168 0.6375434399
0.08300400525 -0.1219190434 0.6518261433 0.3810431361 -0.6178255677 0.6469529867
0.0732422024 -0.1176312715 0.6556305289 0.07840383798 -0.5649442077 0.6314337254
0.0634457171 -0.1197186708 0.6550524831 -0.2058988214 -0.5778084397 0.630900681
0.08014467359 -0.1278907806 0.6479685307 0.3143523932 -0.6769079566 0.6594194174
0.04995344952 -0.1113723144 0.6625742912 -0.5376322269 -0.5443605185 0.6407336593
0.0703465119 -0.1927457601 0.6942676902 0.8147647381 -0.3900904655 0.4269328117
0.06096450984 -0.1992641836 0.7003340125 0.7706247568 -0.4085337818 0.4879470766
0.06499204785 -0.195778951 0.6944715977 0.7976805568 -0.4013975561 0.4494816661
0.03012831882 -0.2117243707 0.7148438692 0.2960238159 -0.6028280258 0.7354258895
0.02930767089 -0.2075390816 0.7187624574 0.3000394404 -0.5945466757 0.7441116571
0.03470074758 -0.2039992213 0.7188591361 0.3613663912 -0.5844213963 0.7254631519
0.02492039092 -0.2122842669 0.7184820771 0.2222494334 -0.5948085189 0.7701187134
0.05367790908 -0.1996186078 0.708298862 0.6684176922 -0.4534116089 0.5830623507
0.04887569696 -0.2035247087 0.710016191 0.5816068649 -0.5127617121 0.6253918409
0.04478885233 -0.1974253058 0.7200561762 0.5210917592 -0.5448334813 0.6541716456
0.0481576398 -0.1977446377 0.7154600024 0.5751187801 -0.5058644414 0.6412926316
0.06402777135 -0.1761847287 0.7111307383 0.7684808969 -0.3760456741 0.5174270272
0.01231529005 -0.1223132238 0.6389676929 0.05086106807 -0.6746787429 0.7308710814
0.0222898256 -0.13489528 0.6281293631 -0.107279636 -0.6147593856 0.7735980749
0.01222760603 -0.1268422455 0.6338586211 0.04644020274 -0.6502011418 0.7507560253
0.0150614297 -0.1321049333 0.6273109913 0.005867875181 -0.6208229661 0.7814167738
0.01992191933 -0.1225995272 0.6369486451 -0.06721232831 -0.6687712669 0.7323374152
0.01866454445 -0.1272248924 0.6318596601 -0.05960264802 -0.6534228921 0.7511354089
0.03967119381 -0.1051641181 0.6607551575 -0.3777259886 -0.5894653797 0.7063676715
0.04395567253 -0.1088490337 0.6602427363 -0.4471004903 -0.5723839402 0.6789035201
0.004017337691 -0.120265767 0.6416780949 0.177365005 -0.670969367 0.7194844484
0.01811409928 -0.1188647375 0.6418091059 -0.03562952951 -0.674049437 0.7354283929
-0.005873277783 -0.111893937 0.6525853276 0.3588858843 -0.6337274909 0.6850068569
-4.189932952e-06 -0.1121904999 0.650292635 0.2866438925 -0.642059803 0.710239172
0.04358456656 -0.1237374097 0.6455239058 -0.4547244012 -0.5924099684 0.6646134853
0.03831240162 -0.120910354 0.6447775364 -0.3672272265 -0.6196501255 0.6917145848
0.04647909105 -0.1341089755 0.638387382 -0.5231172442 -0.5259760618 0.6697214246
0.04174435511 -0.1298885047 0.6373736262 -0.4342079759 -0.586370647 0.6828368306
0.03402916715 -0.1022610143 0.6587215662 -0.2864076793 -0.6137977242 0.7337188125
0.03778303042 -0.09810398519 0.6647709608 -0.3396155238 -0.6066254377 0.7170977592
0.02872607671 -0.09424495697 0.6642103791 -0.1970720291 -0.6366529465 0.743629694
0.03562460467 -0.09223321825 0.6675873995 -0.2837902606 -0.6267840266 0.7243683934
-0.03212461993 -0.1013612375 0.6856031418 0.74498564 -0.4400898516 0.5010835528
-0.03527923673 -0.09994152933 0.6977331042 0.7344169021 -0.4534961879 0.5034295917
-0.0339699015 -0.09891614318 0.6912240386 0.7430155277 -0.4502881765 0.4946303964
-0.03507115692 -0.1057234034 0.6887779832 0.7608962655 -0.4277363718 0.4874964058
-0.03736659512 -0.1122222543 0.6904367208 0.7889972329 -0.4017108083 0.4642508924
-0.02038615383 -0.1760376096 0.733224988 -0.5880762339 -0.4680407643 0.6548030972
-0.02435090952 -0.1798467338 0.7253998518 -0.6489232779 -0.4586816132 0.6042832136
-0.009392312728 -0.1779904068 0.7402535677 -0.3783993721 -0.5581620932 0.7378529906
-0.01512918714 -0.1758990437 0.7366310358 -0.4987047017 -0.5038307309 0.6992090344
-0.03968351707 -0.1163425222 0.6877114773 0.7980558276 -0.4007831514 0.4488421082
-0.02952212282 -0.1730989218 0.7232653499 -0.7045292258 -0.4135836959 0.5709291101
-0.02517777868 -0.1739840358 0.7299063206 -0.6581127048 -0.4351894855 0.6128271818
0.02634434775 -0.2001925856 0.7263210416 0.2061087787 -0.6165966392 0.7589815259
0.02066954784 -0.200094834 0.728662014 0.1204077452 -0.6199382544 0.7713057399
0.02867321484 -0.1889449656 0.7360807657 0.2735108733 -0.6054458618 0.7397428751
0.01374392025 -0.1666119844 0.7493929267 0.003759458661 -0.5534216166 0.7992141843
0.003973147832 -0.1668526232 0.748886466 -0.1580616236 -0.5743094683 0.7976233363
0.02071228065 -0.1682116091 0.749414742 0.117177844 -0.5459157825 0.801409483
0.02757415734 -0.1678046584 0.7510521412 0.2223946601 -0.5388739705 0.8046802878
0.03965293244 -0.1768646687 0.7410401106 0.4700038135 -0.5148678422 0.7147784829
0.04322950915 -0.1796268374 0.7362706065 0.5315102935 -0.5004316568 0.6818366051
0.04351491854 -0.172948122 0.7405898571 0.5200843811 -0.4693443179 0.7122802734
-0.01874605007 -0.1095668748 0.6638639569 0.5477434993 -0.5744785666 0.6065879464
-0.02047721669 -0.1061794609 0.6697355509 0.5686932802 -0.5591512918 0.6016323566
-0.01469459385 -0.09554108232 0.6734912992 0.4821828008 -0.5864092112 0.6504566073
-0.02031345665 -0.09821104258 0.6763525605 0.5364648104 -0.5673550367 0.624043107
0.07618621737 -0.1330006123 0.648180306 0.2574587464 -0.7444142103 0.5966459513
0.08165463805 -0.1081392765 0.6617361307 0.2657845318 -0.5726239085 0.5869244337
0.086242944 -0.1122360602 0.6583310962 0.4295338392 -0.5700287223 0.6102339625
0.06945343316 -0.1088452414 0.6625929475 -0.07239919156 -0.5529977083 0.6114349365
0.08956260234 -0.1075507328 0.6612733603 0.4838734567 -0.5856437087 0.5700618029
0.06950031966 -0.1161583811 0.6829728484 -0.3844901919 -0.4813181758 0.7516670227
0.05530162901 -0.1863086522 0.7161929607 0.7054479122 -0.438711822 0.5521965623
0.05729212239 -0.1806160957 0.7199434042 0.7116590142 -0.4208223224 0.5609354973
0.06031106785 -0.1814294308 0.7143425345 0.7520173788 -0.3944580555 0.5269585252
0.06111174822 -0.1940052509 0.7040923238 0.763250947 -0.4023108482 0.5038034916
0.05749552324 -0.1933187246 0.7087224126 0.7009293437 -0.4366340935 0.556247592
0.06222650781 -0.1878115237 0.7068803906 0.7739233971 -0.3880419433 0.5002764463
0.05840333179 -0.1881793588 0.7116464972 0.74486655 -0.4137039185 0.5227378607
0.06716536731 -0.1771779209 0.7054842114 0.7873032093 -0.3659029007 0.4961485267
0.06578551233 -0.1910310686 0.7007791996 0.7902346253 -0.3907227516 0.469445765
0.06959352642 -0.185718596 0.6993731856 0.8099924922 -0.3815325499 0.4430455863
0.06524574757 -0.1847382784 0.7029355764 0.7969014645 -0.3839913011 0.4651418924
0.0346811302 -0.1231660694 0.6401954889 -0.3182278574 -0.6329013109 0.7057704926
0.03055567853 -0.1192128286 0.6438477039 -0.2420957536 -0.6515505314 0.7129790783
0.0358970277 -0.1276252419 0.6362098455 -0.3397631049 -0.6239373684 0.7022699118
0.007133455947 -0.1122058779 0.646579504 0.1251271814 -0.6661491394 0.7349762917
0.01207431592 -0.1147030517 0.6428732276 0.05025053024 -0.6723563671 0.7372840047
-0.001975565683 -0.09677910805 0.6649739146 0.3284766078 -0.6419425607 0.6902273297
0.05763460323 -0.1437800974 0.64443928 -0.4452041984 -0.5495999455 0.7007266879
0.06603488326 -0.1509489417 0.6531100273 -0.1775403917 -0.8058400154 0.5539341569
0.06296023726 -0.1448628753 0.6520529985 -0.2958735526 -0.7017157078 0.6098504663
0.05972739309 -0.139624387 0.6502380371 -0.4151668847 -0.5864446163 0.6819096804
0.02793402225 -0.125025034 0.638130188 -0.1982062161 -0.6559200287 0.721783042
0.03052059188 -0.1295303851 0.6332455277 -0.2607705891 -0.6308745742 0.72848171
0.02483565733 -0.1299781203 0.6316248178 -0.1719630957 -0.6408795118 0.7461451292
0.00824879203 -0.09355030954 0.6646400094 0.1681462973 -0.6587350965 0.7265506983
0.002106562257 -0.09079372138 0.669359386 0.2731307149 -0.6535891294 0.7034250498
0.01658888534 -0.09405831993 0.6628975868 0.01588899456 -0.6614441872 0.746321857
-0.01907793619 -0.1908354461 0.7231844664 -0.5813070536 -0.4738086164 0.6585790515
-0.02349885181 -0.185469836 0.7220026255 -0.6682115197 -0.4453844726 0.5948746204
-0.01462442894 -0.1995040476 0.7189411521 -0.477943033 -0.4945011437 0.7141117454
-0.007326078601 -0.199189961 0.7240905762 -0.3389181793 -0.566352129 0.745865643
-0.01287831925 -0.1892739087 0.7295649052 -0.4712408185 -0.5452253222 0.6916725039
-0.01700428128 -0.181428507 0.7303981781 -0.5457164645 -0.4942857325 0.6605154872
-0.009750899859 -0.1842299849 0.7334113121 -0.4183590412 -0.5474448204 0.7102880478
0.0008235868881 -0.175575763 0.7429841161 -0.2218732387 -0.5825830102 0.7784489989
0.00630760286 -0.1793493032 0.7423709035 -0.1364048421 -0.5961577296 0.7875251174
-0.04284346849 -0.1317095309 0.6812765002 0.8059088588 -0.4212417603 0.4158545136
-0.0423915498 -0.1261452585 0.685967207 0.804972291 -0.4113762379 0.4269267023
0.002359304111 -0.2070081532 0.7223731279 -0.1785892099 -0.5650601387 0.802927196
-0.00195808569 -0.2134252787 0.7139929533 -0.2484645396 -0.5589540601 0.7844575644
0.02142462879 -0.2045246959 0.7238062024 0.1337917149 -0.5900859833 0.7921430469
0.02010009438 -0.2094632685 0.7210097313 0.1225708351 -0.584092021 0.7989271283
0.00715194596 -0.2026664913 0.7256931067 -0.102094844 -0.5865936279 0.7991250157
0.02611799352 -0.173979491 0.748924613 0.1777978539 -0.5788605809 0.7892197371
0.02825104073 -0.1946049333 0.7305366993 0.2334209681 -0.6311429143 0.7370564342
0.02189993113 -0.1951475888 0.7324664593 0.1371501684 -0.6341790557 0.7579921484
0.07390616834 -0.1134577841 0.6898297071 -0.1007180586 -0.5358600616 0.818597436
0.08355613053 -0.112771444 0.6873300076 0.4037859142 -0.5469172597 0.6602215767
0.07761398703 -0.1179242656 0.683783114 0.08440482616 -0.6118389964 0.6762465835
0.07965198904 -0.1095490009 0.6902204752 0.1788414121 -0.557662487 0.7819501162
0.06140781939 -0.1105821505 0.675553441 -0.5773441195 -0.471862644 0.6514492035
0.06524588168 -0.1121566221 0.6803455353 -0.453237772 -0.4624950588 0.745097518
0.0004814698768 -0.1012253836 0.6601653695 0.2850367725 -0.6514086127 0.7030370831
-0.003486236092 -0.1062931642 0.6564611197 0.3321380913 -0.6444656253 0.688482523
0.02365369163 -0.1154404804 0.6449487209 -0.1344387829 -0.6609642506 0.7367395163
0.02133078873 -0.1109614223 0.6480092406 -0.09263727069 -0.6597402096 0.7447926998
0.02805807255 -0.1132286265 0.6489260197 -0.2344034612 -0.6457127333 0.7253450751
0.06508336216 -0.1333720386 0.6617779732 -0.4526661634 -0.6947612762 0.5490574241
0.06532653421 -0.1399150789 0.6584715247 -0.3464614153 -0.7444136739 0.5401138663
0.06183529273 -0.1364770979 0.6556563973 -0.4221776128 -0.6826822758 0.5585823655
0.05880694091 -0.1313161403 0.6435697079 -0.2792347074 -0.5772000551 0.6527783275
0.05287554115 -0.1312658638 0.6434933543 -0.4608740807 -0.5431659818 0.6448494196
0.07149338722 -0.1301335245 0.6457256675 0.07523862273 -0.6490121484 0.6587943435
0.05594675243 -0.1362164319 0.647013545 -0.5107656717 -0.5313706994 0.6745824218
0.05407607183 -0.1302593499 0.6491985917 -0.5457975864 -0.5360407829 0.6425360441
0.01311053149 -0.1814447939 0.7439433932 -0.03021616116 -0.6032207012 0.7945309281
0.01207731199 -0.1770822108 0.7480431795 -0.03099217638 -0.5997026563 0.7948381305
0.004427650012 -0.1724321246 0.7496634126 -0.1486689895 -0.5980402231 0.7853844762
0.002412003232 -0.185652107 0.7386842966 -0.2103873342 -0.5987967253 0.7699238658
-0.005922947079 -0.1822482944 0.7380949259 -0.3479414284 -0.5711809993 0.7432590723
-0.001570292516 -0.1725607812 0.7483179569 -0.2568179071 -0.5760256052 0.7754644156
-0.003949210979 -0.1792018712 0.7425745726 -0.3222498596 -0.5712811351 0.7545444965
0.01922286861 -0.1908240616 0.7352243662 0.09896352887 -0.6330398321 0.7637323141
0.01313457824 -0.2103725374 0.7187409997 0.01196801569 -0.5866997242 0.8079163432
0.005380932242 -0.2123201936 0.7197241783 -0.1298831999 -0.5866058469 0.7990441322
0.01392130833 -0.2061391473 0.7233575583 0.009841029532 -0.5792405009 0.8131437302
-0.003887387924 -0.1881208122 0.735096395 -0.3067575991 -0.5942454338 0.7432122231
-0.000853967329 -0.1957989186 0.7292186022 -0.2401653826 -0.6100835204 0.7505255938
-0.001320125652 -0.2019364238 0.7243817449 -0.2310470939 -0.5842710733 0.7740231156
-0.009645713493 -0.1945175529 0.7261474133 -0.3957772553 -0.558596909 0.72138381
0.09061589837 -0.1102190912 0.6759911776 0.581813395 -0.5510169268 0.5962785482
0.09255584329 -0.1094066128 0.6703798175 0.588267982 -0.5587189794 0.5823640823
0.08836368471 -0.1093820408 0.6825426817 0.5592791438 -0.5539929867 0.6150602698
0.09595774859 -0.1093280017 0.6604042649 0.6110261083 -0.5635344386 0.5555999875
0.02370875143 -0.100105688 0.659386754 -0.1323897541 -0.6412154436 0.7443662882
0.007356032263 -0.09941282868 0.6586011648 0.1468618959 -0.6602940559 0.7350124717
0.01057396457 -0.1037871093 0.655064404 0.1010365114 -0.6655826569 0.7304356098
0.01234092936 -0.1095330119 0.6518440247 0.06233084574 -0.6489041448 0.7247235179
0.006298067048 -0.1070128158 0.6520264149 0.1680980772 -0.6670389771 0.7238624096
0.03433360159 -0.1156614721 0.6477757692 -0.3182733655 -0.6363474131 0.7024881244
0.04147599265 -0.1159791127 0.6510396004 -0.4262519181 -0.6062551141 0.6688315868
0.0370114781 -0.1112792268 0.6527097225 -0.3503959179 -0.6158924103 0.7041816711
0.04362842068 -0.1128998324 0.6548392177 -0.4560313821 -0.5898100734 0.6655501127
0.06286200136 -0.1199045554 0.6705948114 -0.6399307847 -0.4854306281 0.5948212147
0.05907148495 -0.1208611354 0.6645389795 -0.6506533027 -0.4990288913 0.5720015168
0.05876250938 -0.1140314788 0.6692391038 -0.6588977575 -0.4838248193 0.5757928491
0.06634789705 -0.1253003776 0.6715947986 -0.5855363607 -0.5449208021 0.5874058604
0.06535192579 -0.1293369085 0.6665607095 -0.5153438449 -0.6451309919 0.5517283678
0.06116826832 -0.1270489842 0.6618679762 -0.5734516382 -0.5870504975 0.5577454567
0.03069035523 -0.1775305718 0.7445949912 0.3147557378 -0.5596644878 0.7550877929
0.01928075776 -0.1780166775 0.7463484406 0.07001577318 -0.5956861973 0.7967244983
0.03590199351 -0.1701460034 0.743796587 0.3753376305 -0.5143997669 0.7619930506
0.0334280096 -0.1760032624 0.7390172482 0.3363901079 -0.5532847047 0.7381491661
0.04085867852 -0.1726121157 0.7345039248 0.4505999684 -0.5189826488 0.6998231411
0.0325907059 -0.184279725 0.7364690304 0.3555837572 -0.5682389736 0.734785974
0.03728953004 -0.1800920069 0.734577477 0.4202803969 -0.5428765416 0.7137699723
0.0260777697 -0.181181252 0.7411075234 0.2232805192 -0.5975805521 0.7622923255
0.02329126373 -0.185935691 0.7387512922 0.1698514223 -0.6285049319 0.7567498088
0.01978105307 -0.18269445 0.7422220707 0.09916952997 -0.6073514819 0.781493187
0.01549846772 -0.186566174 0.7393276691 0.03202150017 -0.633833468 0.7713247538
0.005522498861 -0.1978527457 0.7292606831 -0.1302726716 -0.6233763695 0.7708218098
0.01135968976 -0.1981779188 0.7307432294 -0.03131392226 -0.6264557838 0.7745574117
0.005158303771 -0.1907757074 0.7348368168 -0.15109694 -0.6154239774 0.7728421688
0.01206523646 -0.1909413785 0.7352665067 -0.02674253099 -0.6269402504 0.7725447416
0.008501546457 -0.1860645711 0.7399926186 -0.09246637672 -0.6211425066 0.7728202939
0.07036332786 -0.1039130315 0.6935070157 -0.2273702174 -0.4764477909 0.8464493155
0.07674146444 -0.1033501029 0.6695641875 0.06739425659 -0.6456391215 0.5855287313
0.06512597948 -0.1051238701 0.6671987772 -0.2331909835 -0.5817086101 0.6007028818
0.08555877209 -0.09884252399 0.6775320172 0.2491862178 -0.7714363337 0.5772804022
0.08151449263 -0.1008843929 0.6739274263 0.165426597 -0.7143631577 0.5810902119
0.08777411282 -0.1015250012 0.6720849276 0.3508379459 -0.7097921371 0.5712611079
0.08335851878 -0.1039240584 0.6678180695 0.2618784308 -0.6433303356 0.575245142
0.07295582443 -0.09890880436 0.6760412455 -0.05942441523 -0.6801577806 0.6002509594
0.05822525173 -0.1040563062 0.6691738963 -0.429528147 -0.5754883289 0.6132802963
0.06625580043 -0.1009341776 0.673232317 -0.2270929068 -0.6322988272 0.607046783
0.05133749545 -0.1077468991 0.6668672562 -0.5479793549 -0.527802825 0.6375750303
0.05360187218 -0.100179255 0.6744628549 -0.5672707558 -0.5134140253 0.6413525343
0.04658039287 -0.10360156 0.6655319929 -0.4721452296 -0.5598597527 0.6781859398
0.09134530276 -0.1042905971 0.6672136188 0.5046784878 -0.6314101815 0.5703796148
0.08830161393 -0.1041221544 0.6800806522 0.4533367455 -0.6173847914 0.6303038597
0.01875489391 -0.1068320274 0.6515854001 -0.04591651633 -0.6625002623 0.7449141741
0.01683657244 -0.09867077321 0.6581637859 0.001640601899 -0.6620745063 0.747670114
0.02737836353 -0.1040756479 0.6555296779 -0.1824032515 -0.6297689676 0.7498831153
0.03096719459 -0.1082489118 0.653144598 -0.249034062 -0.6246849298 0.7343859076
0.05689114705 -0.1240865439 0.658711493 -0.6173490286 -0.5221363902 0.5858620405
0.05919801071 -0.1303627938 0.6554783583 -0.5300391912 -0.6023595333 0.5903571248
0.05754484609 -0.09947519004 0.6795634627 -0.5624590516 -0.4984639287 0.6556687951
0.06326004118 -0.103210263 0.6836785078 -0.4427185655 -0.5139032602 0.7288814783
0.05934382975 -0.1052101552 0.6768823862 -0.5683707595 -0.4871582985 0.6577450037
0.05510345101 -0.09314522892 0.6823200583 -0.5542263389 -0.5140270591 0.6534804702
0.04914865643 -0.09117987752 0.6777998805 -0.5125520229 -0.5670064688 0.6416927576
0.04995764419 -0.08567581326 0.6834405661 -0.4825842679 -0.6008744836 0.6342993379
0.06629235297 -0.1002952456 0.6900495887 -0.3251556158 -0.4974653423 0.8005126715
0.06006453186 -0.09714723378 0.6846995354 -0.4977132082 -0.5121033192 0.6943134665
0.06223940104 -0.09706329554 0.6766248941 -0.3172171116 -0.599394381 0.6251519918
0.06098809093 -0.09078046679 0.689794898 -0.4757789373 -0.5298308134 0.6985102892
0.06651303172 -0.09390292317 0.6869825125 -0.3905209005 -0.5515987873 0.7265675068
0.05600497499 -0.0875203535 0.6878045797 -0.4987390637 -0.5711634755 0.6505050659
0.07926469296 -0.09641026706 0.6798157692 0.08062402904 -0.7274451256 0.6014426351
0.07026000321 -0.09548942 0.6808741093 -0.1691672653 -0.6402291656 0.6155886054
0.06000850722 -0.08980233222 0.6842375398 -0.3773979843 -0.6096840501 0.6241496801
0.07631999254 -0.09848114103 0.6839442849 -0.1760812253 -0.6412523985 0.707816422
0.0723407045 -0.09598225355 0.6892582774 -0.1703218222 -0.6092047691 0.7114261985
0.04981888831 -0.1216108277 0.6525287032 -0.5386779308 -0.5599138141 0.6288968921
0.06778037548 -0.1252219975 0.6503719687 -0.04415460303 -0.6372619867 0.6472097635
0.05555345118 -0.1203535944 0.6544958949 -0.4122614861 -0.5755388737 0.6294963956
0.06343904138 -0.1283168942 0.6475761533 -0.183823958 -0.6076900959 0.6406539679
0.0559069179 -0.1245760471 0.6491397619 -0.329967171 -0.5951929688 0.6395483017
0.07886507362 -0.102155365 0.6902135015 0.07191384584 -0.5789600015 0.7550441027
0.06861310452 -0.108053036 0.688732326 -0.2666138709 -0.5084457397 0.8141897321
0.07162959874 -0.0965269953 0.6964390278 -0.2348904908 -0.4590663016 0.8343322873
0.0825303793 -0.1024032533 0.684853375 0.1649671197 -0.7222016454 0.6384952664
