# .PCD v0.7 - Point Cloud Data file format
VERSION 0.7
FIELDS x y z normal_x normal_y normal_z
SIZE 4 4 4 4 4 4
TYPE F F F F F F
COUNT 1 1 1 1 1 1
WIDTH 512
HEIGHT 1
VIEWPOINT 0 0 0 1 0 0 0
POINTS 512
DATA ascii
-0.001006091945 -0.06903550774 0.5529785156 -0.02506017871 -0.891402781 0.4357416928
0.00389813236 -0.09548915178 0.5215672255 -0.1218307987 -0.7976039648 0.5887074471
-0.03091102839 -0.1296697855 0.5075566173 0.5058733821 -0.144099772 0.4544703364
-0.03272110596 -0.1244958565 0.5063058138 0.309532851 -0.2330076247 0.4620404243
-0.02051336691 -0.06986197829 0.5640957952 -0.1198215857 -0.9686573148 0.2129124105
-0.02066728845 -0.07555382699 0.5639087558 -0.1182335764 -0.9622637033 0.2334866524
-0.0270439554 -0.0783739537 0.562224865 -0.1095259488 -0.9626475573 0.2412015945
-0.0138000818 -0.07231622934 0.5638971329 -0.08223514259 -0.9627367854 0.2547166944
-0.01170550194 -0.06762837619 0.5623551011 -0.1043377742 -0.9659916759 0.2316499054
-0.01393128838 -0.08176937699 0.5489546061 -0.05671324208 -0.920799315 0.373069942
-0.01059014257 -0.07920270413 0.5562685728 -0.06045236066 -0.9296373129 0.3558492064
-0.008215396665 -0.08017592877 0.5509355664 -0.05284082144 -0.9183208942 0.3832770288
-0.0232170634 -0.08150077611 0.5564928651 -0.07349263132 -0.9427995086 0.3159732819
-0.0142748896 -0.07862042636 0.5610506535 -0.06885689497 -0.9413597584 0.3264470994
-0.01827670634 -0.08131408691 0.5537230372 -0.06577528268 -0.933167994 0.3416772187
-0.1017602161 -0.06062685326 0.5401400924 0.2917424738 -0.7605172396 0.5789425373
-0.1029760763 -0.0573589094 0.5453457236 0.251477778 -0.7877050042 0.5611476898
-0.1020260975 -0.1061497033 0.4861762524 0.6374077797 -0.5123067498 0.5742923021
-0.02575880848 -0.1422815174 0.5107187033 0.8651129007 -0.0798503086 0.4420596361
-0.03807607293 -0.1626153886 0.5264828801 0.6406196952 -0.4992371798 0.5812466741
-0.03424918279 -0.1565131992 0.5243378878 0.7422029376 -0.4426273108 0.4946083426
-0.03901797533 -0.1103227958 0.509745717 -0.2623963356 -0.5893834233 0.4819976687
-0.04004764184 -0.1016201675 0.5111818314 -0.5714343786 -0.6406100392 0.4586859643
-0.03593090549 -0.1242955551 0.5202399492 0.2460304052 -0.4907221496 0.4677788615
-0.03812018782 -0.1114651263 0.5163652301 -0.2153199911 -0.5739296675 0.4575875998
-0.03791702911 -0.1164003462 0.5117302537 -0.04308280349 -0.5470454097 0.4855980575
-0.03450192511 -0.1302018911 0.5204018354 0.4649917781 -0.4196081161 0.4710294902
-0.03364341706 -0.1271571368 0.5129619837 0.3777264357 -0.3256863654 0.4669936597
-0.03142796084 -0.1375329643 0.5206880569 0.7542706728 -0.2565279901 0.4576242566
-0.02943603136 -0.1372335702 0.5134161115 0.7750617862 -0.1028775051 0.4486481249
0.0001752484095 -0.1048346758 0.5227659941 -0.04079381749 -0.6910069585 0.6331982613
-0.0003332833294 -0.1000113785 0.519679904 -0.09765072912 -0.7602850199 0.6020828485
-0.01224703714 -0.1178966835 0.525007844 0.2741900682 -0.5763126612 0.5700440407
-0.008197966963 -0.1125913039 0.5149638653 0.2401446253 -0.4292640686 0.546587646
-0.01986185089 -0.1280346364 0.5230974555 0.5300476551 -0.4013370275 0.5185049176
-0.01397169288 -0.1236142442 0.5189736485 0.4354501963 -0.3632083237 0.5360364914
-0.02028966509 -0.1332935691 0.5129135847 0.7044972181 -0.1140553802 0.4722477496
-0.01469824929 -0.1267535388 0.5139750242 0.535153687 -0.2155379057 0.5102424622
-0.02489653043 -0.1355215311 0.5187488794 0.7367632985 -0.2160896659 0.4697352052
-0.01855988614 -0.1295826584 0.5168249607 0.5948333144 -0.2445842177 0.4993765354
-0.02412428148 -0.1325628608 0.5232592225 0.6436198354 -0.3508399129 0.4937073588
-0.003666706849 -0.1123034507 0.5193535686 0.1485482454 -0.5066264868 0.599296689
-0.006486334372 -0.1129262298 0.5244979858 0.1431544721 -0.612593472 0.6045078635
-0.008103474043 -0.1165838987 0.5204412937 0.2520709932 -0.4794979393 0.5774294138
-0.009274561889 -0.119280912 0.5154537559 0.354332149 -0.3237811923 0.550437212
-0.08045822382 -0.09575638175 0.4841684699 0.1770289093 -0.7251166701 0.6601051092
-0.03188436851 -0.0719518438 0.5632198453 -0.180920735 -0.9640765786 0.187316075
-0.03344172984 -0.07954829186 0.5606400967 -0.154543221 -0.9522565603 0.2594615519
-0.02710723691 -0.068406865 0.5640544295 -0.1627544761 -0.9699966311 0.1781793684
0.004541588016 -0.08849162608 0.5300876498 -0.06996744126 -0.8378196955 0.5251198411
-0.03434215114 -0.1120740771 0.5035471916 -0.2235091031 -0.3552384079 0.4950692654
-0.1084340215 -0.1089670658 0.4949085712 0.7404304147 -0.4279933572 0.5113570094
-0.1083397716 -0.0822988525 0.5223734975 0.5134738088 -0.6226047873 0.583419919
-0.110643886 -0.07153831422 0.5339394212 0.4411927164 -0.6674636602 0.5993901491
-0.1110644042 -0.07679938525 0.5298604965 0.4749690294 -0.6459084153 0.5923727155
-0.1119600534 -0.08142393827 0.5267398953 0.5056399703 -0.6258701682 0.5863494277
-0.1157807484 -0.09049580246 0.5222033858 0.5730903149 -0.5797643065 0.5746340156
-0.07835877687 -0.09276331961 0.4891631901 0.142622903 -0.7643330097 0.6243460178
-0.08289292455 -0.1023441628 0.4781377614 0.2974724472 -0.6939322352 0.643746078
-0.1088573039 -0.1409576237 0.5370597243 -0.718921721 -0.5901838541 0.3541500568
-0.04028080776 -0.1570273787 0.5245803595 0.6456836462 -0.4810316563 0.565349102
-0.0332341902 -0.152326718 0.5202916265 0.7334061265 -0.4301123619 0.5149690509
-0.04362331331 -0.1620552838 0.5258035064 0.5669291019 -0.5284472108 0.6063076258
-0.03317396343 -0.1497470886 0.5254071951 0.7835550904 -0.4059653282 0.470055759
-0.03310079873 -0.1410090327 0.5282283425 0.7941467762 -0.3883244693 0.4674214125
-0.02764013968 -0.1462999582 0.5160323977 0.786336422 -0.3940592408 0.4757157266
-0.03069128469 -0.1444385052 0.523850739 0.7892157435 -0.4020471275 0.4638364315
-0.09105691314 -0.137959674 0.5746115446 -0.2430170923 -0.773013711 0.5790246129
-0.08991293609 -0.1384679973 0.5645671487 -0.2805999517 -0.7750847936 0.5544118881
-0.09192209691 -0.134563759 0.5687428117 -0.2713482678 -0.7726800442 0.5678762794
-0.09790165722 -0.1365514547 0.567648232 -0.3591035604 -0.7555499077 0.5442207456
-0.07047811896 -0.1331642121 0.5787824392 0.07806115597 -0.8018693328 0.5888974071
-0.08208920062 -0.1306119561 0.5811348557 -0.07131978124 -0.8069010377 0.5862826109
-0.08216131479 -0.08967116475 0.4949983656 0.2064242363 -0.7562347651 0.5991800427
-0.08720832318 -0.05239697546 0.5414075851 0.1460203081 -0.8260929585 0.5432100892
-0.07757025212 -0.059563566 0.5352095962 -0.03304474801 -0.8196263313 0.5609731674
-0.08927785605 -0.09724918008 0.4883006811 0.3819651008 -0.6960445046 0.5919200182
-0.09007342905 -0.1011690646 0.482548058 0.4240383506 -0.652931571 0.6050733328
0.001145988354 -0.08129983395 0.5372823477 -0.004678282421 -0.8844500184 0.4651352763
-0.003395641223 -0.08015788347 0.5471291542 -0.03989696503 -0.906809628 0.4127684832
-0.03788315132 -0.07091908902 0.5572029352 -0.4123924077 -0.8078392744 0.3621374369
-0.02489904128 -0.06470116973 0.5570912361 -0.3298720717 -0.8429064751 0.3058703542
-0.01821453124 -0.06610985845 0.5607510209 -0.1802577078 -0.9273590446 0.2425551713
-0.03432861343 -0.0649304688 0.5526949167 -0.4672451913 -0.7454425097 0.4004414976
-0.007274478674 -0.06700215489 0.5577173829 -0.09895034879 -0.9427506924 0.3088940084
-0.1147140115 -0.1090576127 0.5032776594 0.7718234658 -0.3992129564 0.4907169938
-0.1087933555 -0.1143577918 0.5075565577 0.3652459681 -0.4796921313 0.4625230134
-0.1091089621 -0.1246470883 0.5190316439 -0.1374930143 -0.5263309479 0.4064553082
-0.1083751842 -0.1091519371 0.5048550963 0.5056451559 -0.5040031075 0.4925266206
-0.1090114266 -0.1194177568 0.5124446154 0.1457324177 -0.4909752607 0.4345526099
-0.1154583246 -0.1140426993 0.5146126747 0.3853203058 -0.452323705 0.4638562202
-0.1132946834 -0.1292531341 0.530464232 -0.45022282 -0.5544296503 0.3877970576
-0.1162564307 -0.1071982831 0.5117903948 0.6185330153 -0.4469298422 0.4997165203
-0.114535518 -0.1210030392 0.5202137232 0.05770917237 -0.483500272 0.4284244478
-0.1161262468 -0.1053394452 0.5195451379 0.39964661 -0.5256288648 0.5126878619
-0.115404807 -0.1122406423 0.5203452706 0.2322481722 -0.5118237734 0.4757541418
-0.1160511971 -0.1295080632 0.4955784082 0.1761723459 -0.08853587508 0.3423452377
-0.1149744615 -0.121128343 0.4974548817 0.6949021816 -0.1972294301 0.464864403
-0.1170049682 -0.1175046787 0.5024421811 0.4020164609 -0.2759462297 0.3828014731
-0.1193774343 -0.1360242069 0.4982830882 -0.7429141402 -0.03563799337 0.112416476
-0.1125400066 -0.1383487433 0.5319869518 -0.728674531 -0.5335837603 0.3310863972
-0.1186601743 -0.1368338913 0.5044570565 -0.7392992377 -0.1203668043 0.1438688189
-0.1155073792 -0.1182149649 0.5102288723 0.388884902 -0.3887774348 0.4287306666
-0.1176627725 -0.1386553496 0.5096261501 -0.8286948204 -0.1832000464 0.1590861827
-0.1164224669 -0.1321520954 0.5122529268 -0.4324064851 -0.2864407599 0.2631725669
-0.1150536761 -0.1336747557 0.5189232826 -0.4985449016 -0.3754681349 0.293545872
-0.1183517054 -0.1294669658 0.5026177168 -0.3079929948 -0.1625046134 0.2255982459
-0.1154022142 -0.1262451857 0.514171958 -0.07416518033 -0.3729608953 0.3542064726
-0.104023315 -0.06583421677 0.5351171494 0.3314031661 -0.7360290289 0.5898835659
-0.09936793894 -0.06222711131 0.5354039669 0.2970967591 -0.7578499317 0.5791119337
-0.09653858095 -0.05562825128 0.5429096818 0.2365866303 -0.7907198071 0.5628246665
-0.1034746543 -0.1120171547 0.4839078784 0.6727786064 -0.4476503134 0.5853053331
-0.1050741524 -0.1072947681 0.4905771911 0.6860345006 -0.4743179679 0.5428432226
-0.109607175 -0.1361449212 0.5256097913 -0.5433046818 -0.5143234134 0.3401106596
-0.1091972962 -0.1247162372 0.506716609 0.1192283481 -0.425743103 0.4007033706
-0.1090795323 -0.1408994645 0.5189419985 -0.6292374134 -0.4642677605 0.2986326814
-0.109286204 -0.117881909 0.5023688674 0.4246690571 -0.4143499434 0.444721669
-0.1094183475 -0.1309464723 0.5169663429 -0.2412958741 -0.4737342894 0.3676161468
-0.1091727167 -0.1298924237 0.5108991861 -0.1237232238 -0.4396941066 0.3683611155
-0.09561729431 -0.1141603738 0.4796277881 0.6100888252 -0.514090836 0.5605632663
-0.1022659242 -0.1194497347 0.4833865166 0.714766562 -0.3622594476 0.553335309
-0.09340890497 -0.1076474562 0.4806105793 0.5417497158 -0.6133363843 0.5646576285
-0.08987304568 -0.1114106625 0.4754842222 0.5329677463 -0.6259490252 0.5666971803
-0.1053857729 -0.1152391583 0.4890427887 0.7313886285 -0.3728222847 0.5358716846
-0.1089760438 -0.1355949193 0.5118920803 -0.3418238163 -0.4326429963 0.3287325501
-0.1094425842 -0.1156475022 0.4958792925 0.8019430041 -0.3088635504 0.4579940438
-0.1092095971 -0.1366893053 0.5059484839 0.01883909293 -0.2855463624 0.3212131858
-0.1094295532 -0.1330554485 0.4994786084 0.4477060139 -0.1828559786 0.3445383012
-0.1095149741 -0.1216665506 0.4950995147 0.805097878 -0.2196322829 0.4186381698
-0.1090053767 -0.1423770487 0.5123885274 -0.4236108959 -0.3631163538 0.284473449
-0.1093795672 -0.1253493279 0.4993528426 0.5134330392 -0.2717414498 0.3948546648
-0.1095191166 -0.1265844703 0.4908868968 0.8087230921 -0.07866298407 0.5688624978
-0.1109710112 -0.132068634 0.4921518862 0.9298676848 -0.02544108592 0.3599510491
-0.07931315899 -0.07274097204 0.5173763037 0.09165425599 -0.7810227871 0.5820535421
-0.09958389401 -0.161414206 0.5276858211 -0.69597435 -0.5841170549 0.4063514471
-0.09866599739 -0.1558792591 0.5341699719 -0.6793730855 -0.5708614588 0.4608294964
-0.1022862718 -0.1552311927 0.5293598175 -0.7143723965 -0.5732130408 0.3985796273
-0.1054075807 -0.1478792727 0.5305871964 -0.7417451143 -0.5507759452 0.3681276143
-0.1068107486 -0.1521152258 0.525498867 -0.7777258754 -0.535580039 0.327475369
-0.1157374531 -0.1035762653 0.5263706446 0.330229044 -0.5854186416 0.5328111053
-0.114338778 -0.1119915396 0.532774508 0.07161664218 -0.6093985438 0.4981629252
-0.1151355356 -0.1108058244 0.5268631577 0.1075371951 -0.5725139976 0.4900813997
-0.1107838079 -0.1316896081 0.5501116514 -0.5334882736 -0.6812303066 0.4231347144
-0.1123990044 -0.1230803281 0.5336417556 -0.2646245658 -0.5912265778 0.4299535155
-0.1124162674 -0.1220123544 0.5398884416 -0.2347029597 -0.6348078251 0.4546411037
-0.1103596836 -0.1352526248 0.5390859842 -0.636582315 -0.6007812619 0.3685572445
-0.1133907661 -0.1163970754 0.5359739661 -0.06254695356 -0.621132493 0.4789372981
-0.1115040779 -0.126942113 0.5456816554 -0.386792928 -0.6623807549 0.4400750995
-0.1133610308 -0.1174875945 0.5300991535 -0.09330329299 -0.5799590945 0.4551745653
-0.1113745794 -0.1293400377 0.5354301929 -0.4554991126 -0.5894597173 0.3954772055
-0.1033943743 -0.133007586 0.5638647079 -0.4410905242 -0.7377617359 0.5012663007
-0.1071065441 -0.1326008588 0.558288753 -0.5149482489 -0.7137848735 0.4580463767
-0.10048002 -0.145494625 0.5417779684 -0.6512259841 -0.6307287812 0.4096752107
-0.1043304652 -0.1465268731 0.5368478298 -0.692376256 -0.598056078 0.4001812339
-0.1054078266 -0.1403229386 0.5439522266 -0.6417125463 -0.6501315236 0.4006391466
-0.07859842479 -0.134836331 0.5771553516 -0.04294745997 -0.8047341704 0.5873895288
-0.0962696746 -0.1302786618 0.5726644993 -0.3021852374 -0.7638975382 0.5694890618
-0.09390754998 -0.1403695196 0.5704506636 -0.3244391382 -0.7539883852 0.5612199903
-0.09776381403 -0.1414459646 0.5596472621 -0.4653607309 -0.7298525572 0.4783370495
-0.1008994058 -0.1458479315 0.5475603938 -0.6119309068 -0.6610375047 0.4314675033
-0.1015718803 -0.1421149671 0.5522271991 -0.5883603692 -0.6880015135 0.4237571359
-0.0939566195 -0.148932755 0.5458120108 -0.5335257053 -0.6768639088 0.4719691277
-0.04934470728 -0.09809890389 0.4910756052 -0.4915089309 -0.6086251736 0.6143465638
-0.04488199577 -0.1001522541 0.4956848621 -0.5532225966 -0.5882439613 0.5751842856
-0.0740224272 -0.09570626915 0.485176295 0.03381997347 -0.7393609881 0.6437000632
-0.07715738565 -0.09944835305 0.4798423052 0.1632844806 -0.7126665711 0.6698114872
-0.06590793282 -0.09572683275 0.4852592349 -0.1497837007 -0.7057859302 0.6503058076
-0.06029742584 -0.09779115766 0.4852502048 -0.266030401 -0.6462689042 0.6532269716
-0.07168217748 -0.09912840277 0.4809775651 0.01157268696 -0.6870672703 0.6679762006
-0.05295971036 -0.09358680993 0.5035341978 -0.4018857181 -0.7014804482 0.545150578
-0.06025376171 -0.08961678296 0.4984759986 -0.2806971967 -0.7342193723 0.5972591639
-0.0572716333 -0.08907024562 0.5037453175 -0.3326446414 -0.7399317026 0.5496563315
-0.04423442483 -0.09775552899 0.5104411244 -0.5474956632 -0.6674253941 0.4757834077
-0.04262560233 -0.1007281244 0.5027890205 -0.5532109737 -0.6562305689 0.5015059114
-0.05086769536 -0.09687600285 0.4978217185 -0.4211173058 -0.6833471656 0.5645697713
-0.07407530397 -0.05226571113 0.5416754484 -0.08861044794 -0.8536976576 0.5105934739
-0.08147348464 -0.05289697275 0.5402223468 0.05321347713 -0.8368963003 0.5328021049
-0.0724131465 -0.05615910143 0.5367731452 -0.1407384723 -0.8221068382 0.5437528491
-0.07804652303 -0.08342689276 0.5002927184 0.1190674528 -0.7826946378 0.6030156612
-0.08368641138 -0.08535706252 0.4993012249 0.2240488678 -0.7614651918 0.603428483
-0.09363357723 -0.084799245 0.5047305822 0.4114837348 -0.6956884265 0.5859411955
-0.09216607362 -0.09228478372 0.4933072031 0.4219874144 -0.6803062558 0.5945111513
-0.08869705349 -0.08407647163 0.5020023584 0.3148824275 -0.7281611562 0.5999816656
-0.0004894861486 -0.0726429373 0.5478239059 0.0105564855 -0.8780537844 0.478338331
-0.005078789778 -0.07566963136 0.5583457947 -0.04161159322 -0.920524478 0.3795053959
-0.002709195018 -0.07753386348 0.5525644422 -0.02090350538 -0.9126113057 0.3983778358
0.000385020423 -0.07750446349 0.5414710641 -0.0003868861531 -0.8819531798 0.4708258212
-0.06755770743 -0.05337302387 0.5423743129 -0.2010197192 -0.840865314 0.4971425235
-0.09145334363 -0.05754267052 0.5389342308 0.1854685098 -0.7948105931 0.5628550053
-0.08559583127 -0.0587766096 0.5368964076 0.0956864506 -0.8037517667 0.5628350377
-0.1096711308 -0.1202901974 0.488574028 0.7849040627 -0.2464382648 0.5531514883
-0.1140769497 -0.1134206206 0.4995641708 0.79831779 -0.3290062547 0.4958587289
-0.1095785052 -0.1448089629 0.5056497455 -0.4867065251 -0.2626225948 0.1719076484
-0.1011328772 -0.1564572752 0.5226347446 -0.7690758705 -0.5211763382 0.3201272786
-0.1051002666 -0.152459994 0.5176882148 -0.8367938995 -0.4455056787 0.2392684668
-0.1134301573 -0.1364204586 0.4949361384 0.08568086475 -0.009806165472 0.2115006447
-0.1142432168 -0.1414202303 0.4986932278 -0.6285060644 -0.06520950049 0.1143767983
-0.1098536178 -0.1512390375 0.5070648193 -0.9333037734 -0.3378224373 0.09388583899
-0.05337489396 -0.170033291 0.5290000439 0.3906633854 -0.6105639935 0.6830044389
-0.09028790891 -0.1679325253 0.5318135023 -0.4493563473 -0.7115363479 0.5126717091
-0.08870726079 -0.1305884868 0.5758975744 -0.138662219 -0.80432266 0.565740943
-0.08295814693 -0.1338030398 0.5739278793 -0.04767576233 -0.8060613871 0.5800643563
-0.07921142876 -0.1386856437 0.5722268224 -0.0718215555 -0.7971673012 0.5934476256
-0.06767905504 -0.1325739622 0.5717878938 0.1195027307 -0.7802131772 0.6029264927
-0.07502907515 -0.1296872497 0.5757642388 0.03625652567 -0.7995402813 0.5788467526
-0.07101067901 -0.1283585429 0.5829287171 0.03310864791 -0.8114156127 0.577634573
-0.09074362367 -0.07187387347 0.5211113095 0.2805643976 -0.7538848519 0.5898916125
-0.09464999288 -0.07770444453 0.513646543 0.3790145516 -0.7063910961 0.5955604315
-0.08639635146 -0.07279041409 0.5172548294 0.2424221039 -0.757247746 0.6051689386
-0.08902602643 -0.07922596484 0.5086101294 0.3234139681 -0.7274970412 0.5997093916
-0.09398021549 -0.0603816621 0.5335329175 0.2645199299 -0.7761043906 0.5718343258
-0.110010691 -0.1552196443 0.5105677247 -0.884878099 -0.4160210788 0.1538420022
-0.08825146407 -0.1523075849 0.5450835228 -0.3916626275 -0.6940114498 0.5346226692
-0.09538459778 -0.1537351906 0.5414623022 -0.5622715354 -0.65131706 0.508087635
-0.03657116741 -0.146663636 0.531063199 0.7460193634 -0.4376064241 0.5001622438
-0.01196029782 -0.07796118408 0.5398266315 -0.212333113 -0.8070737123 0.4382304549
-0.01084696967 -0.07400984317 0.5450392962 -0.1588239968 -0.8180052638 0.4472188056
-0.02062191069 -0.07533587515 0.5417230725 -0.3600117564 -0.7470518947 0.4162660539
-0.02654300258 -0.07357881963 0.5430684686 -0.4633958936 -0.7086921334 0.3972574174
-0.0108288601 -0.07017827779 0.5516206622 -0.1650734395 -0.8685131073 0.3834510446
-0.02578544803 -0.07056947052 0.5478896499 -0.4322994649 -0.7533558607 0.3704231083
-0.03149810806 -0.06883492321 0.5485661626 -0.4916310906 -0.7268053293 0.3836574852
-0.03750628978 -0.07067131996 0.5447720289 -0.6207191944 -0.661373198 0.3805400729
-0.01684739813 -0.06830760837 0.5529554486 -0.2488249242 -0.8458795547 0.3728731871
-0.03040909581 -0.06559184939 0.5575096607 -0.3493629694 -0.8310557604 0.3065974712
-0.0398520343 -0.06537237018 0.5554864407 -0.4696022272 -0.7715581656 0.3379420638
-0.0770643577 -0.1437200308 0.5659800768 -0.02436369471 -0.8133183122 0.57655406
-0.08746284246 -0.1408214122 0.5701629519 -0.2145339996 -0.7764769793 0.5893700123
-0.1055410132 -0.1378713399 0.5493741632 -0.6021184325 -0.6811343431 0.4153501689
-0.1017189622 -0.1361979246 0.558640182 -0.4790550172 -0.7343097329 0.4713557363
-0.09260986745 -0.1594661623 0.5398983359 -0.5060935616 -0.6843484044 0.5209950209
-0.01585569233 -0.10968481 0.5218311548 0.09448287636 -0.6362397075 0.5363705754
-0.02837705053 -0.09543139488 0.5215451121 -0.479778409 -0.6428171992 0.4551204443
-0.0232626684 -0.1085394099 0.5227313042 -0.02556896582 -0.601942122 0.4940291345
-0.02114035934 -0.1159068346 0.5235065818 0.221036166 -0.5748751163 0.5116891265
-0.01235953066 -0.1033723652 0.5204004645 -0.05544667691 -0.6883470416 0.550974369
-0.02300930209 -0.09851431102 0.5212234259 -0.3248630166 -0.6558644772 0.4875739813
-0.03011357225 -0.1311714947 0.5270410776 0.5776030421 -0.446046859 0.4734714925
-0.02595383301 -0.1259020716 0.5256677866 0.4667782784 -0.4962980151 0.4926070571
-0.03249913454 -0.1116101369 0.5245141387 -0.03964369744 -0.5355927348 0.4447626472
-0.02206652425 -0.1219252348 0.524523437 0.3917751312 -0.53829211 0.5112335086
-0.0187242981 -0.1027457267 0.5212264657 -0.1478261948 -0.6570011377 0.5148714781
-0.0287675187 -0.1196629032 0.5251578689 0.2462032586 -0.513689816 0.4719648957
-0.02776885219 -0.1023931205 0.5224791169 -0.2628857791 -0.6096383333 0.4639903903
-0.01532923151 -0.09706959873 0.5199037194 -0.2797403634 -0.7052233219 0.529409349
-0.03649600595 -0.1032269895 0.5026868582 -0.6628097892 -0.5099651217 0.5294750333
-0.02953946218 -0.1180246547 0.5054152012 0.0791753605 -0.2274775356 0.4846836627
-0.02200837992 -0.1024210751 0.508949399 -0.3659342527 -0.5810983181 0.5534704924
-0.0269306805 -0.1058151051 0.5067643523 -0.3436258435 -0.4918647408 0.5337463021
-0.02492300794 -0.1120156944 0.5075163245 -0.05329976976 -0.3700930476 0.5136620402
-0.01678541303 -0.1042463034 0.5111682415 -0.1753840595 -0.562622726 0.5542746782
-0.01987267472 -0.1266654432 0.5094254017 0.6395985484 -0.08354195207 0.4666552842
-0.01103235222 -0.1014738008 0.5137001276 -0.1543090492 -0.6420110464 0.5728985071
-0.02084171958 -0.1196131036 0.5091369152 0.3392126262 -0.2269697785 0.491404295
-0.01882164367 -0.1139997765 0.5101110935 0.1634499878 -0.3515989482 0.5151507258
-0.008744260296 -0.1070723385 0.5145841241 0.1186121032 -0.5338455439 0.5554535985
-0.02650584467 -0.1222284064 0.5066462755 0.3139496744 -0.1511930376 0.4734924138
-0.01365453005 -0.113090761 0.5123561025 0.2447949648 -0.3899308741 0.5260140896
-0.006746587344 -0.1072461158 0.52115798 0.07092666626 -0.6931625009 0.5733060241
-0.02348190919 -0.1332343668 0.5077497959 0.8072488308 0.06535097212 0.4371728003
-0.004640236963 -0.102382116 0.5164430737 0.006101221777 -0.6504352689 0.5790330172
-0.0155335227 -0.1197785065 0.5114238262 0.460617125 -0.2443475127 0.4985513091
-0.07001201808 -0.08784721047 0.4957712293 -0.0661809966 -0.7757228017 0.6025725603
-0.06114109233 -0.0840870887 0.5002698302 -0.281321615 -0.7700822949 0.5625766516
-0.04999040812 -0.08970499784 0.4972701669 -0.5073950291 -0.6537802219 0.5594274402
-0.04623525217 -0.09078268707 0.5024382472 -0.5716143847 -0.6689579487 0.4745856822
-0.07728081942 -0.06001475826 0.5291339159 -0.01889909059 -0.8107918501 0.5833300352
-0.09482901543 -0.09825163335 0.4902801216 0.4956372678 -0.6422749758 0.5624870658
-0.1000588611 -0.1002103835 0.4918054044 0.5862436295 -0.5746555924 0.5657808185
-0.09623596072 -0.1023037955 0.4857605398 0.5382056832 -0.6192497015 0.5669639707
-0.106302999 -0.0955260247 0.5068492293 0.5904216766 -0.576811254 0.5627050996
-0.1164566949 -0.1001381949 0.5140769482 0.6645878553 -0.4998669624 0.5395734906
-0.1170367748 -0.09621350467 0.5185510516 0.6166670918 -0.5454409719 0.5616411567
-0.1108665988 -0.09942722321 0.5069228411 0.6246758103 -0.5636383295 0.5403546691
-0.1120295301 -0.09294969589 0.5157433152 0.5977781415 -0.5644478202 0.5690262914
-0.1103599891 -0.1042482331 0.5008966923 0.6855890751 -0.4968607426 0.5283123255
-0.1010298207 -0.09729772061 0.4971357584 0.5876208544 -0.5827216506 0.560233295
-0.1063028425 -0.09909687191 0.5015189052 0.6115549803 -0.5691142082 0.5485494137
-0.1105747819 -0.1047608033 0.5107682347 0.4283359349 -0.5618124008 0.5108394623
-0.1108746305 -0.1209585145 0.5257076621 -0.2083191276 -0.5557017922 0.4215523005
-0.1107384861 -0.1171243936 0.5217106342 -0.04951950163 -0.5572531223 0.4429034889
-0.11056301 -0.1100668907 0.5148844123 0.2334484905 -0.5599877834 0.4819555283
-0.1126914918 -0.09943288565 0.5194730759 0.4055780768 -0.5607943535 0.534693718
-0.1096847579 -0.1280636936 0.5244222879 -0.3463506401 -0.5523757935 0.3866246939
-0.1100581065 -0.08776919544 0.5186243653 0.5566626787 -0.5927376747 0.5768499374
-0.09829804301 -0.0861653313 0.5081198215 0.4814080298 -0.6542313099 0.5804190636
-0.1034954935 -0.09034558386 0.5090303421 0.5438035727 -0.6080837846 0.5770853162
-0.1021411791 -0.09456783533 0.5020953417 0.5695807338 -0.5996527672 0.5616111159
-0.1190300509 -0.1418118775 0.5014564395 -0.9800035954 -0.05701915547 0.07666574419
-0.1123602912 -0.1494680196 0.5128328204 -0.8853728771 -0.3746580184 0.1928053349
-0.1152164042 -0.1452582926 0.5084920526 -0.9246429205 -0.2378938347 0.1502482891
-0.115303725 -0.1422567666 0.5138610601 -0.8932793736 -0.2794407904 0.1865430027
-0.1151308417 -0.1401058137 0.5200545788 -0.8538030386 -0.3424620926 0.2258969694
-0.110292159 -0.1434822977 0.5303850174 -0.7801003456 -0.5370399952 0.3181882799
-0.1098537445 -0.1462909281 0.5246784687 -0.813755095 -0.4962410033 0.2949931324
-0.09487765282 -0.1698140353 0.5251278877 -0.5647861362 -0.7195463181 0.3975695074
-0.1038785949 -0.1584503949 0.5145016909 -0.7924898267 -0.4941614568 0.2126940042
-0.1045229509 -0.163281396 0.5185878277 -0.7558946609 -0.5742578506 0.2994683683
-0.09934406728 -0.1659380347 0.5233899355 -0.676291883 -0.6265944242 0.3670461774
-0.05871374533 -0.08381786197 0.5066215992 -0.3628383279 -0.751115799 0.5180847049
-0.05134033412 -0.09113670141 0.5087009072 -0.4482783079 -0.7124224305 0.4971423149
-0.05276140571 -0.08478872478 0.5109345913 -0.5215599537 -0.7040590644 0.4623577893
-0.07861173898 -0.07664366812 0.5079712868 0.08339509368 -0.7901944518 0.5986834764
-0.06641165167 -0.08180728555 0.5035782456 -0.1632089168 -0.7951846719 0.5726813674
-0.07269424945 -0.1377538592 0.5728235841 0.05082994327 -0.7996174097 0.5913978219
-0.07056574523 -0.1410334259 0.5682065487 0.1030381471 -0.7927280664 0.591414094
-0.04962441325 -0.1351846009 0.561680913 0.446159929 -0.7010748982 0.5538156033
-0.05556295067 -0.1368010044 0.5640254617 0.3470357955 -0.7232080698 0.5851357579
-0.05720546469 -0.1318030804 0.5690248013 0.2614260614 -0.7462390661 0.6020786166
-0.06084852293 -0.1387844831 0.5666523576 0.2816778421 -0.7469533682 0.5976979136
-0.03900457546 -0.1258790344 0.5372722745 0.261197269 -0.5767708421 0.5078158975
-0.03596810624 -0.09605384618 0.5233525038 -0.5624338984 -0.620973289 0.4255684614
-0.03824674711 -0.0992302075 0.5182386637 -0.5672351122 -0.6337816119 0.4404903352
-0.04074462503 -0.1322540492 0.5385354161 0.3875048459 -0.5935767293 0.529007256
-0.03947001696 -0.1082073748 0.5218694806 -0.3335001767 -0.6273046732 0.466263622
-0.03667283803 -0.1114089563 0.5494664311 0.2189190388 -0.6644854546 0.4795205295
-0.03551134467 -0.09029043466 0.5559444427 -0.1601439118 -0.8227750063 0.4360641837
-0.04306060076 -0.1203124896 0.5566036105 0.2636444569 -0.7134411931 0.517601788
-0.04655818641 -0.1368193179 0.5557379127 0.5049119592 -0.6457135081 0.5602946281
-0.03687898815 -0.1020929217 0.5536517501 0.04184405133 -0.7435833216 0.4627115428
-0.03754326701 -0.1233645827 0.5460669994 0.4264328182 -0.5824425817 0.5048678517
-0.03740414232 -0.09631532431 0.5568996072 -0.07614164054 -0.8009123802 0.453622669
-0.04058877006 -0.134853065 0.5464934707 0.5826324224 -0.5470534563 0.5366268754
-0.04182288051 -0.1289242804 0.5509966016 0.4482303262 -0.6192451119 0.5296266675
-0.04091531411 -0.1150009707 0.5548537374 0.1952296197 -0.7276059389 0.5005662441
-0.04016148299 -0.1204682216 0.5508574843 0.295538187 -0.6872652769 0.5084881186
-0.03983264789 -0.1087964103 0.5556557178 0.102946274 -0.7542179227 0.4852635562
-0.06739958376 -0.07583121955 0.5090052485 -0.1445560157 -0.8051371574 0.5733672976
-0.06691080332 -0.07229536027 0.5138549209 -0.1872752905 -0.8043204546 0.5619099736
-0.06294710934 -0.07960539311 0.5083625317 -0.256799221 -0.7897922993 0.5419021249
-0.07433728129 -0.07918118685 0.5043430328 0.03034572676 -0.8017503023 0.593793273
-0.07462404668 -0.07225720584 0.5132850409 -0.0390904434 -0.8029212952 0.5939328074
-0.09704384208 -0.0703991279 0.5246751904 0.343875587 -0.7280788422 0.5923449993
-0.1012280583 -0.0674405843 0.5304051638 0.3553535044 -0.7208127975 0.5937224627
-0.08961684257 -0.1634366214 0.5364229679 -0.441041857 -0.6992130876 0.5501652956
-0.09421790391 -0.158616364 0.5306892395 -0.5925427675 -0.6148692966 0.445979625
-0.08221856505 -0.156987071 0.5425314307 -0.2484686375 -0.7075428367 0.5923964977
-0.08650749177 -0.1576266885 0.5375722051 -0.3748978376 -0.6697192192 0.5323582888
-0.08358380944 -0.1628191322 0.5342377424 -0.2926535904 -0.6953501105 0.556838274
-0.08233786374 -0.1681582034 0.5361912251 -0.2482463866 -0.7553865314 0.6047176123
-0.07920441777 -0.1648178548 0.5401590466 -0.1549497396 -0.7426102757 0.64031744
-0.06741535664 -0.169769451 0.5357479453 0.1403334886 -0.7115225792 0.682821095
-0.08551540971 -0.1651899219 0.5285534859 -0.3775244653 -0.675589025 0.5029312372
-0.07837595791 -0.1696462482 0.5287314653 -0.2012280077 -0.7303619385 0.5622448325
-0.09379188716 -0.1638755649 0.527877748 -0.5689074397 -0.6636302471 0.445716083
-0.08786454052 -0.1717517078 0.526542902 -0.398291558 -0.7477796674 0.4696337283
-0.08394058794 -0.1719155312 0.5314058065 -0.2854310274 -0.7626729608 0.55415833
-0.07537921518 -0.1687189639 0.5364462137 -0.05711640418 -0.7547422647 0.6485025883
-0.04696808383 -0.1672388762 0.5308493376 0.4906967878 -0.5685766339 0.6585894227
-0.04391373321 -0.1578762084 0.5310053229 0.6161141396 -0.4910601974 0.60349828
-0.06046221778 -0.1440749764 0.5602118969 0.3037652671 -0.7371374965 0.6010922194
-0.05460638925 -0.1439158171 0.5553175807 0.4528727829 -0.6692997813 0.5862678289
-0.04884922504 -0.1459967047 0.5470450521 0.5734291673 -0.5971069336 0.5604804158
-0.04347631335 -0.1437059194 0.5432638526 0.6196011305 -0.5537413359 0.5542600751
-0.04073271528 -0.1453929693 0.5382264853 0.6675747633 -0.4925007522 0.5581176281
-0.03885941952 -0.1393569857 0.5413764715 0.6925165653 -0.4789503515 0.5388204455
-0.04410624132 -0.1497848779 0.5380548835 0.6218229532 -0.4981629848 0.5952985287
-0.04747498035 -0.155495435 0.5361354947 0.5650978088 -0.5243495107 0.6235614419
-0.0409691222 -0.1514959335 0.5323795676 0.6823055148 -0.4656071365 0.5529294014
-0.0866221711 -0.1420104653 0.5594445467 -0.2283132821 -0.7708143592 0.5515103936
-0.08097469807 -0.1453738809 0.5582050085 -0.1179478616 -0.7736234665 0.5874848962
-0.0821563229 -0.1407545954 0.5633682013 -0.1147235483 -0.778750658 0.5750350356
-0.06714120507 -0.1464609653 0.5596274734 0.1816250533 -0.7574358582 0.61987257
-0.05473700166 -0.0601096563 0.5438912511 -0.4708372355 -0.7368110418 0.42957744
-0.05730975792 -0.05920221657 0.538382411 -0.402312845 -0.7663062215 0.500706017
-0.06377270073 -0.0572659038 0.5384770632 -0.3000813127 -0.7984732389 0.519489646
-0.05907107145 -0.05612685531 0.5457338095 -0.3399007916 -0.7957160473 0.4686303139
-0.04936703295 -0.06124006212 0.5493053198 -0.5146576762 -0.7185897231 0.4334512055
-0.04479540139 -0.06359747797 0.5510596633 -0.5952763557 -0.6828703284 0.4183806479
-0.07135214657 -0.0827864483 0.4989501834 -0.02834280394 -0.7986098528 0.5929457545
-0.08349378407 -0.08003850281 0.5047986507 0.1966211498 -0.7678726315 0.6067324281
-0.08320034295 -0.06017775834 0.5296704769 0.09284110367 -0.803337872 0.5837991834
-0.08812424541 -0.08988888562 0.4968338907 0.3225347698 -0.7275682092 0.5977586508
-0.09363883734 -0.08825826645 0.4988152683 0.4381854534 -0.6728047132 0.5960014462
-0.09706275165 -0.09277417511 0.4981633425 0.5195916891 -0.627200067 0.5762323737
-0.1026135311 -0.07930473983 0.5191568136 0.4590543509 -0.6593047976 0.5893362761
-0.09552917629 -0.07443083078 0.5183885694 0.3637529016 -0.7159867883 0.594593823
-0.101867564 -0.07346065342 0.5232926011 0.425774157 -0.6812778115 0.5926110744
-0.09869871289 -0.08157444745 0.5125026703 0.4432454705 -0.6686518788 0.5916293859
-0.106337294 -0.07315862179 0.5279865265 0.4501639307 -0.6652107239 0.5955817699
-0.1066344082 -0.07707125694 0.5234718323 0.4855368733 -0.6423872113 0.5889533758
-0.1045148671 -0.08401872218 0.5143280029 0.5204439163 -0.6220074296 0.5829623342
-0.1148279533 -0.1472568512 0.5035177469 -0.9604954123 -0.1961022764 0.07590381801
-0.03699127957 -0.07851071656 0.5555043817 -0.3627122641 -0.8203393817 0.4083366096
-0.04199831933 -0.07028421015 0.5505691171 -0.5310052037 -0.7303050756 0.3885779381
-0.04408429191 -0.06649174541 0.5457601547 -0.6521761417 -0.6552187204 0.3792475164
-0.03151636571 -0.07710234821 0.5373036861 -0.5774995685 -0.667920053 0.3721910119
-0.02056726813 -0.08019942045 0.5350711942 -0.3860579729 -0.7440134287 0.3972643316
-0.02588194609 -0.0782802552 0.5367791653 -0.4780589938 -0.7073457837 0.3881409466
-0.03715506941 -0.07574629784 0.5380946398 -0.6766217351 -0.6285785437 0.357527703
-0.06185444817 -0.1299843937 0.5771407485 0.1718862802 -0.7815589309 0.5974078774
-0.04196504876 -0.09281389415 0.5051053166 -0.5943565965 -0.655546844 0.4626153708
-0.006568756886 -0.09393753856 0.5189997554 -0.2084656954 -0.7598863244 0.5820182562
-0.05422513187 -0.1670668125 0.5344305634 0.3562919497 -0.6343607306 0.6809703112
-0.04500679299 -0.1412188113 0.5484718084 0.5645518303 -0.6080556512 0.5561116934
-0.04917562008 -0.141986534 0.5536039472 0.5114133954 -0.6442496777 0.5668486953
-0.05302234739 -0.1402932405 0.5591814518 0.4314478338 -0.6925900578 0.5712441206
-0.03939674422 -0.1054423228 0.515637517 -0.4386129975 -0.6176023483 0.456004709
-0.03793632984 -0.1194716245 0.523296833 0.04154342785 -0.5435672402 0.4803197086
-0.03603336588 -0.1039580181 0.5267387629 -0.3147978783 -0.5836339593 0.4437735975
-0.03574049473 -0.1149576083 0.5288795233 0.01944621839 -0.5330189466 0.459018141
-0.03503906727 -0.1311711371 0.5314177871 0.5159873962 -0.4543431401 0.4779447615
-0.0371959731 -0.1193768084 0.5333398581 0.1312128603 -0.5364130735 0.4858123958
-0.0389925614 -0.1244158298 0.5289700031 0.1746780723 -0.5547841787 0.5055865049
-0.0394423455 -0.1141873598 0.5222215056 -0.1612834483 -0.5939944386 0.4814848304
-0.03629127145 -0.1410948336 0.5345529914 0.7272905707 -0.4417891204 0.5223240256
-0.09322882444 -0.145219624 0.5509744287 -0.4607233405 -0.7084965706 0.4859996736
-0.08655268699 -0.1479639262 0.5511215329 -0.3180149794 -0.7170981765 0.5293004513
-0.09096739441 -0.1512372047 0.5512956381 -0.4380767047 -0.7226996422 0.5334880352
-0.08950311691 -0.1478761882 0.5573580861 -0.3662402034 -0.7561143637 0.5375395417
-0.09214974195 -0.1447680891 0.563888967 -0.3523617685 -0.7447143793 0.5607420802
-0.0787871629 -0.1551314294 0.5488696098 -0.1409790367 -0.7591179013 0.6269606352
-0.08449614048 -0.1548306346 0.5489248037 -0.2931727171 -0.7425718307 0.6009551883
-0.07689061016 -0.1606228054 0.545142591 -0.08147207648 -0.7338163257 0.6622196436
-0.07611425221 -0.1493502408 0.5586412549 -0.04322881252 -0.7971948385 0.598195374
-0.08157669008 -0.1513228565 0.5540800691 -0.1921386421 -0.7769927382 0.5916680098
-0.05481281877 -0.09647654742 0.4877843857 -0.411929667 -0.6340973377 0.6450462937
-0.05966008082 -0.09090653062 0.4922768176 -0.3014017045 -0.7326709628 0.5845336318
-0.09166252613 -0.06533493847 0.527476728 0.260766089 -0.7670372725 0.5833422542
-0.08438664675 -0.07530590892 0.5112398267 0.2087135017 -0.7611224055 0.6130574942
-0.07633280754 -0.06687386334 0.5201129913 -0.01600274816 -0.8030334711 0.592478931
-0.0819304511 -0.0635972023 0.5247429609 0.08658067137 -0.7973332405 0.5955023766
-0.08256965131 -0.06861867756 0.518689692 0.1376673728 -0.7819285393 0.6070392728
-0.07115126401 -0.05995525047 0.5315422416 -0.1521233767 -0.8117776513 0.5525411367
-0.05599179864 -0.06470979005 0.5332286954 -0.4326330125 -0.7498951554 0.4965096116
-0.05275965109 -0.06399061531 0.5391901135 -0.5045696497 -0.7172771692 0.4479967654
-0.0423168391 -0.08048493415 0.5313188434 -0.6587588787 -0.6346942782 0.4023466706
-0.0402953513 -0.07764553279 0.544260323 -0.5126387477 -0.7374105453 0.3843417466
-0.07286081463 -0.07182975858 0.5193758607 -0.06632051617 -0.795094192 0.5533573031
-0.06126933172 -0.07498253882 0.5131220818 -0.3194096386 -0.7828133106 0.5302826762
-0.03026279807 -0.09794910997 0.5060098171 -0.4861936867 -0.6779654622 0.5147889853
-0.03663349524 -0.09688329697 0.5052596927 -0.5735977888 -0.6516979933 0.4825893342
-0.02525275201 -0.09218966216 0.5153958797 -0.4679973722 -0.6853571534 0.483935535
-0.02400825545 -0.09698998928 0.5094200969 -0.4157460332 -0.6997216344 0.5293255448
-0.01765733398 -0.09529092908 0.5138497353 -0.3497677743 -0.7203550339 0.5379116535
-0.03183931857 -0.09401166439 0.5107220411 -0.5359648466 -0.6640786529 0.4755408466
-0.05547413975 -0.1547840089 0.5441954732 0.4295874536 -0.6285151839 0.6476421356
-0.05644607171 -0.1499067992 0.5492685437 0.4517256021 -0.6595842838 0.5929396152
-0.05008779094 -0.1531428993 0.5418918133 0.5231320262 -0.5573486686 0.6393671632
-0.06562437862 -0.1637993157 0.5389286876 0.1576278061 -0.7132230401 0.6790590286
-0.06024729833 -0.1653216481 0.5383241177 0.2541016936 -0.671913743 0.6917123795
-0.05388008803 -0.1598580927 0.5384777188 0.4264427125 -0.5949570537 0.6712038517
-0.07018785924 -0.1737488359 0.529548049 0.01129484177 -0.7686550021 0.6330166459
-0.05942818522 -0.17309089 0.5299991369 0.2660095692 -0.6550378203 0.7054810524
-0.05973381922 -0.1675469428 0.5328270197 0.2581825554 -0.6673010588 0.6778909564
-0.06495933235 -0.171690017 0.5294057727 0.1242180765 -0.722923696 0.6379407048
-0.06104321033 -0.1561111957 0.5466647148 0.2878936827 -0.6956432462 0.6533225179
-0.06235177815 -0.1516372114 0.5499995947 0.3080617785 -0.7042219043 0.6155884266
-0.07401131094 -0.1520609558 0.5530176163 0.003150310833 -0.7640166879 0.637904346
-0.06747631729 -0.155199334 0.5503802299 0.1472451687 -0.7383268476 0.6495530009
-0.07339792699 -0.1572624594 0.5493465662 -0.003108597128 -0.7561782598 0.6483938694
-0.06983016431 -0.1622850299 0.5435546041 0.07923302799 -0.718211472 0.6848660111
-0.06737174094 -0.1510374844 0.5548749566 0.1743832231 -0.7530511618 0.6283557415
-0.07233518362 -0.145674333 0.5626446009 0.07367097586 -0.7979714274 0.5876088738
-0.07272107154 -0.0907548964 0.4881884456 0.02893880941 -0.7678201199 0.6376358867
-0.0663767308 -0.09161473066 0.4900400937 -0.1496026516 -0.7456920743 0.6415500045
-0.04326873645 -0.07075980306 0.5412416458 -0.6810520291 -0.6406666636 0.3527134359
-0.04339371994 -0.0852573961 0.5212538838 -0.6250551939 -0.6488915086 0.4325818717
-0.04750392959 -0.08507713675 0.5164189339 -0.595571816 -0.6709725857 0.4392875135
-0.04121046141 -0.09344786406 0.5171790123 -0.6232786179 -0.645641923 0.4407580793
-0.04544611648 -0.09269626439 0.5126609206 -0.5941143632 -0.6678041816 0.446847856
-0.0288084168 -0.08680927753 0.5387113094 -0.3644180894 -0.7830197215 0.3682595491
-0.01355844643 -0.08601089567 0.5315015316 -0.2536228597 -0.7951274514 0.4417982101
-0.0296448525 -0.09013082832 0.5257169008 -0.5414386988 -0.6774454713 0.4162374735
-0.02089312486 -0.08617880195 0.5358518958 -0.2956420183 -0.7962201834 0.4029999971
-0.01186345704 -0.08420392871 0.5377192497 -0.1516981125 -0.8514680266 0.4227069616
-0.02965472452 -0.08516710252 0.5460007787 -0.2826123834 -0.8363263607 0.3374174237
-0.005381986964 -0.08268365264 0.5394792557 -0.04301903397 -0.8944122195 0.4352227747
-0.02758084424 -0.0832567066 0.5523808599 -0.173575297 -0.8956432939 0.3188268244
-0.02253912203 -0.08481888473 0.5425374508 -0.2321832329 -0.8411979079 0.3721160889
-0.01374534518 -0.08306346089 0.5436702967 -0.1007543504 -0.889629662 0.39397192
-0.02267481945 -0.08302976936 0.5499392748 -0.1394914091 -0.8985812664 0.3429593146
-0.03134499118 -0.08905266225 0.5312886238 -0.4929196239 -0.7134529352 0.3895183802
-0.03485526145 -0.08676722646 0.5412228703 -0.4594598413 -0.7519929409 0.4138691127
-0.03430273384 -0.0837296322 0.5523852706 -0.3319344819 -0.8306912184 0.4072840512
-0.02930497006 -0.08070360124 0.5330064297 -0.5365380645 -0.678195715 0.3838659823
-0.03662499785 -0.08067196608 0.5318456888 -0.6632086635 -0.6239247918 0.3708188236
-0.0732152015 -0.06620506942 0.5261754394 -0.06410890818 -0.8004590869 0.5654218793
-0.06600280106 -0.06892007589 0.5200269222 -0.2230609655 -0.8027015328 0.5502966642
-0.06012430042 -0.06930775195 0.5246064663 -0.3502136469 -0.7644827366 0.5233865976
-0.06506004184 -0.06272207201 0.5302929878 -0.2461236864 -0.8022001386 0.5426130891
-0.06149925664 -0.07202210277 0.5187853575 -0.3259283006 -0.788428843 0.5206333399
-0.05655908212 -0.07610759884 0.5162627101 -0.4279731512 -0.7628921866 0.4761180878
-0.05173571035 -0.07928236574 0.5182272792 -0.5513740182 -0.6950957179 0.4569792747
-0.036127422 -0.08959212899 0.5268022418 -0.622246027 -0.6493982077 0.4143751562
-0.0353432782 -0.08808638901 0.5351045728 -0.5290294886 -0.7084417939 0.4151876867
-0.03978431225 -0.0821903944 0.5368096828 -0.5677964091 -0.6875705719 0.410304904
-0.03749559447 -0.08287009597 0.5439013243 -0.4651986361 -0.7505581379 0.4138960242
-0.03990359977 -0.08470013738 0.527843833 -0.6570700407 -0.6298382282 0.4111893177
-0.03865755722 -0.08849101514 0.520026803 -0.6611231565 -0.6256250739 0.4136558175
-0.0207686685 -0.09109149873 0.5195773244 -0.4076369405 -0.6997972727 0.5082484484
-0.0320022814 -0.09028699994 0.5158843994 -0.5615243912 -0.6559192538 0.4495573342
-0.01176341623 -0.09235782921 0.5195562243 -0.2803052962 -0.7369961739 0.5558297038
-0.001892721979 -0.0878597796 0.5285909176 -0.09423801303 -0.8296562433 0.5305029154
-0.01911131851 -0.08884589374 0.5252971053 -0.3729925752 -0.7214198709 0.4915876091
-0.008305481635 -0.09050056338 0.5242951512 -0.2178989202 -0.7677127719 0.5475590825
-0.008676090278 -0.08723427355 0.5293111801 -0.1973130703 -0.8023139238 0.4845565557
-0.001861825236 -0.09224483371 0.522741437 -0.1322426647 -0.7886878848 0.5897547007
-0.02737103961 -0.08499071002 0.5291163325 -0.4843655825 -0.6973166466 0.421187669
-0.02152187005 -0.08490128815 0.5301421881 -0.383518219 -0.7389343977 0.4333361387
-0.007355129812 -0.08310840279 0.5341637135 -0.146071583 -0.8369208574 0.4519857764
-0.05097912997 -0.08529173583 0.503108561 -0.4916920066 -0.6882433295 0.5268980861
-0.0553898178 -0.0792875886 0.5099427104 -0.4173926413 -0.7510282993 0.5027419329
-0.04763694853 -0.08442753553 0.5090911388 -0.5639950037 -0.6898866296 0.4527178705
-0.04152717069 -0.08743235469 0.5138768554 -0.6317725182 -0.6473007202 0.4219242632
-0.05465906486 -0.07293769717 0.521928966 -0.4683821499 -0.7344799638 0.4880935252
-0.04310494289 -0.08056201041 0.5249864459 -0.630006671 -0.6474858522 0.4205097258
-0.04911508411 -0.07444961369 0.5294064879 -0.575950563 -0.6832056642 0.4347889721
-0.05483246967 -0.06937012076 0.5287240148 -0.4797308147 -0.7203966379 0.4901638329
-0.04336961359 -0.07447335124 0.5334939361 -0.6367540956 -0.6544854641 0.3867593706
-0.04830935597 -0.07494658977 0.5238061547 -0.5431386828 -0.696344018 0.4653353691
-0.04919288307 -0.0675746277 0.535513401 -0.5298857689 -0.7173883915 0.450208813
