# .PCD v0.7 - Point Cloud Data file format
VERSION 0.7
FIELDS x y z normal_x normal_y normal_z
SIZE 4 4 4 4 4 4
TYPE F F F F F F
COUNT 1 1 1 1 1 1
WIDTH 512
HEIGHT 1
VIEWPOINT 0 0 0 1 0 0 0
POINTS 512
DATA ascii
0.08694690466 -0.08988382667 0.6573064923 0.559424758 -0.5456975102 0.6208051443
0.0876070559 -0.09567281604 0.6598260403 0.5714094639 -0.5484284759 0.6086550355
0.08759308606 -0.09433101863 0.6519908309 0.5387632251 -0.5636101365 0.6239748597
-0.04575344548 -0.1492512822 0.6653341055 -0.1426716 -0.1945062131 0.3978559375
-0.04339445382 -0.1345586926 0.6572850943 0.539509654 -0.4340261519 0.4820512235
-0.04465797544 -0.1375710219 0.6639166474 0.3008480668 -0.3342806995 0.4551848471
-0.05407463387 -0.1639706045 0.6679131389 -0.945730567 0.1185716242 0.1636470556
-0.05110245571 -0.1575455815 0.6655947566 -0.5999129415 -0.01420237124 0.2482500076
-0.04904075339 -0.1419252008 0.6686933041 -0.05963809043 -0.1764223725 0.3477348685
-0.04753065482 -0.1429852694 0.6619121432 0.0548411198 -0.2439570278 0.3682750165
-0.04676958546 -0.1338723004 0.6676309109 0.2981832922 -0.3020631373 0.4227887094
-0.05126323923 -0.1518734694 0.6677744985 -0.4495847225 -0.04831520468 0.2648233175
-0.04457580298 -0.1296725124 0.6632154584 0.5749456286 -0.414494127 0.4789030552
0.02673765086 -0.1297201663 0.6120254993 -0.2552230358 -0.683013618 0.6798323989
0.02136478573 -0.12911129 0.6142938137 -0.1736444384 -0.6809293628 0.697188437
0.0003454188409 -0.2071233094 0.7152633667 -0.1422528774 -0.5275691152 0.8282144666
0.03207897395 -0.201583907 0.7102103829 0.3650991619 -0.5724006295 0.7336460948
0.0331453681 -0.1834010184 0.721423924 0.3924560249 -0.574929595 0.7178683877
0.04409191385 -0.1991648078 0.7011848688 0.5597326756 -0.519151926 0.6328680515
0.03863480687 -0.2012247741 0.7069963813 0.4527444839 -0.5538846254 0.6937058568
-0.009666547179 -0.06729733199 0.6753001809 0.3935578465 -0.666600287 0.6305427551
0.01558178198 -0.1276548207 0.619330287 -0.06982375681 -0.6771177649 0.7235043645
0.0281233862 -0.1281630099 0.6200800538 -0.2397312671 -0.674543798 0.6929395199
0.05263848603 -0.08807842433 0.6690921187 -0.5822898149 -0.4818949103 0.6545098424
0.04322297499 -0.1602556109 0.7360209227 0.4662151039 -0.5522688031 0.6878601909
0.03705106303 -0.159010306 0.736779809 0.397885561 -0.5541085601 0.71903795
0.02616711333 -0.1982215494 0.7106951475 0.2798133194 -0.5624915361 0.7635711432
0.0333651416 -0.1951040775 0.7109268308 0.3928748071 -0.5599862933 0.7270402908
0.04322577268 -0.1596708447 0.7298161983 0.499985218 -0.5263041258 0.6710765362
0.03606949374 -0.1653897166 0.7355471253 0.3943546712 -0.5785785317 0.7134602666
0.04069445282 -0.1656242311 0.7316753268 0.4421710372 -0.5563031435 0.7031568885
0.04000061005 -0.1768182218 0.7216709852 0.4984680414 -0.548915863 0.6652613878
0.03477539867 -0.177145347 0.7261880636 0.4201253653 -0.5776907802 0.6994073391
-0.03575681895 -0.1811021864 0.6989748478 -0.7577753663 -0.319055438 0.5631271005
-0.02145565301 -0.1172906086 0.640737772 0.5319347978 -0.579662919 0.606544435
0.06200563163 -0.0790938139 0.688162446 -0.3944513202 -0.4521632195 0.782530427
0.05909862742 -0.07495366782 0.6830322146 -0.391625464 -0.5731297135 0.6728391051
0.06467550993 -0.07746817172 0.6816521883 -0.2539605796 -0.5272245407 0.7150113583
-0.03412165865 -0.07353928685 0.6927652955 0.6027057171 -0.5442339778 0.5835167766
-0.0403810516 -0.07403258979 0.6929123402 0.6077671051 -0.5415742993 0.5807833076
-0.03817767277 -0.08468512446 0.6920177937 0.6415328979 -0.5199881196 0.5636345148
-0.03222972155 -0.07496248186 0.6868673563 0.6044378281 -0.5433508754 0.5825247169
-0.0368697606 -0.07923604548 0.6947210431 0.6210637689 -0.5339397788 0.573423624
-0.02446657047 -0.07772020996 0.6772912145 0.5796731114 -0.5562113523 0.5950407386
-0.01687585749 -0.0700122416 0.6790889502 0.4940967858 -0.6186361909 0.6082519889
-0.0171468053 -0.07513722777 0.6738758683 0.4944923818 -0.6059136391 0.6209046841
-0.02418690547 -0.07362326235 0.6824243069 0.5727313161 -0.5641250014 0.5939121842
-0.0229221601 -0.1228801236 0.6335942149 0.5265833139 -0.5908718109 0.6108389497
-0.04372961447 -0.1486715972 0.6895717978 -0.3990676701 -0.2921484709 0.4653418958
-0.04704263806 -0.1577133834 0.6785171628 -0.6554428935 -0.05200486258 0.3600631058
-0.0440614447 -0.1401357204 0.6827993989 -0.03279257566 -0.3338375688 0.4790922999
-0.04360158741 -0.1544348449 0.6936666965 -0.6429203749 -0.2588658035 0.4536810815
-0.04759172723 -0.1587287039 0.684658587 -0.7914554477 -0.1121611074 0.3417010009
-0.04442701861 -0.1244092137 0.6716419458 0.6318667531 -0.4249284863 0.5104849339
-0.04736921191 -0.1519221067 0.6808698177 -0.5057249665 -0.1619711369 0.3649359643
-0.04626363888 -0.1389627159 0.6756880879 0.03249588981 -0.2773768604 0.4264095128
-0.051836472 -0.1581131667 0.6716083884 -0.7293787003 0.0119858142 0.2360067964
-0.04470308125 -0.1322117448 0.675922513 0.3045070767 -0.367197156 0.4833197296
-0.04961287975 -0.1534917653 0.6752112508 -0.552988708 -0.08435136825 0.3041656017
-0.04915547371 -0.1478461921 0.6728817225 -0.3183150589 -0.1338955611 0.3303334713
-0.0467816107 -0.145418033 0.6783667207 -0.2358797789 -0.2208786011 0.3966157436
-0.002984782448 -0.06762161106 0.6723732948 0.295679599 -0.6855667233 0.66031003
0.004339191597 -0.07059829682 0.6661307216 0.1786405295 -0.6572799087 0.7294374108
-0.001747760572 -0.07332793623 0.6652249098 0.2703180313 -0.662653625 0.6943082213
0.01110587455 -0.124207288 0.6219009757 -0.007388812024 -0.6724728346 0.736856699
-0.0003721884277 -0.1252517551 0.6223073602 0.1716472059 -0.6295896173 0.7458354831
-0.008799578063 -0.1247748509 0.6257117987 0.3037184477 -0.6165981293 0.7177631855
-0.01011334546 -0.1170720831 0.6315385699 0.3207188845 -0.6321974993 0.7027133107
-0.003197978018 -0.1159334779 0.629817903 0.2364088893 -0.6417013407 0.7279996872
-0.003740786342 -0.1202775091 0.6260244846 0.2416694164 -0.6376797557 0.7296034098
0.02013379335 -0.1187586263 0.6272922754 -0.1478227675 -0.675788641 0.717641294
0.02293617278 -0.1248403341 0.6180659533 -0.1623027921 -0.6868972182 0.7036241889
0.01717635058 -0.1213893965 0.6229044795 -0.08339359611 -0.6886482239 0.7166435122
0.05532615259 -0.08548528701 0.6740926504 -0.5697453022 -0.4795336127 0.6660645008
0.0601397641 -0.0924622938 0.6755996346 -0.5150972009 -0.4224851727 0.7416654229
0.07586193085 -0.08310235292 0.6675292253 0.321198225 -0.5515408516 0.7176641822
0.04672210664 -0.08515598625 0.6660575271 -0.5207439065 -0.5169385672 0.6781212091
0.08440442383 -0.09251833707 0.6661326289 0.5537036657 -0.5475242734 0.6250200272
0.08154160529 -0.09115854651 0.6717541814 0.5351089239 -0.5412715673 0.6478779912
0.08220203221 -0.08610772341 0.6669445038 0.514546454 -0.5419281125 0.6632537246
0.03790697828 -0.1707681865 0.7294309735 0.4457058311 -0.5652773976 0.6911931634
0.04174903408 -0.1705152541 0.725056231 0.4997828901 -0.5470378995 0.6587787271
0.02900352888 -0.1778269112 0.7268620729 0.2959782481 -0.6091467142 0.7333673835
0.04457706213 -0.1639683843 0.7240566611 0.5276253819 -0.5230355859 0.6508532166
0.01690147817 -0.1141959205 0.6310386062 -0.07912142575 -0.6614189148 0.7298100591
0.02253525145 -0.1131386012 0.6314922571 -0.1788363159 -0.6495063901 0.7362039089
0.001968948869 -0.1969771385 0.7148273587 -0.1473215222 -0.5331064463 0.8236279488
0.007146078628 -0.1996997595 0.7131099701 -0.05239639804 -0.5553650856 0.8205926418
0.008468236774 -0.2052159011 0.7085545659 -0.009489424527 -0.543302536 0.8197375536
-0.009249774739 -0.2033077031 0.7099246979 -0.3207421303 -0.4817694128 0.8051844835
0.001667914446 -0.2017616481 0.7090102434 -0.1472026408 -0.5000487566 0.8056567907
-0.007356647868 -0.1975887865 0.7113260031 -0.3168972135 -0.459877342 0.8030126095
-0.01588548534 -0.2007025033 0.7073963284 -0.4546906948 -0.4399759471 0.7674108148
-0.01296197996 -0.1961764693 0.7109869123 -0.4240883291 -0.4182606936 0.7939825058
-0.004161342047 -0.1933287531 0.716534853 -0.2503430545 -0.5080701113 0.8213539124
0.00100914971 -0.1919068545 0.7189353108 -0.1551281363 -0.5406616926 0.8194960952
0.0279691834 -0.1876120418 0.7197245359 0.3113827109 -0.577223599 0.7539178729
0.02637824602 -0.1837770939 0.7241315246 0.2883222699 -0.584043324 0.757835269
0.03199712187 -0.1907099038 0.717248559 0.3699560761 -0.5757782459 0.7284163237
0.02643006295 -0.1942183077 0.7155510187 0.2872268856 -0.5740469098 0.7663382292
0.01065543294 -0.1909227371 0.7276552916 0.02460031584 -0.6092157364 0.7877329588
0.009868984111 -0.1842493862 0.7294105887 -0.0002488854807 -0.621989131 0.7788739204
0.01075558737 -0.1960963607 0.7234581709 0.02482078411 -0.5847696662 0.8064060807
-0.03394719586 -0.1859670877 0.7027946711 -0.7128079534 -0.299808383 0.6285621524
-0.0413171798 -0.1906089485 0.6935838461 -0.786329329 -0.2982934117 0.5398526192
-0.03789190948 -0.1870963126 0.6981517076 -0.7568404675 -0.3007588685 0.5751769543
-0.04534080252 -0.1824920475 0.6846739054 -0.8567159772 -0.1479103565 0.4391056001
-0.03027289361 -0.1972148567 0.7016150355 -0.6344062686 -0.3383148015 0.6794211864
-0.03480738774 -0.1941377223 0.6969250441 -0.7135096192 -0.3227520883 0.6021447182
0.02777463943 -0.1650169939 0.7389330864 0.2829457819 -0.5739628077 0.7671508789
0.03338883072 -0.1618204862 0.7400417924 0.3339830339 -0.5743561387 0.7469092011
0.03214832023 -0.1730240732 0.7311334014 0.3790583313 -0.5852470994 0.7148239613
0.02646614797 -0.1703193635 0.7346243858 0.2815330029 -0.5843020082 0.7604842782
0.01760949753 -0.1785256714 0.7298731208 0.1023099422 -0.6098824143 0.7811465263
-0.02805645764 -0.09778501093 0.6634173393 0.6231579781 -0.5190791488 0.5809957385
-0.01472904813 -0.1211970821 0.6306480765 0.3743212223 -0.6216298938 0.6845564842
-0.01823814772 -0.1182882637 0.6355928779 0.4755540788 -0.6079701781 0.6290507913
-0.02580361627 -0.1220357865 0.6400214434 0.5977162123 -0.5637878776 0.5593998432
-0.01909357682 -0.1270574927 0.6292198896 0.4432435632 -0.5995365381 0.6600536704
-0.02772163413 -0.1272919923 0.6335591078 0.5788632631 -0.5695616603 0.5809972286
-0.03202820569 -0.1313352436 0.6365184188 0.6043269038 -0.5647565126 0.5568305254
-0.02612230927 -0.1308754534 0.6274954677 0.5200448036 -0.5831565857 0.6238534451
-0.03228279576 -0.08987889439 0.6769874096 0.6552898884 -0.508237958 0.5580359101
-0.04288420454 -0.1176362708 0.6695067883 0.7298895717 -0.4464281499 0.5176287889
0.06813583523 -0.08057869971 0.6709181666 0.04689521343 -0.5652953386 0.6936150193
0.06108129397 -0.08085332811 0.670833528 -0.1666913778 -0.5508809686 0.6808727384
0.0542928353 -0.0815596506 0.6702184081 -0.3666696548 -0.5320808887 0.6700007319
0.05671356618 -0.08215431869 0.6790767312 -0.4813326895 -0.4665999711 0.7393115759
0.06508479267 -0.0781121254 0.676199317 -0.1151828393 -0.5709950328 0.6850361228
0.0582001619 -0.0773589015 0.676130414 -0.3157896698 -0.5776926875 0.6665827036
0.02683800459 -0.158714056 0.742821753 0.2513508499 -0.5641023517 0.7839634418
-0.005194697529 -0.207896769 0.7190111876 -0.2275002152 -0.5141940117 0.7971993685
-0.01270334609 -0.1915096492 0.7200250626 -0.3886931539 -0.5096393824 0.7522330284
-0.01093116496 -0.2070172578 0.7160959244 -0.332859695 -0.4651370645 0.7856510878
-0.0001755879202 -0.2108021826 0.7208848 -0.1320519596 -0.5487529635 0.8114881516
-0.01594777964 -0.195170626 0.7170580626 -0.441927284 -0.4656111598 0.7538487911
-0.01495634392 -0.2019318342 0.7154667974 -0.4136173427 -0.448210746 0.7687935233
-0.00955375284 -0.1998690069 0.7191288471 -0.3188084662 -0.5057329535 0.7740052938
-0.02034636028 -0.205015108 0.7110756636 -0.5076475143 -0.3846434653 0.7679623961
-0.02453827858 -0.1916110069 0.7051845193 -0.6085873842 -0.3649708331 0.6934874654
-0.02526767552 -0.2005088925 0.7043021321 -0.5684822202 -0.368465066 0.7291690707
-0.03823003545 -0.1159079447 0.6624513268 0.728736341 -0.4498112798 0.5163258314
-0.04316717386 -0.1233498678 0.6654221416 0.7292463183 -0.450838089 0.5141334534
-0.04225606099 -0.1855984777 0.6887137294 -0.8168091178 -0.2551096678 0.4979000986
-0.04789604992 -0.1771575212 0.6796092987 -0.8921567202 -0.07616815716 0.3885297477
0.005387940444 -0.1247131526 0.6202109456 0.08728708327 -0.6410146356 0.7618340254
0.01329184603 -0.1182027757 0.626495719 -0.02137837559 -0.6837183833 0.7266494036
0.00933452975 -0.1137745455 0.6298898458 0.04449924454 -0.6401512623 0.7602016926
0.004332411569 -0.1197927967 0.6247523427 0.1290604621 -0.6443039179 0.7525542378
0.00288394792 -0.1150445566 0.6299481392 0.1579197794 -0.6387906671 0.7510715723
0.02740072086 -0.1118406653 0.634717226 -0.2643517852 -0.6337543726 0.7246713638
0.02600611374 -0.1044163927 0.6404179335 -0.2276552767 -0.6125764847 0.7554998994
0.03562278301 -0.1293907762 0.618879199 -0.3555238247 -0.6461251378 0.6734437346
0.07397437096 -0.08235808462 0.6772249341 0.1166377962 -0.4832249582 0.7759420872
0.07181790471 -0.08335868269 0.684527874 -0.0356821157 -0.4274986386 0.8122644424
0.07772608101 -0.08504077792 0.6738428473 0.3128736317 -0.5250927806 0.7203979492
0.07211434096 -0.08949891478 0.6837972403 -0.008180833422 -0.397862047 0.8335469961
0.02307692543 -0.0989895165 0.6435692906 -0.1641065031 -0.6159741282 0.7684147954
0.01749825478 -0.1028042659 0.6400687695 -0.08139593154 -0.6230171323 0.7744543552
0.01028162986 -0.09560864419 0.6452891827 0.04603032768 -0.6192319393 0.780092597
0.005253835116 -0.09785715491 0.6434864402 0.1218859255 -0.623041749 0.772457242
-0.02041305974 -0.09940996021 0.6544225812 0.510687232 -0.5656531453 0.645344913
-0.02617623098 -0.1012375429 0.6576479673 0.5988451242 -0.5328077078 0.5965453386
0.01536313538 -0.06365771592 0.6715989709 -0.00483979471 -0.6885467768 0.7247607708
0.007642010227 -0.06426569074 0.6719415188 0.1174488142 -0.6968464255 0.7030122876
0.05217819661 -0.1923349649 0.695984602 0.7074369788 -0.4526700079 0.5337116122
0.04885054007 -0.1950681359 0.7004369497 0.630168438 -0.4872171879 0.5930139422
0.05841214955 -0.1917660385 0.6928737164 0.7675998807 -0.4253435135 0.4748496711
0.04577092454 -0.1907280833 0.7047964334 0.6038416028 -0.485340327 0.6222701073
0.04084772989 -0.1918887645 0.7078421116 0.5193577409 -0.51571697 0.6661514044
0.04118588939 -0.1868343204 0.7115921974 0.5341243148 -0.4986868203 0.6727232337
0.03660086915 -0.1869160533 0.715334177 0.4593546987 -0.5239227414 0.7165498734
0.05074194446 -0.1889215261 0.7012883425 0.6863518953 -0.4500121176 0.5667487979
0.06208052859 -0.1113813594 0.6653578877 -0.5572676063 -0.5649824739 0.5894348025
-0.03490625694 -0.1762031913 0.7020176649 -0.7688996792 -0.3217491806 0.5447230935
-0.03112167679 -0.1808319837 0.7050148845 -0.7087435126 -0.3520410061 0.6085665226
0.008069947362 -0.1926756948 0.7196090817 -0.01149294432 -0.5529523492 0.8290036917
0.01568411477 -0.1909804344 0.7192974091 0.1092668101 -0.5619145036 0.8013560176
0.01218519174 -0.1967369765 0.7159874439 0.0736342743 -0.5617081523 0.8161785603
0.01780687273 -0.1989653856 0.7132928967 0.1661982834 -0.5647496581 0.8047376275
0.002460063901 -0.1756834686 0.7320877314 -0.1402232051 -0.6061022878 0.7775475383
0.00767790433 -0.209969759 0.7186719179 0.009179728106 -0.5672951341 0.8080614805
0.01446335204 -0.2067387104 0.7122315764 0.1184258312 -0.5647237301 0.8022827506
0.02354954742 -0.204652831 0.7084908485 0.2642945945 -0.5697566271 0.7678952813
0.01749719121 -0.1845625341 0.7266885042 0.1288226843 -0.6159633398 0.7745915055
0.02088426985 -0.1884609312 0.7227387428 0.1952044815 -0.6002764106 0.773424685
0.008403338492 -0.2041817307 0.7216178775 0.01128466148 -0.572488606 0.8107987642
0.02080861107 -0.2035963386 0.7138172984 0.2447642088 -0.568569243 0.771802485
0.01307174005 -0.2057626992 0.7181116939 0.1010434553 -0.5717776418 0.7922092676
0.01793934032 -0.197337389 0.719576478 0.1624173373 -0.5856052637 0.782471776
-0.02305695601 -0.1759577245 0.7178082466 -0.609926343 -0.468046546 0.6374770999
-0.005478777457 -0.1753541678 0.7301155925 -0.2919242084 -0.5826105475 0.7578410506
-0.03400300443 -0.1114625409 0.6594182849 0.6979275346 -0.4705303907 0.5385026932
-0.03988359869 -0.1097324863 0.6652067304 0.7236638665 -0.4492025971 0.5239042044
-0.04191878438 -0.1102737412 0.6717793941 0.7302961946 -0.4471733868 0.5163891315
-0.04056508839 -0.1030286476 0.6753147244 0.7322305441 -0.4497472048 0.5113664865
-0.02472939342 -0.1070448533 0.651193738 0.582918942 -0.5363507867 0.6088359356
-0.02961909771 -0.1103156358 0.6542969942 0.6484572291 -0.4996807873 0.5687928796
-0.03486252949 -0.1295544803 0.6441268921 0.6734384298 -0.5364869237 0.5084937811
-0.03051774018 -0.1261765957 0.6396001577 0.6292577386 -0.5527080297 0.5427201986
-0.05130568147 -0.1697348505 0.6734113097 -0.9503856897 0.07230164111 0.3023200929
-0.04527439177 -0.1648962945 0.691757679 -0.8816359639 -0.1803162992 0.4165613353
-0.04379694164 -0.160461843 0.6964940429 -0.8685593605 -0.2204175293 0.4387504458
-0.03027809225 -0.08274041861 0.6795966625 0.6284314394 -0.5252435803 0.5732653737
-0.03439296409 -0.08221583068 0.6847519875 0.6315350533 -0.5241897702 0.5705685019
-0.03862465918 -0.08594974875 0.684773922 0.6574063301 -0.5001809597 0.5610327125
-0.0374763757 -0.07765363157 0.6886891127 0.6208978891 -0.530708015 0.5755203962
0.04801477119 -0.08041194826 0.6708669662 -0.5330001116 -0.5251321197 0.6628701091
0.05217233673 -0.07391354442 0.6791293025 -0.4761705101 -0.5904480815 0.6512899399
0.04684497789 -0.06957801431 0.6780485511 -0.4663324952 -0.6108548641 0.6394208074
0.04494795203 -0.07513728738 0.6722499132 -0.4841834903 -0.5545337796 0.6764228344
0.0164612662 -0.1585508287 0.7453181148 0.04552225024 -0.5570148826 0.8264064193
0.02253654785 -0.162149474 0.7424669862 0.1570994407 -0.5737016797 0.8026166558
-0.02671151608 -0.1863862425 0.7069329619 -0.6472171545 -0.3428304791 0.6787080169
-0.04101018608 -0.1596520841 0.7053962946 -0.7853207588 -0.3333993256 0.5156533718
-0.03750080243 -0.1588291824 0.7129947543 -0.7405380011 -0.3899160326 0.5472028852
-0.03750784323 -0.1646948159 0.7075977325 -0.7602036595 -0.3343753815 0.5555840135
-0.0389611125 -0.1826856434 0.6944457889 -0.7625534534 -0.3108595014 0.5615779161
-0.04252441972 -0.1773846745 0.6935323477 -0.831882 -0.2830619216 0.4748549163
-0.04001113027 -0.1674180925 0.7017102242 -0.7998574972 -0.3004965782 0.5160177946
0.0456985943 -0.1230172962 0.6368796825 -0.4875162244 -0.5747679472 0.6558705568
0.04013044015 -0.120109342 0.6341781616 -0.4661940932 -0.5993306041 0.6491498351
0.04102354497 -0.1256184429 0.6302560568 -0.4547433257 -0.6101917028 0.6480697989
0.04117465392 -0.1301269829 0.6236370206 -0.4579768181 -0.6097527742 0.6422691345
0.02622164972 -0.1237051412 0.6238608956 -0.2368710339 -0.6752100587 0.6953120232
0.02662011795 -0.1174362302 0.6290165186 -0.2498506159 -0.6677651405 0.6979244947
0.03298023716 -0.1202284768 0.6301038265 -0.3517041504 -0.6459681988 0.6676795483
0.03652463481 -0.124542281 0.6259417534 -0.3968518078 -0.6370336413 0.6593825817
0.06763311476 -0.08460539579 0.66514045 0.1336489171 -0.5488669872 0.7160933018
0.05716148019 -0.08543357998 0.6638790965 -0.1389076561 -0.5410000682 0.7076075077
0.07001751661 -0.08696153015 0.6600159407 0.1838469505 -0.5567227006 0.6785923243
0.0757778734 -0.08827510476 0.6566550136 0.3069863319 -0.5640972853 0.644220829
0.06388776749 -0.08673626184 0.6610697508 0.04550231993 -0.551553309 0.6958431602
0.0794198215 -0.08562786132 0.6620122194 0.4065178931 -0.5608164072 0.6798067093
0.05976995081 -0.08894635737 0.6568730474 -0.06303916126 -0.5529511571 0.6698041558
0.05298368633 -0.0895268172 0.6572270989 -0.2262726873 -0.5462293029 0.6823685765
0.06529523432 -0.09017369896 0.6559963822 0.04381154478 -0.5531759262 0.6540919542
0.03647739068 -0.09104914218 0.6546367407 -0.3812356293 -0.5639508963 0.7298366427
0.0414250493 -0.08923116326 0.6576711535 -0.443002969 -0.5449377298 0.710893333
0.04509295896 -0.09386264533 0.6577806473 -0.5242950916 -0.5118878484 0.6779037714
0.02797218598 -0.07199093699 0.6666381359 -0.2315206975 -0.623462975 0.7433477044
0.02937203646 -0.07691102475 0.6636360884 -0.2591203451 -0.6079879403 0.7486389279
0.06084441394 -0.08355529606 0.6830378175 -0.41844365 -0.4375958741 0.7901658416
0.06587462872 -0.09180480242 0.682349205 -0.2989412844 -0.433231622 0.8461396694
0.0649895221 -0.08633971959 0.6862669587 -0.3350405395 -0.4058123231 0.844086051
0.03856831789 -0.0724754557 0.6701524854 -0.3759835362 -0.6047276258 0.700335145
0.03327256441 -0.06893431395 0.6689209342 -0.2887408137 -0.6175644994 0.7304680347
0.03404074535 -0.06469354033 0.673912704 -0.3215686381 -0.6668758988 0.6698846817
0.02635924146 -0.06537020952 0.6716589928 -0.170910731 -0.6632090807 0.7266433239
0.01003451459 -0.1032276154 0.6398370862 0.05139620975 -0.6333299875 0.7661150694
0.02174699306 -0.1078754887 0.6361414194 -0.1650294662 -0.6206967831 0.7633892298
0.01389699336 -0.108133316 0.6347924471 -0.02707144991 -0.6383568048 0.7669056654
0.005626049358 -0.1074481234 0.6356108785 0.1168027073 -0.6418708563 0.7574437857
0.01685324684 -0.09358284622 0.6466305256 -0.05429686978 -0.6223526597 0.7791414857
0.02475017682 -0.09376067668 0.6477771401 -0.1849712878 -0.611220777 0.7688173652
-0.01389137842 -0.1001244634 0.6494737864 0.4249601066 -0.5859812498 0.6889808774
-0.007023554295 -0.104557015 0.6428856254 0.3117595613 -0.6284096241 0.709964335
-0.01651677676 -0.1125869602 0.6409370303 0.455565244 -0.60091573 0.656516552
-0.01354880258 -0.1064361334 0.6439850926 0.4208071232 -0.5985556841 0.6791174412
-0.007121650036 -0.1119589955 0.6355589628 0.3089308143 -0.6376084685 0.7017571926
-0.002828279743 -0.09888212383 0.645226419 0.2629538178 -0.6160631776 0.7408846021
0.00248204614 -0.1030820832 0.6409010887 0.1783578098 -0.6353974342 0.749661684
-0.00322349905 -0.107939899 0.6372877955 0.260076791 -0.6391552687 0.7234372497
0.05460040271 -0.1855098903 0.697927475 0.7499881387 -0.4176256955 0.5018270612
0.06537825614 -0.1769212782 0.6811683774 0.8250896931 -0.3939052224 0.4050239027
0.05909046531 -0.1846528351 0.6920381784 0.8074350357 -0.3959407508 0.4365430474
0.06656296551 -0.1831787974 0.6811125875 0.8246589303 -0.3947406411 0.4051044881
0.06784488261 -0.1734943837 0.6758317947 0.8483631015 -0.3419739008 0.3896827698
0.06668657809 -0.1370357424 0.6461630464 -0.1244539544 -0.7346544862 0.642816484
0.05963982642 -0.1367248893 0.6412906051 -0.3320026398 -0.6575162411 0.6498616934
0.06857453287 -0.1673108637 0.6744806767 0.8535971045 -0.1945818812 0.3549385667
0.07070571929 -0.1675511897 0.6657986045 0.75287503 -0.1584068686 0.3587826788
0.06810967624 -0.1557598859 0.656475544 0.2972471416 -0.4184881151 0.4715556204
0.06871397048 -0.160887599 0.6623592973 0.5167334676 -0.3154920936 0.4218777418
0.07410205156 -0.1693107486 0.6718996763 0.9364868999 0.02402192913 0.3117151856
0.06682857871 -0.1502829939 0.6528248191 0.09521048516 -0.5383913517 0.5229157209
0.0721090287 -0.1615964621 0.6677795649 0.6652951837 -0.1464419365 0.3830156028
0.08207559586 -0.09670873731 0.6695434451 0.4159362912 -0.5399466753 0.6689648628
0.07764282078 -0.1011061221 0.676016748 0.1575041413 -0.5399284959 0.7327481508
0.07341685146 -0.1092368141 0.6731478572 -0.1822728366 -0.5104671717 0.758390069
0.08006224781 -0.1100520119 0.6637126803 0.07810700685 -0.5286328793 0.7334100008
0.08509889245 -0.1116690859 0.6524745822 0.243534565 -0.5273023248 0.6908108592
0.08543212712 -0.1084178537 0.6583362222 0.3060988784 -0.5476623178 0.7049784064
0.08038379997 -0.1045790091 0.670042634 0.1437831968 -0.5458448529 0.7245037556
0.0840748474 -0.1042356119 0.66344136 0.277800858 -0.5483475924 0.6889812946
0.07447595894 -0.107535854 0.679112494 -0.08244763315 -0.5409419537 0.797596395
0.08895306289 -0.1044491231 0.6543021202 0.4516732097 -0.5514065623 0.6465346813
0.06656198204 -0.1089801639 0.6729703546 -0.4974354208 -0.4377529621 0.7402879596
0.06596054137 -0.1043003574 0.6764537692 -0.4357809126 -0.427090168 0.7842274904
0.07621665299 -0.09412296861 0.6780106425 0.3977569938 -0.4331895113 0.7672131062
0.06748174131 -0.08411207795 0.6926333308 -0.3029716909 -0.3646624684 0.8782448769
0.06874850392 -0.08989712596 0.6900123954 -0.2754826248 -0.4088023007 0.8641268015
0.07032062858 -0.09748777747 0.686811924 -0.239048779 -0.4668900371 0.8453748226
0.06903740764 -0.1021390185 0.6826922894 -0.2517512739 -0.4967377484 0.8278612494
0.07075479627 -0.1794580817 0.67263937 0.846927762 -0.3256357312 0.3866850138
0.07272772491 -0.175682798 0.6690403223 0.9204828739 -0.09854174405 0.3264842927
0.07388790697 -0.1720980704 0.6826564074 0.8543207049 -0.3072734773 0.3848542571
-0.01991940103 -0.1878018826 0.7116936445 -0.5222223401 -0.3975734711 0.7508996725
-0.01429125108 -0.1884536892 0.7147797346 -0.4217812717 -0.4478508532 0.7756542563
-0.02549296618 -0.1816131026 0.7107610106 -0.6183495522 -0.3982219398 0.6727589369
-0.02308622561 -0.1958260089 0.710375011 -0.5537509322 -0.3795574009 0.7386396527
-0.02085981332 -0.182037577 0.7160708904 -0.5588725805 -0.4551483393 0.6914652586
0.008148331195 -0.1877411604 0.7233656645 -0.02651136182 -0.5775924325 0.8136231899
-0.001196163008 -0.1804584712 0.726266861 -0.2046926618 -0.5812631845 0.7768760324
0.005146289244 -0.1809030026 0.7273441553 -0.08799802512 -0.5911625028 0.7902960181
0.001783962129 -0.2014809549 0.7235060334 -0.118062824 -0.5759245157 0.8041269779
0.002525110962 -0.1918445826 0.7257642746 -0.122804299 -0.5913952589 0.7907787561
-0.00427599065 -0.2000938803 0.7219526172 -0.223101899 -0.5525628924 0.7838035226
-0.007858447731 -0.1938317418 0.7219266891 -0.2977559865 -0.5440737009 0.7655181885
-0.004972904921 -0.1881081015 0.7201523781 -0.2658063471 -0.5292480588 0.8020134568
-0.0001706796029 -0.185714677 0.7231294513 -0.1831093878 -0.5660018921 0.7958441377
-0.007940905169 -0.1790433228 0.7250603437 -0.3404271603 -0.5597610474 0.7484495044
-0.01075735223 -0.1835518181 0.7223215699 -0.3759223819 -0.5393036008 0.7501565814
-0.01346112136 -0.1604718864 0.7372173667 -0.4176615775 -0.5056164265 0.7509986162
-0.009471422061 -0.1695387959 0.7338160276 -0.3709258437 -0.5538918376 0.7424227595
-0.02156003006 -0.1575988382 0.7330352664 -0.5451994538 -0.4668982327 0.6950795054
-0.01690108702 -0.1808172762 0.7207764387 -0.4933895469 -0.5092334747 0.7014195323
-0.03706051409 -0.09283874184 0.6802251339 0.6788727045 -0.4903585613 0.546384871
-0.03713280335 -0.09751547873 0.6759526134 0.7063678503 -0.4710958004 0.5273123384
-0.04084220901 -0.08943730593 0.6895102859 0.6689149737 -0.496825844 0.5505590439
-0.0213943962 -0.1103574559 0.6457636356 0.5270395875 -0.5684525371 0.6303452849
-0.02690339647 -0.1185598448 0.6443616152 0.6283252835 -0.5342219472 0.5642460585
-0.03191953152 -0.1228523999 0.6461709738 0.663606286 -0.5228155851 0.533567071
-0.03177547827 -0.1160815358 0.6513405442 0.6796444058 -0.4783238769 0.5552746654
-0.02701668441 -0.1124128252 0.648860991 0.6285524368 -0.5110198259 0.5848424435
-0.03383274004 -0.1000121757 0.6688861847 0.6889654994 -0.4802173078 0.5415569544
-0.0313670896 -0.1041409969 0.6616188884 0.6657448411 -0.491884023 0.5594146252
-0.03585252911 -0.1059970632 0.6668822169 0.7109514475 -0.4593113661 0.5323424935
-0.04093835503 -0.1294314712 0.652803123 0.7120128274 -0.4935310185 0.4993204474
-0.04007212073 -0.1224800721 0.6596065164 0.7267459631 -0.4555090666 0.5136942267
-0.03577311337 -0.1252552271 0.6495069265 0.6997616887 -0.5089945197 0.4999138117
-0.03655392304 -0.1208771467 0.6545237899 0.7172412276 -0.4751293063 0.5091056228
0.0130756069 -0.1742543429 0.7336384654 0.03086058795 -0.6104468703 0.7889332771
0.01301883813 -0.1699715853 0.7380449176 0.02715534717 -0.5934612751 0.8017283082
0.006832957268 -0.1692741513 0.7379781008 -0.08910176903 -0.5935366154 0.797136426
0.01630354673 -0.1660496145 0.741571486 0.07721152157 -0.5790032148 0.8092443943
0.020476209 -0.1728198975 0.7347861528 0.1477517933 -0.6045481563 0.7781141996
0.02441943251 -0.1752530187 0.7301707268 0.2231076807 -0.6073608398 0.7553264499
0.009769855998 -0.1638585329 0.741415143 -0.06335601956 -0.5755037665 0.8120564818
-0.03067032434 -0.1659823358 0.7182193995 -0.7155006528 -0.4169714451 0.5599662066
-0.02947751805 -0.1585952044 0.7237283587 -0.6648370028 -0.4419808686 0.5987994075
-0.02434673905 -0.1607703865 0.728308022 -0.5763024092 -0.4791422188 0.6601177454
-0.03369825706 -0.1711892039 0.7090891004 -0.746984005 -0.3702112734 0.5498442054
-0.03367107734 -0.1659602821 0.7138302922 -0.7385901809 -0.393897742 0.5469220281
-0.02822290361 -0.1723674089 0.7159730792 -0.6887130737 -0.4320163131 0.5803822279
-0.03095911443 -0.1902928054 0.7056062222 -0.6619544029 -0.3201043606 0.6733446121
-0.02916169912 -0.1758300066 0.7114824653 -0.6968212128 -0.4059816301 0.5883213282
0.05235840008 -0.0931641385 0.6650161147 -0.6169532537 -0.4628381729 0.6352516413
0.03406891227 -0.1150944233 0.6342749 -0.3570812643 -0.631319046 0.687063694
0.03209775314 -0.1093560532 0.6375536919 -0.3416869938 -0.5972229242 0.7254354954
0.06106560677 -0.1050884426 0.6682229042 -0.5881408453 -0.4080099761 0.6892176867
0.05599448457 -0.09928445518 0.6652712226 -0.6381956339 -0.4374506772 0.6298588514
0.06165506691 -0.09969769418 0.6730095744 -0.5461181402 -0.4072128832 0.7288923264
0.05196473747 -0.09845487773 0.6606659889 -0.6308400631 -0.4631810486 0.6221802831
0.03588367626 -0.07679320872 0.6658680439 -0.3448772728 -0.5873379111 0.7289387584
0.04127581045 -0.079390876 0.6673851013 -0.4312134385 -0.5565233827 0.700219512
0.03725454211 -0.08501207083 0.659960866 -0.3843845725 -0.5577704906 0.7340292931
0.03833968192 -0.1105261296 0.6410540342 -0.4531088173 -0.5585723519 0.6926932335
0.03297612444 -0.1054723337 0.6422916055 -0.3367322385 -0.5853688121 0.731376946
0.03631497175 -0.1019452959 0.6463564634 -0.3796550035 -0.5701957941 0.7234585881
0.03452736512 -0.09605579823 0.6497597694 -0.3458681107 -0.5819283128 0.7342518568
0.04101386666 -0.09552444518 0.6538698077 -0.4575922191 -0.5413842797 0.6995769143
0.0424173288 -0.1025418341 0.6493889093 -0.4883393049 -0.5331609249 0.6889677048
0.06860090047 -0.09872059524 0.6515039206 0.02415080741 -0.5335106254 0.6514350772
0.04725051299 -0.09976780415 0.6551662683 -0.5681753159 -0.4936382771 0.6563433409
0.05692364275 -0.1009307727 0.6520989537 -0.2953140438 -0.5065004826 0.6572303176
0.08022731543 -0.09452950954 0.6521127224 0.3609873354 -0.5562137961 0.649608016
0.07393819094 -0.09489854425 0.6526856422 0.2045464665 -0.5491842628 0.6547461152
0.05474976078 -0.09539787471 0.6546998024 -0.2632235289 -0.5306828022 0.6718437672
0.06333822012 -0.09648668766 0.6532412171 -0.07383291423 -0.5327941179 0.6612148881
0.04215304181 -0.1155463979 0.6394540071 -0.4970292151 -0.5576432943 0.6643716097
0.01249178033 -0.07026939839 0.6662083268 0.04666941985 -0.670396626 0.7384610176
0.02376631647 -0.07807271183 0.6617733836 -0.1641629636 -0.6173331738 0.7588897943
0.01856456697 -0.07013209164 0.6664599776 -0.06361977011 -0.660402298 0.7403913736
-0.01664124057 -0.08376416564 0.665710032 0.4750023186 -0.5940824747 0.6471110582
-0.02540815808 -0.08574264497 0.6713894606 0.6077755094 -0.5398523211 0.5816543698
-0.02058119513 -0.09065149724 0.662738204 0.541490376 -0.5630681515 0.6229801774
-0.02591334842 -0.09247303009 0.6661987305 0.6009264588 -0.5402394533 0.5875219107
-0.007938873023 -0.07154496014 0.6714724898 0.3758761287 -0.6526687145 0.6564435959
-0.01250359137 -0.07649897784 0.6694972515 0.4366486669 -0.6229384542 0.6478732228
0.009474102408 -0.07500807196 0.6629167199 0.08119907975 -0.6514465809 0.7505316734
0.003622056451 -0.07701556385 0.6625162363 0.1728193015 -0.6451845169 0.741294682
-0.002380960621 -0.07965259999 0.6625139117 0.2611871958 -0.6284486055 0.7264754772
0.001236009528 -0.08110713214 0.6574177146 0.220878005 -0.6298668385 0.7433493733
0.009548807517 -0.07987923175 0.6581757665 0.08116973191 -0.6383755207 0.7606335282
-0.04634077102 -0.1666166037 0.6813377738 -0.9245052338 0.00133148476 0.3396989405
-0.04085540026 -0.1672973782 0.6953062415 -0.8627104163 -0.2213688493 0.4398848414
-0.03916829079 -0.1728604287 0.6967679262 -0.8341709971 -0.278765291 0.4720157981
-0.0441195257 -0.1713962406 0.6871589422 -0.8823988438 -0.1370430887 0.4018318951
0.045705989 -0.1712331027 0.7197578549 0.5761669278 -0.5104979277 0.6361115575
0.03916844353 -0.1815485507 0.7178242803 0.5032981038 -0.5330131054 0.6787393689
0.06683780253 -0.1722364128 0.6839894652 0.8483703732 -0.3435974717 0.392329663
0.06992845982 -0.1707433164 0.6905275583 0.8306882977 -0.3745388985 0.4114162922
0.06623317301 -0.1751869768 0.6935513616 0.8153178692 -0.3897795081 0.4274529219
0.06606855243 -0.1840514094 0.6888657808 0.8139643073 -0.3955518603 0.4247629941
0.06881996244 -0.1789964586 0.6882796884 0.8203071356 -0.3898568153 0.417738378
0.0633463189 -0.1805835664 0.6941151023 0.8086522222 -0.3958137929 0.4347896576
0.05852040648 -0.1254741848 0.6488747001 -0.4443089664 -0.6302024722 0.6315358877
0.05866529793 -0.1320949793 0.637688458 -0.3136799634 -0.5888589025 0.6874457598
0.07013121992 -0.1294186115 0.6435761452 0.05558712408 -0.6718024015 0.7010567188
0.05828583986 -0.1195127964 0.639823854 -0.1669503301 -0.5538088083 0.762316525
0.05362926796 -0.1220999211 0.6370187402 -0.2807129622 -0.5616440773 0.7259314656
0.06153732911 -0.1121484041 0.6438828111 -0.1205336824 -0.4746991992 0.7942587733
0.04548228532 -0.1072114259 0.6464576721 -0.4532959163 -0.521212399 0.6981372237
0.06692044437 -0.1175687388 0.6420105696 -0.01319523528 -0.4997641444 0.8193079233
0.05337002501 -0.1107766852 0.6446039677 -0.2992446423 -0.5006969571 0.7409510016
0.06670972705 -0.1261156946 0.6406852603 -0.03453890234 -0.5885320306 0.7467015386
-0.01829192787 -0.1638586223 0.732011795 -0.5031622648 -0.5046213865 0.7002766132
-0.01772844046 -0.1699982733 0.7272785902 -0.5127000809 -0.5161390901 0.6802392602
-0.02231121436 -0.1703225374 0.7230064869 -0.5956401229 -0.4805750549 0.6392790079
-0.01872027665 -0.1749699265 0.7233092189 -0.532551825 -0.5038412213 0.6788209677
-0.004666685127 -0.16522035 0.7383031845 -0.2839148641 -0.5645634532 0.772508502
0.002764828037 -0.1656183451 0.7405359149 -0.1655904204 -0.572710216 0.7997677326
-2.704650615e-05 -0.1705046892 0.7355299592 -0.2073313296 -0.5880218148 0.7773555517
0.003985510673 -0.1567181051 0.7468506098 -0.1347802877 -0.5561761856 0.8189580441
-0.001488640206 -0.1607401669 0.7433903217 -0.2329254299 -0.5528813004 0.7971236706
-0.005407120567 -0.156332612 0.7445536852 -0.2884590626 -0.5527698398 0.7812508941
-0.01247004326 -0.1561270505 0.7418819666 -0.3849932253 -0.5256224871 0.7577401996
0.05843933672 -0.1252913773 0.6356015801 -0.208783567 -0.5561041236 0.7434316874
0.04793074727 -0.1294903755 0.6276571751 -0.4055011868 -0.5879684091 0.6606237292
0.05139930919 -0.1306429505 0.6329065561 -0.4509400129 -0.5571058393 0.6709619761
0.05093852058 -0.1278671473 0.6378469467 -0.4932776093 -0.5603560805 0.6648942828
0.09072185308 -0.1085784137 0.6467940211 0.5161520243 -0.5582029223 0.6478816271
0.09090679884 -0.1025305763 0.649145782 0.5563258529 -0.564791441 0.6085189581
0.005541620776 -0.0929492861 0.6476975679 0.1181759909 -0.6251251698 0.7704550028
0.0101831127 -0.0888595283 0.6503888965 0.05516295135 -0.6304839849 0.7683585286
0.005676208064 -0.08557017148 0.6536340117 0.1489985883 -0.6264256239 0.7637519836
0.0313192606 -0.08651659638 0.656181097 -0.2921501696 -0.5810335279 0.7545359731
0.02995733917 -0.09152123332 0.651450634 -0.2709551752 -0.5936857462 0.752772212
0.02788325958 -0.08172545582 0.6590586305 -0.2381240278 -0.5990163088 0.7588772774
0.02505496144 -0.08847804368 0.6523112059 -0.1861278117 -0.6084042788 0.7706280947
0.01824442111 -0.08831635118 0.6504698992 -0.07501624525 -0.6273515821 0.7733118534
0.02348393388 -0.08350218087 0.6559704542 -0.152339071 -0.6180787086 0.7705568671
0.01664978079 -0.08428800851 0.6543970108 -0.05101528764 -0.6184554696 0.7810510397
0.01829860732 -0.07959488034 0.6585998535 -0.07388484478 -0.6283556223 0.7671537995
-0.00571533246 -0.08359770477 0.6582654119 0.3245072961 -0.6153569818 0.7124888897
-0.01302235946 -0.08634833246 0.6600401998 0.4370665848 -0.5964891911 0.6730363369
-0.01018339768 -0.08126888424 0.6642240882 0.3864207268 -0.6126858592 0.6865999103
-0.01002810057 -0.09034450352 0.6552122831 0.3793371618 -0.598095119 0.7020838857
-0.01580441371 -0.09170202911 0.6582193375 0.4681810141 -0.5793498158 0.6599071026
0.07060475647 -0.1674193591 0.6862062812 0.8335410953 -0.3740785122 0.4063675404
0.07351587713 -0.166680634 0.6803762317 0.8786010146 -0.2027413994 0.368406564
0.0584656857 -0.1205127984 0.6524054408 -0.482136488 -0.6105968356 0.6257044077
0.0592718944 -0.1161099076 0.657468915 -0.5054964423 -0.6360609531 0.5706354976
0.05209366605 -0.1833506376 0.7040139437 0.699111104 -0.4357400835 0.5588854551
0.05651800707 -0.179243952 0.7012380362 0.7600932121 -0.4067727923 0.499873668
0.06484758109 -0.1686452925 0.6960704923 0.8304483294 -0.3589467108 0.4253112674
0.0611522235 -0.1751733422 0.6964230537 0.8120268583 -0.3790909052 0.4430747032
0.05306173861 -0.1156080365 0.6486517787 -0.5263369083 -0.5756777525 0.6229505539
0.04584185779 -0.1131463647 0.6441214681 -0.5127670169 -0.5396694541 0.6669064164
0.04950502515 -0.1177597865 0.6438529491 -0.5293056965 -0.5446388721 0.6500974298
0.05612089112 -0.1056871861 0.6608840823 -0.6517021656 -0.4639611542 0.595930934
0.05539500713 -0.1105516851 0.6558756828 -0.5645877719 -0.5714671016 0.5846896172
0.05137691274 -0.1049084216 0.6555825472 -0.6153599024 -0.4714119136 0.629963994
0.05044359714 -0.1092973948 0.6514801383 -0.5327697396 -0.5528859496 0.6328495741
0.08292652667 -0.1048640609 0.6460151076 0.3910513818 -0.5375008583 0.7210813165
0.07322504371 -0.1131941602 0.6436178088 0.1102587804 -0.4539797902 0.8301292062
0.08454789221 -0.09922681749 0.6483440399 0.445128113 -0.5819816589 0.6516361237
0.07671157271 -0.1011291444 0.6486721635 0.2305128723 -0.5540658832 0.6675410271
0.06177827716 -0.1049069911 0.6492266655 -0.1788060665 -0.4996750057 0.6999667287
0.06870155036 -0.1098529547 0.6458650231 -0.003826409113 -0.472555697 0.7777727842
0.07882570475 -0.1102688089 0.6441090703 0.2671021819 -0.4861665964 0.7970576286
0.06197241321 -0.1301557273 0.6506020427 -0.3217325807 -0.6940973401 0.6313994527
0.07205471396 -0.1211380363 0.6424739361 0.1367582679 -0.5611420274 0.8076867461
0.06866595149 -0.1336596459 0.6697933674 0.03609097004 -0.3512649238 0.4832279086
0.07320503891 -0.1556762159 0.6751303077 0.6647191644 -0.05836474523 0.3769641221
0.0667861402 -0.1141257584 0.6700220108 -0.4728830457 -0.4482583702 0.6770474911
0.07199745625 -0.1465905756 0.6744664311 0.420416683 -0.1287537366 0.4516675174
0.07318680733 -0.1511271894 0.6688842773 0.5634293556 -0.1873947382 0.4513702095
0.06941827387 -0.1258352101 0.6641993523 -0.1238738298 -0.4502708912 0.6430229545
0.06983282417 -0.1258390993 0.657443881 -0.1061841398 -0.5655403137 0.6726052165
0.07467463613 -0.1630664468 0.6758472323 0.8755095005 0.01779170148 0.340074122
0.07110393792 -0.13983576 0.6733278632 0.2395787686 -0.1932170093 0.5082894564
0.06858100742 -0.1229490265 0.6703107357 -0.2196025848 -0.3668392897 0.6357644796
0.07080516964 -0.1300744265 0.6526586413 0.02340596914 -0.6165810823 0.6649234295
0.06863994896 -0.1200472564 0.6617548466 -0.2775885761 -0.5338515043 0.692896843
0.07143343985 -0.1374007463 0.6615778804 0.2028152198 -0.4113683105 0.5762632489
0.06667257845 -0.1328821033 0.6624407768 -0.1251289994 -0.514295578 0.5221738815
0.06544276327 -0.1338288039 0.6566898823 -0.2198473662 -0.6223142147 0.5618391633
0.06779211015 -0.1426931769 0.6610117555 0.07727620006 -0.4602977335 0.5035467148
0.06693918258 -0.1453187466 0.6557938457 0.03301899135 -0.5433917046 0.5342810154
0.06999844313 -0.1457564831 0.6683558226 0.2990384102 -0.286288321 0.44018507
0.06879968941 -0.1398734152 0.6669997573 0.1326260418 -0.3633083105 0.4677014053
0.07219608873 -0.1468297243 0.6590025425 0.4089867473 -0.3999578059 0.5233752131
0.06574916095 -0.1427229345 0.6497964859 -0.1099744067 -0.6766169071 0.5888396502
0.07138732821 -0.1546713412 0.6646568775 0.4949160218 -0.2710606158 0.4448154271
0.07105202973 -0.1387288868 0.6513620019 0.1836577952 -0.593378365 0.6115397215
0.0740416795 -0.1251244098 0.6498721242 0.06309507787 -0.6405117512 0.685811162
0.07261860371 -0.1210669056 0.6552901268 -0.08255008608 -0.5841675401 0.6923485994
0.06374843419 -0.1164673045 0.6616581082 -0.4538911283 -0.6516324878 0.5935401917
0.06386753172 -0.1225029901 0.658093214 -0.4018627405 -0.676666677 0.5979098678
0.08802354336 -0.1155734062 0.6455625296 0.4481508732 -0.5733035207 0.6766913533
0.07515146583 -0.1132458225 0.6604440808 -0.1440605968 -0.4990739226 0.6983534694
0.07102479041 -0.1133887097 0.6644030213 -0.3134208024 -0.4838716686 0.7036885023
0.08041499555 -0.1160393357 0.6526768804 0.1405620277 -0.5472319126 0.6861611605
0.08127935976 -0.1225652099 0.6458606124 0.3271785378 -0.6137930751 0.6731746793
0.07927086204 -0.1179529428 0.6422342658 0.2776006162 -0.4870691001 0.8125792146
0.07673835754 -0.126500845 0.6444251537 0.2477878928 -0.6629363894 0.6915041208
0.04493926466 -0.1776192188 0.7172511816 0.5795462728 -0.5106880665 0.6332861185
0.04793994501 -0.1822854429 0.7117092013 0.6355216503 -0.4784629047 0.6029259562
0.05048457906 -0.1766828895 0.7122308612 0.6592231989 -0.4621523023 0.5892290473
0.05405857041 -0.1771618128 0.7073896527 0.7153202295 -0.4219294786 0.5485070348
0.04936877266 -0.1660092771 0.7199659944 0.6154999733 -0.4907128215 0.6158486009
0.05925155804 -0.1658107638 0.7070518136 0.7595057487 -0.3876875043 0.5134041309
0.05661022663 -0.1632406712 0.7122235894 0.7129780054 -0.4217896163 0.5424323082
0.0508344993 -0.1599675417 0.7218808532 0.619703114 -0.4878709018 0.6128132939
0.05405921489 -0.1689223796 0.7128338814 0.6929666996 -0.4417471886 0.5651040077
0.0602517873 -0.1736385822 0.7018759251 0.7942083478 -0.3939449489 0.461196959
0.0623681657 -0.1663615704 0.7023231983 0.8077934384 -0.3523373008 0.4721718431
0.05692373589 -0.1711206585 0.7077748179 0.7405084968 -0.4076669514 0.5323548913
0.05363938957 -0.1237129718 0.6435757875 -0.4719929993 -0.5675641298 0.6736648679
0.05638917908 -0.1289878786 0.6426279545 -0.4197276831 -0.6160405278 0.6635988951
